774.15,778.31,781.71,785.77,789.75,792.74,794.85,793.38,789.08,783.38,779.12,776.88,777.12,779.21,782.47,785.67,784.16,782.49,783.38,785.84,788.36,790.38,791.76,792.49,793.13,792.00,790.08,788.27,785.96,783.19,780.68,778.72,777.17,775.56,774.35,773.78,774.21,775.58,777.02,778.44,779.83,781.03,782.64,784.72,787.19,790.11,793.68,796.92,799.27,800.27,800.47,800.21,799.25,796.96,792.52,789.32,787.68,786.85,785.82,784.44,784.53,785.40,786.30,786.57,787.78,790.28,794.18,799.75,805.43,809.96,812.88,813.89,814.57,815.10,815.20,814.77,813.99,813.08,812.40,811.43,809.24,806.26,803.34,800.53,798.38,798.80,799.79,800.93,802.06,802.98,803.77,804.58,805.50,806.85,809.73,811.17,812.21,813.37,814.41,814.89,815.08,815.13,815.12,814.96,814.58,813.98,813.20,812.63,812.34,812.23,812.20,812.18,812.17,812.17,812.10,811.90,811.90,811.94,812.06,812.26,812.53,812.42,811.97,811.28,810.33,808.17,805.85,804.47,804.66,805.42,805.96,806.23,806.33,806.51,806.69,806.76,806.70,806.46,806.08,805.74,805.45,805.14,804.75,804.24,803.69,803.10,802.46,801.91,801.30,800.68,800.06,799.15,798.05,796.72,795.22,793.71,792.26,789.96,786.04,780.56,778.89,779.00,780.88,784.63,788.90,791.71,793.46,794.40,794.58,794.47,794.34,794.19,794.05,794.09,794.26,794.43,794.49,794.36,794.31,794.31,794.29,794.15,793.90,794.58,795.30,795.54,795.54,795.55,795.65,795.82,796.06,796.34,796.53,796.56,796.38,796.17,796.11,795.88,795.41,794.63,792.16,789.67,788.80,790.83,791.95,791.28,790.35,790.30,791.84,793.51,794.69,795.36,795.79,796.42,797.43,798.70,799.94,800.28,800.47,800.59,800.62,800.57,800.40,800.23,800.04,799.80,799.37,798.90,798.39,797.86,797.55,797.23,796.89,796.53,796.09,795.63,794.90,793.11,789.33,784.04,777.61,772.02,768.31,766.66,765.86,766.62,768.31,769.99,772.00,774.53,777.21,779.57,780.90,782.98,787.05,792.08
775.05,777.79,780.50,785.10,789.99,793.58,796.08,794.05,789.73,784.56,780.05,778.40,778.83,781.23,785.85,789.82,789.11,787.63,787.87,789.64,791.24,792.49,793.25,793.03,791.89,789.52,786.81,784.49,782.35,780.37,778.60,777.08,775.72,774.48,774.10,774.57,775.79,777.33,779.13,780.98,782.74,784.19,784.94,785.84,787.39,790.20,794.41,798.02,800.26,800.82,801.03,800.85,800.42,799.09,795.21,792.04,790.69,790.44,790.06,789.29,788.74,788.67,788.99,788.94,789.54,792.04,796.54,802.53,808.36,811.65,813.28,814.33,815.19,815.77,815.81,815.19,814.22,813.28,812.69,811.82,809.55,806.75,804.18,801.93,800.22,799.70,799.86,800.50,801.70,803.79,805.67,807.33,808.78,810.00,811.16,812.10,813.06,814.07,814.81,815.05,815.13,815.14,814.95,814.59,813.88,813.04,812.27,811.67,811.44,811.47,811.61,811.55,811.54,811.53,811.45,811.24,811.14,811.13,811.31,811.66,811.97,812.32,812.19,811.58,810.61,808.77,806.87,805.75,805.84,806.28,806.74,807.00,807.08,807.14,807.20,807.05,806.72,806.29,805.84,805.49,805.19,804.88,804.36,803.83,803.25,802.66,802.13,801.70,801.20,800.62,799.95,799.04,797.91,796.59,795.10,793.50,791.97,789.65,786.03,781.30,779.59,779.19,780.15,782.77,786.60,789.59,791.46,792.37,792.45,792.08,791.64,791.38,791.43,791.40,791.56,791.84,792.04,791.88,791.99,792.32,792.85,793.60,794.43,795.13,795.69,796.03,796.00,796.04,796.09,796.13,796.24,796.45,796.70,796.85,796.76,796.61,796.50,796.13,795.49,794.71,792.57,790.26,788.80,789.07,789.66,788.81,788.90,791.14,793.66,795.05,795.72,796.21,797.16,797.97,799.01,799.85,800.11,800.32,800.45,800.50,800.50,800.49,800.42,800.26,800.06,799.86,799.43,798.81,798.02,797.25,797.10,796.88,796.64,796.37,795.99,795.54,794.28,791.79,787.55,781.91,775.70,770.80,767.77,765.93,765.35,766.37,768.35,770.66,773.82,776.98,780.37,783.86,786.17,788.63,791.49,794.23
776.41,779.54,782.13,786.11,790.43,794.00,797.12,795.21,791.27,786.77,782.34,780.78,781.53,784.05,788.10,791.91,792.65,792.26,792.02,792.31,792.86,793.15,793.27,793.29,790.49,786.80,783.48,781.20,779.58,778.17,776.73,775.43,774.93,774.87,775.27,776.09,777.34,778.79,780.76,782.88,784.89,786.78,788.20,788.80,789.39,791.97,796.11,799.03,800.60,801.16,801.56,801.53,801.22,800.38,798.29,796.00,795.08,795.08,794.94,794.50,793.96,793.55,793.36,793.20,794.02,796.79,801.22,806.16,810.19,812.44,813.77,814.94,815.87,816.35,816.28,815.60,814.45,813.47,812.88,811.91,809.42,806.65,804.65,803.12,801.90,801.27,801.56,802.07,803.13,805.90,808.04,809.44,810.42,811.25,812.05,812.96,813.88,814.64,814.95,815.07,815.12,815.03,814.60,813.96,813.14,812.21,811.29,810.75,810.74,810.89,811.03,811.00,810.96,810.91,810.80,810.56,810.25,810.35,810.63,810.96,811.28,811.63,811.73,811.55,811.08,809.79,808.12,807.04,807.07,807.19,807.51,807.72,807.75,807.58,807.34,806.99,806.56,806.10,805.68,805.27,804.84,804.35,803.77,803.25,802.69,802.11,801.63,801.27,800.83,800.27,799.54,798.54,797.26,796.18,795.18,793.63,792.12,790.36,787.63,783.54,781.00,779.76,779.70,780.96,783.45,786.31,788.30,789.24,789.22,788.58,788.19,788.58,789.82,790.50,791.16,792.13,793.18,793.59,793.73,793.86,794.12,794.63,795.22,795.69,796.14,796.50,796.50,796.52,796.56,796.61,796.64,796.77,796.89,797.02,797.13,797.00,796.76,796.28,795.57,794.69,792.59,790.40,788.43,786.90,786.97,787.65,789.48,792.48,794.66,795.72,796.33,796.90,797.81,798.85,799.64,800.07,800.12,800.25,800.34,800.38,800.38,800.37,800.35,800.26,800.12,799.92,799.45,798.31,797.14,796.46,796.45,796.29,796.10,795.95,795.74,795.31,793.42,790.06,785.27,779.60,773.77,769.44,766.94,765.00,764.84,766.20,768.39,770.89,774.35,778.07,782.62,787.65,790.04,792.22,794.00,795.24
777.02,780.15,782.62,786.33,790.53,794.39,798.01,796.86,793.62,789.61,785.55,784.13,785.00,787.38,790.75,794.26,795.92,796.18,795.38,793.96,793.06,792.39,792.02,791.92,788.56,784.37,780.84,778.81,777.44,776.49,775.65,775.06,775.35,776.10,776.94,777.90,779.14,780.62,782.65,784.80,786.89,789.15,791.34,792.22,792.56,794.79,797.98,799.93,800.91,801.51,802.02,802.16,801.97,801.52,800.88,799.82,799.62,799.98,800.03,799.91,799.46,798.88,798.31,797.84,798.55,801.01,804.82,808.74,811.34,812.99,814.26,815.45,816.34,816.67,816.46,815.73,814.54,813.57,812.90,811.79,809.26,806.90,805.43,804.35,803.42,802.90,803.24,803.78,804.84,807.48,809.57,810.71,811.34,811.95,812.70,813.57,814.39,814.97,815.01,815.05,815.00,814.73,814.06,813.24,812.38,811.41,810.36,809.77,809.84,810.09,810.30,810.34,810.28,810.08,809.80,809.43,808.90,808.99,809.42,809.96,810.35,810.64,810.95,811.28,811.39,810.52,809.14,808.23,808.21,808.13,808.19,808.20,808.07,807.71,807.27,806.80,806.34,805.89,805.49,804.91,804.25,803.62,803.08,802.57,802.06,801.56,801.12,800.81,800.30,799.56,798.60,797.43,796.02,795.20,794.80,793.64,792.36,791.06,789.06,785.59,782.26,780.32,779.55,779.88,781.19,783.89,786.05,787.17,787.31,787.03,787.22,788.34,790.36,791.48,792.32,793.43,794.71,795.38,795.52,795.46,795.47,795.71,795.99,796.28,796.63,796.97,796.99,797.00,797.05,797.10,797.12,797.17,797.19,797.28,797.47,797.38,796.99,796.43,795.72,794.80,792.70,790.44,788.00,785.45,785.61,787.59,790.53,793.67,795.29,796.12,796.75,797.41,798.18,799.18,799.78,800.02,800.04,800.13,800.21,800.25,800.27,800.25,800.25,800.21,800.13,799.88,798.95,797.33,795.99,795.52,795.65,795.62,795.55,795.47,795.25,794.57,792.01,787.98,782.91,777.35,772.10,768.35,766.11,764.10,764.31,766.03,768.52,771.35,775.02,779.35,784.64,790.19,792.46,794.22,795.24,795.64
776.63,778.68,780.80,785.02,790.12,794.79,798.70,798.99,796.78,793.13,789.74,788.66,789.32,791.24,794.24,797.46,799.01,799.10,797.67,794.51,791.73,790.14,789.39,788.33,785.90,782.38,779.25,777.58,776.05,775.49,775.72,776.50,777.28,778.13,779.01,780.02,781.38,783.11,785.08,787.02,788.99,791.52,794.11,795.72,796.74,798.46,799.79,800.69,801.37,801.94,802.37,802.67,802.75,802.64,802.62,802.86,803.61,804.42,804.66,804.90,804.59,804.05,803.40,802.39,802.35,803.67,806.27,809.64,811.84,813.41,814.68,815.70,816.43,816.57,816.20,815.41,814.40,813.51,812.67,811.40,809.19,807.79,806.70,805.68,804.76,804.45,804.47,805.11,806.37,808.01,809.81,810.95,811.68,812.37,813.13,813.82,814.45,814.95,814.97,814.98,814.76,814.23,813.36,812.50,811.65,810.68,809.60,808.79,808.66,808.90,809.23,809.34,809.30,808.85,808.22,807.65,806.97,806.88,807.48,808.53,809.15,809.45,809.99,810.78,811.43,810.69,809.76,809.22,809.18,809.02,808.70,808.32,807.91,807.47,807.01,806.54,806.08,805.63,805.21,804.31,803.37,802.68,802.30,801.76,801.35,801.02,800.57,800.27,799.54,798.41,796.96,795.54,794.09,793.50,793.67,793.32,792.50,791.39,789.70,786.85,782.96,780.68,779.77,779.96,780.72,783.35,785.69,787.13,787.83,788.67,789.94,791.64,793.53,794.48,794.93,795.34,795.80,796.15,796.27,796.21,796.18,796.42,796.65,796.90,797.17,797.42,797.45,797.50,797.54,797.56,797.62,797.64,797.64,797.68,797.76,797.74,797.23,796.59,795.95,795.12,793.14,790.60,787.74,785.24,786.08,788.54,791.57,794.38,795.54,796.30,796.97,797.63,798.26,798.89,799.44,799.76,799.79,799.94,800.05,800.14,800.19,800.13,800.12,800.11,800.08,799.73,797.83,795.87,794.62,794.38,794.60,794.84,794.95,794.85,794.37,793.05,789.86,785.51,780.59,775.22,770.82,767.63,765.37,763.30,763.72,765.80,768.78,772.25,776.26,781.23,786.47,790.98,793.08,794.41,795.12,795.39
778.16,778.71,779.95,784.20,789.57,794.34,798.46,799.87,799.33,797.40,794.96,793.72,793.93,795.31,797.56,799.33,800.22,800.24,798.96,795.54,791.74,788.89,786.81,784.56,782.45,780.19,778.16,776.77,775.62,775.98,777.01,778.25,779.44,780.53,781.73,783.07,784.54,786.19,788.04,790.26,792.89,795.56,797.43,798.51,799.20,800.06,800.67,801.23,801.80,802.35,802.75,803.08,803.31,803.40,803.28,802.95,802.58,802.31,802.28,802.54,803.62,804.87,805.72,805.70,805.75,806.40,807.96,810.60,812.26,813.53,814.56,815.26,815.56,815.53,815.19,814.55,813.77,812.93,811.75,810.39,809.24,808.44,807.67,806.86,806.13,806.02,806.01,806.40,807.32,808.78,810.14,811.11,811.85,812.56,813.32,813.85,814.27,814.60,814.65,814.66,814.52,814.09,813.21,812.32,811.42,810.53,809.61,808.61,808.00,807.37,806.75,806.60,806.54,806.26,805.88,805.58,805.36,805.41,805.92,806.96,808.08,809.03,809.87,810.67,811.29,810.83,810.13,809.60,809.36,809.03,808.60,808.14,807.67,807.21,806.75,806.28,805.82,805.33,804.70,803.61,802.46,801.57,801.23,800.88,800.54,800.15,799.56,798.98,798.04,796.76,795.19,793.67,792.23,791.77,792.17,792.10,791.46,790.60,789.09,786.17,782.01,780.26,780.42,782.01,784.29,786.97,789.16,790.62,791.32,792.11,793.14,794.28,795.33,795.88,796.21,796.41,796.59,796.88,796.99,796.93,796.89,797.13,797.36,797.59,797.78,797.89,797.90,797.96,798.00,798.01,798.09,798.10,798.10,798.13,798.18,798.09,797.57,796.94,796.30,795.57,794.44,792.28,789.33,786.26,784.77,787.30,790.94,793.75,795.11,795.78,796.33,796.88,797.41,797.95,798.41,798.70,798.83,799.18,799.60,799.92,800.06,800.00,799.95,799.98,800.02,799.67,797.75,795.49,793.70,792.79,792.70,792.83,792.91,792.74,791.94,790.32,787.21,783.05,778.15,772.74,769.32,766.81,764.56,762.51,762.98,765.41,768.96,773.04,777.80,782.55,786.84,790.17,791.87,792.99,793.68,794.09
781.57,780.65,780.96,784.61,789.45,793.67,797.63,799.90,800.89,800.74,799.30,798.12,797.98,798.81,800.19,800.66,800.81,800.67,799.72,796.65,792.41,788.54,785.19,781.93,779.89,778.54,777.38,776.21,775.73,776.80,778.24,779.66,781.38,783.00,784.66,786.29,787.79,789.51,791.43,793.85,796.72,798.95,799.94,800.43,800.73,800.98,801.29,801.70,802.13,802.51,802.82,803.09,803.32,803.38,802.96,801.79,800.42,799.43,799.43,799.85,801.95,804.56,806.72,807.96,808.32,808.70,809.61,811.41,812.53,813.44,814.15,814.46,814.42,814.26,813.97,813.47,812.67,811.71,810.52,809.50,809.18,808.78,808.26,807.69,807.26,807.35,807.46,807.67,808.24,809.51,810.45,811.24,811.98,812.65,813.28,813.67,813.94,814.13,814.22,814.23,814.20,813.97,813.25,812.36,811.46,810.66,809.94,808.98,808.11,806.80,805.33,804.88,804.61,804.33,804.05,803.94,804.23,804.50,805.16,806.37,807.87,809.14,810.08,810.72,811.04,810.74,810.17,809.62,809.22,808.76,808.31,807.87,807.42,806.95,806.49,806.03,805.54,804.94,803.96,802.67,801.25,800.01,799.63,799.38,799.16,798.82,798.16,797.33,796.32,795.04,793.48,791.95,790.59,790.20,790.58,790.42,789.68,788.76,787.32,784.74,781.64,781.23,782.78,785.67,788.94,791.27,792.99,794.20,794.73,795.21,795.80,796.34,796.67,796.88,797.15,797.29,797.36,797.60,797.72,797.66,797.62,797.84,798.06,798.23,798.33,798.35,798.37,798.42,798.45,798.47,798.52,798.54,798.55,798.58,798.61,798.42,797.92,797.31,796.70,796.05,795.56,793.94,791.25,787.83,784.13,785.40,788.68,791.76,793.64,794.39,794.98,795.67,796.29,796.82,797.20,797.46,797.71,798.24,798.86,799.34,799.55,799.50,799.47,799.56,799.68,799.46,797.99,795.77,793.58,791.92,791.02,790.22,789.70,789.20,787.96,786.46,783.95,780.38,775.72,770.67,768.01,765.97,763.76,761.81,761.98,764.39,768.34,773.17,778.39,782.49,785.70,788.09,789.50,790.52,791.36,792.07
787.82,785.77,785.31,787.32,790.28,793.08,796.15,798.84,800.82,801.77,801.35,800.84,800.73,801.01,801.52,801.52,801.05,800.54,799.83,797.61,793.65,789.45,785.46,781.72,779.53,778.13,776.94,775.99,776.38,777.49,778.73,780.21,782.68,785.33,787.58,789.31,790.70,792.96,795.36,797.61,799.41,800.16,800.55,800.89,801.25,801.54,801.84,802.09,802.21,802.18,802.22,802.32,802.31,802.00,801.13,799.62,798.58,798.40,799.29,800.30,802.04,804.18,806.50,808.71,809.41,810.06,811.02,811.86,812.57,813.11,813.40,813.34,813.20,813.00,812.72,812.16,810.86,809.45,809.03,809.17,808.88,808.60,808.23,807.91,807.84,808.15,808.53,808.91,809.37,810.05,810.72,811.41,812.08,812.64,812.86,813.14,813.41,813.62,813.69,813.71,813.74,813.71,813.38,812.61,811.80,811.09,810.54,810.03,809.51,808.34,806.84,806.14,805.26,804.40,803.67,803.32,803.89,804.49,805.80,807.86,809.30,809.98,810.50,810.87,810.66,810.19,809.68,809.23,808.83,808.38,807.96,807.56,807.15,806.69,806.22,805.76,805.21,804.36,802.87,801.28,799.43,797.63,797.10,796.68,796.65,796.72,796.19,795.39,794.51,793.41,791.99,790.53,789.38,788.97,788.99,788.31,787.03,785.47,783.92,782.87,783.36,785.46,788.41,791.54,793.67,794.76,795.53,796.13,796.42,796.70,797.13,797.53,797.76,797.88,798.09,798.20,798.23,798.34,798.48,798.44,798.38,798.55,798.71,798.74,798.75,798.81,798.88,798.90,798.90,798.91,798.92,798.98,799.00,799.03,799.04,798.72,798.21,797.66,797.10,796.53,795.90,794.76,792.88,789.87,785.77,783.29,783.95,787.68,790.38,791.51,792.60,793.94,795.07,795.61,795.96,796.26,796.60,797.18,797.70,798.08,798.27,798.27,798.37,798.55,798.77,798.85,798.32,796.80,794.85,792.75,790.35,787.17,784.97,783.60,781.69,781.00,779.77,777.31,773.41,769.58,767.20,765.17,763.08,761.31,760.56,762.14,766.07,771.98,776.84,779.89,782.19,784.22,785.64,786.73,787.91,789.10
794.60,792.29,791.10,791.74,793.31,795.08,796.88,799.02,800.89,802.17,802.66,802.59,802.33,802.01,801.66,801.14,799.78,798.35,797.12,795.25,791.66,787.52,783.60,780.68,778.95,777.68,776.65,776.06,776.49,777.41,778.46,779.73,781.70,784.48,787.02,789.11,791.03,793.89,796.94,799.20,800.17,800.41,800.58,800.79,801.03,801.19,801.41,801.62,801.68,801.53,801.42,801.39,801.13,800.35,798.84,798.31,798.69,799.64,800.88,802.12,803.63,805.34,807.23,809.28,810.25,810.93,811.55,811.97,812.32,812.57,812.62,812.43,812.23,811.71,811.09,810.35,809.16,807.81,807.78,808.46,808.50,808.27,807.98,807.84,808.02,808.47,808.96,809.39,809.78,810.32,810.93,811.44,811.84,812.08,812.17,812.45,812.76,813.01,813.16,813.19,813.19,813.18,813.10,812.77,812.17,811.54,811.03,810.67,810.26,809.51,808.43,807.33,806.08,804.68,803.49,803.13,804.07,805.35,807.10,809.08,809.96,810.30,810.51,810.56,810.22,809.71,809.23,808.78,808.35,807.93,807.53,807.13,806.70,806.28,805.86,805.36,804.61,803.37,801.77,799.06,796.53,794.93,794.26,793.80,794.05,794.54,794.16,793.32,792.58,791.75,790.63,789.53,788.77,788.47,788.36,787.77,786.95,786.10,785.44,785.46,787.18,789.72,792.37,794.65,795.94,796.63,797.14,797.59,797.86,798.13,798.45,798.72,798.87,798.95,799.08,799.16,799.17,799.21,799.25,799.16,799.08,799.15,799.19,799.18,799.19,799.26,799.34,799.36,799.36,799.37,799.40,799.44,799.46,799.47,799.43,799.05,798.56,797.99,797.33,796.67,795.97,795.03,793.51,790.93,787.21,783.04,781.38,783.27,785.26,786.69,788.27,790.26,792.57,793.57,794.23,794.83,795.38,795.99,796.46,796.82,797.04,797.13,797.31,797.53,797.80,798.15,798.24,797.46,796.07,794.28,792.35,789.24,785.88,782.62,779.67,777.97,776.33,774.20,771.43,768.81,766.92,765.21,763.48,761.92,760.58,760.93,763.69,769.26,773.36,775.91,777.81,779.45,780.77,782.36,784.00,785.45
799.94,798.26,797.02,796.79,797.23,797.99,798.58,799.83,801.20,802.48,803.60,803.69,803.15,802.30,801.16,799.46,797.11,794.92,793.27,791.58,788.40,784.67,781.31,779.54,778.37,777.33,776.55,776.26,776.42,777.05,777.87,778.80,780.01,782.39,784.77,787.08,789.77,793.32,796.95,799.30,799.78,799.74,799.70,799.85,800.07,800.15,800.47,800.81,800.96,800.78,800.43,800.08,799.43,798.33,797.09,797.97,799.78,801.68,803.10,804.41,805.76,807.13,808.50,809.94,810.94,811.49,811.74,811.91,811.99,812.00,811.86,811.51,811.12,810.29,809.35,808.43,807.50,806.40,806.59,807.57,808.04,807.89,807.65,807.63,807.98,808.51,809.05,809.49,809.89,810.44,811.02,811.34,811.41,811.35,811.41,811.72,812.10,812.42,812.62,812.65,812.61,812.58,812.64,812.73,812.39,811.89,811.44,811.11,810.74,810.34,809.72,808.32,806.77,804.90,803.36,803.06,804.38,806.29,808.31,809.95,810.24,810.37,810.31,810.09,809.73,809.25,808.77,808.31,807.86,807.45,807.07,806.64,806.21,805.81,805.35,804.71,803.71,802.12,800.27,796.63,793.65,792.37,791.71,791.31,791.77,792.50,792.19,791.39,790.81,790.25,789.54,788.92,788.68,788.72,788.87,788.74,788.60,788.61,788.83,789.48,791.34,793.51,795.41,796.73,797.45,798.00,798.46,798.83,799.11,799.39,799.62,799.78,799.85,799.92,800.00,800.04,800.03,800.00,799.93,799.81,799.70,799.68,799.60,799.58,799.61,799.67,799.73,799.75,799.75,799.76,799.82,799.83,799.83,799.83,799.76,799.38,798.90,798.26,797.46,796.68,795.95,795.03,793.65,791.37,788.13,783.46,780.21,779.87,780.74,782.00,783.61,785.84,789.15,790.94,792.17,793.15,793.89,794.51,794.97,795.32,795.64,796.07,796.37,796.65,797.02,797.60,798.02,797.77,796.93,795.71,794.69,792.51,788.78,784.20,780.42,777.24,774.66,772.39,770.29,768.57,767.11,765.71,764.24,762.67,760.92,760.21,761.63,766.19,769.57,771.63,773.05,774.22,775.35,777.33,779.43,781.23
800.33,801.21,801.97,802.13,801.78,801.19,801.09,801.43,802.11,803.06,804.08,803.67,802.69,801.55,799.81,795.01,791.57,789.64,788.65,787.06,784.33,781.69,779.74,778.88,777.94,777.30,776.88,776.58,776.38,776.62,776.98,777.47,778.33,779.47,780.63,782.46,786.09,790.49,794.34,796.91,797.75,797.09,796.60,796.85,797.53,797.82,798.93,799.81,800.20,799.97,799.07,797.79,796.28,795.42,797.41,799.75,802.00,804.00,805.59,806.89,808.15,809.39,810.47,811.03,811.39,811.61,811.70,811.67,811.63,811.54,811.18,810.35,809.34,808.47,807.63,806.76,805.90,805.09,805.40,806.47,807.37,807.50,807.29,807.24,807.60,808.12,808.66,809.21,809.76,810.30,810.80,810.89,810.75,810.64,810.70,811.01,811.47,811.94,812.05,812.02,811.99,811.98,812.01,812.14,812.09,811.93,811.68,811.38,810.96,810.54,809.99,808.82,806.89,804.81,803.23,802.97,804.56,806.67,808.61,809.94,810.12,810.11,809.90,809.54,809.12,808.75,808.32,807.86,807.39,806.95,806.54,806.15,805.75,805.33,804.53,803.46,802.16,800.42,797.64,794.39,791.82,790.53,790.32,790.17,790.55,790.99,790.47,790.02,789.64,789.32,789.09,789.11,789.55,790.56,791.91,792.78,793.11,793.17,793.25,793.67,794.50,795.86,797.23,798.29,798.94,799.40,799.71,799.90,800.03,800.20,800.34,800.41,800.43,800.50,800.59,800.63,800.60,800.48,800.39,800.27,800.14,800.07,799.94,799.90,799.91,799.92,799.94,799.94,799.94,799.94,799.96,799.96,799.96,799.96,799.93,799.73,799.17,798.40,797.52,796.68,795.86,794.78,793.24,790.88,787.67,784.12,781.28,779.87,779.79,779.53,779.74,781.01,784.14,787.27,789.52,790.95,791.69,792.26,792.78,793.14,793.64,795.15,795.79,796.24,796.83,797.60,797.84,797.37,796.73,796.18,795.53,794.57,792.42,789.25,785.64,781.23,777.71,774.56,771.38,769.63,768.25,766.77,765.01,762.86,760.90,760.02,760.69,763.47,766.63,767.72,767.99,768.46,769.20,770.84,773.22,775.88
798.84,800.12,801.33,802.35,803.01,803.19,803.10,803.13,803.48,804.10,804.54,803.67,802.38,800.80,798.31,793.30,789.97,788.05,786.92,785.56,782.53,780.23,779.17,778.80,778.34,778.00,777.67,777.23,776.67,776.95,777.50,778.01,778.42,778.55,778.81,779.85,782.50,786.03,789.14,791.25,791.96,791.38,791.21,792.08,793.65,795.02,796.30,797.07,797.37,797.17,796.28,795.58,795.45,796.36,799.01,801.44,803.82,806.15,808.15,809.25,810.07,810.81,811.43,811.60,811.70,811.72,811.66,811.52,811.37,810.95,810.20,809.11,807.89,806.88,805.98,805.13,804.29,803.74,804.19,805.33,806.40,807.01,806.96,806.87,807.16,807.69,808.26,808.89,809.52,809.93,810.13,810.08,809.92,809.81,809.96,810.42,811.01,811.50,811.50,811.42,811.37,811.36,811.40,811.48,811.50,811.47,811.38,811.24,810.98,810.65,810.10,808.93,806.88,804.58,802.84,802.66,804.55,806.51,808.17,809.30,809.52,809.50,809.27,808.92,808.47,808.14,807.75,807.34,806.93,806.48,806.07,805.67,805.16,804.34,803.25,801.95,800.46,798.55,795.62,792.66,790.64,789.89,789.81,789.75,789.93,790.09,789.72,789.54,789.50,789.43,789.31,789.47,790.67,792.37,794.06,795.05,795.57,795.68,795.87,796.59,797.31,798.10,798.87,799.51,799.93,800.24,800.45,800.58,800.66,800.78,800.82,800.79,800.69,800.66,800.61,800.56,800.52,800.47,800.46,800.45,800.41,800.32,800.14,800.07,800.04,800.04,800.04,800.04,800.04,800.04,800.04,800.04,800.02,800.00,799.99,799.90,799.35,798.55,797.67,796.82,795.97,795.03,793.72,791.69,789.45,787.44,785.82,784.77,784.31,782.60,780.64,779.46,780.49,783.13,785.04,786.37,787.59,788.49,789.39,790.18,791.25,793.69,795.17,796.07,796.84,797.66,797.66,797.00,796.31,795.87,795.30,794.69,793.13,790.61,787.51,783.48,779.65,776.00,772.66,770.94,769.21,767.24,765.01,762.54,760.67,759.87,760.15,761.64,763.95,764.28,763.84,763.66,763.99,765.08,767.33,770.34
796.61,797.46,798.62,800.53,802.61,804.16,804.51,804.67,804.94,805.20,804.85,803.60,802.11,800.15,797.09,793.27,790.63,788.73,787.28,786.17,782.68,780.15,779.23,779.09,779.16,779.04,778.66,777.98,777.11,777.52,778.41,779.19,779.35,778.78,778.39,778.54,779.58,781.50,783.44,784.80,785.22,784.99,785.36,786.90,789.38,791.90,793.14,793.60,793.74,793.70,793.26,793.91,795.89,798.75,800.98,802.98,805.34,807.97,810.31,811.19,811.52,811.74,811.93,811.96,811.94,811.83,811.63,811.38,811.05,810.22,809.10,807.87,806.62,805.43,804.39,803.50,802.67,802.38,803.00,804.14,805.29,806.37,806.56,806.51,806.73,807.25,807.87,808.57,809.21,809.42,809.28,809.14,809.02,808.95,809.27,809.96,810.64,811.05,810.93,810.84,810.75,810.70,810.77,810.78,810.79,810.80,810.84,810.89,810.84,810.62,810.05,808.76,806.74,804.25,802.27,802.09,804.24,806.03,807.39,808.33,808.65,808.68,808.54,808.26,807.82,807.49,807.13,806.77,806.44,806.00,805.56,805.04,804.30,803.02,801.72,800.29,798.63,796.52,793.76,791.26,789.91,789.82,789.80,789.70,789.65,789.61,789.50,789.57,789.98,790.24,790.06,790.15,791.94,794.00,795.58,796.40,797.03,797.26,797.63,798.70,799.55,799.97,800.23,800.47,800.65,800.80,800.92,801.01,801.05,801.09,801.04,800.91,800.68,800.44,800.12,799.90,799.88,800.02,800.26,800.46,800.55,800.47,800.28,800.17,800.12,800.11,800.11,800.11,800.10,800.10,800.10,800.10,800.05,800.00,800.00,799.97,799.45,798.72,797.88,797.06,796.23,795.53,794.60,793.13,792.10,791.52,791.19,790.91,790.21,787.31,783.28,779.47,778.04,779.40,780.59,781.98,784.20,785.72,787.02,788.20,789.68,792.48,794.69,796.03,796.92,797.73,797.48,796.65,795.78,795.08,794.30,793.55,791.95,789.53,786.90,783.97,780.44,776.82,773.80,772.10,769.88,767.24,764.42,761.88,760.34,759.75,759.83,760.38,761.61,761.44,760.68,760.09,760.08,760.60,762.38,765.17
794.60,795.53,797.22,799.42,801.56,803.25,804.60,805.49,805.93,805.76,804.64,803.23,801.78,799.91,797.17,794.98,793.27,791.86,790.70,789.72,786.46,782.71,779.96,779.87,780.26,780.23,779.66,778.60,777.58,777.73,778.56,779.69,780.60,780.05,779.27,778.82,779.02,779.36,780.05,780.66,780.94,781.05,781.41,783.06,785.76,788.38,789.74,790.26,790.52,790.93,791.70,794.17,797.30,800.30,802.30,804.23,806.45,808.83,810.91,811.69,812.04,812.22,812.28,812.33,812.20,811.92,811.56,811.20,810.33,809.20,807.99,806.74,805.40,804.15,802.98,801.86,800.92,801.01,801.80,802.92,804.07,805.22,805.87,806.16,806.34,806.86,807.55,808.30,808.87,808.77,808.56,808.36,808.17,808.16,808.84,809.70,810.30,810.49,810.35,810.21,810.08,809.98,810.00,810.00,810.05,810.15,810.30,810.38,810.39,810.24,809.67,808.15,806.32,803.78,801.48,800.89,803.05,805.13,806.52,807.20,807.56,807.71,807.72,807.57,807.16,806.79,806.45,806.13,805.82,805.46,804.82,803.87,802.66,801.31,800.03,798.46,796.53,794.19,791.49,790.24,789.84,789.94,790.21,789.98,789.76,789.68,789.73,790.00,791.11,791.93,791.73,791.73,793.39,795.09,796.26,797.21,798.11,798.72,799.23,799.85,800.29,800.57,800.80,801.01,801.18,801.28,801.25,801.11,800.95,800.80,800.66,800.49,800.18,799.54,798.63,798.13,798.21,798.67,799.72,800.31,800.46,800.48,800.38,800.29,800.23,800.18,800.18,800.18,800.14,800.10,800.10,800.10,800.05,800.00,799.98,799.87,799.49,798.89,798.16,797.42,796.74,796.10,795.45,794.78,794.37,794.19,794.10,793.78,792.46,789.20,784.60,780.02,777.88,777.89,779.30,782.22,786.51,789.19,790.41,791.10,791.79,793.06,794.82,796.12,797.04,797.77,797.29,796.39,795.21,793.77,792.20,790.82,788.50,785.36,782.50,780.76,778.76,776.46,774.17,772.35,769.76,766.42,762.92,760.73,759.92,759.71,759.70,759.76,760.13,760.05,759.74,759.47,759.46,759.69,760.38,761.68
792.67,794.08,796.21,798.71,800.95,802.60,804.27,805.58,806.29,806.13,804.70,803.23,801.85,800.35,798.55,797.31,795.78,794.02,792.21,790.58,787.54,784.27,781.86,781.69,782.07,781.98,781.00,779.19,778.10,777.87,778.39,779.48,780.65,781.22,780.94,780.37,780.14,779.55,779.32,779.36,779.57,779.79,779.93,780.91,782.77,785.02,786.47,787.36,788.18,789.37,791.12,794.32,797.77,800.69,802.45,804.11,806.13,808.40,810.54,811.68,812.22,812.48,812.55,812.53,812.27,811.90,811.43,810.69,809.64,808.37,807.00,805.62,804.28,802.98,801.68,800.52,799.93,800.37,801.20,802.14,803.12,804.10,805.01,805.63,805.95,806.54,807.27,807.94,808.27,807.94,807.69,807.46,807.26,807.23,807.83,808.65,809.14,809.15,808.95,808.81,808.67,808.56,808.56,808.59,808.65,808.84,809.18,809.43,809.49,809.36,808.85,807.51,805.91,803.44,801.03,800.13,801.48,803.39,805.02,806.05,806.47,806.74,806.85,806.78,806.50,806.13,805.79,805.27,804.47,803.94,803.17,802.10,800.80,799.51,798.28,796.52,794.33,792.04,790.32,790.16,790.89,791.93,792.33,792.04,791.52,791.14,791.29,791.89,793.02,793.80,793.69,793.62,794.74,795.95,796.90,797.87,798.87,799.62,800.14,800.53,800.81,801.05,801.22,801.31,801.28,801.22,801.05,800.82,800.59,800.30,799.77,799.15,798.49,797.58,796.40,795.77,796.00,797.19,799.10,800.10,800.35,800.41,800.38,800.33,800.27,800.20,800.20,800.17,800.13,800.09,800.07,800.06,800.03,800.00,799.89,799.31,798.75,798.25,797.80,797.36,797.02,796.60,796.13,795.77,795.57,795.45,795.31,794.82,793.04,789.35,784.35,779.41,777.01,776.79,778.58,782.57,788.45,791.98,793.74,794.22,793.99,794.34,795.26,796.22,797.11,797.79,797.19,796.29,795.00,793.19,791.22,789.81,787.24,783.58,780.31,778.43,776.66,774.79,772.90,770.98,768.25,764.90,761.63,760.20,760.30,760.68,760.76,760.25,759.98,759.77,759.61,759.49,759.43,759.42,759.50,759.93
790.84,793.06,795.72,798.48,800.78,802.33,803.88,805.34,806.34,806.45,805.06,803.63,802.32,801.25,800.54,799.62,797.74,795.24,792.45,789.99,787.25,785.38,784.48,784.18,784.40,784.12,782.63,779.91,778.75,778.13,778.17,778.90,779.99,781.96,782.71,782.50,782.18,781.16,780.37,780.04,780.19,780.37,780.13,780.04,780.56,782.17,783.60,784.96,786.48,788.39,790.77,793.88,797.10,799.88,801.48,802.88,804.74,807.02,809.40,811.10,811.96,812.41,812.66,812.56,812.18,811.75,811.14,809.97,809.00,807.68,806.13,804.59,803.27,801.89,800.50,799.44,799.55,800.29,801.07,801.79,802.50,803.22,804.18,805.03,805.59,806.26,807.01,807.49,807.51,807.02,806.72,806.46,806.22,806.13,806.38,806.96,807.29,807.17,806.89,806.78,806.69,806.61,806.63,806.69,806.80,807.09,807.61,808.10,808.23,808.10,807.68,806.77,805.48,803.20,800.89,799.76,799.91,801.28,803.04,804.56,805.06,805.52,805.73,805.70,805.57,805.21,804.80,803.97,802.62,801.86,801.05,800.08,798.94,797.75,796.46,794.49,792.18,790.35,790.15,790.94,792.65,794.75,795.18,794.90,794.16,793.47,793.65,794.51,795.25,795.64,795.65,795.53,795.96,796.68,797.54,798.48,799.44,800.14,800.62,800.93,801.24,801.46,801.52,801.38,801.10,800.81,800.50,800.20,799.87,799.39,798.31,797.02,795.87,794.85,793.70,793.17,793.75,795.81,798.45,799.85,800.22,800.29,800.29,800.28,800.25,800.20,800.19,800.13,800.10,800.08,800.01,800.00,799.96,799.87,799.54,798.36,797.49,797.07,796.99,796.95,797.05,796.91,796.58,796.23,795.98,795.75,795.47,794.77,792.61,788.27,782.96,778.01,775.56,775.91,778.19,782.82,789.73,793.80,796.32,796.84,795.88,795.83,795.85,796.35,797.16,797.76,797.12,796.28,795.09,793.35,791.47,790.46,788.07,784.24,780.47,777.55,775.10,772.95,771.08,769.08,766.58,763.95,761.79,761.36,762.20,762.96,762.96,761.85,761.13,760.61,760.26,760.09,759.88,759.58,759.37,759.35
789.21,792.74,796.74,799.41,801.21,802.70,804.19,805.62,806.77,807.15,805.90,804.64,803.46,802.49,801.75,800.15,797.86,795.35,793.03,791.42,789.34,787.87,787.13,786.81,786.97,786.42,784.52,781.37,779.92,779.06,778.52,778.50,779.49,781.20,782.83,783.93,784.00,782.92,782.20,781.91,781.92,781.94,781.21,780.49,780.32,781.19,782.24,783.63,785.12,786.62,788.72,791.34,794.07,796.61,798.62,800.47,802.56,804.86,807.18,809.03,810.38,811.46,812.24,812.25,811.96,811.23,810.20,809.27,808.39,807.08,805.52,803.98,802.52,800.95,799.47,798.67,799.77,800.63,801.32,801.96,802.61,803.25,803.99,804.70,805.31,806.00,806.75,807.02,806.73,806.17,805.78,805.31,804.90,804.76,804.68,804.69,804.64,804.48,804.19,804.16,804.21,804.29,804.43,804.48,804.80,805.29,805.81,806.30,806.53,806.53,806.25,805.57,804.85,803.12,801.11,799.86,799.32,799.84,800.66,801.44,802.13,803.12,803.58,803.56,803.44,803.00,802.16,801.24,800.50,799.96,799.31,798.55,797.62,796.34,794.38,792.27,790.62,790.18,791.33,792.95,794.53,795.80,796.38,796.34,796.01,795.75,795.90,796.18,796.65,796.95,796.85,796.72,796.93,797.47,798.25,799.11,799.91,800.55,801.01,801.32,801.63,801.69,801.50,801.10,800.74,800.38,799.79,799.04,798.27,797.11,795.55,793.87,792.38,791.60,790.73,790.96,792.63,795.13,797.84,799.49,800.14,800.16,800.16,800.16,800.15,800.13,800.13,800.11,800.07,800.03,800.00,800.00,799.72,799.09,798.10,796.94,796.12,795.79,795.94,796.33,796.62,796.60,796.37,796.09,795.86,795.55,795.22,794.43,791.74,786.09,780.70,776.52,773.94,775.22,778.21,783.16,790.12,794.37,796.62,797.28,796.81,796.50,796.38,796.67,797.22,797.62,796.94,796.20,795.47,794.67,793.87,793.42,791.74,788.55,784.33,780.19,776.88,774.09,771.52,769.46,768.17,767.72,768.03,768.58,768.95,768.36,766.99,765.42,764.55,763.61,762.73,762.09,761.48,760.55,759.80,759.37
789.04,793.11,797.78,800.37,801.79,803.13,804.58,805.93,807.11,807.71,806.88,805.81,804.70,803.63,802.48,800.57,798.58,796.81,795.40,794.22,792.29,790.83,790.03,789.60,789.62,789.00,787.20,784.12,781.82,780.11,778.90,778.46,779.36,780.85,782.85,784.74,785.58,784.83,784.31,784.05,783.90,783.73,782.85,781.95,781.46,781.79,782.38,783.36,784.36,785.16,786.34,788.34,790.57,792.73,794.62,796.88,799.58,802.36,804.63,806.39,807.88,809.26,810.45,810.94,810.80,810.07,809.07,808.39,807.66,806.48,805.01,803.44,801.89,800.01,798.66,798.52,800.07,800.95,801.60,802.20,802.80,803.39,803.87,804.41,805.12,805.83,806.45,806.50,805.98,805.22,804.48,803.73,803.08,802.69,802.25,801.77,801.34,801.00,800.79,800.83,801.01,801.29,801.71,802.15,802.82,803.56,804.18,804.63,804.98,805.09,804.96,804.70,804.31,803.04,801.43,800.22,799.34,799.13,799.22,799.50,800.07,800.90,801.24,801.17,801.07,800.69,799.88,799.14,798.76,798.39,797.79,797.08,796.19,794.76,792.48,790.76,790.16,791.11,792.94,794.63,795.85,796.61,797.30,797.55,797.60,797.64,797.84,797.86,798.07,798.20,797.99,797.79,797.88,798.29,798.96,799.69,800.33,800.90,801.34,801.57,801.78,801.74,801.44,800.94,800.53,800.16,799.40,798.26,796.95,795.49,793.70,791.76,789.98,788.90,788.16,789.02,791.49,794.10,796.64,798.45,799.49,799.78,800.01,800.07,800.07,800.07,800.07,800.07,800.02,799.91,799.70,799.50,798.88,797.75,796.18,794.87,793.81,793.82,794.83,795.72,796.14,796.15,795.96,795.73,795.52,795.09,794.54,793.53,790.69,784.35,778.73,774.78,772.28,774.56,778.59,783.92,790.33,794.46,796.44,797.20,797.23,797.06,796.95,797.04,797.29,797.44,796.87,796.29,795.86,795.63,795.54,795.72,794.52,791.59,787.21,782.51,778.58,775.16,772.24,771.14,771.36,772.65,774.50,775.40,775.48,774.40,772.37,769.87,768.23,766.80,765.61,764.74,764.07,762.74,761.25,759.97
790.22,794.10,798.63,801.12,802.40,803.54,804.96,806.21,807.34,808.13,807.90,807.03,805.93,804.63,802.99,801.23,800.13,799.55,799.14,797.90,795.72,794.09,793.20,792.58,792.27,791.68,790.29,787.62,783.94,780.99,779.21,778.75,779.63,781.13,783.04,785.14,786.88,786.78,786.51,786.26,785.96,785.61,784.92,784.18,783.67,783.70,783.84,784.14,784.42,784.52,784.51,785.74,787.38,788.90,790.12,792.54,795.99,799.51,801.84,803.34,804.68,806.07,807.47,808.69,808.76,808.32,807.75,807.25,806.71,805.77,804.50,803.00,801.44,799.15,798.06,798.82,800.32,801.19,801.84,802.40,802.89,803.40,803.64,804.10,804.97,805.71,806.07,805.89,805.19,804.07,802.79,801.71,800.81,799.99,799.16,798.32,797.54,796.94,796.85,796.99,797.27,797.71,798.47,799.56,800.71,801.80,802.70,803.16,803.61,803.80,803.84,804.15,803.91,803.01,801.84,800.76,799.81,799.07,798.75,798.87,799.03,799.09,798.98,798.82,798.77,798.55,798.21,797.83,797.47,797.15,796.50,795.72,794.73,793.15,791.06,790.20,790.85,792.89,794.75,795.87,796.70,797.46,798.19,798.69,798.93,799.07,799.38,799.47,799.49,799.37,799.09,798.83,798.83,799.14,799.68,800.23,800.72,801.20,801.56,801.65,801.68,801.63,801.39,800.94,800.50,800.16,799.39,798.09,796.36,794.98,793.15,791.08,789.08,787.27,786.26,787.19,789.87,792.50,794.81,796.71,798.13,798.94,799.55,799.76,799.84,799.91,799.93,799.92,799.84,799.62,799.06,798.50,797.52,796.03,794.09,792.41,790.82,791.28,793.63,795.08,795.65,795.66,795.41,795.14,794.95,794.37,793.49,792.12,789.36,783.05,777.15,772.88,770.76,773.91,779.11,784.86,790.32,794.15,796.01,796.86,797.21,797.49,797.44,797.38,797.37,797.31,796.94,796.54,796.24,796.13,796.29,797.02,795.99,792.91,788.61,783.89,779.62,775.80,773.01,773.74,775.54,777.89,780.17,780.91,781.04,780.38,778.50,774.87,771.99,770.08,768.78,767.94,767.51,766.06,763.78,761.32
791.93,795.45,799.13,801.29,802.63,803.91,805.31,806.53,807.67,808.60,808.77,808.03,806.89,805.64,804.36,802.91,802.10,801.77,801.51,800.43,798.75,797.46,796.64,795.90,794.84,793.43,791.55,788.62,783.59,780.57,779.29,779.36,780.37,781.96,783.87,785.89,787.68,788.22,788.26,788.08,787.77,787.48,787.04,786.47,785.96,785.88,785.97,786.23,786.55,786.82,787.01,787.11,787.17,787.27,787.66,789.56,792.67,796.05,798.53,799.97,801.35,802.95,804.75,806.16,806.49,806.35,806.01,805.51,805.10,804.42,803.72,803.05,801.51,798.81,797.59,798.64,800.38,801.36,801.94,802.24,802.27,802.49,802.68,803.41,804.77,805.40,805.51,805.01,803.91,802.26,800.75,799.40,798.19,797.09,795.95,794.81,793.79,793.11,793.17,793.59,793.91,794.23,794.88,795.72,797.38,799.35,801.02,801.70,802.26,802.57,802.76,803.29,803.69,803.28,802.36,801.31,800.20,799.34,798.74,798.40,798.20,798.03,797.79,797.56,797.45,797.28,797.05,796.81,796.62,796.39,795.82,795.11,794.16,792.57,791.34,791.52,792.85,794.80,796.37,797.29,798.01,798.71,799.27,799.54,799.70,799.84,799.97,800.06,800.06,799.98,799.83,799.71,799.71,799.92,800.33,800.75,801.10,801.31,801.42,801.44,801.45,801.42,801.29,801.00,800.65,800.33,799.88,799.26,798.33,796.82,794.75,792.62,790.73,788.83,786.20,784.88,785.98,789.79,792.39,794.23,795.56,796.42,797.25,797.89,798.52,799.11,799.32,799.20,798.91,798.49,797.92,797.35,796.27,794.73,792.87,791.15,788.89,789.19,792.08,793.93,794.96,795.10,794.66,794.03,793.64,793.06,792.20,790.61,786.99,781.25,775.62,771.35,770.12,773.27,778.70,784.50,789.43,793.13,795.18,796.26,796.76,797.13,797.18,797.25,797.39,797.49,797.21,796.91,796.68,796.64,797.04,797.33,796.20,793.38,789.04,783.86,779.42,776.00,774.29,776.31,778.96,781.55,783.72,784.76,785.03,784.51,782.84,779.51,776.47,774.30,772.79,771.90,771.49,769.94,767.46,764.49
792.22,795.41,798.85,801.03,802.56,804.12,805.64,806.91,808.08,809.07,809.49,808.98,808.02,806.96,806.03,804.88,804.16,803.66,803.14,802.21,801.00,799.96,799.10,798.03,796.12,793.90,791.38,788.01,782.52,780.05,779.57,780.31,781.75,783.41,785.10,786.82,788.54,789.50,789.79,789.74,789.50,789.27,788.99,788.59,788.19,788.18,788.47,789.00,789.66,790.25,790.22,789.48,788.53,787.68,787.27,787.96,790.09,792.87,795.10,796.32,797.87,799.92,802.20,803.71,804.24,804.35,804.19,803.71,803.36,802.75,802.39,802.55,801.43,798.66,797.39,798.59,800.42,801.47,801.98,802.04,801.62,801.44,801.59,802.45,803.94,804.51,804.43,803.66,802.23,800.23,798.40,796.84,795.46,794.23,793.09,792.04,791.16,790.64,790.71,791.03,791.17,791.26,791.67,792.26,794.14,796.63,798.88,799.96,800.76,801.28,801.68,802.35,803.17,803.33,802.80,801.70,800.58,799.67,798.96,798.44,798.09,797.89,797.69,797.49,797.34,797.23,797.06,796.93,796.86,796.60,795.94,795.14,794.18,792.86,792.47,793.35,794.96,796.67,797.96,798.64,799.15,799.64,799.96,800.05,800.13,800.24,800.28,800.36,800.40,800.40,800.38,800.39,800.45,800.58,800.79,801.01,801.13,801.15,801.13,801.13,801.15,801.18,801.15,801.03,800.79,800.53,800.32,800.14,799.86,798.65,796.63,794.46,792.53,790.55,786.94,783.67,782.58,785.91,788.82,791.05,792.63,793.60,794.49,795.43,796.45,797.47,798.05,797.96,797.55,797.00,796.47,795.94,795.10,793.90,792.35,790.70,787.90,787.56,790.10,792.38,793.72,793.97,793.50,792.74,792.22,791.39,789.90,787.36,783.39,778.74,773.97,770.17,769.62,772.36,777.77,783.56,788.04,791.71,794.13,795.57,796.23,796.57,796.75,796.95,797.22,797.47,797.35,797.21,797.08,797.02,797.36,797.21,796.10,793.74,789.56,784.05,779.44,776.35,775.61,778.26,781.75,784.78,786.87,788.00,788.33,787.89,786.61,784.14,781.32,778.97,777.28,776.37,775.81,774.32,772.12,769.31
790.45,793.53,797.65,800.33,802.23,804.15,805.96,807.38,808.58,809.54,810.01,809.91,809.36,808.59,807.76,806.82,806.00,805.05,803.95,803.10,802.10,801.06,799.91,798.26,795.61,792.83,789.75,785.90,781.18,779.78,780.21,781.66,783.83,785.56,786.73,787.89,789.58,790.68,791.18,791.30,791.17,790.96,790.73,790.49,790.35,790.63,791.35,792.41,793.61,794.43,793.32,792.23,791.24,790.23,789.16,787.99,788.59,790.33,791.74,792.51,794.31,796.92,799.73,801.34,801.97,802.27,802.34,801.96,801.56,800.72,800.39,801.24,801.01,798.52,797.43,798.81,800.52,801.54,801.99,801.88,801.12,800.48,800.52,801.19,802.29,802.87,802.67,801.71,800.12,798.05,795.91,794.29,793.01,791.88,791.19,790.70,790.39,790.25,790.18,789.88,789.52,789.25,789.28,789.73,791.41,793.79,796.25,797.86,799.00,799.84,800.54,801.32,802.17,802.95,803.04,801.90,801.01,800.06,799.39,799.11,798.87,798.80,798.77,798.70,798.57,798.53,798.46,798.42,798.38,797.92,796.96,795.87,794.83,794.06,794.26,795.35,796.88,798.40,799.46,799.79,799.90,800.03,800.09,800.15,800.23,800.33,800.46,800.54,800.62,800.67,800.74,800.80,800.96,801.03,800.98,800.87,800.72,800.70,800.75,800.76,800.82,800.89,800.95,800.97,800.87,800.72,800.52,800.32,800.15,799.82,798.25,796.06,793.83,791.65,788.28,784.09,780.54,780.99,783.93,786.98,789.26,790.44,791.32,792.37,793.59,794.87,796.02,796.16,795.80,795.26,794.73,794.24,793.97,793.51,792.46,791.01,787.88,786.33,787.50,790.30,791.72,792.05,791.77,791.23,790.64,789.21,786.27,781.95,778.47,775.40,772.14,769.36,769.08,771.12,776.30,782.03,786.15,789.88,792.82,794.75,795.65,795.96,796.24,796.54,796.84,797.14,797.25,797.34,797.33,797.20,797.15,796.79,795.91,794.12,790.44,784.92,780.07,777.04,776.88,779.49,783.93,787.73,789.92,790.77,790.99,790.67,789.93,788.65,786.31,783.92,782.20,781.35,780.48,779.20,777.72,775.74
788.09,792.12,796.49,799.79,802.33,804.45,806.29,807.89,809.14,809.97,810.36,810.37,810.03,809.34,808.21,806.87,805.54,804.21,802.93,801.95,800.88,799.53,797.93,796.18,793.49,790.80,787.74,783.95,780.64,780.19,781.28,783.23,785.66,787.81,788.87,789.45,790.53,791.78,792.61,792.95,792.82,792.68,792.61,792.58,792.75,793.54,794.86,796.60,798.05,798.25,796.39,795.05,794.07,793.08,791.66,789.60,788.72,789.03,789.90,790.28,791.40,793.44,796.12,797.92,798.81,799.41,799.79,799.63,799.06,798.13,798.27,800.22,800.04,797.10,796.43,799.02,800.62,801.57,801.99,801.86,801.01,800.22,799.73,799.78,800.38,800.69,800.43,799.41,797.74,795.84,795.04,794.68,794.44,794.25,794.36,794.09,793.88,793.90,793.90,793.13,791.86,790.42,789.25,788.54,789.75,791.91,794.07,795.40,796.55,797.68,798.81,799.88,800.88,801.84,802.39,802.20,801.82,801.00,800.29,799.93,799.75,799.75,799.74,799.69,799.63,799.62,799.57,799.52,799.43,798.99,798.03,797.01,796.10,795.39,795.70,796.94,798.40,799.40,799.94,800.09,800.15,800.21,800.22,800.28,800.36,800.45,800.55,800.63,800.68,800.73,800.78,800.74,800.77,800.71,800.51,800.22,800.23,800.30,800.39,800.47,800.55,800.63,800.68,800.70,800.67,800.61,800.48,800.32,800.20,800.05,798.81,796.85,794.53,792.26,789.23,785.03,780.51,778.39,779.56,781.29,782.72,783.76,784.99,787.42,790.07,792.25,793.74,794.31,794.11,793.52,793.02,792.55,792.40,792.27,791.84,790.94,787.62,784.41,783.39,786.59,788.69,789.48,789.34,788.56,787.26,785.12,781.75,777.40,774.14,772.00,770.08,768.56,768.59,769.89,774.08,779.22,783.53,787.38,790.74,793.29,794.86,795.48,795.87,796.17,796.54,797.06,796.95,796.94,796.88,796.76,797.09,796.61,795.79,794.41,791.27,786.27,781.26,778.04,778.28,781.38,786.10,789.86,791.80,792.68,792.77,792.38,791.74,790.88,789.41,788.02,787.05,786.48,785.61,784.32,782.65,780.58
786.51,791.50,795.94,799.84,803.12,805.57,807.21,808.65,809.72,810.32,810.56,810.60,810.27,809.46,808.01,806.28,804.55,802.94,801.48,800.01,798.50,796.74,794.91,793.34,791.02,788.60,785.76,782.47,780.72,781.07,782.58,784.76,787.19,789.61,790.81,791.21,791.69,792.75,793.84,794.52,794.62,794.60,794.66,794.81,795.22,796.42,798.27,800.45,801.88,801.42,799.19,797.73,796.85,796.09,794.62,791.86,789.64,788.63,789.03,789.20,789.60,790.71,792.59,794.15,795.06,795.71,796.18,796.19,795.64,794.96,795.54,797.92,797.65,795.57,796.04,799.40,800.75,801.62,802.00,801.84,801.00,800.17,799.24,798.73,798.86,798.82,798.49,797.68,796.45,795.31,795.80,796.44,796.94,797.41,797.96,797.82,797.64,797.69,797.75,796.93,795.40,793.23,790.45,788.35,788.50,789.99,791.88,792.85,793.99,795.36,796.79,797.95,799.06,800.10,801.06,801.80,801.97,801.56,801.08,800.76,800.65,800.62,800.55,800.49,800.43,800.38,800.29,800.18,800.00,799.51,798.74,797.93,797.20,796.58,796.91,798.17,799.49,799.98,800.11,800.18,800.25,800.32,800.33,800.39,800.46,800.51,800.58,800.64,800.65,800.67,800.66,800.52,800.32,799.88,799.24,798.69,798.89,799.25,799.64,800.06,800.26,800.37,800.41,800.41,800.41,800.41,800.34,800.21,800.14,799.92,798.96,797.34,795.19,792.94,790.33,786.60,781.90,777.78,776.94,776.81,776.78,777.23,778.58,781.95,785.69,788.81,791.23,792.41,792.44,791.78,791.09,790.50,790.31,790.39,790.48,790.03,786.92,782.74,779.92,782.60,785.02,786.22,786.28,785.24,783.44,781.01,777.74,773.81,770.70,769.12,768.24,767.89,768.31,769.03,771.91,776.15,780.69,784.62,788.39,791.56,793.80,794.92,795.58,796.05,796.50,796.86,796.54,796.41,796.37,796.45,797.09,796.52,795.71,794.54,791.82,787.47,782.39,778.93,779.46,783.22,787.88,791.34,793.14,794.31,794.31,793.78,793.06,792.32,791.49,790.93,790.56,790.19,789.42,788.17,786.12,783.49
786.70,792.18,796.55,800.89,804.98,808.05,809.19,809.84,810.29,810.54,810.59,810.59,810.00,808.81,807.15,805.38,803.62,801.90,800.08,797.61,795.06,792.90,791.27,790.17,788.65,786.54,784.06,781.83,781.58,782.53,784.12,786.12,788.26,790.45,792.14,793.13,793.29,793.56,794.66,795.89,796.70,796.84,796.97,797.19,797.71,799.04,801.18,803.27,804.33,803.51,801.48,800.11,799.50,799.25,798.11,794.59,791.29,789.35,789.37,789.63,789.74,789.75,789.83,790.35,790.70,790.90,791.00,791.06,790.97,791.05,791.82,793.29,793.06,794.59,797.30,800.09,800.99,801.76,802.05,801.78,801.00,800.22,799.21,798.47,798.23,797.86,797.43,797.23,797.39,797.97,798.87,799.39,799.66,799.86,800.02,800.01,799.91,799.84,799.89,799.70,799.31,797.58,792.88,789.46,787.55,787.58,789.42,790.27,791.50,793.02,794.47,795.24,796.31,797.53,798.80,799.99,800.66,801.11,801.38,801.50,801.53,801.29,801.11,801.00,800.81,800.61,800.41,800.20,799.88,799.10,798.73,798.29,797.73,797.43,797.82,798.91,799.92,800.08,800.16,800.24,800.32,800.38,800.39,800.45,800.49,800.50,800.51,800.53,800.53,800.48,800.35,800.19,799.65,798.41,796.74,795.74,796.03,796.96,798.14,799.30,799.87,800.05,800.11,800.11,800.12,800.12,800.07,800.00,799.93,799.51,798.76,797.62,795.98,793.99,791.89,789.06,785.09,780.01,777.53,775.46,773.59,772.74,773.53,776.42,780.02,783.87,788.42,790.42,790.72,789.98,788.65,787.71,787.42,787.63,788.01,787.68,785.45,781.79,778.34,778.82,780.61,782.01,782.36,781.21,779.61,777.71,775.08,771.66,768.70,767.26,766.99,767.51,768.47,768.92,770.30,773.23,777.78,781.72,785.89,789.56,792.34,794.15,795.34,796.33,796.83,796.34,795.99,795.87,796.09,796.67,797.09,796.50,795.66,794.44,791.88,788.16,783.15,779.54,780.21,784.64,788.90,791.98,793.96,795.74,795.76,795.03,794.12,793.29,792.43,791.94,791.57,791.10,790.49,789.44,787.01,783.39
787.86,793.10,797.74,802.02,805.92,808.97,810.11,810.43,810.54,810.59,810.53,810.30,809.65,808.51,806.79,804.95,803.10,801.33,799.57,797.36,794.23,791.48,789.48,788.09,786.60,784.82,783.03,781.87,782.67,784.07,785.59,787.19,789.03,791.01,792.95,794.51,795.19,795.42,795.85,796.74,798.00,798.85,799.11,799.46,800.23,801.76,803.67,805.26,806.08,805.70,804.34,802.91,802.03,801.49,800.05,796.58,793.08,790.97,791.48,792.57,792.84,792.41,791.54,790.66,790.01,789.66,789.57,789.69,789.84,790.21,791.37,793.74,795.59,797.38,799.24,800.87,801.49,802.00,802.04,801.63,800.89,800.13,799.48,799.16,799.20,799.00,798.77,798.83,799.21,799.81,800.41,800.77,800.95,801.00,800.89,800.80,800.71,800.60,800.51,800.37,800.19,798.83,794.62,790.83,787.85,786.20,786.25,787.07,788.65,790.44,791.93,792.56,793.46,794.67,796.09,797.56,798.59,799.51,800.29,800.81,800.94,800.88,800.86,800.85,800.69,800.51,800.31,800.06,799.63,798.87,798.41,798.16,798.08,798.20,798.60,799.36,800.02,800.10,800.18,800.23,800.26,800.30,800.34,800.38,800.39,800.40,800.44,800.44,800.42,800.34,800.16,799.86,798.39,796.22,793.97,792.80,793.26,794.43,795.84,797.14,797.82,798.21,798.46,798.62,798.77,798.81,798.75,798.66,798.44,797.82,797.12,796.34,795.38,794.41,793.11,791.33,788.89,785.56,782.38,778.81,775.07,772.03,771.18,773.25,776.59,780.55,785.17,787.20,787.32,786.25,784.66,783.67,783.40,783.66,784.24,784.38,782.89,779.93,776.56,775.54,776.89,778.47,778.86,777.13,775.60,774.28,772.46,769.84,767.25,766.34,766.87,768.32,769.95,770.61,771.32,772.75,775.43,778.96,782.87,787.13,791.05,792.83,794.12,795.09,795.59,795.44,795.39,795.53,795.95,796.63,797.07,796.53,795.70,794.51,792.11,788.43,784.69,782.11,781.95,784.30,788.33,791.61,793.62,795.61,796.14,795.57,794.54,793.66,792.77,792.09,791.50,790.83,789.76,787.93,785.18,781.40
789.65,794.35,798.97,802.76,806.05,808.87,810.32,810.68,810.68,810.60,810.47,809.97,809.30,808.31,806.68,804.78,802.93,801.24,799.73,798.20,795.21,791.97,789.12,787.07,785.33,783.72,782.51,782.32,783.90,785.68,787.17,788.42,789.93,791.63,793.63,795.60,796.97,797.49,797.38,797.71,798.97,800.43,801.03,801.63,802.63,804.24,805.81,806.91,807.59,807.76,807.19,805.83,804.57,803.47,801.64,798.58,795.49,793.72,794.73,796.47,796.88,796.28,794.93,792.91,791.29,790.28,789.79,789.61,789.79,790.32,791.85,795.13,799.04,800.46,801.04,801.57,801.91,802.11,801.93,801.44,800.80,800.11,799.88,800.07,800.47,800.52,800.52,800.69,800.98,801.11,801.23,801.37,801.43,801.34,801.07,800.89,800.79,800.71,800.51,800.10,799.63,798.49,795.61,792.13,788.74,785.84,784.03,784.22,785.53,787.15,788.58,789.35,790.27,791.58,793.19,794.91,796.22,797.37,798.42,799.24,799.50,799.72,799.95,800.12,800.10,799.99,799.81,799.47,798.89,798.28,797.74,797.75,798.28,798.84,799.27,799.70,800.02,800.09,800.15,800.17,800.17,800.20,800.25,800.26,800.27,800.30,800.36,800.37,800.33,800.23,800.04,799.58,797.25,794.30,791.51,789.59,790.03,791.55,793.25,794.57,795.33,795.87,796.26,796.57,796.90,796.97,796.93,796.80,796.45,795.73,795.06,794.50,794.12,794.04,793.47,792.60,791.56,790.22,787.02,782.67,777.65,772.63,770.00,771.19,774.20,777.97,781.82,783.51,783.30,781.85,780.04,778.98,778.72,779.06,779.87,780.71,779.93,777.73,774.70,772.58,773.65,775.25,775.52,773.25,771.72,770.83,769.68,767.88,765.96,765.94,767.39,769.72,772.16,773.32,773.75,773.95,774.53,776.95,780.03,784.25,788.84,790.94,792.38,793.23,793.69,794.01,794.26,794.98,795.79,796.46,796.99,796.57,795.81,794.70,792.56,789.20,787.06,785.74,784.69,784.38,787.42,790.63,792.90,795.10,796.14,795.67,794.44,793.47,792.54,791.66,790.68,789.45,787.71,785.21,782.30,778.58
792.34,796.37,799.79,802.32,804.63,807.19,809.47,810.47,810.74,810.65,810.46,809.79,808.98,808.06,806.82,804.98,803.41,802.12,801.07,800.29,799.15,795.86,791.28,788.13,786.05,784.07,782.87,783.41,785.38,787.47,789.16,790.38,791.41,792.70,794.36,796.27,798.15,799.26,799.54,799.47,799.62,801.00,802.47,803.63,804.63,805.95,807.26,808.30,809.05,809.43,809.54,808.71,807.27,805.46,803.50,801.25,799.57,798.91,799.73,800.98,801.12,800.51,799.31,797.23,795.05,793.15,791.51,790.01,789.80,790.58,792.19,794.92,799.04,801.10,801.87,801.94,801.85,801.76,801.57,801.25,800.81,800.41,800.41,800.75,801.25,801.35,801.36,801.59,801.86,801.59,801.32,801.04,800.78,800.53,800.28,800.15,800.13,800.15,800.04,798.92,797.52,796.20,795.02,793.00,790.27,787.53,785.14,782.96,781.96,782.07,783.07,784.56,786.18,788.07,790.15,792.22,793.62,794.66,795.57,796.33,796.86,797.35,797.85,798.32,798.58,798.60,798.31,797.71,796.89,796.48,796.31,796.92,798.17,799.16,799.70,799.93,800.00,800.02,800.03,800.04,800.06,800.12,800.13,800.13,800.18,800.22,800.23,800.23,800.22,800.18,800.01,799.41,796.93,793.81,790.18,785.60,785.42,787.81,790.57,792.00,793.00,793.41,793.65,793.95,794.40,794.50,794.50,794.42,794.13,793.59,793.02,792.50,792.09,791.93,791.68,791.20,790.45,789.49,787.38,784.01,779.38,773.74,769.90,770.34,772.91,776.13,778.55,779.53,778.95,777.18,774.90,773.50,773.14,773.64,774.95,776.73,776.77,775.33,772.78,770.05,771.13,772.43,772.26,769.94,768.37,767.46,766.49,765.26,764.66,766.27,768.79,771.81,775.38,777.44,778.03,777.83,777.36,777.00,778.19,780.52,783.83,787.90,790.00,790.94,791.29,791.39,791.66,793.60,795.40,796.09,796.72,796.60,796.05,795.11,793.47,791.83,791.17,790.72,789.45,787.15,786.88,788.76,792.13,794.87,795.97,795.09,793.35,792.20,791.25,790.32,788.65,785.92,783.38,781.42,778.77,775.00
792.89,795.92,798.57,800.62,802.78,805.63,808.50,810.12,810.74,810.63,810.27,809.54,808.70,807.82,806.82,805.38,804.17,803.13,802.20,801.43,800.61,797.49,792.71,788.85,786.49,784.33,783.27,784.37,786.45,788.66,790.59,792.08,793.11,794.27,795.60,797.13,798.84,800.27,801.01,801.31,801.54,802.72,804.05,805.21,806.27,807.54,808.78,809.68,810.30,810.72,810.90,810.37,809.28,807.74,805.81,804.13,803.03,802.65,803.16,803.80,803.77,803.17,802.01,800.18,798.20,796.03,793.69,791.41,790.16,790.25,791.15,792.91,797.22,800.20,801.57,801.69,801.75,801.90,801.82,801.55,801.26,800.99,801.10,801.46,801.86,801.76,801.62,801.57,801.50,801.05,800.33,799.13,798.05,797.59,797.11,796.86,796.68,796.33,795.36,794.35,793.41,792.73,792.44,791.39,789.57,787.27,784.82,782.89,781.70,781.04,780.93,781.61,782.52,783.68,785.47,788.16,790.17,791.62,792.64,793.33,793.98,794.54,795.21,795.88,796.30,796.46,796.22,795.66,794.91,794.51,794.62,795.53,797.04,798.39,799.16,799.38,799.25,798.96,798.86,799.08,799.52,799.98,800.05,800.06,800.08,800.11,800.12,800.14,800.15,800.13,799.92,799.09,796.54,793.45,789.55,783.58,781.67,783.09,785.77,787.92,789.41,789.92,790.35,791.09,791.84,792.06,792.09,792.04,791.79,791.18,790.44,789.69,788.92,788.06,787.28,786.51,785.86,785.49,784.63,782.46,778.56,772.95,769.47,769.57,771.34,773.46,774.65,774.81,774.14,772.84,771.09,769.95,769.65,770.10,771.31,773.18,773.61,772.67,770.61,768.11,768.91,769.72,769.25,767.15,765.54,764.50,764.19,764.70,765.65,767.98,771.18,775.08,779.58,782.06,782.67,782.19,781.10,779.80,779.72,780.63,782.51,785.36,787.34,788.67,789.61,790.35,791.25,793.20,794.96,795.81,796.37,796.52,796.40,795.95,795.00,794.45,794.32,793.76,791.92,789.18,787.77,788.89,792.18,794.93,795.71,794.34,792.20,790.81,788.50,786.35,784.02,781.30,778.72,776.69,774.46,771.71
792.31,794.50,796.82,798.88,801.29,804.53,807.79,809.81,810.60,810.44,809.92,809.22,808.42,807.58,806.70,805.67,804.73,803.81,802.88,801.90,800.85,797.88,793.36,789.23,786.72,784.52,783.65,785.21,787.31,789.52,791.66,793.53,794.83,796.01,797.10,798.21,799.56,801.11,802.25,803.07,803.76,804.73,805.63,806.62,807.73,808.98,810.18,810.89,811.34,811.70,811.73,811.38,810.78,809.81,808.12,806.83,805.94,805.50,805.64,805.68,805.48,804.89,803.79,802.32,800.79,798.68,796.09,793.58,791.67,790.81,790.43,790.81,795.07,798.88,800.89,801.24,801.65,802.15,802.18,801.92,801.79,801.62,801.72,801.97,802.12,801.78,801.46,800.99,800.35,799.57,798.13,796.14,794.49,793.94,793.29,792.92,792.55,791.78,790.14,789.56,789.40,789.36,789.31,788.83,787.86,786.32,784.51,784.01,783.59,782.74,781.59,780.74,780.31,780.14,781.06,783.85,786.20,788.04,789.27,789.97,790.69,791.28,792.13,793.09,793.71,794.02,793.89,793.48,792.89,792.41,792.80,793.92,795.49,796.95,797.79,798.00,797.73,797.17,797.02,797.51,798.34,799.08,798.96,798.90,799.02,799.27,799.53,799.87,800.04,800.02,799.67,798.49,796.02,793.15,789.33,782.88,779.07,778.75,780.64,783.28,785.04,785.70,786.49,787.82,788.79,789.04,788.99,788.84,788.60,787.92,787.06,786.12,785.00,783.49,782.09,780.97,780.28,780.28,780.34,779.13,776.11,771.38,768.94,768.87,769.75,770.74,771.01,770.48,769.83,769.14,768.11,767.32,767.14,767.49,768.39,769.95,770.46,769.84,768.23,766.27,766.82,767.09,766.28,764.44,762.99,762.27,763.06,765.52,767.90,770.72,774.38,778.95,784.06,786.54,787.10,786.53,785.27,784.00,783.23,783.18,783.70,784.27,785.58,787.23,788.96,790.61,792.22,793.64,794.82,795.66,796.06,796.41,796.70,796.77,796.44,796.50,796.43,795.49,793.13,790.56,789.21,790.03,792.81,795.22,795.40,793.42,790.85,789.31,786.17,783.20,780.68,778.47,776.12,773.79,771.61,769.57
790.73,793.13,796.06,798.81,801.66,804.96,808.19,809.77,810.15,809.78,809.35,808.78,808.07,807.25,806.37,805.28,804.19,803.17,802.25,801.36,800.31,797.00,792.24,788.84,786.60,784.56,783.93,785.83,787.92,790.08,792.32,794.52,796.35,797.68,798.77,799.84,801.07,802.48,803.57,804.45,805.26,806.14,807.05,808.02,809.04,810.05,811.01,811.60,811.94,812.13,812.09,811.81,811.40,810.81,809.82,808.70,807.81,807.25,807.00,806.62,806.13,805.53,804.71,803.54,802.16,800.51,798.67,797.00,796.70,795.30,792.83,790.89,794.27,798.20,800.49,801.00,801.56,802.10,802.11,801.87,801.95,802.01,801.92,801.72,801.43,801.00,800.62,799.68,798.13,796.20,793.19,791.55,790.98,790.77,790.53,790.37,789.97,789.34,788.94,788.86,788.58,788.01,787.15,786.37,785.77,785.66,786.34,787.65,788.35,788.35,787.32,784.62,782.63,780.88,779.95,780.59,781.54,783.06,784.45,785.45,786.32,787.02,788.30,789.92,791.11,791.59,791.56,791.25,790.72,790.08,790.85,792.34,793.89,794.67,794.88,794.83,794.58,794.20,794.28,794.92,795.52,795.50,794.21,793.83,794.54,795.91,797.33,798.90,799.74,799.79,798.96,797.10,795.10,792.87,789.68,784.09,779.30,777.17,777.31,778.87,779.71,780.38,781.63,783.38,784.07,783.95,783.38,782.75,782.46,782.05,781.58,780.97,780.06,778.92,777.88,777.00,776.23,775.45,775.02,773.52,771.44,769.75,768.50,768.27,768.54,768.97,769.17,768.60,767.96,767.27,766.17,765.26,765.14,765.52,766.20,767.21,767.37,766.74,765.45,764.01,764.75,764.56,763.13,761.32,760.74,762.05,764.80,768.40,771.36,775.16,779.11,783.32,788.11,789.77,790.21,790.14,789.71,789.25,789.04,788.94,788.64,787.67,787.37,788.64,790.91,793.19,795.01,795.65,795.79,795.86,796.07,796.37,796.68,796.85,796.65,796.51,796.26,795.28,793.07,790.67,790.51,791.99,794.33,795.88,795.06,792.11,788.83,787.59,787.33,786.86,785.65,783.58,781.41,778.77,775.08,771.08
789.85,793.41,797.09,800.07,802.81,805.67,807.98,809.06,809.20,808.76,808.40,807.97,807.51,806.93,806.04,804.92,803.71,802.57,801.59,800.66,798.56,794.81,790.53,788.02,786.08,784.79,784.83,786.69,788.59,790.88,793.27,795.60,797.76,799.24,800.45,801.60,802.78,803.89,804.79,805.65,806.59,807.50,808.40,809.25,810.05,810.78,811.45,811.91,812.18,812.28,812.25,811.95,811.59,811.19,810.60,809.68,808.78,808.03,807.47,806.95,806.39,805.78,805.11,804.19,802.95,801.62,800.38,799.50,799.46,797.74,794.64,791.99,794.77,798.25,800.36,800.90,801.49,802.04,802.07,801.80,801.66,801.70,801.54,801.19,800.63,799.77,798.69,797.11,795.29,793.92,791.81,790.86,790.48,789.88,789.63,789.50,789.36,789.56,791.05,791.90,791.62,790.39,788.65,787.27,786.17,786.20,787.92,790.24,791.97,792.88,792.36,789.22,786.19,783.31,780.95,779.70,779.57,780.24,781.08,781.81,782.40,782.90,783.84,785.05,786.04,786.89,787.45,787.60,787.34,787.35,788.72,790.33,791.50,791.62,791.38,791.13,790.88,790.66,791.00,791.97,792.64,792.00,789.00,788.19,789.55,792.01,794.21,796.39,797.77,798.03,796.91,794.84,792.72,790.56,787.78,783.10,778.46,775.41,774.33,775.32,775.98,776.75,777.93,779.28,779.64,779.35,778.69,777.93,777.40,776.87,776.45,776.02,775.49,774.89,774.15,773.44,772.77,772.02,771.54,770.46,769.30,768.82,768.07,767.64,767.52,767.65,767.82,767.20,766.39,765.52,764.40,763.33,763.15,763.50,764.04,764.57,764.37,763.64,762.64,761.97,762.70,762.37,761.10,759.97,760.03,762.85,766.94,771.19,774.65,778.55,782.07,785.36,789.00,790.42,791.22,791.99,792.75,792.92,792.98,792.86,792.29,790.90,789.85,790.61,792.62,794.67,795.94,796.24,796.18,796.14,796.31,796.50,796.61,796.60,796.38,796.15,795.84,795.14,793.72,791.91,792.42,793.95,795.43,795.57,793.33,790.92,789.30,789.07,790.01,790.54,790.16,788.76,786.84,784.29,780.40,775.66
789.67,794.71,799.00,801.83,804.07,806.16,807.22,807.87,807.93,807.49,807.09,806.72,806.61,806.43,805.69,804.60,803.33,802.08,800.93,799.71,796.19,792.16,788.79,787.07,785.49,785.23,786.11,787.76,789.49,791.98,794.53,796.89,799.17,800.79,802.13,803.34,804.43,805.22,805.87,806.68,807.73,808.72,809.58,810.26,810.78,811.25,811.66,811.99,812.19,812.25,812.23,811.89,811.51,811.17,810.71,810.00,809.12,808.21,807.43,806.91,806.39,805.83,805.20,804.49,803.39,802.28,801.42,801.05,800.38,798.44,795.72,793.68,796.16,798.86,800.48,800.98,801.48,801.99,802.05,801.70,801.19,801.03,800.85,800.46,799.65,798.23,796.41,794.54,793.18,793.29,793.29,793.10,792.37,790.96,790.26,789.91,790.11,791.45,794.84,796.65,796.46,794.82,792.52,790.35,788.21,787.45,789.02,791.68,794.31,796.15,796.45,793.92,790.35,786.71,783.35,780.72,779.83,779.42,779.28,779.37,779.43,779.52,779.71,779.99,780.42,781.57,782.73,783.38,783.50,784.41,786.33,787.90,788.55,788.15,787.55,787.07,786.73,786.63,787.19,788.66,789.57,788.44,783.96,782.79,784.59,787.80,790.50,792.91,794.68,795.17,793.89,791.75,789.14,786.68,784.13,780.40,776.56,773.39,771.78,772.50,773.30,774.14,774.93,775.48,775.50,775.23,774.75,774.13,773.40,772.66,772.15,771.83,771.68,771.61,771.10,770.52,770.05,769.75,769.50,769.14,768.72,768.30,767.65,767.06,766.69,766.63,766.73,766.04,765.02,763.93,762.87,761.64,761.31,761.58,762.00,762.13,761.69,760.94,760.25,760.31,760.86,760.60,759.91,759.74,760.27,763.87,768.54,772.94,776.71,780.25,783.08,785.38,787.64,789.12,790.48,792.20,794.26,795.10,795.32,795.23,794.76,793.62,792.50,792.75,793.99,795.27,795.70,795.94,796.14,796.36,796.58,796.66,796.54,796.27,795.99,795.74,795.46,795.14,794.70,793.73,794.50,795.60,795.99,794.67,791.44,790.44,791.33,792.23,793.16,793.66,793.71,793.13,791.56,789.38,786.18,781.75
790.65,796.05,800.17,802.55,804.04,805.16,805.80,806.38,806.49,805.97,805.11,804.51,804.63,805.12,805.25,804.27,803.00,801.68,800.16,797.79,794.19,790.84,788.23,786.56,785.67,786.13,787.40,789.10,791.17,793.71,796.34,798.84,800.98,802.58,803.79,804.70,805.36,806.10,806.68,807.40,808.43,809.42,810.17,810.69,811.07,811.42,811.76,811.96,812.05,812.01,811.90,811.61,811.27,810.89,810.25,809.63,808.91,808.11,807.30,806.74,806.28,805.80,805.22,804.57,803.72,802.76,801.80,800.93,799.58,797.31,795.45,795.64,798.33,800.21,801.14,801.41,801.68,802.04,801.97,801.54,801.05,800.68,800.24,799.41,797.98,796.30,795.28,795.23,795.96,796.90,797.71,797.87,796.98,794.83,792.90,791.79,791.99,794.01,797.87,799.52,799.57,798.75,797.34,794.31,790.93,788.70,788.80,791.19,794.43,797.30,798.90,797.81,794.43,790.50,786.88,784.22,782.78,781.63,780.55,779.68,779.34,778.92,778.65,778.63,778.95,779.51,780.04,780.42,780.74,781.63,783.30,784.64,785.17,784.71,783.56,782.51,781.84,781.78,782.34,784.55,785.61,784.02,780.51,779.53,780.67,783.19,786.37,789.14,791.02,791.46,789.93,787.16,784.03,781.25,778.81,776.17,773.21,771.23,770.38,770.63,770.95,771.44,771.79,771.84,771.69,771.56,771.38,771.14,770.88,770.58,770.38,770.28,770.24,770.23,769.99,769.67,769.35,769.07,768.83,768.49,768.10,767.73,767.22,766.75,766.31,765.94,765.65,764.95,764.00,763.01,762.13,760.78,760.28,760.34,760.48,760.50,760.31,760.01,759.73,759.73,759.94,759.85,759.62,759.74,760.61,763.51,767.06,770.47,773.81,777.32,780.27,782.61,784.54,785.84,787.41,789.67,792.66,794.97,795.84,796.05,795.85,795.14,794.57,794.57,794.94,795.26,795.41,795.62,795.87,796.14,796.38,796.55,796.52,796.31,796.05,795.77,795.51,795.27,795.11,794.98,795.61,795.92,795.32,793.76,792.59,792.68,793.55,794.27,794.82,795.23,795.32,794.89,793.81,792.12,790.01,786.92
791.56,796.70,800.44,802.46,803.51,804.11,804.61,805.11,805.05,804.20,802.79,802.41,802.88,803.76,804.47,803.75,802.57,801.21,799.37,796.29,792.74,789.93,787.91,786.31,786.17,787.14,788.72,790.69,793.05,795.62,798.21,800.63,802.57,803.98,804.95,805.60,806.03,806.76,807.37,808.04,808.88,809.69,810.32,810.79,811.13,811.41,811.67,811.77,811.75,811.64,811.49,811.14,810.73,810.28,809.64,809.07,808.51,807.87,807.14,806.50,806.07,805.66,805.13,804.44,803.65,802.69,801.62,800.38,798.66,796.60,795.64,797.17,799.86,801.01,801.45,801.69,801.84,801.90,801.65,801.19,800.75,800.27,799.33,798.14,796.92,795.92,795.21,796.23,798.52,800.00,800.99,801.23,800.45,798.39,796.25,794.85,794.82,796.55,799.67,801.10,801.34,800.95,800.10,797.65,794.19,791.00,789.41,790.89,794.12,797.50,799.93,799.89,797.74,795.01,792.23,789.63,787.84,786.14,784.42,782.71,781.06,779.50,778.58,778.24,778.27,778.38,778.41,778.53,778.91,779.63,780.79,781.72,782.13,781.85,780.79,779.69,778.88,778.68,779.52,781.76,782.57,780.81,778.28,777.06,777.60,779.56,782.27,784.58,785.93,786.04,784.58,782.01,778.94,776.18,774.06,772.63,770.95,770.02,769.72,769.71,769.75,769.95,770.04,769.93,769.79,769.74,769.70,769.66,769.65,769.59,769.57,769.57,769.56,769.53,769.42,769.22,768.93,768.63,768.43,768.14,767.81,767.51,767.14,766.76,766.38,766.03,765.66,764.99,764.31,763.70,763.00,761.47,760.36,759.82,759.77,759.74,759.69,759.63,759.55,759.48,759.46,759.41,759.38,759.57,760.33,762.11,764.62,767.64,770.58,773.86,776.84,779.25,780.97,782.29,784.06,786.78,790.60,793.95,795.44,796.03,796.17,795.97,795.76,795.66,795.55,795.29,795.37,795.51,795.68,795.89,796.12,796.38,796.49,796.41,796.14,795.87,795.63,795.46,795.41,795.75,796.03,795.82,795.01,793.96,793.91,794.31,794.82,795.25,795.58,795.88,795.94,795.57,794.90,793.72,792.28,790.16
792.04,796.57,799.94,801.76,802.67,803.19,803.71,804.04,803.67,802.39,800.50,800.65,801.51,802.55,803.45,803.05,802.03,800.50,798.25,795.03,791.67,789.27,787.66,786.31,786.86,788.20,790.05,792.44,794.99,797.57,799.98,802.10,803.84,804.93,805.62,806.09,806.51,807.19,807.86,808.45,808.99,809.50,810.07,810.60,811.02,811.26,811.43,811.43,811.31,811.16,810.98,810.50,809.95,809.44,808.95,808.42,807.95,807.50,806.93,806.23,805.78,805.42,804.92,804.13,803.24,802.21,801.05,799.70,797.87,796.46,796.35,798.20,800.58,801.17,801.37,801.77,801.94,801.68,801.26,800.80,800.39,799.90,798.48,797.19,796.81,797.04,796.00,797.13,800.24,802.07,802.90,803.07,802.59,801.31,799.90,798.68,798.27,798.97,800.53,801.80,802.13,801.73,801.03,800.17,797.66,794.19,791.10,791.22,793.93,797.26,799.92,800.41,800.09,799.56,798.33,795.92,794.04,791.95,789.81,787.37,783.79,780.69,778.98,778.33,777.98,777.92,777.73,777.66,777.93,778.37,778.90,779.36,779.63,779.64,779.20,778.49,777.68,777.22,778.43,780.06,780.35,778.79,776.93,775.12,775.20,776.74,778.26,779.49,779.92,779.58,778.46,776.77,774.31,772.00,770.43,770.14,769.86,769.68,769.58,769.52,769.52,769.55,769.56,769.54,769.52,769.46,769.42,769.42,769.41,769.34,769.31,769.31,769.29,769.23,769.15,768.95,768.63,768.36,768.24,768.11,767.91,767.65,767.39,767.07,766.86,766.79,766.61,766.08,765.80,765.70,765.14,763.40,761.36,759.96,759.74,759.65,759.64,759.60,759.53,759.44,759.32,759.22,759.17,759.25,759.58,760.16,761.89,764.95,767.58,770.46,773.29,775.71,777.23,778.74,780.77,783.91,788.40,792.34,794.35,795.38,795.92,796.22,796.18,796.11,795.90,795.42,795.54,795.62,795.64,795.70,795.91,796.17,796.41,796.49,796.22,795.97,795.79,795.67,795.70,796.11,795.94,795.52,795.12,794.97,794.97,795.06,795.21,795.41,795.70,795.90,795.88,795.57,795.20,794.50,793.31,791.71
790.95,795.31,799.08,800.93,801.80,802.47,802.98,802.95,802.53,801.54,799.69,799.80,800.73,801.87,802.74,802.31,801.26,798.93,795.30,792.43,790.28,788.63,787.35,786.68,787.61,789.16,791.22,793.92,796.71,799.11,801.15,802.91,804.47,805.32,805.93,806.42,806.76,807.13,807.49,807.79,808.08,808.54,809.30,810.08,810.69,811.00,811.09,810.93,810.68,810.46,810.17,809.70,809.19,808.71,808.24,807.76,807.27,806.84,806.51,805.92,805.49,805.04,804.43,803.73,802.85,801.88,800.82,799.52,797.58,796.72,797.10,798.53,800.11,800.65,801.01,801.56,802.03,802.03,801.65,801.11,800.65,800.38,799.72,799.11,798.92,798.97,797.03,797.64,800.87,803.16,804.25,804.50,804.28,803.73,802.83,801.76,801.16,801.25,801.71,802.63,802.98,802.69,802.10,801.48,799.82,797.21,794.30,793.27,795.35,798.06,800.07,800.54,800.71,800.57,800.01,798.89,797.71,795.35,792.64,789.58,784.97,781.04,778.94,778.34,778.45,778.61,778.52,778.24,777.86,777.52,777.76,778.13,778.40,778.54,778.31,777.68,776.87,776.23,776.46,777.46,777.90,777.13,775.45,773.60,772.98,773.48,774.33,775.08,775.37,775.12,774.27,772.99,771.54,770.38,769.70,769.61,769.54,769.49,769.46,769.44,769.44,769.44,769.41,769.38,769.37,769.31,769.27,769.26,769.21,769.13,769.11,769.09,769.04,769.01,768.98,768.95,768.89,768.75,768.74,768.68,768.50,768.17,767.84,767.72,767.70,767.68,767.59,767.56,767.66,767.74,767.27,765.16,762.72,760.80,759.92,759.80,759.79,759.78,759.74,759.66,759.56,759.41,759.23,759.06,759.17,759.51,760.56,762.57,765.00,767.60,770.12,772.34,773.91,775.50,777.98,781.54,786.15,790.43,792.72,794.23,795.37,795.82,796.11,796.24,796.14,795.70,795.76,795.83,795.86,795.87,795.95,796.06,796.21,796.33,796.25,796.04,795.90,795.89,796.05,796.15,795.82,795.47,795.29,795.24,795.23,795.31,795.42,795.54,795.74,795.87,795.83,795.57,795.31,794.92,793.92,792.43
790.08,794.43,798.42,800.35,801.24,801.91,802.08,801.74,801.28,800.51,798.79,798.83,799.95,801.28,801.98,801.41,799.28,795.98,792.21,790.08,788.95,787.96,787.17,787.25,788.37,790.16,792.51,795.42,798.25,800.37,802.09,803.56,804.80,805.42,805.92,806.34,806.56,806.71,806.84,806.93,807.05,807.48,808.42,809.36,810.08,810.43,810.49,810.27,809.97,809.71,809.34,808.91,808.46,807.99,807.53,807.07,806.57,806.15,805.91,805.43,804.94,804.33,803.56,802.94,802.16,801.33,800.41,799.14,797.40,797.19,798.05,799.22,800.21,800.72,801.18,801.77,802.40,802.49,802.14,801.63,801.31,801.26,801.24,801.16,801.01,800.74,798.26,798.29,801.19,803.91,805.10,805.44,805.43,805.26,804.75,804.00,803.47,803.30,803.21,803.70,803.90,803.68,803.20,802.57,801.33,799.43,797.07,795.52,797.13,799.12,800.34,800.71,801.03,800.95,800.64,800.28,799.60,797.11,794.07,790.64,785.53,781.16,778.93,778.52,779.07,779.72,779.78,779.26,778.30,777.42,777.22,777.31,777.50,777.67,777.53,776.92,776.10,775.36,774.81,775.12,775.52,775.37,774.00,772.21,771.22,771.11,771.49,771.87,772.07,771.97,771.46,770.63,770.01,769.69,769.60,769.56,769.51,769.49,769.50,769.51,769.51,769.51,769.49,769.42,769.42,769.37,769.34,769.30,769.22,769.14,769.11,769.09,769.02,769.01,769.03,769.11,769.22,769.24,769.30,769.34,769.21,768.75,768.32,768.40,768.59,768.65,768.64,769.19,770.15,770.95,770.36,767.75,765.08,762.97,761.74,761.55,761.50,761.49,761.44,761.13,760.64,760.01,759.39,759.03,758.91,759.11,759.68,760.75,762.52,764.64,766.84,768.91,770.62,772.49,775.29,778.93,783.24,787.68,790.63,792.73,794.25,795.11,795.73,796.09,796.16,795.99,795.89,796.01,796.11,796.11,796.11,796.11,796.16,796.24,796.28,796.14,796.04,796.06,796.20,796.08,795.77,795.54,795.44,795.37,795.36,795.44,795.56,795.66,795.79,795.84,795.76,795.58,795.39,795.15,794.27,792.78
790.19,794.56,798.26,800.17,801.07,801.45,800.96,800.34,799.78,798.98,797.40,797.51,799.01,800.68,801.02,800.07,795.88,791.73,789.51,788.47,787.88,787.38,787.21,787.99,789.16,791.27,794.02,797.00,799.55,801.30,802.75,804.01,804.79,805.19,805.48,805.69,805.80,805.89,805.99,806.02,806.06,806.48,807.51,808.50,809.20,809.57,809.60,809.43,809.19,808.93,808.57,808.17,807.74,807.28,806.82,806.35,805.86,805.40,805.06,804.61,804.00,803.21,802.28,801.71,801.08,800.46,799.70,798.42,797.37,797.89,799.23,800.42,801.22,801.65,802.05,802.55,803.10,802.99,802.62,802.30,802.32,802.44,802.66,802.76,802.58,802.14,799.68,799.17,801.32,804.37,805.43,805.84,805.98,805.83,805.56,805.30,805.12,805.02,804.94,804.95,804.84,804.61,804.29,803.63,802.36,800.72,798.98,797.67,798.98,800.27,800.76,801.07,801.35,801.25,800.90,800.43,799.82,797.35,794.29,790.81,785.65,781.16,779.07,778.98,779.82,781.15,781.33,780.53,779.16,778.13,777.30,776.85,776.77,776.86,776.73,776.14,775.32,774.54,773.75,773.35,773.35,773.43,772.57,770.93,770.07,770.01,770.07,770.13,770.16,770.14,770.04,769.81,769.70,769.65,769.64,769.72,769.78,769.85,769.93,770.01,770.04,770.05,769.96,769.82,769.82,769.82,769.73,769.59,769.48,769.40,769.37,769.34,769.28,769.28,769.33,769.41,769.54,769.80,769.98,770.16,770.05,769.34,768.80,769.08,769.61,770.01,770.12,771.27,773.57,775.64,774.73,771.66,768.90,766.90,765.73,765.35,765.16,765.11,764.99,764.14,762.77,761.12,759.73,759.20,758.78,758.77,759.08,759.61,760.25,761.63,763.45,765.42,767.31,769.69,772.65,775.97,779.63,783.98,788.02,790.82,792.43,794.04,795.05,795.60,795.95,796.21,795.93,796.11,796.34,796.34,796.34,796.34,796.31,796.28,796.28,796.26,796.20,796.14,796.10,795.97,795.84,795.71,795.58,795.50,795.49,795.53,795.64,795.77,795.86,795.79,795.68,795.58,795.48,795.22,794.34,792.87
794.11,797.53,799.63,800.71,801.09,800.79,799.81,798.41,797.41,796.69,795.39,795.89,797.80,799.64,799.36,796.01,792.24,789.54,788.46,788.35,788.23,788.03,787.94,788.52,790.15,792.75,795.78,798.65,800.50,801.71,802.53,803.12,803.77,804.04,804.14,804.22,804.39,804.51,804.73,804.85,804.91,805.54,806.55,807.60,808.51,809.07,808.90,808.64,808.39,808.12,807.82,807.45,807.04,806.57,806.10,805.64,804.83,803.93,803.39,802.88,802.31,801.64,800.94,800.50,799.93,799.33,798.70,798.06,798.24,799.07,800.16,801.20,802.02,802.58,802.99,803.35,803.78,803.62,803.38,803.27,803.41,803.60,803.88,804.09,804.04,803.43,800.88,799.69,800.92,803.98,805.34,806.04,806.40,806.39,806.18,806.01,805.89,805.82,805.74,805.62,805.43,805.21,805.00,804.63,803.59,802.17,800.72,799.84,800.50,801.18,801.44,801.60,801.62,801.37,800.94,800.47,799.90,797.45,794.37,790.85,785.68,781.16,779.24,779.66,781.46,783.13,783.25,782.06,780.07,778.78,777.82,777.10,776.59,776.24,775.95,775.36,774.58,773.76,772.91,772.24,771.85,771.64,771.06,770.26,769.88,769.86,769.86,769.86,769.83,769.78,769.75,769.78,769.96,769.98,769.93,770.34,770.96,771.82,772.54,772.80,773.08,773.15,772.56,771.52,771.65,771.66,771.09,770.24,769.79,769.66,769.61,769.56,769.54,769.53,769.59,769.67,770.00,771.14,772.20,772.66,771.99,769.90,769.28,770.16,772.12,774.41,775.02,777.13,779.39,780.79,780.17,778.10,775.84,773.65,771.68,770.51,769.85,769.72,769.54,767.91,765.99,763.48,761.02,759.62,759.02,758.71,758.66,758.92,759.27,760.00,760.96,762.22,764.11,766.97,770.22,773.50,776.81,780.76,784.89,788.00,790.01,792.13,793.75,794.85,795.60,796.03,795.96,796.15,796.29,796.17,796.16,796.16,796.15,796.12,796.08,796.11,796.01,795.96,796.08,796.03,795.96,795.87,795.75,795.64,795.57,795.63,795.74,795.80,795.83,795.73,795.59,795.49,795.43,795.15,794.20,792.69
798.15,800.19,800.93,801.19,801.03,800.28,799.17,797.40,795.93,794.83,793.43,794.05,795.94,797.51,796.59,792.18,789.63,788.58,788.45,788.96,789.21,789.13,788.86,788.87,790.93,793.96,797.16,799.83,800.96,801.62,801.86,801.89,802.35,802.40,802.29,802.23,802.40,802.60,803.01,803.50,804.05,804.95,805.92,806.99,808.02,808.61,808.25,807.88,807.59,807.31,807.07,806.73,806.32,805.82,805.17,804.47,803.35,802.19,801.60,801.12,800.66,800.21,799.77,799.46,798.98,798.53,798.22,798.24,799.25,800.18,801.00,801.90,802.78,803.48,803.98,804.30,804.58,804.41,804.32,804.38,804.49,804.67,804.93,805.19,805.25,804.59,802.05,800.18,800.34,803.35,805.10,806.10,806.69,806.95,806.77,806.61,806.49,806.39,806.29,806.14,805.94,805.75,805.59,805.42,804.69,803.60,802.47,801.85,801.95,802.08,802.04,801.91,801.69,801.33,800.88,800.42,799.76,797.30,794.23,790.67,785.44,781.05,779.47,780.53,783.32,785.44,785.43,783.85,781.36,779.48,778.39,777.52,776.69,776.03,775.67,775.13,774.38,773.55,772.72,771.88,771.12,770.50,770.06,769.92,770.22,770.71,770.95,770.90,770.65,770.41,770.48,771.34,771.89,771.74,771.26,771.73,773.09,774.86,776.39,777.13,777.60,777.34,776.04,774.29,774.56,774.65,773.60,771.90,770.77,770.34,770.31,770.37,770.39,770.42,770.55,770.78,771.48,773.35,775.15,775.64,774.26,771.10,770.70,772.65,776.07,779.84,781.18,783.45,785.04,785.56,785.27,784.28,782.69,780.67,778.47,776.92,775.94,775.50,774.97,772.70,770.00,766.71,763.36,760.86,759.57,758.86,758.50,758.45,758.62,758.90,759.24,759.87,761.41,763.91,767.09,770.52,774.00,777.71,781.73,784.91,787.17,789.70,792.07,793.86,795.06,795.69,795.93,796.13,796.16,795.96,795.93,795.91,795.91,795.89,795.84,795.85,795.78,795.79,796.00,796.03,795.99,795.92,795.86,795.76,795.68,795.71,795.79,795.78,795.78,795.67,795.51,795.38,795.30,794.84,793.76,792.24
800.84,801.16,801.50,801.28,800.75,800.12,799.47,798.24,796.41,794.11,791.87,791.98,793.10,793.68,792.23,789.93,788.97,788.98,789.58,790.23,790.70,790.54,789.77,789.00,791.21,794.46,797.69,800.06,800.70,800.78,800.68,800.56,800.55,800.26,799.94,799.73,799.76,800.10,800.79,802.05,803.79,804.93,805.89,806.91,807.80,808.02,807.61,807.13,806.77,806.52,806.28,805.97,805.55,804.93,803.82,802.50,801.25,800.32,799.97,799.69,799.46,799.23,798.97,798.72,798.45,798.45,798.75,799.23,800.12,800.97,801.77,802.63,803.53,804.33,805.00,805.48,805.60,805.49,805.49,805.57,805.54,805.61,805.81,806.02,806.06,805.52,803.26,800.75,799.73,802.64,804.75,805.97,806.80,807.46,807.35,807.23,807.11,806.97,806.82,806.61,806.43,806.26,806.10,805.88,805.47,804.90,804.22,803.50,803.36,803.02,802.33,801.71,801.41,801.08,800.70,800.25,799.24,796.77,793.75,790.15,784.78,780.77,779.83,781.61,785.16,788.04,787.90,785.99,783.29,780.30,778.88,777.95,777.09,776.45,776.29,775.84,775.13,774.35,773.56,772.59,771.49,770.45,770.05,770.00,771.18,772.98,773.89,773.70,772.94,772.30,772.67,775.39,776.50,775.81,774.27,774.27,776.43,779.09,781.50,783.14,783.65,782.39,780.30,778.45,778.84,779.08,777.71,775.17,772.90,771.82,771.91,772.28,772.36,772.47,772.76,773.44,774.71,776.79,778.78,778.79,776.71,773.46,773.83,777.47,781.90,785.69,788.00,788.94,789.29,789.37,789.24,788.89,788.00,786.85,785.73,784.82,783.88,782.83,781.39,778.84,774.95,770.97,767.16,763.50,760.56,759.30,758.68,758.18,758.01,758.21,758.51,758.90,759.56,760.34,762.78,766.51,770.89,774.73,778.64,781.65,783.82,786.64,789.95,792.49,794.19,795.26,795.77,796.02,796.03,795.83,795.75,795.68,795.65,795.64,795.62,795.52,795.59,795.73,795.82,795.83,795.83,795.82,795.82,795.85,795.80,795.78,795.78,795.72,795.71,795.61,795.45,795.29,795.06,794.19,792.90,791.43
802.48,801.98,802.02,801.66,801.07,800.56,800.16,799.45,797.82,795.12,791.84,790.83,790.93,790.97,790.04,789.26,789.33,789.86,790.58,791.24,791.84,791.57,790.50,789.48,790.53,793.21,796.25,798.47,798.97,798.93,798.54,797.95,797.64,798.00,798.55,799.04,799.46,800.42,801.88,803.40,804.67,805.49,806.20,806.99,807.62,807.48,806.97,806.44,806.02,805.72,805.25,804.53,803.57,802.50,801.59,800.73,800.09,799.69,799.55,799.44,799.36,799.27,799.12,798.83,798.78,799.01,799.50,800.19,801.11,801.95,802.65,803.26,804.12,805.10,806.01,806.67,806.87,806.81,806.84,806.86,806.68,806.69,806.78,806.89,806.86,806.15,804.40,801.85,800.09,802.20,804.50,805.91,806.83,807.68,807.90,807.81,807.65,807.50,807.34,807.12,806.93,806.77,806.57,806.30,805.84,805.31,804.72,803.79,803.19,802.54,801.76,801.11,800.80,800.50,800.01,799.17,797.95,795.64,792.81,789.22,783.79,780.44,779.93,782.01,786.24,789.34,789.63,788.21,785.63,781.70,779.58,778.37,777.57,777.07,776.98,776.73,776.24,775.57,774.77,773.76,772.56,771.46,771.40,772.32,774.24,776.43,777.57,777.49,776.80,776.50,777.46,779.81,780.05,778.47,776.25,775.92,778.47,782.14,785.58,787.64,788.25,787.36,785.52,783.54,783.43,783.07,781.07,777.93,775.33,774.28,774.97,775.90,775.98,775.70,776.04,777.00,778.57,780.80,782.76,782.14,779.65,777.27,778.67,782.86,786.81,789.11,790.48,790.84,790.89,790.89,790.88,790.71,790.23,789.63,789.12,788.63,788.07,787.04,785.24,782.27,778.73,774.78,770.67,766.65,762.62,760.17,758.95,758.58,758.24,758.05,758.00,758.14,758.64,759.11,760.55,763.19,767.02,770.63,774.27,777.32,779.79,782.69,786.61,790.00,792.56,794.29,795.28,795.79,795.91,795.73,795.57,795.48,795.42,795.39,795.38,795.36,795.44,795.55,795.59,795.63,795.64,795.66,795.71,795.78,795.76,795.72,795.67,795.61,795.63,795.57,795.42,795.23,795.00,793.95,792.40,790.78
803.63,802.79,802.56,802.12,801.58,801.15,800.84,800.45,799.13,796.46,792.49,790.32,789.50,789.23,788.95,789.29,790.04,790.83,791.51,792.17,792.85,792.49,791.22,790.04,789.88,791.64,794.09,795.91,796.42,796.50,796.13,795.56,795.66,796.91,798.45,799.79,800.68,801.99,803.77,805.14,805.70,806.18,806.66,807.14,807.40,806.96,806.34,805.74,805.19,804.63,803.83,802.78,801.57,800.44,800.00,799.80,799.79,799.86,799.87,799.83,799.82,799.75,799.55,799.19,799.34,799.77,800.37,801.17,802.12,802.98,803.58,803.93,804.73,805.88,807.00,807.83,808.17,808.21,808.21,808.15,807.87,807.81,807.80,807.78,807.56,806.59,805.21,802.97,801.08,802.51,804.64,806.06,807.02,807.94,808.43,808.38,808.18,808.02,807.85,807.64,807.44,807.24,806.91,806.54,805.95,805.30,804.62,803.48,802.47,801.59,800.84,800.20,799.83,799.46,798.80,797.61,796.24,794.20,791.56,788.07,783.14,780.44,780.02,782.00,786.71,789.96,790.93,790.24,787.94,783.63,780.53,778.77,778.02,777.76,777.75,777.70,777.46,776.90,776.08,775.07,774.03,773.28,773.74,775.64,778.24,780.72,781.99,782.04,781.66,781.82,783.03,784.22,782.68,780.05,777.63,777.14,779.81,784.43,788.89,791.16,791.90,791.65,790.38,788.51,787.78,786.82,784.28,780.71,777.81,776.72,778.06,779.86,780.52,780.03,780.39,781.44,783.04,785.15,786.70,785.74,783.39,781.96,783.93,787.67,790.52,791.43,791.65,791.72,791.73,791.75,791.80,791.64,791.36,791.07,790.86,790.60,790.32,789.41,787.46,784.30,781.39,777.68,773.53,769.52,764.93,761.52,759.65,759.20,758.72,758.15,757.72,757.60,758.06,758.62,759.28,760.78,763.72,766.92,770.18,773.25,776.08,778.99,782.95,786.88,790.30,792.82,794.28,795.18,795.62,795.57,795.37,795.21,795.09,795.05,795.16,795.24,795.31,795.36,795.39,795.46,795.49,795.54,795.63,795.69,795.69,795.63,795.55,795.50,795.55,795.52,795.39,795.19,795.01,794.06,792.48,790.82
804.28,803.67,803.15,802.61,802.11,801.69,801.15,800.63,799.53,797.38,793.76,790.85,789.48,789.13,789.18,789.95,790.85,791.67,792.38,793.12,793.82,793.43,792.05,790.56,790.02,790.55,791.47,792.23,792.76,793.30,793.80,794.67,796.96,798.95,801.04,802.97,804.13,804.71,805.26,805.79,806.23,806.75,807.28,807.38,807.05,806.45,805.74,805.00,804.09,802.87,801.56,800.73,800.40,800.48,800.74,800.91,801.05,801.17,801.21,801.04,800.99,800.67,799.96,799.53,799.87,800.58,801.42,802.26,803.13,803.98,804.56,804.79,805.58,806.76,807.95,808.89,809.38,809.57,809.55,809.38,809.10,808.94,808.90,808.70,808.04,806.73,805.23,803.73,803.01,804.61,805.70,806.68,807.67,808.58,808.98,808.93,808.74,808.54,808.38,808.16,807.93,807.61,806.99,806.36,805.69,804.88,803.85,802.59,801.44,800.46,799.63,798.84,798.20,797.49,796.60,795.40,794.04,792.33,789.88,786.71,783.70,781.33,780.24,781.40,786.13,789.81,791.62,791.70,789.91,786.51,782.02,779.14,778.38,778.49,778.67,778.77,778.67,778.24,777.39,776.44,776.01,776.41,777.63,779.96,783.19,786.35,787.78,787.82,787.93,788.28,788.66,788.37,783.74,779.81,778.18,777.90,780.28,785.58,790.97,793.26,794.18,794.20,793.57,792.42,791.21,790.20,787.72,783.92,780.18,778.33,780.06,783.40,786.22,786.34,786.72,787.52,788.65,789.97,790.32,789.86,788.87,787.89,788.95,790.47,791.82,792.69,792.72,792.63,792.57,792.59,792.63,792.34,791.94,791.53,791.17,790.75,790.33,789.27,787.34,784.71,781.95,778.57,774.88,771.28,767.09,763.82,761.40,759.85,759.24,758.55,757.88,757.46,757.67,758.26,758.99,760.25,762.46,765.05,767.83,770.75,773.77,776.66,779.42,782.94,786.94,790.44,792.21,793.71,794.81,795.22,795.09,794.74,794.48,794.50,794.97,795.11,795.14,795.20,795.32,795.40,795.47,795.56,795.68,795.69,795.64,795.54,795.43,795.42,795.43,795.43,795.35,795.19,795.09,794.83,793.89,792.55
804.00,803.37,802.81,802.34,801.91,801.47,800.97,800.32,798.73,795.94,792.41,790.31,789.37,789.16,789.45,790.39,791.57,792.57,793.31,794.08,794.82,794.50,793.21,791.83,791.71,792.52,793.50,794.12,794.43,794.11,793.85,794.55,797.65,800.51,803.22,805.18,805.57,805.85,806.12,806.40,806.74,807.11,807.25,807.01,806.50,805.95,805.36,804.70,803.94,803.09,802.38,801.94,801.86,802.11,802.38,802.59,802.74,802.79,802.67,802.46,802.13,801.37,800.25,800.04,800.70,801.65,802.67,803.60,804.28,805.01,805.70,806.32,807.21,808.23,809.13,809.76,810.12,810.31,810.31,810.17,809.98,809.92,809.84,809.58,808.95,807.69,806.37,805.28,804.97,806.30,806.90,807.56,808.36,809.13,809.43,809.42,809.29,809.10,808.90,808.64,808.34,807.87,807.10,806.30,805.49,804.43,802.98,801.53,800.31,799.29,798.39,797.48,796.59,795.80,794.99,794.02,792.87,791.42,789.81,788.17,786.54,783.58,781.16,781.20,785.82,789.79,792.12,792.69,791.33,788.75,783.85,780.24,778.97,779.27,780.21,780.77,780.98,780.81,779.23,778.31,778.39,779.58,781.61,784.50,787.66,790.15,790.63,790.78,791.03,791.08,790.55,789.25,783.94,780.05,779.04,779.28,782.29,787.57,792.51,794.37,795.05,795.13,794.86,794.28,793.54,792.84,790.87,787.66,783.98,780.99,782.93,786.92,789.94,790.77,791.37,791.98,792.58,793.14,793.14,792.95,792.58,792.10,792.53,792.98,793.46,793.89,793.78,793.57,793.36,793.14,792.79,792.26,791.74,791.26,790.82,790.28,789.07,787.55,785.80,783.63,781.38,778.53,775.29,772.03,768.75,765.74,763.07,760.91,759.65,758.73,757.91,757.24,757.09,757.64,758.43,759.52,761.18,763.67,766.40,769.29,772.32,775.38,778.23,781.67,785.46,788.80,790.75,791.94,792.65,792.91,792.71,792.45,792.29,792.53,793.63,794.45,794.87,795.10,795.34,795.43,795.50,795.58,795.64,795.61,795.54,795.44,795.34,795.32,795.34,795.38,795.35,795.24,795.16,795.08,794.64,793.94
803.33,802.59,802.07,801.73,801.39,800.89,800.18,799.14,796.90,793.52,790.44,789.57,789.32,789.29,789.68,790.58,791.97,793.25,794.14,795.03,795.82,795.62,794.58,793.60,794.07,795.48,796.92,797.66,797.68,796.44,795.04,794.83,797.99,801.52,804.68,806.53,806.13,806.39,806.68,806.90,807.09,807.30,807.09,806.66,806.17,805.72,805.33,804.79,804.30,804.08,804.12,804.02,804.00,804.12,804.20,804.33,804.42,804.38,804.10,803.86,803.29,802.22,800.99,801.10,801.95,802.99,804.01,804.93,805.40,805.99,806.81,807.85,808.86,809.64,810.18,810.48,810.67,810.82,810.83,810.77,810.76,810.82,810.67,810.40,809.94,808.95,807.95,807.19,806.99,807.84,808.17,808.55,809.07,809.62,809.81,809.85,809.78,809.61,809.38,809.09,808.69,808.12,807.25,806.35,805.45,804.21,802.49,800.89,799.63,798.63,797.74,796.79,795.76,795.04,794.47,793.78,792.93,791.66,790.87,790.64,789.71,786.01,782.39,781.43,785.89,789.93,792.57,793.48,792.45,790.44,785.73,781.69,779.79,780.41,782.36,783.63,784.27,784.38,782.27,781.38,781.75,783.30,785.88,789.14,791.84,793.15,792.42,792.61,792.71,792.21,790.85,788.97,784.52,781.56,781.08,781.78,785.23,789.91,793.78,795.00,795.37,795.44,795.37,795.21,795.09,794.78,793.51,791.25,788.07,784.25,785.98,789.90,792.60,793.93,794.70,795.12,795.27,795.27,795.27,795.24,795.16,795.05,795.03,794.98,794.94,794.89,794.66,794.36,794.00,793.51,792.74,791.93,791.26,790.66,790.05,789.46,787.67,785.83,784.22,782.26,780.39,778.02,775.23,772.36,769.96,767.24,764.48,762.00,760.02,758.88,757.93,757.03,756.47,756.93,757.78,758.78,760.12,762.64,765.45,768.32,771.26,774.43,777.63,781.01,784.35,787.14,789.07,789.68,789.67,789.45,789.15,789.08,789.33,790.14,792.01,793.51,794.35,794.85,795.23,795.37,795.49,795.55,795.54,795.48,795.41,795.33,795.25,795.21,795.25,795.32,795.33,795.26,795.20,795.13,795.05,794.95
802.48,801.69,801.12,800.90,800.70,800.00,797.93,795.57,793.06,790.77,789.65,789.47,789.55,789.63,789.67,790.10,791.43,793.02,794.49,795.89,796.75,796.75,796.24,796.14,796.77,798.02,799.24,799.83,799.67,798.97,797.18,795.51,797.85,801.21,804.26,806.15,806.30,806.85,807.02,807.00,807.00,807.20,807.35,807.22,806.87,806.51,806.13,805.63,805.27,805.25,805.17,805.04,805.13,805.43,805.46,805.49,805.52,805.46,805.21,804.98,804.53,803.92,803.43,803.81,804.30,804.84,805.38,805.86,806.21,806.77,807.58,808.60,809.61,810.16,810.53,810.84,811.16,811.30,811.29,811.30,811.51,811.60,811.42,811.09,810.70,810.20,809.72,809.35,809.19,809.37,809.50,809.62,809.77,809.98,810.08,810.15,810.11,809.94,809.71,809.42,809.01,808.43,807.52,806.65,805.82,804.78,803.39,801.90,800.67,799.78,799.13,798.41,797.54,797.12,796.89,796.46,795.85,794.69,793.76,793.02,791.12,787.34,783.72,782.63,786.85,790.41,793.03,794.13,793.20,791.09,787.30,783.44,781.13,782.75,785.83,788.20,789.58,789.90,788.71,787.95,787.90,788.82,791.07,793.89,795.60,795.71,794.34,794.06,793.50,792.29,790.46,788.81,787.54,786.86,786.80,787.35,789.41,792.39,794.81,795.30,795.57,795.67,795.64,795.50,795.41,795.18,794.71,793.65,791.31,788.23,788.49,791.03,794.08,795.08,795.62,795.81,795.80,795.94,796.02,796.07,796.04,795.85,795.66,795.56,795.44,795.24,794.95,794.60,794.19,793.64,792.79,791.75,790.83,789.83,788.69,788.27,787.40,786.06,784.24,781.82,779.45,777.09,774.74,772.44,770.28,767.78,765.20,762.71,760.36,759.13,758.08,756.91,755.93,756.20,757.11,758.28,759.78,762.20,764.98,767.73,770.42,773.29,776.10,779.16,782.19,784.50,785.88,786.12,785.54,784.50,784.12,784.35,785.69,788.06,790.87,792.24,793.18,793.99,794.61,794.90,795.16,795.32,795.36,795.35,795.28,795.20,795.14,795.13,795.14,795.16,795.16,795.14,795.13,795.11,795.09,795.06
801.68,800.81,799.81,799.41,798.82,797.16,794.39,792.37,790.76,789.62,789.56,789.96,790.60,790.91,790.38,790.05,791.04,792.65,794.38,796.07,797.34,797.77,797.69,797.98,798.84,799.77,800.57,801.07,800.93,800.46,799.07,797.26,797.39,800.01,803.15,805.63,806.56,806.73,806.68,806.59,806.52,806.68,806.99,807.13,807.08,806.94,806.60,806.28,806.07,805.96,805.69,805.65,805.77,806.01,806.34,806.40,806.42,806.37,806.14,805.91,805.81,805.65,805.46,805.78,805.85,806.03,806.37,806.68,806.99,807.55,808.32,809.22,810.07,810.52,810.87,811.21,811.56,811.76,811.85,811.95,812.23,812.37,812.14,811.76,811.38,811.04,810.72,810.49,810.34,810.21,810.14,810.13,810.15,810.22,810.27,810.34,810.31,810.15,809.95,809.71,809.32,808.71,807.83,807.00,806.24,805.40,804.37,803.12,801.88,801.01,800.46,799.86,799.16,798.90,798.87,798.74,798.36,797.11,795.45,793.47,790.80,787.14,784.31,784.00,787.98,791.03,793.46,794.80,794.36,792.17,789.18,785.93,783.80,785.71,789.25,792.35,794.24,794.53,793.91,793.50,793.70,794.62,795.91,797.47,798.14,797.59,795.79,794.72,794.01,793.27,792.33,791.44,791.38,791.46,791.52,791.81,792.71,794.12,795.30,795.53,795.76,795.88,795.87,795.75,795.64,795.45,795.26,794.80,793.44,791.05,790.44,791.90,794.71,795.55,795.94,796.15,796.28,796.50,796.57,796.52,796.35,796.07,795.85,795.67,795.46,795.17,794.81,794.48,794.17,793.75,792.96,791.88,790.87,789.92,789.12,788.91,788.55,787.63,785.86,782.96,780.04,777.60,775.30,772.69,770.20,767.81,765.47,763.15,760.85,759.37,758.08,756.73,755.52,755.52,756.45,757.78,759.34,761.51,763.98,766.14,768.08,770.71,773.44,776.47,779.44,781.72,783.01,783.17,782.14,780.32,779.77,780.54,782.67,785.94,789.70,791.11,791.99,792.83,793.62,794.24,794.64,794.88,794.97,795.00,794.97,794.96,794.96,794.94,794.93,794.91,794.91,794.94,795.00,795.04,795.06,795.05
800.87,799.83,798.26,797.47,796.26,793.61,790.84,789.93,789.62,789.50,789.97,790.90,792.15,792.75,791.68,790.59,791.10,792.47,794.17,795.90,797.63,798.60,798.93,799.35,800.32,800.92,801.35,801.80,801.81,801.41,800.72,799.48,797.30,798.62,801.59,804.68,806.43,806.16,805.96,805.89,805.80,805.88,806.25,806.72,807.11,807.19,806.93,806.81,806.70,806.37,805.95,806.06,806.18,806.28,806.89,807.08,807.15,807.13,806.94,806.75,806.91,806.99,806.84,806.94,806.71,806.74,807.05,807.28,807.54,808.09,808.83,809.63,810.29,810.75,811.13,811.50,811.83,812.13,812.35,812.55,812.86,813.05,812.81,812.42,812.02,811.63,811.30,811.06,810.88,810.65,810.42,810.34,810.36,810.41,810.42,810.48,810.44,810.29,810.13,809.97,809.61,809.00,808.17,807.40,806.68,806.01,805.30,804.34,803.14,802.24,801.69,801.12,800.55,800.35,800.40,800.50,800.23,798.75,796.18,792.83,789.64,786.18,784.55,785.46,789.14,791.74,793.92,795.52,795.78,793.62,791.24,788.73,787.05,788.66,792.29,795.79,797.98,798.13,797.82,797.80,798.44,799.53,799.76,799.89,799.70,798.83,796.82,795.10,794.56,794.74,795.08,795.01,794.98,794.98,794.98,795.00,795.07,795.27,795.52,795.75,795.98,796.09,796.09,795.99,795.84,795.68,795.49,795.24,794.73,792.97,792.00,792.66,794.88,795.66,795.95,796.27,796.66,796.90,796.91,796.66,796.30,795.96,795.75,795.41,795.00,794.58,794.17,793.91,793.80,793.66,793.14,792.16,791.16,790.50,790.37,790.35,790.22,789.64,788.17,785.17,781.79,779.07,776.49,773.19,770.14,767.77,765.69,763.61,761.54,759.71,758.11,756.63,755.26,754.83,755.66,757.08,758.61,760.48,762.46,763.81,764.84,767.23,770.10,773.30,776.43,778.89,780.32,780.41,779.00,776.58,775.91,777.32,780.01,783.75,788.37,790.14,790.96,791.67,792.54,793.44,793.98,794.29,794.46,794.53,794.57,794.68,794.76,794.68,794.66,794.60,794.58,794.66,794.79,794.89,794.93,794.92
799.93,798.29,796.50,795.12,793.61,791.62,790.05,789.63,789.65,789.95,790.95,792.36,793.93,794.76,793.83,792.60,792.59,793.38,794.60,795.82,797.48,798.89,799.86,800.38,800.81,801.39,802.01,802.49,802.72,802.52,802.06,801.19,799.49,798.36,799.44,801.99,804.42,805.02,805.21,805.14,804.86,804.89,805.55,806.55,807.46,807.59,807.52,807.35,807.08,806.66,806.26,806.39,806.67,806.85,806.92,807.33,807.54,807.55,807.55,807.59,807.12,806.68,806.58,806.56,806.68,806.99,807.31,807.14,807.10,807.57,808.43,809.42,810.12,810.62,811.04,811.42,811.78,812.10,812.38,812.70,813.09,813.38,813.36,813.10,812.66,812.22,811.84,811.56,811.33,811.05,810.76,810.62,810.59,810.61,810.62,810.63,810.57,810.42,810.26,810.11,809.82,809.33,808.55,807.87,807.23,806.59,805.95,805.23,804.30,803.49,802.84,802.19,801.53,801.29,801.30,801.21,800.61,798.85,795.91,792.10,788.70,785.45,785.00,787.09,790.19,792.50,794.62,796.47,797.32,795.46,793.27,791.20,789.75,790.23,793.88,797.40,799.47,799.55,799.47,799.47,799.72,800.13,800.22,800.15,799.84,798.97,797.12,796.13,795.88,796.01,796.20,795.98,795.82,795.77,795.77,795.76,795.67,795.72,795.88,796.07,796.29,796.37,796.33,796.19,796.04,795.88,795.68,795.44,795.05,793.92,793.11,793.38,794.91,795.70,795.84,796.04,796.49,796.83,796.63,796.27,795.90,795.57,795.30,794.53,793.53,792.65,792.32,792.21,792.38,792.77,793.10,792.29,791.46,790.95,790.85,790.88,790.82,790.51,789.81,788.33,784.84,781.20,777.76,774.33,771.02,768.60,766.61,764.73,762.79,760.52,758.62,757.05,755.40,754.00,754.30,755.53,756.97,758.56,759.98,760.78,761.35,763.36,766.39,770.04,773.61,776.18,777.48,776.96,775.12,772.81,772.40,774.28,777.33,781.33,786.45,789.46,790.69,791.23,791.83,792.44,793.05,793.58,793.93,794.03,794.23,794.47,794.60,794.43,794.30,794.22,794.18,794.22,794.31,794.44,794.50,794.49
797.79,796.07,794.50,792.95,791.53,790.41,789.78,789.83,790.33,791.23,792.62,794.30,795.96,796.92,796.39,795.18,794.47,794.61,795.58,796.53,797.89,799.25,800.40,801.10,801.37,801.83,802.45,803.06,803.50,803.59,803.39,802.79,801.47,799.37,798.79,799.89,801.99,802.77,803.04,803.01,802.94,803.68,805.40,806.74,807.36,807.45,807.60,807.60,807.38,806.93,806.57,806.74,807.10,807.35,807.16,807.48,807.48,807.27,807.30,807.37,806.54,805.75,805.57,805.66,806.27,806.98,807.32,806.67,806.48,806.94,807.75,808.64,809.61,810.30,810.80,811.18,811.54,811.86,812.15,812.47,812.89,813.17,813.24,813.11,812.78,812.46,812.20,811.97,811.74,811.40,811.09,810.91,810.83,810.81,810.81,810.75,810.63,810.48,810.35,810.20,809.99,809.61,808.93,808.30,807.69,807.06,806.41,805.76,805.05,804.37,803.75,803.11,802.45,802.08,801.85,801.48,800.71,798.80,795.65,791.60,788.16,785.69,786.16,788.70,791.26,793.37,795.44,797.38,798.57,797.48,795.83,794.10,792.58,791.99,794.60,797.85,800.03,800.13,800.16,800.19,800.23,800.28,800.32,800.21,799.90,799.19,797.78,797.24,797.12,797.11,797.03,796.68,796.45,796.35,796.33,796.31,796.16,796.15,796.26,796.40,796.62,796.66,796.57,796.41,796.23,796.05,795.84,795.59,795.24,794.62,794.05,794.00,794.72,795.64,795.68,795.80,796.26,796.55,796.18,795.76,795.31,794.64,793.85,792.65,791.44,790.59,790.47,790.80,791.42,792.21,792.89,792.47,791.82,791.37,791.27,791.33,791.25,791.06,790.76,790.08,787.18,783.50,779.85,776.62,773.20,770.35,768.04,766.13,764.09,761.54,759.32,757.51,755.73,753.94,753.37,753.78,754.84,756.06,757.08,757.63,758.12,759.94,763.14,767.12,771.00,773.63,774.71,773.83,771.77,769.53,769.37,771.72,775.36,779.87,785.14,788.99,790.53,791.00,791.46,791.92,792.50,793.03,793.46,793.74,794.09,794.34,794.39,794.19,794.01,793.88,793.80,793.76,793.80,793.87,793.91,793.88
794.73,793.43,792.43,791.19,790.16,789.82,789.72,790.21,791.34,792.97,794.68,796.52,798.06,799.02,798.98,797.89,796.49,796.03,796.95,797.87,798.85,799.81,800.75,801.64,802.09,802.34,802.76,803.51,804.13,804.56,804.67,804.26,802.99,801.13,799.40,798.68,799.69,800.08,800.19,800.21,800.59,802.47,805.57,807.04,806.87,806.89,807.26,807.58,807.61,807.19,806.89,807.10,807.46,807.69,807.55,807.60,807.21,806.64,806.45,806.31,805.42,804.48,804.10,804.44,805.41,806.38,806.72,805.73,805.62,806.13,806.82,807.50,808.82,809.81,810.45,810.84,811.16,811.46,811.72,812.00,812.37,812.55,812.59,812.54,812.44,812.34,812.30,812.21,812.02,811.67,811.38,811.18,811.06,810.99,810.97,810.82,810.64,810.50,810.40,810.26,810.10,809.82,809.27,808.65,808.03,807.38,806.70,806.01,805.43,804.92,804.41,803.86,803.25,802.69,802.13,801.46,800.69,798.78,795.51,791.30,787.96,786.68,787.79,790.19,792.32,794.30,796.37,798.26,799.48,799.39,798.55,797.20,795.53,794.16,794.92,797.50,799.88,800.15,800.27,800.34,800.39,800.41,800.39,800.27,800.03,799.57,798.76,798.33,798.20,798.07,797.77,797.39,797.13,796.98,796.91,796.88,796.70,796.61,796.63,796.73,796.93,796.91,796.78,796.60,796.38,796.15,795.93,795.69,795.40,795.10,794.74,794.36,794.26,795.33,795.37,795.48,795.92,796.03,795.57,795.11,794.47,793.23,791.64,790.07,789.03,788.76,789.02,789.93,791.02,792.00,792.59,792.63,792.17,791.74,791.67,791.70,791.53,791.32,791.10,790.58,788.75,785.82,782.56,779.71,776.33,772.88,769.96,767.73,765.37,762.67,760.16,758.00,756.24,754.52,752.99,752.17,752.53,753.28,753.97,754.49,755.15,757.03,760.39,764.55,768.57,771.18,771.97,770.94,768.83,766.60,766.69,769.64,774.14,779.36,784.52,788.72,790.42,790.89,791.35,791.82,792.27,792.65,793.03,793.62,794.04,794.15,794.05,793.88,793.66,793.49,793.37,793.28,793.25,793.20,793.17,793.15
