784.99,788.35,791.52,794.62,797.60,800.15,801.60,803.04,804.11,804.71,805.10,805.29,805.21,804.73,803.59,801.88,800.18,798.36,796.32,794.16,792.03,790.07,788.07,785.53,783.02,783.06,784.17,784.74,784.36,782.92,780.99,779.10,778.04,777.57,777.87,778.96,780.90,783.07,785.50,787.91,790.01,791.60,792.66,793.49,794.18,794.77,795.25,794.99,793.74,791.16,787.56,783.41,780.22,779.45,782.91,786.94,789.91,791.62,792.12,792.16,792.56,793.10,793.56,793.81,793.90,793.46,792.11,789.28,786.23,783.79,783.08,785.17,788.44,790.24,791.31,791.99,792.11,792.08,792.19,792.45,792.72,792.57,791.88,791.00,790.00,788.47,786.16,784.56,784.47,786.43,787.91,789.37,790.42,790.60,790.73,790.85,790.90,790.85,790.71,790.55,790.37,790.19,789.99,789.56,789.19,788.81,788.26,787.28,785.63,783.78,781.96,780.13,778.23,777.66,778.38,779.96,781.06,781.12,780.48,779.29,777.67,775.96,774.17,772.38,770.80,769.20,768.41,767.62,766.08,763.79,761.69,759.92,758.49,757.30,756.34,755.38,754.44,753.49,752.18,750.99,750.09,749.51,749.04,748.49,747.94,747.40,746.86,746.32,745.94,745.76,745.97,747.08,748.16,749.44,751.02,752.89,754.74,756.30,757.73,759.20,760.43,761.39,761.28,759.66,757.08,755.65,756.03,758.01,761.17,764.69,767.95,770.57,772.42,774.44,776.31,777.96,779.31,780.23,780.65,780.93,781.13,781.13,780.69,779.78,778.18,775.85,773.38,771.39,770.67,771.46,774.03,777.17,779.28,780.22,779.98,778.96,777.34,774.84,772.58,773.85,776.86,779.70,781.96,783.71,785.68,787.79,789.38,790.08,790.24,790.45,790.58,790.58,790.42,790.23,789.96,788.27,784.27,780.90,779.63,778.88,777.95,776.91,775.70,774.84,774.58,775.00,775.11,775.15,774.94,774.28,773.14,771.64,770.11,768.44,766.13,762.90,760.46,760.07,762.45,764.64,765.41,767.29,770.65,773.07,774.97,776.77,778.08,777.93,776.19,775.23,775.05,775.44,775.95,775.88,775.85,776.24
784.55,788.13,791.38,794.41,797.30,799.79,801.09,802.25,802.87,803.03,803.48,803.82,803.87,803.41,802.17,800.62,799.05,797.50,795.90,794.11,792.32,790.98,789.80,788.00,785.82,786.41,788.29,789.48,788.93,786.52,783.20,779.94,778.34,777.23,777.08,777.40,777.68,778.75,781.08,783.81,786.38,788.48,790.00,791.34,792.54,793.29,793.92,793.83,792.96,791.00,787.54,783.19,779.52,778.06,780.90,784.81,787.98,789.67,789.35,788.98,789.87,791.15,792.11,792.48,792.60,792.12,790.75,788.02,784.67,782.06,781.28,783.38,787.14,789.54,790.89,791.47,791.51,791.35,791.38,791.65,792.09,792.49,792.20,791.54,790.76,789.88,787.69,785.00,783.06,783.88,784.97,786.85,788.70,789.63,790.25,790.51,790.63,790.66,790.55,790.40,790.16,789.84,789.42,788.65,788.12,788.00,788.14,787.60,786.31,784.61,782.67,780.73,779.07,778.64,779.22,780.44,781.64,781.44,780.58,779.43,778.08,776.61,774.99,773.38,772.12,771.32,770.92,770.38,769.15,766.96,764.27,761.85,759.94,758.50,757.08,755.65,754.29,753.03,751.45,750.26,749.56,749.26,748.90,748.40,747.87,747.33,746.79,746.27,745.97,745.87,746.16,747.48,749.29,751.55,754.14,756.65,758.57,760.13,761.61,763.13,764.54,765.58,765.50,763.74,760.31,757.49,756.37,757.04,759.49,762.79,766.25,769.29,771.53,773.41,774.98,776.47,778.00,779.48,780.25,780.72,781.07,781.21,780.74,779.50,777.76,775.69,773.69,772.39,772.06,772.81,775.00,777.96,780.08,781.28,781.63,781.21,779.84,777.30,774.52,774.45,777.01,779.60,781.54,783.00,785.11,787.43,789.22,790.07,790.28,790.51,790.67,790.70,790.52,790.30,790.08,788.65,785.18,782.13,781.17,780.52,779.39,777.79,775.74,773.90,772.64,772.30,772.13,772.09,771.76,770.95,770.00,768.97,767.63,765.82,763.44,761.20,760.33,761.74,765.49,767.03,765.48,765.73,768.91,771.84,774.72,777.52,779.74,780.33,778.86,777.79,777.49,777.93,778.65,778.31,777.64,777.23
784.66,788.42,791.73,794.56,797.09,799.28,800.58,801.03,801.05,800.97,801.24,801.55,801.66,801.38,800.44,799.03,797.45,796.17,795.20,793.79,792.44,791.47,790.76,789.96,788.87,789.18,790.61,792.22,791.83,789.45,785.57,781.24,778.92,777.67,777.01,776.38,775.62,776.42,777.85,779.39,781.05,783.34,785.89,788.44,790.51,791.29,791.89,791.84,791.30,789.99,786.38,781.96,778.33,776.89,779.36,782.87,785.83,787.12,785.84,785.55,787.33,789.42,790.64,791.08,791.17,790.75,789.47,786.66,783.29,780.25,779.04,781.18,785.25,788.51,790.34,790.83,790.95,790.68,790.59,790.78,791.22,791.83,792.16,791.97,791.22,790.47,788.96,786.76,784.23,782.19,781.21,782.08,784.41,787.57,789.53,790.11,790.26,790.34,790.33,790.20,789.83,789.18,788.18,787.21,786.77,786.75,786.99,787.17,786.91,785.77,783.93,782.09,780.49,779.83,780.06,781.08,782.31,781.69,780.48,779.35,778.33,777.19,775.98,774.74,773.60,772.78,772.17,771.44,770.31,768.65,766.22,763.79,761.65,759.70,757.89,756.12,754.19,752.04,750.36,749.62,749.26,749.01,748.75,748.32,747.81,747.27,746.74,746.25,746.04,745.98,746.34,748.18,751.49,755.27,758.71,760.74,762.57,764.23,765.80,767.31,768.70,769.52,769.59,768.27,764.33,760.51,758.02,757.04,757.84,760.58,763.92,767.27,770.16,771.73,772.86,774.21,775.96,777.96,779.55,780.38,780.83,781.22,780.70,779.42,778.07,776.87,775.46,774.40,774.10,774.42,775.17,777.54,779.64,781.35,782.56,782.20,780.77,778.48,775.88,774.62,776.52,778.56,779.94,780.97,783.53,786.63,789.00,790.05,790.28,790.55,790.76,790.82,790.60,790.37,790.18,789.60,788.21,786.35,785.28,784.04,782.25,780.13,777.82,775.33,772.82,770.71,770.13,770.04,769.24,767.45,766.17,765.91,765.55,764.26,761.42,760.27,761.53,764.82,769.06,769.81,767.57,766.13,767.12,770.23,773.21,776.12,778.98,781.28,780.97,780.25,779.95,780.40,781.53,780.55,779.20,778.43
784.57,788.45,791.60,794.08,796.17,797.89,799.01,799.08,798.80,798.60,798.80,799.18,799.43,799.28,798.46,797.14,795.62,794.48,793.90,793.13,792.65,792.13,791.66,791.64,791.65,791.94,792.79,793.97,793.16,790.53,786.69,782.75,781.02,779.80,778.79,777.67,776.23,775.46,775.59,776.37,777.71,779.49,781.40,783.60,785.83,787.42,788.57,788.99,788.67,787.17,783.57,779.76,777.02,776.41,779.11,782.27,784.28,784.46,782.59,782.22,783.98,786.28,788.01,788.84,789.00,788.49,787.14,784.56,781.27,777.54,776.00,779.08,783.63,786.86,788.77,789.63,790.02,789.65,789.28,789.42,790.43,791.14,791.64,791.80,791.51,790.91,789.97,788.49,786.30,783.18,780.69,780.02,781.02,783.36,785.68,787.15,788.34,789.39,789.90,789.53,788.71,787.66,786.49,785.69,785.45,785.49,785.68,786.04,786.25,785.99,785.13,783.66,782.32,781.67,781.72,782.30,782.31,781.16,779.77,778.55,777.42,776.27,775.18,774.17,773.28,772.59,771.88,771.04,769.91,768.20,766.02,763.87,761.86,759.81,757.79,755.76,753.56,751.22,749.82,749.26,748.97,748.71,748.47,748.15,747.72,747.20,746.68,746.32,746.15,746.31,747.13,749.16,753.38,757.77,761.29,763.49,765.92,767.75,769.03,770.02,770.98,771.63,771.85,771.13,768.36,765.33,762.45,759.97,758.49,759.16,761.26,764.11,767.07,768.75,770.16,771.79,773.75,775.93,777.91,779.29,780.23,780.90,781.01,780.24,779.35,778.56,777.27,776.32,776.18,776.52,776.76,777.87,779.61,781.69,783.51,783.29,781.56,779.24,777.01,775.90,776.70,777.84,778.85,779.99,782.75,786.10,788.77,790.10,790.42,790.68,790.87,790.90,790.71,790.52,790.33,790.05,789.56,788.74,788.07,786.63,784.29,781.92,779.37,776.50,773.64,771.52,771.24,771.19,770.13,768.08,767.48,768.36,768.38,766.78,763.80,762.75,764.64,768.25,771.73,771.39,769.67,768.44,768.36,769.35,771.78,774.67,777.70,780.52,781.51,781.42,781.36,781.78,781.95,781.06,780.11,779.54
784.17,788.08,791.05,793.20,794.87,796.16,797.04,796.84,796.37,796.09,796.28,796.80,797.20,797.17,796.41,795.19,793.74,792.74,792.45,792.36,792.67,792.67,792.58,793.30,794.22,794.68,795.16,795.67,794.23,791.32,787.81,784.75,783.96,783.08,781.87,780.21,777.96,775.57,774.39,774.29,775.05,776.18,777.19,778.69,780.72,782.87,784.47,785.38,785.31,783.68,780.43,777.36,775.69,776.22,779.27,781.89,782.76,781.88,779.81,779.33,780.76,782.92,784.96,786.15,786.42,785.86,784.50,782.10,778.55,774.46,773.13,777.29,782.13,784.84,786.54,787.78,788.49,788.17,787.63,787.77,789.37,790.30,790.90,791.34,791.53,791.15,790.70,789.93,788.38,785.26,781.81,779.63,778.83,779.45,781.32,783.35,785.45,787.42,788.50,787.99,786.80,785.46,784.44,784.11,784.11,784.20,784.34,784.63,785.03,785.47,785.61,784.72,783.80,783.24,783.08,783.07,781.84,780.17,778.61,777.32,776.07,774.82,773.75,772.86,772.13,771.49,770.67,769.70,768.48,766.70,764.80,762.95,761.11,759.03,757.04,755.05,752.96,750.83,749.65,749.08,748.72,748.41,748.17,747.92,747.58,747.13,746.63,746.39,746.31,746.72,748.04,750.31,755.14,759.74,763.10,765.61,768.56,770.58,771.67,772.15,772.68,773.21,773.57,773.38,771.90,769.95,767.28,764.00,760.62,758.76,759.19,761.09,763.68,765.64,767.30,769.14,771.30,773.66,775.82,777.60,779.02,780.13,781.05,780.99,780.68,780.27,779.04,778.20,778.24,778.74,778.84,778.84,780.23,782.53,784.73,784.79,783.00,780.78,778.91,778.08,777.74,777.99,778.79,780.34,783.31,786.43,788.88,790.23,790.60,790.84,790.98,790.98,790.84,790.69,790.49,790.32,790.24,790.12,789.82,788.25,785.46,782.97,780.32,777.30,774.55,773.20,773.30,772.96,771.52,769.57,770.18,772.25,772.53,770.58,767.71,766.58,768.25,771.24,773.64,773.01,772.20,771.54,770.72,769.34,770.81,773.50,776.57,779.51,781.49,782.01,782.25,782.59,781.80,781.21,780.77,780.46
783.02,786.75,789.74,791.64,793.03,794.25,794.89,794.44,793.80,793.45,793.69,794.43,795.02,795.12,794.41,793.29,791.98,791.14,791.12,791.54,792.04,792.68,793.65,795.18,796.37,797.45,798.24,798.14,795.96,792.91,790.00,788.03,787.95,788.26,787.15,784.46,780.59,777.62,775.47,773.72,772.61,773.32,774.19,775.35,776.72,778.00,779.25,780.27,780.64,779.81,777.85,775.24,774.45,776.27,779.46,780.93,780.76,779.61,778.25,777.65,778.62,780.21,781.77,782.92,783.26,782.94,781.81,779.18,774.30,771.06,771.47,776.39,780.72,782.29,783.25,784.49,785.55,785.70,785.43,785.64,787.39,789.02,790.01,790.58,790.90,791.00,790.88,790.46,789.64,788.13,784.84,781.71,779.43,778.39,778.26,779.37,781.09,782.97,784.33,784.24,783.18,781.97,781.68,782.36,782.72,782.88,783.04,783.02,783.22,783.60,783.97,784.03,783.82,783.37,782.76,781.93,780.61,778.49,776.63,775.42,774.40,773.15,772.03,771.06,770.11,769.13,768.07,766.84,765.40,763.96,762.42,760.78,758.89,756.57,755.14,754.06,752.94,751.57,750.09,749.15,748.55,748.15,747.90,747.63,747.34,747.01,746.58,746.47,746.54,747.12,748.75,751.75,756.80,761.27,764.44,767.04,769.64,771.86,773.37,773.89,774.38,774.85,775.32,775.38,773.93,772.34,770.73,768.62,765.01,760.68,759.15,759.57,761.03,763.25,764.49,765.97,768.26,771.14,773.24,774.79,776.31,778.26,779.99,780.77,781.29,781.58,780.62,780.03,780.23,780.86,781.08,781.01,782.40,784.66,786.79,787.44,786.61,785.07,783.30,781.92,780.70,780.45,781.39,783.78,787.21,789.11,790.05,790.54,790.80,791.04,791.12,791.06,790.96,790.81,790.65,790.51,790.41,790.15,789.67,787.80,784.71,782.28,779.92,777.22,775.18,775.24,775.37,773.65,771.22,769.82,772.36,775.47,776.18,774.47,772.12,771.33,771.61,772.59,774.15,775.84,776.04,775.24,773.61,771.31,771.16,773.21,776.39,779.36,781.21,782.07,782.51,782.69,782.24,781.80,781.32,780.85
781.64,784.72,787.58,789.78,791.42,792.52,792.97,792.30,791.31,790.65,791.19,792.11,792.83,793.03,792.44,791.35,790.21,789.69,790.08,790.75,791.45,792.56,794.07,795.76,797.30,798.68,799.56,799.27,797.12,794.69,792.58,791.21,791.21,791.05,789.45,786.38,782.21,778.86,776.32,774.17,772.53,772.12,772.00,772.33,772.97,773.57,774.54,775.68,776.40,776.12,774.97,773.07,773.04,775.48,778.43,779.11,778.52,777.44,776.42,775.73,776.17,777.11,778.11,779.22,779.56,779.22,777.97,775.12,771.35,769.30,769.83,773.12,776.08,777.80,779.57,781.64,783.00,783.33,783.11,783.30,784.97,786.64,788.01,789.17,790.11,790.58,790.70,790.57,790.21,789.42,786.80,783.70,781.02,779.46,778.58,778.07,778.11,778.83,780.05,780.40,779.96,779.35,779.47,780.78,781.40,781.63,781.81,781.78,781.73,781.82,782.04,782.26,782.26,781.95,781.24,779.99,778.43,776.36,774.51,773.24,772.30,770.98,769.47,767.94,766.57,765.57,764.48,763.21,761.78,760.39,758.91,757.60,756.36,754.87,753.98,753.24,752.45,751.51,750.34,749.37,748.60,748.00,747.59,747.29,747.12,747.04,747.02,747.07,747.34,748.00,749.70,754.09,760.04,764.63,767.21,768.91,770.89,772.99,774.71,775.50,775.98,776.44,776.93,777.12,775.93,774.48,773.09,771.35,768.13,763.22,760.93,761.04,762.93,765.68,766.80,767.66,768.78,769.87,770.83,772.10,773.92,776.39,778.40,779.79,780.95,781.95,782.43,782.28,782.48,783.02,783.31,783.73,785.30,787.24,788.67,789.20,788.97,788.28,787.33,786.46,785.58,785.30,785.78,787.23,789.26,790.23,790.64,790.90,791.09,791.20,791.20,791.11,790.97,790.84,790.72,790.61,790.46,790.16,789.29,787.17,784.03,781.52,779.86,778.42,777.50,777.55,776.53,774.13,771.70,771.00,774.77,778.34,779.34,778.19,776.89,776.47,775.88,775.24,775.23,777.04,778.30,778.55,777.40,774.47,772.65,773.35,775.88,778.85,780.63,781.49,782.01,782.40,782.42,781.98,781.55,781.29
780.29,782.48,785.07,787.63,789.66,790.70,790.95,790.00,788.60,787.66,788.52,789.59,790.45,790.81,790.33,789.31,788.43,788.30,789.09,789.92,790.84,792.28,794.07,795.73,797.61,799.14,800.02,799.78,798.12,796.56,795.16,794.06,793.69,792.50,790.33,787.24,783.32,779.73,777.28,775.55,774.23,772.82,771.51,770.85,770.69,770.53,770.96,771.91,772.73,772.77,772.22,771.14,771.75,774.36,776.73,776.81,776.10,775.23,774.40,773.72,773.70,773.98,774.41,775.31,775.57,775.15,773.84,771.15,769.23,768.27,768.30,769.42,770.88,772.98,775.79,778.83,780.47,780.89,780.68,780.81,782.36,783.94,785.66,787.41,789.01,789.85,790.27,790.42,790.36,789.90,788.17,785.47,782.90,781.35,780.25,778.36,776.68,775.95,776.45,776.78,776.91,776.99,777.38,779.00,779.84,780.19,780.43,780.52,780.24,779.98,779.92,780.01,780.01,779.74,778.98,777.49,775.72,773.83,772.05,770.55,769.50,768.01,766.18,764.24,762.64,761.76,760.70,759.46,758.19,756.91,755.57,754.65,754.17,753.68,753.19,752.52,751.79,751.08,750.34,749.50,748.64,747.88,747.31,747.03,747.02,747.24,747.71,747.99,748.64,749.56,751.52,757.43,763.99,768.38,770.18,770.84,772.14,774.01,775.88,777.10,777.58,777.98,778.43,778.67,777.84,776.38,774.74,772.85,770.11,765.63,763.58,764.13,766.82,769.88,770.99,771.29,771.10,770.05,769.76,770.68,772.56,774.93,776.63,778.35,780.00,781.60,783.58,784.04,784.39,784.95,785.49,786.49,788.13,789.61,790.22,790.44,790.58,790.62,790.56,790.43,790.26,790.11,790.03,790.13,790.41,790.72,791.01,791.24,791.33,791.28,791.20,791.08,790.88,790.77,790.70,790.61,790.46,790.17,789.07,786.90,783.95,781.48,780.54,780.32,780.23,779.59,777.36,774.75,772.67,772.55,776.92,780.55,781.80,781.29,780.91,780.75,779.63,777.93,776.66,777.85,779.88,781.21,780.78,777.63,774.52,773.71,775.16,778.06,779.86,780.69,781.33,782.07,782.42,782.02,781.75,781.74
779.45,780.56,782.54,784.95,787.06,788.23,788.31,786.70,785.00,784.18,785.08,786.33,787.46,788.06,787.67,786.92,786.57,786.88,787.86,788.97,790.07,791.64,793.60,795.51,797.53,799.17,800.11,800.07,799.49,798.44,797.20,795.85,794.38,792.69,790.58,787.79,784.09,780.51,779.01,778.73,778.81,777.96,776.03,774.51,773.44,771.95,770.64,770.35,770.49,770.48,770.37,770.17,771.20,773.33,774.37,774.05,773.42,772.73,772.02,771.75,771.59,771.39,771.20,771.29,771.33,771.10,770.44,769.21,768.16,767.38,767.18,767.82,768.65,769.95,772.32,775.43,777.36,778.07,778.00,778.15,779.71,781.74,783.66,785.40,786.98,788.32,789.46,790.04,790.09,789.88,788.96,786.67,784.26,782.93,781.68,780.30,778.79,777.15,775.43,774.14,773.88,774.30,774.87,776.25,777.29,777.98,778.41,778.65,778.27,777.77,777.51,777.71,777.61,777.05,775.94,774.17,772.52,770.55,768.48,766.50,764.86,762.97,761.49,760.42,759.57,758.98,757.78,756.49,755.61,755.09,754.60,754.14,753.70,753.14,752.57,751.90,751.21,750.55,749.76,749.03,748.32,747.64,747.21,747.08,747.29,747.82,748.62,749.31,750.86,752.94,756.10,763.08,768.08,770.71,771.63,772.29,773.10,774.82,777.01,778.82,779.28,779.48,779.74,779.93,779.39,777.77,775.46,772.79,769.93,766.60,766.60,768.55,770.92,773.10,774.09,774.49,774.45,773.70,773.34,773.72,774.43,774.92,775.05,776.45,778.23,779.95,781.97,783.44,784.68,785.95,787.46,788.53,789.63,790.53,790.93,791.12,791.32,791.43,791.41,791.33,791.24,791.11,791.00,791.02,791.12,791.29,791.43,791.45,791.22,791.06,790.93,790.78,790.62,790.52,790.49,790.48,790.46,790.23,789.70,788.19,785.87,784.14,783.43,782.79,781.83,780.28,778.39,776.11,774.21,774.02,777.74,780.91,782.40,782.38,781.62,781.23,780.02,778.73,778.51,779.79,781.43,782.07,781.18,779.01,776.03,774.14,774.21,776.76,778.80,780.10,781.18,782.14,782.17,782.28,782.30,782.19
778.93,779.53,780.76,782.51,784.25,785.35,785.11,783.43,781.94,781.42,782.13,783.27,784.30,785.03,785.44,785.91,786.66,787.51,788.40,789.35,790.66,792.28,794.08,795.92,797.88,799.35,800.14,800.21,800.07,799.34,798.29,796.91,795.01,793.12,791.09,788.63,785.40,782.37,781.51,781.97,782.83,782.69,780.94,779.14,777.51,775.41,773.02,771.39,770.37,769.77,769.64,769.71,770.49,771.72,772.03,771.67,771.21,770.76,770.26,770.14,769.90,769.54,769.15,768.91,768.81,768.62,768.25,767.72,767.06,766.45,766.13,766.36,766.90,767.94,769.78,772.20,773.94,774.86,775.15,775.62,777.32,779.55,781.47,783.13,784.67,786.43,788.10,788.96,789.12,789.19,788.81,787.37,785.61,784.24,782.85,781.68,780.44,778.86,776.79,774.56,773.02,772.30,772.43,773.50,774.60,775.50,776.10,776.27,775.87,775.40,775.18,775.42,775.17,774.38,772.95,770.78,768.64,766.32,764.26,762.63,761.22,759.72,758.62,757.89,757.30,756.74,755.79,754.85,754.31,754.14,754.00,753.77,753.39,752.76,752.13,751.47,750.81,750.21,749.55,748.92,748.30,747.71,747.30,747.19,747.57,748.32,749.29,750.76,753.16,756.13,759.97,766.37,770.07,771.90,772.78,773.65,774.33,775.63,777.54,779.62,780.22,780.42,780.60,780.67,780.16,778.61,776.09,773.09,770.39,768.58,769.58,771.88,774.11,775.97,777.00,777.51,777.64,777.40,777.21,777.18,776.99,776.27,775.60,776.15,777.19,778.41,780.16,781.88,783.49,785.18,787.26,788.97,790.14,790.95,791.47,791.71,791.97,792.10,792.07,791.94,791.82,791.68,791.56,791.50,791.42,791.42,791.42,791.30,790.96,790.74,790.59,790.47,790.36,790.29,790.28,790.31,790.35,790.23,790.04,789.25,787.82,786.37,785.39,784.30,782.92,781.21,779.54,777.27,775.50,775.50,778.55,781.42,782.73,782.60,781.98,781.40,780.35,779.53,779.75,780.89,782.21,782.42,781.27,779.67,777.36,775.33,774.58,776.20,778.34,780.07,781.40,782.23,782.11,782.40,782.50,782.36
778.58,779.05,779.58,780.48,781.58,782.40,781.85,780.49,779.58,779.49,779.95,780.87,781.68,782.59,784.13,786.14,788.08,789.50,790.28,790.93,792.41,793.99,795.45,796.93,798.59,799.64,800.13,800.16,800.01,799.56,798.78,797.55,795.65,793.76,791.87,789.75,787.18,784.99,784.52,785.18,786.30,786.78,785.63,783.89,781.94,779.65,776.70,773.97,771.76,770.38,769.75,769.62,769.74,769.96,769.96,769.75,769.51,769.27,769.03,768.88,768.65,768.35,768.02,767.81,767.65,767.43,767.12,766.75,766.27,765.85,765.47,765.21,765.44,766.42,767.75,769.17,770.43,771.45,772.17,773.10,775.00,777.29,779.13,780.70,782.32,784.42,786.44,787.48,787.74,788.13,788.07,787.59,786.69,785.28,783.83,782.65,781.61,780.59,779.29,776.86,773.90,771.34,770.45,770.95,771.91,772.90,773.64,773.62,773.21,772.90,772.88,773.13,772.68,771.62,769.86,767.26,764.48,761.93,760.19,759.31,758.54,757.77,757.01,756.28,755.64,755.00,754.48,754.07,753.77,753.67,753.54,753.38,753.10,752.44,751.81,751.15,750.52,750.03,749.64,749.09,748.50,747.97,747.54,747.37,747.82,748.71,749.72,751.97,755.05,758.66,762.87,767.91,770.67,772.36,773.66,774.79,775.62,776.47,777.81,779.83,780.62,780.97,781.15,781.07,780.43,779.03,776.62,773.73,771.67,771.39,772.60,774.55,776.73,778.55,779.64,780.20,780.45,780.70,780.76,780.48,779.74,778.48,777.55,777.10,776.98,777.31,778.54,779.95,781.52,783.36,785.73,788.33,790.01,791.08,791.83,792.23,792.49,792.59,792.49,792.27,792.10,791.96,791.80,791.63,791.36,791.18,791.04,790.86,790.58,790.33,790.18,790.11,790.04,790.02,789.99,790.01,790.11,790.15,790.10,789.90,789.32,787.84,786.42,785.02,783.61,782.17,780.56,778.17,776.57,776.97,779.38,781.92,782.86,782.47,782.26,781.56,780.78,780.31,780.51,781.35,782.42,782.51,781.39,780.14,778.73,777.07,775.81,776.21,778.33,780.42,781.82,782.24,782.12,782.41,782.47,782.29
778.19,778.60,779.01,779.47,779.94,780.22,779.79,778.96,778.73,779.23,779.76,780.68,782.00,783.72,785.86,788.13,790.14,791.82,793.13,794.13,795.65,797.07,798.17,798.95,799.64,799.99,799.98,799.66,799.40,799.40,799.10,798.13,796.31,794.61,792.98,791.30,789.50,787.99,787.74,788.34,789.32,789.75,788.99,787.32,785.06,782.49,779.21,776.50,774.39,772.66,770.74,769.83,769.41,769.18,769.01,768.84,768.66,768.50,768.38,768.27,768.21,768.12,767.98,767.95,767.82,767.64,767.46,767.34,767.18,766.94,766.43,765.44,764.29,764.56,765.47,766.50,767.25,768.11,769.08,770.35,772.29,774.73,776.59,778.35,780.44,782.73,784.85,786.06,786.51,787.03,787.13,786.92,786.47,785.73,784.70,783.58,782.54,781.62,780.64,779.23,776.55,773.13,770.25,769.12,769.51,770.43,771.16,771.04,770.47,770.20,770.41,770.79,770.02,768.35,766.03,763.25,760.92,759.45,758.49,757.80,757.10,756.41,755.73,755.13,754.70,754.28,753.88,753.52,753.25,753.16,753.11,752.98,752.69,752.15,751.51,750.85,750.33,750.07,749.89,749.43,748.85,748.31,747.94,747.64,748.00,748.84,749.75,751.79,754.97,759.02,763.78,768.53,770.93,772.47,773.84,775.15,776.35,777.48,778.68,780.02,780.82,781.34,781.55,781.33,780.54,779.06,776.84,774.73,774.37,774.85,776.00,777.59,779.36,780.59,781.37,781.84,782.16,782.55,782.80,782.62,782.01,781.01,779.90,779.13,778.40,777.77,777.89,778.79,779.96,781.54,784.17,787.09,789.37,790.95,791.86,792.55,792.58,792.31,791.95,791.67,791.50,791.34,791.17,790.96,790.71,790.52,790.35,790.14,789.94,789.71,789.56,789.50,789.47,789.42,789.26,789.23,789.53,789.85,789.94,789.73,789.04,787.59,786.20,784.94,783.71,782.37,780.64,778.49,777.41,778.24,780.02,781.62,782.56,782.84,782.61,781.94,781.20,780.73,780.85,781.45,782.24,782.53,782.12,781.42,780.74,779.00,777.04,776.77,778.58,780.95,782.23,781.88,781.90,782.39,782.40,782.02
777.83,778.12,778.42,778.66,778.79,778.72,778.38,778.18,778.64,779.76,781.01,782.19,783.75,785.71,787.94,790.05,791.94,793.80,795.59,797.03,798.25,799.21,799.86,800.13,800.19,800.04,799.63,798.93,798.41,798.56,798.65,798.28,797.26,795.86,794.36,792.92,791.62,790.56,790.39,790.89,791.66,791.76,791.13,789.78,787.76,785.06,781.78,779.33,777.38,775.28,772.57,770.94,769.96,769.34,769.06,768.90,768.78,768.70,768.66,768.65,768.70,768.76,768.77,768.84,768.81,768.74,768.64,768.56,768.48,768.27,767.65,766.33,764.57,763.83,763.66,763.79,764.16,764.99,766.25,767.86,769.86,772.24,774.43,776.76,779.34,781.67,783.44,784.45,784.95,785.55,786.05,786.07,785.81,785.44,784.76,783.98,783.15,782.29,781.42,780.63,778.43,774.95,771.15,768.89,768.17,768.15,768.27,768.07,767.38,766.84,766.74,767.02,766.17,764.51,762.41,760.13,758.34,757.52,757.00,756.45,755.89,755.31,754.76,754.30,753.97,753.65,753.31,752.98,752.74,752.64,752.63,752.54,752.29,751.84,751.19,750.63,750.25,750.11,750.02,749.72,749.24,748.69,748.29,747.86,748.06,748.74,749.51,750.94,754.33,758.85,763.74,768.07,770.47,772.10,773.51,774.92,776.46,777.96,779.28,780.28,781.02,781.62,781.91,781.72,780.91,779.35,777.42,776.12,777.03,778.12,779.24,780.50,781.85,782.50,782.99,783.38,783.73,784.21,784.61,784.60,784.40,784.20,783.54,782.40,780.96,779.47,778.51,778.69,779.22,780.21,782.50,785.64,788.59,790.72,791.77,792.73,792.54,791.93,791.34,791.00,790.80,790.57,790.29,789.98,789.64,789.43,789.33,789.26,789.14,788.95,788.81,788.72,788.58,788.33,788.00,787.92,788.35,789.02,789.37,789.22,788.46,787.07,785.79,784.65,783.54,782.33,780.80,779.06,778.32,779.14,780.40,781.45,782.38,783.04,782.89,782.33,781.62,781.13,781.18,781.60,782.24,782.65,782.60,782.01,781.45,779.85,777.91,777.26,778.73,780.93,782.00,781.40,781.68,782.28,782.34,781.91
777.54,777.62,777.76,777.91,777.95,777.77,777.46,777.91,779.02,780.79,783.25,784.95,786.43,788.05,790.00,791.71,793.46,795.40,797.49,799.22,799.90,800.22,800.41,800.41,800.24,799.82,799.09,798.08,797.20,797.18,797.50,797.89,798.18,797.21,795.88,794.58,793.50,792.67,792.50,792.87,793.42,793.11,792.42,791.53,790.14,787.53,784.54,782.38,780.45,777.97,775.06,772.93,771.45,770.55,770.21,770.07,770.04,770.03,770.04,770.17,770.27,770.37,770.49,770.58,770.72,770.81,770.79,770.60,770.38,770.01,769.24,767.83,766.15,764.37,762.67,761.41,761.39,762.24,763.78,765.72,767.79,769.88,772.63,775.71,778.76,781.08,782.17,782.68,783.07,783.80,784.89,785.17,784.90,784.54,784.05,783.75,783.32,782.61,781.76,781.06,779.31,776.42,772.79,770.06,768.03,766.53,765.61,765.25,764.44,763.36,762.44,762.34,761.61,760.51,759.26,757.94,756.63,755.97,755.55,755.17,754.83,754.43,754.05,753.70,753.33,753.01,752.69,752.41,752.21,752.13,752.11,752.06,751.90,751.51,750.88,750.47,750.25,750.11,750.03,749.92,749.62,749.09,748.58,748.05,748.03,748.49,749.13,749.81,753.46,758.38,762.96,766.69,769.36,771.28,772.75,774.18,775.98,777.79,779.38,780.49,781.13,781.72,782.11,782.11,781.53,780.06,778.54,777.94,779.48,781.07,782.23,783.22,784.15,784.36,784.62,784.93,785.30,785.83,786.35,786.55,786.87,787.73,787.93,786.49,784.42,782.36,780.50,779.82,779.51,779.65,781.17,784.41,787.90,790.51,791.70,792.76,792.37,791.50,790.73,790.36,790.11,789.72,789.23,788.75,788.24,787.97,787.98,788.18,788.14,788.02,787.91,787.75,787.35,786.81,786.31,786.17,786.68,787.72,788.40,788.48,787.82,786.50,785.35,784.27,783.23,782.21,781.10,779.89,779.30,779.74,780.56,781.47,782.36,783.02,783.05,782.66,782.04,781.56,781.55,781.83,782.43,782.85,782.75,781.95,781.02,779.81,778.50,777.73,778.84,780.44,781.23,780.96,781.50,782.11,782.28,781.96
777.37,777.13,777.10,777.13,777.09,776.90,776.78,777.64,779.19,781.51,785.02,787.52,789.00,790.14,791.67,793.28,794.95,796.76,798.59,799.74,800.09,800.31,800.46,800.30,800.09,799.42,798.44,797.33,796.31,795.97,796.14,796.67,797.18,797.15,796.93,796.42,795.39,794.62,794.44,794.69,795.10,794.83,794.23,793.35,792.04,789.87,787.38,785.07,782.82,780.36,777.51,775.58,774.38,773.75,773.59,773.50,773.50,773.53,773.56,773.78,773.95,774.06,774.18,774.31,774.66,775.05,775.32,775.18,774.96,774.18,772.68,770.44,768.31,766.20,763.84,761.53,760.47,760.64,762.02,764.09,766.18,768.01,770.67,773.93,777.39,780.02,780.79,780.91,781.21,782.43,783.88,784.26,783.93,783.42,782.86,782.64,782.47,782.16,781.63,780.90,779.57,777.34,774.07,771.58,769.62,768.03,766.77,765.61,764.29,762.63,760.91,759.87,759.12,758.34,757.39,756.25,755.44,755.01,754.73,754.48,754.22,753.86,753.49,753.12,752.73,752.38,752.05,751.81,751.68,751.61,751.59,751.55,751.44,751.17,750.68,750.39,750.26,750.16,750.08,750.00,749.79,749.38,748.89,748.36,748.12,748.30,749.02,749.75,753.06,757.51,761.67,764.98,767.83,770.06,771.68,773.08,774.87,776.61,778.25,779.72,780.46,780.98,781.35,781.66,782.12,781.65,780.85,780.53,781.81,783.68,784.87,785.65,786.21,786.21,786.23,786.47,786.90,787.45,787.99,788.38,788.92,789.86,790.19,789.50,788.36,786.88,784.68,783.19,781.95,781.30,782.53,785.30,788.31,790.81,792.23,792.58,791.72,790.72,790.05,789.70,789.45,788.79,787.89,787.16,786.64,786.25,786.18,786.45,786.59,786.72,786.66,786.35,785.76,785.15,784.60,784.46,785.05,786.20,787.27,787.68,787.21,786.06,784.96,783.99,783.11,782.25,781.37,780.59,780.20,780.36,780.72,781.45,782.32,782.95,782.80,782.90,782.46,781.95,781.92,782.11,782.65,782.88,782.61,782.19,781.29,780.28,779.37,778.87,779.38,780.16,780.75,781.07,781.42,781.94,782.21,782.08
777.55,777.13,776.91,776.77,776.55,776.23,776.23,777.31,779.00,781.58,786.05,789.26,790.90,791.84,793.05,794.35,795.68,797.09,798.49,799.35,799.65,799.86,800.04,800.01,799.83,799.06,797.97,796.80,795.66,794.86,794.65,795.03,795.58,796.08,796.60,796.79,796.21,795.72,795.52,795.53,795.57,795.25,794.85,794.33,793.49,791.88,789.88,787.71,785.44,783.08,780.48,778.81,777.84,777.45,777.51,777.47,777.49,777.55,777.57,777.82,778.13,778.35,778.46,778.62,779.08,779.71,780.22,780.11,779.58,778.34,776.51,774.16,771.45,768.56,765.49,762.46,760.30,759.80,760.76,762.56,764.54,766.19,768.65,771.82,775.31,778.04,778.81,779.15,779.88,781.50,782.93,783.21,782.76,782.15,781.62,781.46,781.46,781.44,781.13,780.41,779.38,777.80,775.28,773.21,771.49,770.04,768.78,767.33,765.73,763.74,761.49,759.58,758.32,757.14,756.02,755.11,754.63,754.34,754.13,753.95,753.70,753.36,752.98,752.59,752.21,751.86,751.59,751.40,751.31,751.23,751.20,751.13,751.03,750.88,750.56,750.38,750.30,750.20,750.12,750.04,749.87,749.55,749.12,748.61,748.22,748.19,748.90,749.66,752.16,755.78,759.73,762.93,765.82,768.22,770.11,771.66,773.32,774.88,776.43,777.96,778.82,779.36,779.77,780.25,781.19,781.52,781.49,781.63,782.80,784.39,785.28,785.75,786.16,786.53,787.12,787.72,788.25,788.74,789.27,789.81,790.48,791.34,791.73,791.61,791.17,790.28,788.40,786.86,785.40,784.50,785.46,787.63,789.78,791.36,791.99,791.63,790.71,789.90,789.39,789.08,788.80,787.91,786.70,785.70,785.03,784.49,784.32,784.62,784.96,785.42,785.51,785.12,784.31,783.56,782.91,782.75,783.46,784.66,785.98,786.75,786.71,785.87,784.92,784.08,783.33,782.55,781.78,781.27,781.02,780.98,781.09,781.52,782.27,782.88,782.62,782.92,782.73,782.37,782.30,782.41,782.78,782.77,782.40,782.45,781.66,780.87,780.40,780.33,780.44,780.71,781.12,781.56,781.59,781.84,782.01,781.91
778.14,777.74,777.33,776.96,776.49,775.87,775.78,776.88,778.39,780.82,785.92,789.79,791.84,792.92,793.92,794.63,795.34,796.13,797.03,798.16,798.69,798.93,799.13,799.52,799.48,798.76,797.69,796.50,795.22,793.89,793.10,793.07,793.60,794.04,794.62,795.22,795.58,795.63,795.43,795.03,794.48,793.92,793.79,794.08,794.28,793.35,791.87,790.33,788.56,786.34,784.21,782.71,781.80,781.47,781.66,781.61,781.64,781.72,781.69,781.90,782.42,782.86,783.02,783.18,783.62,784.31,784.92,784.67,783.45,781.78,780.23,778.79,775.63,771.37,767.33,763.91,760.80,759.71,759.97,761.08,762.76,764.33,766.61,769.45,772.55,775.05,776.18,777.45,779.22,781.00,782.05,781.94,781.29,780.76,780.40,780.37,780.46,780.50,780.24,779.56,778.71,777.67,776.27,774.72,773.17,771.84,770.80,769.81,768.23,766.18,763.80,761.31,759.11,756.84,755.10,754.59,754.23,753.91,753.68,753.49,753.20,752.88,752.53,752.16,751.81,751.56,751.41,751.30,751.17,751.09,751.00,750.88,750.75,750.64,750.53,750.44,750.34,750.20,750.12,750.04,749.89,749.62,749.23,748.77,748.32,748.16,748.74,749.32,750.70,753.32,757.17,760.42,763.19,765.65,767.84,769.78,771.23,772.62,773.98,775.18,776.12,776.79,777.32,777.79,778.34,779.00,779.69,780.57,781.92,782.70,782.91,783.03,783.54,784.88,786.93,788.48,789.20,789.60,790.12,790.78,791.54,792.30,792.84,792.81,792.47,791.90,790.97,790.25,789.50,789.00,789.55,791.03,792.02,791.94,790.68,789.85,789.36,789.03,788.75,788.45,788.11,787.14,785.78,784.49,783.48,782.76,782.51,782.83,783.41,784.21,784.56,784.21,783.13,782.14,781.30,781.08,781.94,783.21,784.58,785.72,786.31,785.92,785.25,784.55,783.85,783.11,782.37,781.97,781.73,781.59,781.70,781.74,782.22,782.84,782.63,782.69,782.77,782.77,782.67,782.72,782.79,782.54,782.20,782.65,781.98,781.50,781.52,781.89,781.89,782.07,782.26,782.25,781.91,781.72,781.55,781.33
778.73,778.34,777.96,777.58,776.98,776.09,775.46,776.27,777.55,779.28,782.61,788.27,791.27,792.09,792.66,793.13,793.74,794.50,795.49,796.68,797.49,797.93,798.23,798.78,799.04,798.45,797.34,796.03,794.63,793.21,792.04,791.36,791.48,791.93,792.61,793.34,793.89,794.03,793.87,793.44,792.79,792.14,791.97,792.35,793.00,793.22,793.03,792.60,791.78,790.43,788.95,787.72,786.85,786.36,786.22,785.77,785.53,785.51,785.52,785.80,786.38,786.95,787.28,787.41,787.61,787.92,788.03,787.18,785.45,783.64,782.16,781.02,778.85,774.75,770.18,765.95,762.54,760.36,759.61,759.94,761.03,762.46,764.67,767.33,770.14,772.53,774.32,776.36,778.65,780.36,780.91,780.26,779.49,779.45,779.22,779.25,779.32,779.26,778.88,778.23,777.43,776.54,775.54,774.38,773.19,772.03,770.89,769.74,767.64,765.18,762.77,760.84,759.05,757.13,755.44,754.42,753.87,753.52,753.24,752.99,752.72,752.39,752.14,752.00,751.88,751.74,751.67,751.62,751.55,751.43,751.24,750.99,750.73,750.56,750.47,750.37,750.25,750.14,750.06,749.98,749.84,749.59,749.24,748.81,748.39,748.27,748.87,749.49,751.13,753.25,755.26,756.75,759.59,762.36,764.55,766.48,768.10,769.63,771.09,772.32,773.29,774.03,774.58,775.00,775.44,776.25,777.23,778.25,779.21,779.87,780.29,780.62,781.14,782.60,785.51,788.11,789.69,790.40,791.11,791.83,792.58,793.32,793.93,794.02,793.80,793.35,792.62,792.22,792.12,792.02,791.45,791.15,791.00,790.53,789.53,788.70,788.10,787.77,787.67,787.53,787.34,786.39,784.96,783.55,782.30,781.28,780.94,781.46,782.25,783.18,783.63,783.37,782.31,781.26,780.06,779.68,780.86,782.27,783.71,784.97,785.67,785.19,784.71,784.26,783.83,783.38,783.00,782.70,782.43,782.22,782.30,782.18,782.41,782.79,782.61,782.38,782.57,782.85,782.86,782.82,782.69,782.34,782.00,782.56,782.23,782.14,782.24,781.99,781.62,781.46,781.38,781.20,780.85,780.62,780.43,780.23
779.39,778.98,778.67,778.31,777.67,776.64,775.51,775.62,776.45,777.68,779.51,785.47,789.18,790.41,790.73,791.13,791.85,792.81,793.94,795.17,796.22,796.91,797.38,797.99,798.52,798.09,797.00,795.60,794.15,792.74,791.35,790.21,789.84,790.05,790.62,791.31,791.88,792.02,791.89,791.50,790.87,790.16,789.93,790.27,791.07,792.05,792.72,792.98,792.83,792.24,791.48,790.75,790.31,790.17,789.91,789.18,788.73,788.60,788.60,788.81,789.26,789.76,790.12,790.20,790.16,790.09,789.75,788.52,786.75,785.03,783.56,782.40,781.10,777.88,773.46,768.69,765.06,761.68,759.77,759.22,759.66,760.82,762.77,765.23,768.00,770.65,772.96,775.43,777.80,779.01,779.15,778.19,777.41,777.81,777.87,778.03,778.06,777.84,777.38,776.76,776.00,775.15,774.30,773.40,772.46,771.26,769.68,768.11,765.62,763.10,761.08,759.89,758.76,757.47,756.08,754.75,753.94,753.34,752.87,752.57,752.38,752.14,752.05,752.11,752.19,752.15,752.12,752.12,752.12,751.98,751.71,751.32,750.88,750.51,750.37,750.25,750.13,750.05,749.98,749.88,749.74,749.50,749.19,748.80,748.47,748.40,748.97,749.85,752.66,755.23,755.81,755.67,757.46,759.38,760.93,762.85,764.58,766.17,767.71,769.20,770.35,771.15,771.74,772.18,772.64,773.57,774.67,775.73,776.51,777.34,778.16,778.87,779.60,781.15,784.58,787.95,790.29,791.27,792.15,792.94,793.61,794.12,794.44,794.42,794.24,793.93,793.27,792.88,792.90,792.81,791.64,790.33,789.54,789.05,788.53,787.71,786.87,786.41,786.37,786.38,786.48,785.75,784.39,782.89,781.46,780.07,779.57,780.30,781.28,782.26,782.75,782.58,781.57,780.37,778.72,778.19,779.95,781.52,782.96,784.24,784.96,784.35,783.91,783.62,783.38,783.18,783.11,783.02,782.88,782.73,782.75,782.65,782.71,782.83,782.58,782.08,782.27,782.72,782.83,782.71,782.51,782.11,781.79,782.33,782.33,782.39,782.28,781.44,780.68,780.17,779.83,779.57,779.28,779.10,778.96,778.82
780.30,779.81,779.51,779.11,778.50,777.56,776.20,775.02,775.03,776.33,778.16,781.33,785.07,787.94,788.49,788.98,790.00,791.24,792.47,793.71,794.96,795.91,796.60,797.22,797.89,797.68,796.75,795.36,793.96,792.52,791.17,790.01,789.20,788.70,788.73,789.17,789.74,789.86,789.75,789.41,788.77,787.99,787.85,788.19,788.84,789.66,790.11,790.12,789.88,789.61,789.63,789.68,790.38,791.54,791.78,791.17,790.72,790.52,790.40,790.26,790.28,790.39,790.51,790.51,790.30,790.03,789.57,788.59,787.50,786.15,784.68,783.25,781.93,780.22,776.98,772.38,768.44,763.93,760.74,759.13,758.99,759.57,760.91,763.09,766.21,769.72,772.21,774.51,776.38,776.49,776.37,775.59,775.02,775.52,776.21,776.65,776.64,776.23,775.76,775.27,774.57,773.73,772.88,772.01,771.03,769.39,766.91,764.77,762.37,760.60,759.61,759.00,758.42,757.61,756.68,755.76,754.71,753.52,752.64,752.29,752.25,752.36,752.50,752.64,752.77,752.78,752.73,752.75,752.83,752.69,752.42,751.93,751.23,750.46,750.20,750.09,750.00,749.92,749.85,749.72,749.56,749.37,749.07,748.81,748.59,748.52,748.90,750.33,755.34,759.77,760.45,759.75,758.53,757.48,757.39,759.39,760.91,762.23,763.74,765.67,767.30,768.24,768.91,769.52,770.13,771.16,772.31,773.49,774.72,775.95,777.08,778.23,779.58,781.49,785.04,788.62,791.24,792.29,793.23,794.07,794.59,794.42,793.89,793.35,793.05,792.96,792.46,791.75,790.97,790.22,789.70,789.15,788.69,788.27,787.71,786.72,785.68,785.05,784.89,784.93,785.48,785.26,784.23,782.65,781.11,779.26,778.47,779.33,780.49,781.44,781.93,781.80,780.77,779.18,777.00,776.52,779.23,780.89,782.22,783.45,784.24,783.62,783.02,782.65,782.41,782.22,782.25,782.56,782.87,782.99,782.95,783.02,783.10,783.04,782.58,781.85,781.92,782.33,782.44,782.38,782.18,781.83,781.56,781.99,782.18,781.89,781.24,780.34,779.23,778.43,777.93,777.63,777.33,777.20,777.12,777.05
783.52,783.00,782.35,781.44,780.21,778.69,777.25,775.63,774.71,775.04,777.00,779.38,782.42,785.00,785.74,786.77,788.28,789.93,791.49,792.89,794.06,794.99,795.76,796.53,797.24,797.39,796.80,795.41,794.06,792.74,791.55,790.55,789.83,789.30,788.77,788.24,787.69,787.02,786.83,786.74,786.43,785.77,785.71,786.08,786.72,787.47,787.86,787.89,787.78,787.79,788.32,788.61,789.28,790.36,790.94,791.14,791.16,791.12,791.14,790.98,790.84,790.71,790.59,790.46,790.15,789.52,788.61,787.57,786.59,785.56,784.50,783.44,782.37,780.90,778.30,774.64,771.10,766.28,762.07,759.42,758.97,758.88,759.64,761.42,764.46,768.57,771.34,773.26,774.33,774.00,773.48,772.85,772.64,773.45,774.72,775.19,775.07,774.61,774.14,773.61,773.01,772.28,771.33,770.30,768.69,766.43,763.75,761.90,760.43,759.41,758.77,758.27,757.83,757.19,756.40,755.57,754.63,753.56,752.67,752.22,752.39,752.68,752.95,753.18,753.35,753.38,753.38,753.42,753.49,753.36,753.14,752.58,751.66,750.74,750.21,750.00,749.91,749.79,749.67,749.50,749.34,749.21,749.03,748.84,748.67,748.60,748.95,750.64,756.06,761.12,762.68,762.91,761.97,760.60,759.60,760.17,760.43,760.91,762.05,764.09,765.65,767.00,768.30,769.44,770.16,771.18,772.46,773.91,775.48,776.87,778.07,779.30,780.78,782.48,785.64,788.91,791.52,793.05,794.18,794.56,794.34,793.72,792.93,792.23,791.75,791.40,790.67,789.78,788.94,788.33,788.15,787.93,787.70,787.38,786.77,785.71,784.61,783.82,783.48,783.60,784.36,784.68,784.15,782.52,780.90,778.74,777.30,777.46,778.87,780.21,780.91,780.72,779.24,776.97,775.43,776.01,779.16,780.73,781.88,782.91,783.54,782.90,782.27,781.76,781.41,781.31,781.47,781.91,782.32,782.50,782.49,782.63,782.86,782.95,782.53,781.82,781.72,781.94,782.06,782.00,781.81,781.52,781.34,781.71,782.27,781.53,780.01,778.81,777.52,776.56,775.93,775.61,775.41,775.31,775.41,775.71
787.01,786.57,785.75,784.45,782.58,780.23,778.49,776.62,774.88,774.07,775.84,777.94,780.20,782.10,783.13,784.76,786.77,788.85,790.80,792.29,793.26,794.06,794.87,795.78,796.53,797.05,796.86,795.61,794.36,793.19,792.17,791.35,790.81,790.38,789.51,788.26,786.85,785.50,785.03,784.86,784.49,783.66,783.58,783.98,784.63,785.33,785.73,785.86,785.93,786.20,787.05,787.46,787.93,788.65,789.46,790.42,790.93,791.13,791.33,791.28,791.07,790.80,790.50,790.23,789.75,788.75,787.41,786.22,785.18,784.36,783.69,783.07,782.27,780.74,778.52,775.78,772.76,768.22,763.65,760.29,759.29,758.57,758.76,760.00,762.63,766.85,769.97,771.67,772.16,771.74,770.84,770.44,770.76,771.89,773.36,773.69,773.46,773.00,772.52,771.89,771.30,770.61,769.53,768.21,765.98,763.38,761.01,759.69,759.10,758.64,758.11,757.58,757.14,756.58,755.86,755.03,754.24,753.42,752.67,752.25,752.64,753.06,753.41,753.69,753.89,753.96,754.03,754.16,754.32,754.17,753.89,753.20,752.14,751.15,750.30,749.94,749.85,749.68,749.54,749.36,749.22,749.14,749.07,748.93,748.81,748.78,749.17,751.04,756.14,761.16,763.67,765.34,765.74,765.04,763.71,762.79,761.86,761.61,762.39,764.33,765.72,767.34,769.01,770.42,771.07,772.01,773.41,775.12,776.93,778.46,779.73,781.01,782.48,783.97,786.49,789.19,791.66,793.73,794.80,794.58,793.67,792.72,791.84,790.96,790.19,789.51,788.61,787.62,786.93,786.62,786.62,786.56,786.50,786.34,785.86,784.72,783.58,782.64,782.10,782.31,783.16,783.94,783.93,782.48,780.87,778.69,776.70,775.75,776.75,778.23,779.04,778.71,776.82,774.15,773.81,775.85,779.35,780.74,781.69,782.45,782.81,782.20,781.55,780.81,780.24,780.26,780.69,781.20,781.61,781.81,781.86,782.11,782.51,782.80,782.38,781.81,781.54,781.54,781.67,781.62,781.43,781.20,781.08,781.39,782.16,781.02,778.77,777.24,775.75,774.63,773.91,773.63,773.62,773.68,774.02,774.66
789.36,789.26,789.08,788.11,786.00,782.73,779.96,777.66,775.47,773.89,774.54,776.13,777.95,779.69,781.30,783.30,785.69,788.20,790.47,791.80,792.45,793.09,793.90,794.82,795.65,796.48,796.74,795.98,794.96,793.92,793.00,792.25,791.71,791.19,790.61,789.98,789.24,788.11,786.97,785.59,783.79,781.88,781.53,781.90,782.53,783.15,783.62,783.86,784.08,784.55,785.43,786.11,786.78,787.58,788.47,789.40,790.13,790.63,790.90,791.02,790.84,790.54,790.23,789.84,788.86,787.59,786.21,784.88,783.77,782.90,782.24,781.72,781.07,779.57,777.50,775.02,772.25,769.00,765.61,762.41,759.99,758.89,758.46,758.85,760.56,763.80,767.27,769.47,770.23,770.05,768.98,769.07,770.15,771.57,772.23,772.18,771.87,771.44,770.90,770.14,769.32,768.37,767.09,765.31,763.00,760.94,759.65,758.92,758.42,757.95,757.46,756.92,756.40,755.90,755.30,754.50,753.67,752.87,752.38,752.40,753.00,753.54,753.90,754.14,754.37,754.56,754.68,755.03,755.63,755.47,754.70,753.74,752.73,751.69,750.41,749.91,749.83,749.63,749.52,749.47,749.41,749.35,749.32,749.19,749.18,749.32,749.77,751.82,755.99,760.22,763.23,766.48,768.55,769.12,768.37,767.02,766.01,765.79,766.45,768.00,769.35,770.59,771.62,772.25,772.39,773.12,774.52,776.35,778.20,780.04,781.62,783.08,784.60,786.34,787.97,789.76,791.93,794.44,794.62,793.84,792.78,791.69,790.75,789.35,788.05,787.19,786.53,785.61,785.00,784.82,784.86,784.81,784.81,785.00,785.11,783.86,782.56,781.44,780.77,781.06,781.88,782.85,783.32,782.55,781.20,779.72,777.68,775.18,773.92,774.50,774.95,774.42,772.56,770.48,771.96,775.74,779.69,780.82,781.57,782.02,782.02,781.52,780.82,779.62,778.58,778.78,779.84,780.52,780.92,781.17,781.27,781.77,782.40,782.71,782.02,781.69,781.31,781.10,781.28,781.23,781.08,780.88,780.74,780.92,781.31,779.99,777.66,775.87,774.04,772.71,771.95,771.81,772.13,772.71,773.42,774.09
790.08,790.05,790.01,789.46,787.69,784.38,781.38,778.78,776.29,774.16,773.36,774.50,776.18,777.95,779.85,782.07,784.60,787.18,789.47,790.81,791.44,792.09,792.94,793.90,794.86,795.75,796.22,795.99,795.52,794.69,793.82,793.06,792.48,791.96,791.42,790.88,790.38,789.69,788.85,787.63,785.75,783.18,781.45,780.73,780.77,781.17,781.53,781.82,782.23,782.93,783.93,784.73,785.64,786.70,787.63,788.56,789.41,790.10,790.49,790.71,790.60,790.30,789.83,788.95,787.73,786.37,784.97,783.57,782.34,781.42,780.72,780.13,779.44,777.99,776.08,773.85,771.29,768.42,765.37,762.38,759.94,758.86,758.20,758.26,759.43,761.39,764.28,766.49,767.54,767.53,767.07,767.71,769.03,770.20,770.39,770.12,769.68,769.14,768.43,767.72,766.87,765.86,764.64,762.81,760.82,759.43,758.96,758.42,757.88,757.35,756.82,756.31,755.78,755.24,754.65,753.93,753.13,752.62,752.44,752.68,753.38,754.01,754.70,755.44,756.24,757.14,758.00,758.89,759.58,759.08,757.77,756.07,754.31,752.91,751.60,750.87,750.38,749.80,749.66,749.62,749.59,749.59,749.58,749.55,749.86,750.41,750.93,751.97,754.99,758.61,761.90,765.78,768.95,770.74,771.01,770.07,769.57,769.59,770.18,771.40,772.48,773.42,774.15,774.52,774.38,774.42,775.28,776.90,778.88,780.94,783.12,785.14,786.86,788.69,790.15,791.59,793.18,794.76,793.85,792.59,791.39,789.99,788.47,786.59,785.17,784.55,784.16,783.49,783.06,782.98,783.11,783.09,783.30,783.78,784.21,783.26,781.93,780.59,779.58,779.58,780.54,781.62,782.35,782.35,781.64,780.61,778.87,776.01,772.09,770.87,770.52,769.93,768.56,768.53,771.35,775.66,779.57,780.42,780.84,781.06,781.00,780.74,780.21,778.74,777.18,777.02,778.20,779.18,779.92,780.45,780.75,781.50,782.32,782.66,781.78,781.41,781.01,780.77,780.89,780.84,780.70,780.53,780.31,780.02,779.54,778.14,776.19,774.36,772.44,771.26,770.70,770.71,771.27,771.99,772.57,772.87
790.16,790.09,790.00,789.66,788.27,785.38,782.51,779.76,777.13,774.66,772.59,773.06,774.55,776.36,778.39,780.88,783.49,785.98,788.11,789.49,790.29,791.08,792.03,793.05,794.13,794.96,795.47,795.66,795.75,795.24,794.53,793.81,793.19,792.68,792.07,791.45,791.02,790.74,790.42,789.77,788.39,785.78,782.83,780.81,779.90,779.73,779.79,780.03,780.55,781.47,782.54,783.38,784.47,785.84,786.86,787.79,788.72,789.54,790.09,790.39,790.36,790.02,789.29,787.93,786.58,785.21,783.77,782.31,780.92,779.86,779.02,778.28,777.52,776.15,774.42,772.42,770.07,767.31,764.32,761.53,759.62,758.68,757.97,757.90,758.74,759.59,761.51,763.40,764.63,764.83,765.08,766.12,767.43,768.23,768.11,767.66,767.10,766.42,765.58,764.96,764.18,763.24,762.12,760.25,758.72,758.00,758.07,757.71,757.26,756.76,756.23,755.74,755.18,754.61,754.00,753.39,752.74,752.62,752.79,753.25,754.21,755.09,756.20,757.56,759.04,760.74,762.43,763.81,764.36,763.41,761.52,759.03,756.40,754.64,753.48,752.65,751.79,750.73,750.32,750.14,750.07,750.09,750.17,750.44,751.21,752.22,752.85,752.66,754.15,756.82,760.12,764.07,768.05,770.99,772.44,772.37,772.65,773.06,773.68,774.67,775.50,776.16,776.67,776.90,776.58,775.92,776.05,777.18,779.19,781.45,784.28,786.98,789.00,790.94,792.50,793.65,794.38,794.52,792.68,790.97,789.51,787.74,785.58,783.33,781.91,781.63,781.54,781.20,781.00,781.04,781.27,781.41,781.88,782.60,783.22,782.78,781.56,780.04,778.61,777.96,779.03,780.26,781.24,781.85,781.82,781.15,779.92,777.28,771.02,767.71,766.24,765.53,765.09,767.44,771.21,775.33,778.75,779.40,779.51,779.53,779.54,779.50,779.19,777.62,775.68,775.01,776.09,777.39,778.49,779.30,779.87,780.92,782.00,782.50,781.61,781.06,780.68,780.49,780.51,780.42,780.23,779.98,779.61,778.81,777.50,776.07,774.54,772.79,771.06,770.22,769.94,770.05,770.66,771.27,771.57,771.47
790.11,790.02,789.89,788.90,787.26,785.15,782.67,780.13,777.67,775.31,773.09,772.04,772.74,774.42,776.35,779.50,782.32,784.65,786.43,787.69,788.88,790.08,791.26,792.39,793.52,794.11,794.38,794.62,794.87,794.96,794.85,794.50,793.84,793.25,792.60,791.99,791.60,791.29,790.95,790.49,789.85,788.85,786.64,784.06,781.64,779.97,779.24,779.08,779.49,780.54,781.43,782.13,783.23,784.76,786.08,787.08,788.01,788.90,789.69,790.15,790.16,789.61,788.45,787.12,785.75,784.27,782.72,781.17,779.53,778.02,776.77,775.87,775.13,773.96,772.43,770.62,768.56,766.17,763.35,760.71,759.29,758.42,757.71,757.62,758.38,759.06,759.98,761.00,761.95,762.53,762.89,763.80,764.88,765.48,765.24,764.59,763.87,763.18,762.50,761.88,761.29,760.60,759.45,756.99,755.85,755.59,755.68,755.89,756.11,756.10,755.81,755.23,754.58,754.02,753.50,753.00,752.84,753.12,753.66,754.64,756.63,758.25,759.76,761.35,763.23,765.26,767.15,768.42,768.50,767.14,764.70,761.76,758.95,757.32,756.33,755.96,755.43,753.99,752.60,751.97,751.61,751.43,751.86,753.10,754.50,755.79,756.63,756.04,755.02,755.29,757.88,761.25,765.86,769.76,772.27,773.64,774.80,775.86,776.87,777.86,778.76,779.16,779.26,779.11,778.63,777.86,777.27,777.39,779.06,781.50,784.78,788.01,790.60,792.94,794.51,794.89,794.13,792.81,790.91,788.79,786.63,784.47,782.23,779.87,778.34,778.13,778.49,778.49,778.56,778.80,779.13,779.78,780.55,781.38,782.18,782.41,781.51,780.05,778.23,776.18,777.02,778.69,780.12,780.75,780.91,780.72,780.23,778.22,771.26,766.10,762.91,761.66,763.12,767.04,770.98,774.10,776.02,776.85,776.85,776.76,776.81,776.79,776.52,775.20,773.43,772.52,773.44,774.88,776.06,776.78,777.62,779.21,780.88,781.94,781.48,780.68,780.33,780.24,780.12,779.93,779.45,778.80,778.02,777.10,775.74,774.25,772.71,771.21,770.30,769.97,769.90,769.93,770.11,770.27,770.35,770.31
789.42,788.71,787.98,786.72,785.20,783.62,781.68,779.64,777.58,775.48,773.30,771.49,771.33,772.49,774.55,778.00,780.98,783.24,784.83,786.20,787.67,789.16,790.62,791.88,792.67,793.04,793.24,793.50,793.82,794.19,794.45,794.49,794.15,793.69,793.09,792.52,792.13,791.76,791.35,790.96,790.61,790.25,789.01,786.81,784.00,781.36,779.74,778.83,778.72,779.56,780.19,780.91,782.07,783.67,785.18,786.35,787.36,788.32,789.20,789.67,789.38,788.59,787.44,786.20,784.86,783.43,781.91,780.30,778.33,776.40,774.76,773.59,772.72,771.71,770.34,768.61,766.73,764.68,762.26,760.07,759.02,758.21,757.49,757.29,757.82,758.40,758.95,759.58,760.27,760.82,761.12,761.71,762.38,762.72,762.42,761.88,761.32,760.83,760.37,759.86,759.16,758.26,757.07,755.39,754.77,754.66,754.62,754.80,754.99,755.02,754.83,754.38,753.96,753.54,753.22,753.18,753.41,753.91,755.14,757.23,759.53,761.47,763.24,765.02,766.98,768.63,770.09,771.05,771.01,769.65,767.22,764.35,761.66,760.18,759.54,759.46,759.12,757.64,755.48,754.43,753.83,753.48,754.08,755.56,757.25,758.86,759.95,759.14,757.14,755.82,756.60,759.21,763.47,767.74,771.19,773.19,774.84,776.48,778.02,779.25,780.33,780.83,780.98,780.86,780.42,779.71,778.81,778.32,779.41,781.97,785.34,788.85,792.03,794.43,794.91,794.15,792.57,790.49,788.25,785.85,783.25,780.79,780.47,779.52,778.55,778.11,777.96,777.77,777.62,777.51,777.38,777.97,778.93,780.00,780.97,781.49,781.09,779.89,777.89,775.23,774.88,775.94,777.35,778.21,778.70,778.88,778.73,777.25,771.80,765.98,761.75,759.91,761.47,765.38,768.99,771.63,773.13,774.04,774.18,774.05,773.92,773.93,773.84,772.84,771.28,770.14,771.01,772.38,773.47,774.14,775.08,776.69,778.34,779.50,779.57,779.70,779.77,779.71,779.40,778.65,777.98,777.19,776.25,775.32,774.03,772.56,771.19,770.33,769.95,769.86,769.85,769.83,769.85,769.86,769.82,769.76
788.02,786.48,785.00,783.76,782.60,781.38,780.02,778.57,776.97,775.19,773.15,771.14,770.25,770.73,772.91,776.46,779.57,781.85,783.38,784.99,786.61,788.28,789.92,791.29,791.64,791.84,792.08,792.37,792.76,793.22,793.68,794.06,794.18,793.95,793.47,792.95,792.56,792.13,791.69,791.30,790.99,790.67,790.27,788.85,786.34,783.15,780.71,779.00,778.21,778.56,779.04,779.90,781.17,782.74,784.23,785.60,786.75,787.76,788.65,788.91,788.17,787.17,786.26,785.14,783.89,782.58,781.18,779.47,777.23,774.96,772.97,771.49,770.45,769.52,768.25,766.53,764.74,762.97,761.14,759.58,758.80,758.02,757.31,756.96,757.17,757.64,758.17,758.71,759.19,759.50,759.69,759.93,760.16,760.23,759.94,759.65,759.38,759.13,758.86,758.48,757.60,756.37,755.23,754.86,754.73,754.61,754.41,754.26,754.09,753.92,753.75,753.51,753.44,753.18,753.09,753.56,754.12,754.93,757.01,760.23,762.51,764.52,766.43,768.31,770.10,771.08,771.91,772.53,772.57,771.38,769.29,766.80,764.43,763.09,762.88,763.01,762.81,761.52,758.88,757.37,756.44,755.93,756.55,757.90,759.68,761.60,762.96,762.04,759.91,757.61,756.28,757.89,761.18,765.41,769.59,771.86,773.79,775.91,778.00,779.61,780.87,781.67,782.15,782.34,782.15,781.54,780.60,779.86,780.46,782.96,786.19,789.80,793.35,795.18,794.11,792.17,790.08,787.66,784.94,782.55,780.20,778.15,780.27,781.07,780.82,780.09,779.14,778.54,777.97,777.26,776.44,776.53,777.32,778.40,779.43,779.98,780.03,779.16,777.18,774.41,772.68,772.68,773.72,774.83,775.68,776.14,776.09,775.06,772.09,766.51,761.83,759.40,760.07,762.93,765.77,768.06,769.67,770.72,771.15,771.03,770.62,770.65,770.82,770.32,769.21,768.14,768.99,770.09,770.95,771.59,772.49,773.82,775.17,776.27,776.98,778.45,779.07,779.04,778.56,777.13,776.20,775.34,774.38,773.50,772.38,771.09,770.07,769.93,769.83,769.80,769.77,769.73,769.77,769.79,769.71,769.59
785.00,783.35,781.88,780.85,780.01,779.15,778.25,777.08,775.69,774.10,772.30,770.57,769.63,769.70,771.31,775.11,778.36,780.72,782.37,784.04,785.76,787.34,788.77,790.04,790.45,790.64,790.92,791.39,791.93,792.49,793.04,793.53,793.86,793.72,793.38,793.00,792.67,792.37,791.99,791.63,791.31,791.00,790.61,789.52,787.41,784.02,781.29,779.37,778.13,777.75,778.53,779.75,781.13,782.47,783.39,784.85,786.19,787.28,788.03,787.56,786.50,785.48,784.72,783.83,782.74,781.53,780.14,778.31,776.05,773.74,771.57,769.80,768.75,767.71,766.36,764.63,762.82,761.21,760.09,759.33,758.65,757.89,757.21,756.78,756.72,756.92,757.39,757.85,758.19,758.45,758.66,758.85,758.95,758.88,758.77,758.52,758.26,758.02,757.72,757.31,756.56,755.64,754.98,754.77,754.67,754.56,754.38,754.17,753.99,753.82,753.64,753.43,753.30,753.12,753.08,753.48,754.30,756.33,759.11,762.17,764.68,766.95,768.84,770.41,771.70,772.54,773.28,773.88,773.97,772.65,770.98,769.00,767.01,765.89,766.05,766.51,766.64,765.75,763.25,760.91,759.22,758.48,758.94,760.35,762.22,764.25,765.82,765.07,762.59,759.74,757.72,757.62,759.75,763.48,767.82,770.89,773.19,775.50,777.85,779.88,781.17,782.22,783.07,783.71,784.17,783.67,782.78,782.26,783.21,785.17,788.15,791.68,794.61,793.85,792.02,789.53,786.66,784.01,781.03,779.60,779.70,780.99,782.83,783.15,782.68,782.00,781.39,780.88,780.14,779.16,778.06,777.13,776.40,776.26,776.89,777.24,777.19,776.45,774.78,772.11,770.52,770.06,770.41,771.31,772.17,772.79,772.94,772.34,770.61,766.35,762.03,759.12,759.13,760.36,761.55,762.64,763.88,765.59,766.44,766.39,765.81,765.71,766.16,766.78,767.24,767.43,768.09,768.63,769.05,769.51,770.22,771.31,772.72,774.31,775.88,777.58,778.34,778.42,778.00,776.51,774.80,773.43,772.50,771.65,770.84,770.25,769.90,769.84,769.81,769.76,769.72,769.70,769.67,769.66,769.61,769.54
781.93,780.44,779.19,778.42,777.81,777.13,776.53,775.52,774.25,772.80,771.21,769.85,769.05,769.02,770.38,773.83,776.99,779.46,781.28,782.84,784.43,785.87,787.14,788.28,788.80,789.27,789.89,790.67,791.28,791.89,792.48,793.01,793.48,793.40,793.14,792.84,792.56,792.29,791.97,791.63,791.31,790.98,790.56,789.35,787.06,783.66,780.96,779.02,777.62,776.93,777.94,779.34,780.62,781.63,782.54,784.11,785.62,786.76,787.13,786.11,784.83,783.76,783.01,782.26,781.36,780.20,778.73,776.86,774.72,772.45,770.21,768.25,767.06,765.92,764.48,762.76,761.21,760.03,759.41,759.03,758.47,757.75,757.12,756.67,756.48,756.44,756.66,756.95,757.22,757.45,757.68,757.79,757.79,757.71,757.70,757.48,757.21,756.92,756.55,756.25,755.76,755.19,754.89,754.71,754.61,754.50,754.34,754.14,753.95,753.78,753.62,753.42,753.28,753.16,753.17,753.60,754.75,757.56,760.82,763.89,766.57,768.85,770.62,771.99,773.10,773.99,774.75,775.38,775.54,774.28,772.80,771.14,769.50,768.54,768.84,769.34,769.53,768.99,767.34,765.14,763.02,761.49,761.24,762.86,765.03,767.12,768.46,767.91,765.51,762.39,759.59,758.18,759.18,762.26,766.54,770.12,772.71,775.17,777.63,779.83,781.01,781.97,782.78,783.53,784.57,785.18,785.16,785.13,786.29,788.02,790.94,793.52,794.01,791.53,788.95,786.04,782.89,780.39,779.30,779.70,781.24,783.41,784.56,784.55,784.14,783.72,783.44,783.12,782.36,781.21,779.89,778.42,776.75,775.45,774.92,774.27,773.80,773.20,772.09,770.07,768.66,767.84,767.56,767.91,768.36,768.91,769.40,769.52,768.60,765.27,761.60,758.87,758.33,758.74,759.29,760.01,761.34,763.86,765.49,766.11,766.05,766.21,766.82,767.73,768.64,769.24,769.64,769.82,769.90,769.99,770.21,770.74,771.91,773.64,775.54,777.20,777.98,778.05,777.49,776.26,774.19,772.29,771.06,770.49,770.07,769.90,769.88,769.81,769.80,769.76,769.74,769.73,769.68,769.65,769.61,769.59
779.04,777.80,776.88,776.37,775.91,775.29,774.85,773.93,772.75,771.41,770.02,769.02,768.45,768.58,770.00,772.63,775.44,777.98,779.97,781.31,782.67,783.97,785.18,786.25,786.94,787.88,789.04,790.20,790.81,791.40,791.98,792.53,793.08,793.07,792.82,792.53,792.29,791.99,791.68,791.37,791.04,790.67,790.21,788.53,785.66,782.36,779.89,778.07,776.71,776.08,777.15,778.54,779.57,780.35,781.71,783.39,785.06,786.18,786.00,784.67,783.24,782.06,781.20,780.48,779.75,778.61,777.03,775.18,773.25,771.08,768.82,766.79,765.33,764.10,762.65,761.05,759.98,759.39,759.01,758.67,758.24,757.60,757.02,756.61,756.38,756.17,756.04,756.10,756.30,756.50,756.71,756.70,756.61,756.60,756.60,756.43,756.18,755.85,755.41,755.34,755.17,754.90,754.79,754.64,754.55,754.44,754.28,754.12,753.91,753.73,753.57,753.42,753.33,753.26,753.35,753.95,755.52,758.62,762.14,765.46,768.23,770.32,771.92,773.23,774.44,775.48,776.33,777.01,777.25,776.23,774.79,773.27,771.89,771.01,771.22,771.51,771.57,771.31,770.82,769.50,767.33,764.74,763.37,765.26,767.84,769.90,770.76,770.40,768.47,765.41,761.83,759.49,759.36,761.67,765.71,769.43,772.21,774.74,777.21,779.35,780.33,780.98,781.47,782.06,783.54,785.86,787.30,788.06,789.42,791.18,793.75,794.51,791.62,788.36,785.08,782.06,779.46,777.75,779.80,782.18,783.91,784.86,785.26,785.28,785.21,785.14,785.05,784.94,784.30,783.11,781.61,780.07,778.08,775.92,773.83,771.71,770.63,770.08,769.58,768.55,767.33,766.24,765.42,764.98,764.55,764.79,765.63,766.61,766.24,763.51,760.66,758.58,757.70,758.10,759.01,760.29,762.21,765.41,767.88,769.46,770.36,771.09,771.76,772.29,772.70,772.96,773.09,773.11,772.96,772.59,772.13,771.89,772.57,774.08,775.80,777.31,778.03,777.93,777.05,776.22,774.20,771.92,770.21,770.00,769.92,769.90,769.88,769.82,769.81,769.81,769.80,769.80,769.79,769.74,769.70,769.73
776.56,775.34,774.60,774.21,773.88,773.45,773.05,772.28,771.27,770.12,769.01,768.08,767.73,768.13,769.48,771.46,773.81,776.04,777.87,779.30,780.79,782.12,783.33,784.61,785.86,787.18,788.58,789.90,790.52,791.08,791.63,792.18,792.70,792.76,792.55,792.27,792.02,791.73,791.42,791.09,790.73,790.37,789.43,787.33,784.24,780.98,778.76,777.02,775.70,775.20,776.08,777.19,778.28,779.48,781.15,782.83,784.50,785.53,784.89,783.43,781.87,780.45,779.29,778.51,777.76,776.68,775.19,773.44,771.66,769.60,767.40,765.33,763.63,762.24,761.03,760.03,759.40,758.97,758.60,758.25,757.89,757.42,756.92,756.54,756.31,756.08,755.87,755.74,755.67,755.66,755.72,755.63,755.50,755.50,755.50,755.43,755.32,755.14,754.92,754.90,754.85,754.75,754.67,754.57,754.48,754.38,754.22,754.07,753.89,753.72,753.57,753.48,753.39,753.38,753.64,754.58,756.54,759.64,763.16,766.64,769.54,771.46,772.98,774.38,775.69,776.87,777.83,778.57,778.89,778.22,776.88,775.43,774.06,772.94,772.92,773.10,773.19,773.10,772.68,771.61,769.80,767.31,764.94,766.88,769.35,771.12,772.06,771.80,770.50,768.27,765.08,761.71,760.29,761.56,764.97,768.61,771.22,773.55,775.80,777.75,778.72,779.34,779.85,780.50,781.97,784.69,787.24,789.59,792.27,793.76,793.28,791.09,787.48,783.90,780.54,778.98,779.30,780.18,782.51,784.08,784.83,785.26,785.48,785.62,785.69,785.68,785.66,785.59,785.20,784.36,782.94,781.37,779.50,777.25,774.62,772.06,770.39,769.38,768.79,768.18,767.67,766.72,765.51,764.22,761.97,761.40,762.18,763.51,763.51,761.91,759.84,758.08,757.57,758.52,760.51,763.21,766.33,768.96,770.90,772.37,773.51,774.53,775.38,775.92,776.24,776.48,776.49,776.38,776.07,775.48,774.71,774.09,774.33,775.41,776.82,778.11,778.57,778.17,777.02,776.00,774.19,772.26,770.73,770.08,769.92,769.90,769.89,769.87,769.87,769.87,769.87,769.87,769.87,769.84,769.80,769.79
774.17,772.91,772.33,772.04,771.83,771.60,771.28,770.71,769.90,768.94,768.01,767.11,766.89,767.43,768.69,770.18,772.08,773.97,775.63,777.13,778.91,780.55,782.01,783.49,785.15,786.75,788.31,789.69,790.32,790.83,791.33,791.85,792.35,792.45,792.28,792.00,791.74,791.44,791.13,790.80,790.39,789.75,788.24,785.86,782.87,779.83,777.78,776.04,774.71,774.29,775.07,776.19,777.63,779.33,780.99,782.55,784.11,784.96,783.99,782.54,780.97,779.39,777.91,776.83,775.81,774.69,773.36,771.66,769.92,767.97,765.87,763.79,762.00,760.80,759.98,759.42,759.02,758.62,758.23,757.87,757.58,757.29,756.95,756.64,756.39,756.14,755.90,755.64,755.38,755.20,755.13,754.99,754.86,754.85,754.87,754.86,754.81,754.73,754.65,754.62,754.61,754.60,754.54,754.46,754.38,754.29,754.16,754.02,753.88,753.73,753.62,753.54,753.48,753.58,754.06,755.33,757.72,760.89,764.44,767.95,770.60,772.40,773.95,775.44,776.84,778.16,779.25,780.13,780.60,780.02,778.76,777.34,775.96,774.74,774.58,774.70,774.84,774.81,774.25,773.20,771.54,769.16,766.40,768.16,770.39,771.95,773.05,772.99,772.08,770.49,768.05,764.63,762.50,762.44,764.46,767.88,770.37,772.38,774.23,775.92,777.09,778.04,778.85,779.84,782.07,785.42,788.95,791.96,793.53,793.39,790.69,786.91,783.26,780.06,778.40,778.80,780.82,782.81,784.43,785.08,785.20,785.43,785.61,785.81,785.94,785.96,785.96,785.89,785.65,785.05,783.79,782.25,780.54,778.44,775.77,773.18,771.54,770.54,769.94,769.47,769.39,768.68,767.43,765.86,762.85,760.96,760.32,760.63,760.65,759.97,758.59,757.28,757.74,759.56,762.66,766.30,769.68,771.75,773.30,774.70,776.05,777.38,778.27,778.84,779.19,779.36,779.33,779.18,778.81,778.12,777.26,776.41,776.34,777.09,778.24,779.15,779.26,778.61,777.33,776.09,774.67,773.27,772.04,771.12,770.83,770.71,770.56,770.26,769.98,769.90,769.95,770.10,770.25,770.33,770.24,770.04
771.89,770.61,770.17,769.97,769.85,769.79,769.61,769.24,768.66,767.89,766.98,766.14,765.96,766.46,767.60,768.80,770.29,771.87,773.39,774.91,777.07,779.27,781.24,782.89,784.69,786.47,788.15,789.54,790.19,790.63,791.06,791.54,792.03,792.12,791.97,791.72,791.43,791.12,790.81,790.48,789.97,788.73,786.65,784.20,781.58,778.96,776.97,775.13,773.74,773.38,774.21,775.76,777.79,779.92,781.25,782.56,783.88,784.48,783.36,782.05,780.63,779.04,777.28,775.63,774.09,772.80,771.57,769.83,768.00,766.14,764.19,762.20,760.54,759.92,759.57,759.16,758.77,758.33,757.93,757.61,757.40,757.28,757.17,756.98,756.68,756.38,756.16,755.87,755.52,755.23,755.01,754.87,754.79,754.74,754.78,754.75,754.68,754.61,754.54,754.47,754.43,754.43,754.41,754.35,754.27,754.18,754.10,754.01,753.88,753.76,753.67,753.61,753.61,753.88,754.62,756.22,759.05,762.45,766.06,769.43,771.47,773.20,774.84,776.41,777.87,779.32,780.56,781.66,782.36,781.61,780.33,778.94,777.58,776.47,776.33,776.46,776.59,776.53,775.81,774.60,772.76,770.27,767.84,769.20,771.11,772.63,773.87,774.16,773.32,772.00,770.43,768.09,765.99,764.49,764.40,767.31,769.76,771.46,772.83,774.35,775.87,777.52,778.97,780.65,784.49,788.80,792.79,794.93,792.71,789.68,786.26,782.76,779.59,777.64,779.37,781.74,783.46,784.53,784.97,785.14,785.26,785.49,785.70,785.88,786.01,786.06,786.07,786.00,785.76,785.20,784.10,782.65,781.10,779.29,777.04,774.77,773.89,773.51,773.13,772.61,772.52,771.99,771.04,769.76,767.39,763.92,760.63,758.49,757.99,757.71,756.86,756.29,758.20,761.05,765.08,768.91,771.39,773.20,774.79,776.36,777.98,779.67,780.40,780.98,781.41,781.39,781.38,781.31,780.98,780.31,779.56,778.66,778.44,779.00,779.97,780.34,780.05,779.25,778.00,776.67,775.79,774.94,774.00,773.17,772.78,772.49,772.03,771.14,770.32,770.03,770.16,770.56,771.03,771.20,770.99,770.49
770.26,769.38,769.00,768.75,768.57,768.50,768.26,767.94,767.45,766.75,765.91,765.44,765.34,765.64,766.44,767.50,768.76,770.02,771.27,772.86,775.30,777.87,780.23,782.20,784.08,785.91,787.70,789.27,790.13,790.56,790.94,791.36,791.72,791.72,791.57,791.38,791.15,790.85,790.54,790.08,789.19,787.42,785.18,782.82,780.41,777.94,775.91,773.99,772.63,772.51,773.66,775.81,778.23,780.37,781.51,782.56,783.51,783.90,783.00,781.79,780.67,779.38,777.65,775.49,773.33,771.58,770.00,767.96,766.07,764.22,762.41,760.83,759.92,759.57,759.33,759.00,758.58,758.19,757.95,757.82,757.77,757.70,757.69,757.59,757.32,757.02,757.03,756.87,756.50,756.13,755.25,754.85,754.76,754.66,754.67,754.66,754.61,754.54,754.55,754.49,754.43,754.40,754.39,754.32,754.22,754.11,754.04,754.00,753.91,753.82,753.74,753.69,753.87,754.25,755.31,757.67,760.72,764.10,767.46,770.40,772.26,773.94,775.58,777.20,778.79,780.27,781.63,782.87,783.69,782.95,781.71,780.34,779.05,778.18,778.12,778.26,778.38,778.28,777.53,775.92,773.77,771.32,769.31,770.22,771.82,773.35,774.73,775.38,774.72,773.49,772.20,770.64,768.95,767.29,766.18,766.88,769.13,771.10,773.03,775.54,777.08,779.26,781.87,785.00,789.37,792.75,793.64,792.16,789.02,785.64,782.11,779.44,778.60,779.39,781.84,783.75,784.54,784.93,785.07,785.15,785.26,785.44,785.63,785.79,785.92,785.99,786.03,785.98,785.68,785.06,783.98,782.74,781.48,780.12,778.67,777.51,777.31,777.35,777.27,777.01,776.57,775.56,774.19,772.74,770.89,768.04,764.30,760.29,758.03,756.52,755.78,756.20,758.74,762.19,766.41,770.06,772.11,773.88,775.58,777.26,778.97,780.76,781.44,781.84,782.12,782.17,782.18,782.12,781.94,781.62,781.29,780.76,780.57,780.83,781.34,781.40,781.05,780.27,779.06,777.98,777.33,776.74,776.04,775.24,774.83,774.47,773.87,772.86,772.08,771.38,771.05,771.30,771.79,771.67,771.26,770.78
769.07,768.46,768.07,767.74,767.48,767.31,767.07,766.84,766.50,765.94,765.21,765.04,765.05,765.17,765.55,766.29,767.33,768.38,769.47,770.95,773.26,775.89,778.61,781.21,783.20,785.07,786.97,788.81,789.99,790.49,790.83,791.18,791.44,791.35,791.19,791.03,790.86,790.59,790.21,789.52,788.25,786.27,784.05,781.81,779.52,777.07,774.89,772.81,771.45,771.64,773.31,775.91,778.52,780.57,781.57,782.43,783.09,783.30,782.69,781.68,780.87,779.81,778.08,775.58,773.01,770.67,768.46,766.09,764.15,762.40,760.91,759.90,759.58,759.37,759.13,758.86,758.48,758.23,758.15,758.19,758.25,758.23,758.26,758.22,758.03,757.81,758.01,758.01,757.70,757.24,756.03,755.31,754.99,754.74,754.68,754.66,754.62,754.59,754.63,754.60,754.53,754.47,754.46,754.40,754.27,754.14,754.05,754.01,753.94,753.87,753.83,753.88,754.20,754.80,756.24,759.19,762.28,765.54,768.59,771.13,772.95,774.64,776.31,777.98,779.61,781.09,782.54,783.94,784.94,784.50,783.36,782.04,780.84,780.19,780.11,780.22,780.28,780.04,779.20,777.40,775.12,772.76,770.96,771.46,772.80,774.35,775.78,776.63,776.20,775.13,773.94,772.84,771.59,770.12,768.52,767.46,768.86,771.02,773.83,777.45,779.50,782.23,785.85,789.93,793.00,794.10,792.08,788.21,784.92,781.59,779.10,778.05,779.00,781.37,783.59,784.76,784.94,785.00,785.05,785.11,785.19,785.31,785.43,785.54,785.63,785.68,785.72,785.67,785.40,784.86,783.99,783.00,781.97,780.98,780.15,779.71,779.83,780.04,780.14,780.10,779.55,778.43,776.96,775.36,773.68,771.46,767.93,763.06,758.98,756.20,755.25,756.18,759.12,762.87,767.03,770.45,772.35,774.15,775.93,777.68,779.43,781.20,781.91,782.25,782.49,782.69,782.72,782.64,782.53,782.45,782.40,782.14,781.96,781.93,782.02,781.91,781.63,781.03,780.05,779.33,778.85,778.45,777.99,777.31,776.93,776.50,775.80,774.74,773.92,772.81,772.06,772.06,772.35,771.99,771.50,771.10
768.35,767.70,767.24,766.86,766.51,766.22,766.09,766.09,766.03,765.77,765.17,765.08,765.16,765.24,765.20,765.26,766.00,767.05,768.16,769.27,770.80,773.04,776.04,779.70,781.94,783.84,785.87,788.07,789.72,790.35,790.68,790.98,791.18,791.04,790.87,790.71,790.54,790.30,789.75,788.73,787.18,785.48,783.45,781.31,779.04,776.51,774.08,771.69,770.23,770.78,773.15,775.90,778.45,780.41,781.27,782.11,782.62,782.71,782.32,781.72,781.13,780.08,778.18,775.63,773.01,770.07,766.94,764.27,762.30,760.86,759.95,759.63,759.39,759.21,758.99,758.72,758.54,758.52,758.58,758.64,758.72,758.78,758.81,758.80,758.76,758.71,759.02,759.19,759.04,758.49,757.60,756.60,755.71,755.16,754.97,754.89,754.84,754.82,754.81,754.79,754.73,754.67,754.66,754.59,754.46,754.31,754.17,754.03,753.94,753.90,753.95,754.23,754.61,755.61,757.53,760.56,763.53,766.56,769.34,771.66,773.48,775.29,777.08,778.79,780.35,781.78,783.31,784.89,786.22,786.45,785.53,784.30,783.23,782.72,782.43,782.42,782.36,781.79,780.74,779.13,777.13,774.88,772.91,773.05,774.23,775.76,777.14,777.89,777.76,777.03,775.89,774.82,773.91,772.70,771.14,769.69,769.29,771.30,775.06,779.55,783.04,786.47,790.53,794.21,793.46,790.84,787.67,784.43,781.23,777.83,777.97,779.54,780.68,782.15,783.55,784.42,784.74,784.93,784.96,784.97,784.99,785.01,785.03,785.07,785.09,785.09,785.04,784.96,784.86,784.68,784.34,783.63,782.74,781.90,781.23,780.60,780.43,780.47,780.53,780.52,780.37,779.99,779.19,777.64,775.65,773.29,770.20,765.93,760.46,756.95,755.40,755.92,759.15,762.87,766.79,770.08,772.11,773.97,775.77,777.54,779.30,780.96,781.83,782.39,782.85,783.22,783.28,783.13,782.94,782.80,782.66,782.39,782.10,781.86,781.68,781.52,781.43,781.21,780.75,780.42,780.15,779.93,779.70,779.34,779.02,778.51,777.71,776.54,775.33,773.97,773.01,772.75,772.61,772.25,771.88,771.59
767.75,767.16,767.02,767.00,766.94,766.83,766.87,766.97,766.99,766.75,766.00,765.31,765.16,765.33,765.38,765.22,765.41,766.03,767.02,768.04,769.21,770.75,773.19,777.30,780.36,782.69,784.84,787.09,789.05,790.04,790.54,790.80,790.85,790.75,790.60,790.42,790.19,789.70,788.85,787.66,786.17,784.51,782.64,780.60,778.30,775.64,773.03,770.81,769.61,770.19,772.48,775.25,778.00,780.21,781.00,781.76,782.14,782.13,781.79,781.31,780.78,779.71,777.78,775.36,772.77,769.58,765.92,762.57,760.94,760.07,759.58,759.42,759.20,759.02,758.89,758.81,758.78,758.91,759.02,759.10,759.17,759.25,759.30,759.35,759.51,760.19,761.13,761.79,761.91,761.31,760.12,758.78,757.62,756.91,756.58,756.42,756.23,755.92,755.55,755.24,755.00,754.86,754.85,754.78,754.63,754.43,754.24,754.09,753.99,753.96,754.07,754.57,755.39,756.75,758.76,761.52,764.33,767.20,769.83,772.06,774.02,775.92,777.75,779.54,781.35,782.95,784.54,786.16,787.58,788.03,787.64,786.82,785.89,785.27,784.88,784.63,784.25,783.42,782.33,780.69,778.70,776.53,774.62,774.59,775.63,777.13,778.49,779.11,779.17,778.82,778.09,777.24,776.51,775.43,773.98,772.62,771.80,773.16,776.69,781.98,786.58,791.15,793.70,793.09,790.43,787.15,784.01,781.08,778.37,777.37,778.60,780.35,781.40,782.35,783.10,783.62,783.93,784.10,784.10,784.08,784.08,784.08,784.08,784.36,784.59,784.61,784.53,784.46,784.38,784.29,784.15,783.79,783.27,782.62,781.89,781.27,781.01,780.93,780.92,780.92,780.85,780.61,780.10,779.07,777.28,774.88,771.93,767.94,761.79,757.55,755.18,755.08,758.48,762.17,765.85,769.05,771.37,773.24,775.02,776.80,778.57,780.27,781.53,782.32,782.83,783.25,783.38,783.23,783.02,782.82,782.62,782.37,782.08,781.77,781.47,781.22,781.16,781.11,780.90,780.74,780.66,780.65,780.66,780.56,780.36,779.98,779.22,777.82,776.46,775.06,773.93,773.33,773.02,772.69,772.35,772.07
767.39,767.04,767.25,767.58,767.82,767.95,768.10,768.30,768.39,768.12,767.09,765.78,765.25,765.36,765.60,765.45,765.21,765.33,766.05,767.02,768.00,768.98,770.67,774.45,778.36,781.38,783.80,786.01,788.17,789.59,790.35,790.58,790.51,790.43,790.23,789.96,789.61,788.88,787.75,786.48,785.10,783.49,781.77,779.79,777.47,774.71,772.01,770.07,769.15,769.65,771.59,774.34,777.28,779.75,780.67,781.39,781.65,781.54,781.21,780.78,780.10,778.86,776.90,774.62,772.11,768.85,764.92,761.18,759.98,759.59,759.39,759.23,759.03,758.91,758.89,758.97,759.07,759.28,759.45,759.72,760.26,760.53,760.91,761.27,761.71,762.94,764.25,765.15,765.43,764.85,763.33,761.73,760.55,760.03,759.41,758.76,758.04,757.27,756.55,755.94,755.51,755.26,755.17,755.00,754.76,754.52,754.31,754.15,754.07,754.05,754.19,754.82,755.95,757.53,759.55,762.06,764.72,767.46,770.02,772.27,774.36,776.38,778.32,780.27,782.36,784.18,785.89,787.53,788.91,789.42,789.51,789.15,788.43,787.72,787.23,786.73,786.06,785.07,784.00,782.26,780.14,777.95,776.23,776.05,776.99,778.49,779.92,780.50,780.71,780.68,780.36,779.71,779.10,778.17,776.93,775.80,775.05,775.94,779.18,785.20,790.41,794.30,794.32,790.14,786.61,783.59,780.85,778.32,776.48,777.75,779.41,780.72,781.55,782.12,782.39,782.64,782.91,783.07,783.02,782.98,782.97,782.99,783.06,783.59,784.05,784.15,784.08,784.00,783.92,783.85,783.77,783.69,783.50,783.09,782.42,781.88,781.59,781.42,781.34,781.29,781.20,780.93,780.55,780.03,778.70,776.23,773.17,769.25,763.05,758.20,754.90,754.01,757.49,761.17,764.63,767.79,770.48,772.42,774.22,776.01,777.80,779.58,781.19,782.13,782.61,782.99,783.18,783.10,782.90,782.67,782.41,782.17,781.89,781.58,781.22,780.92,780.86,780.88,780.84,780.84,780.91,781.07,781.27,781.36,781.24,780.97,780.25,778.60,777.12,775.68,774.41,773.49,773.15,772.88,772.64,772.49
767.55,767.79,768.14,768.52,768.85,769.10,769.27,769.62,769.86,769.59,768.24,766.70,765.64,765.23,765.51,765.68,765.46,765.23,765.37,766.24,767.13,768.04,769.14,771.06,775.54,779.61,782.68,784.85,787.02,788.93,790.03,790.26,790.19,790.06,789.60,789.00,788.52,787.67,786.49,785.18,783.85,782.47,780.88,778.92,776.57,773.86,771.21,769.49,768.71,769.00,770.53,773.21,776.15,778.72,780.17,780.96,781.14,780.96,780.64,780.25,778.98,777.19,775.17,772.99,770.66,767.43,763.58,760.46,759.66,759.40,759.20,759.05,758.94,759.00,759.09,759.18,759.32,759.53,759.83,760.74,762.89,763.87,765.29,766.63,767.51,768.49,769.11,769.44,769.50,769.09,767.56,765.98,765.25,765.61,764.34,762.17,760.11,758.65,757.79,757.04,756.52,756.16,755.80,755.25,754.86,754.59,754.37,754.22,754.17,754.20,754.35,754.82,755.72,757.21,759.24,761.78,764.35,767.03,769.65,772.06,774.18,776.40,778.68,780.96,783.21,785.27,787.19,788.89,790.13,790.55,790.81,790.83,790.52,789.89,789.24,788.55,787.78,786.87,785.82,783.96,781.56,779.10,777.75,777.42,778.25,779.87,781.58,782.33,782.66,782.77,782.62,782.03,781.51,780.86,780.01,779.10,778.72,779.91,783.58,790.16,794.96,793.30,789.64,786.34,783.24,780.62,778.40,776.76,776.43,777.94,779.47,780.50,780.96,781.26,781.37,781.53,781.82,782.01,781.94,781.84,781.82,781.92,782.21,782.85,783.43,783.68,783.63,783.55,783.48,783.39,783.32,783.24,783.18,783.10,782.90,782.46,782.17,781.98,781.83,781.63,781.43,781.15,780.82,780.40,779.82,777.19,773.58,769.43,764.21,759.08,754.72,752.77,756.21,759.93,763.25,766.42,769.57,771.77,773.68,775.52,777.36,779.19,780.89,781.81,782.16,782.37,782.59,782.62,782.53,782.33,781.98,781.67,781.40,781.14,780.83,780.63,780.53,780.54,780.68,780.91,781.08,781.26,781.49,781.67,781.52,781.18,780.33,778.53,776.80,775.23,773.82,772.74,772.43,772.29,772.44,772.80
768.22,768.61,769.03,769.86,770.85,771.69,772.12,772.48,772.27,771.27,769.49,767.65,766.05,765.15,765.46,765.76,765.68,765.42,765.27,765.59,766.21,767.06,768.04,769.31,772.26,776.88,781.13,783.47,785.58,787.52,788.72,789.02,788.78,788.51,787.92,787.23,786.77,786.17,785.16,783.93,782.63,781.35,780.00,778.14,775.81,773.30,770.88,769.22,768.33,768.36,769.62,771.93,774.55,777.04,778.97,779.94,780.19,780.00,779.53,778.75,777.17,775.24,773.24,771.11,768.66,765.38,761.90,760.04,759.50,759.25,759.09,759.06,759.08,759.21,759.32,759.41,759.53,759.72,761.28,763.97,766.78,768.42,770.29,771.91,772.86,773.56,773.69,773.55,773.22,772.55,771.06,769.87,769.44,769.59,768.03,764.09,760.73,759.03,758.08,757.34,756.72,756.13,755.54,755.05,754.75,754.54,754.40,754.36,754.38,754.44,754.54,754.76,755.23,756.36,758.20,760.77,763.45,766.29,769.13,771.84,774.32,776.87,779.32,781.65,783.89,786.09,788.16,789.88,791.06,791.81,792.27,792.38,792.14,791.64,791.14,790.39,789.50,788.56,787.60,785.69,783.32,781.03,779.65,779.16,779.86,781.45,783.31,784.25,784.68,784.87,784.83,784.31,783.88,783.39,782.84,782.45,782.59,784.80,788.89,793.49,793.41,789.93,786.12,783.19,780.63,778.52,776.63,775.41,775.98,777.44,778.81,779.75,780.16,780.34,780.35,780.46,780.72,780.93,780.84,780.69,780.64,780.88,781.41,782.18,782.87,783.23,783.17,783.07,782.97,782.89,782.82,782.78,782.76,782.78,782.75,782.43,782.15,781.88,781.64,781.47,781.32,781.07,780.77,780.48,780.14,777.57,773.75,769.35,764.58,759.75,755.31,752.64,754.51,758.01,761.74,765.49,769.10,771.41,773.35,775.20,777.04,778.84,780.41,781.42,781.97,782.21,782.47,782.58,782.55,782.36,781.93,781.47,781.11,780.83,780.54,780.36,780.28,780.30,780.44,780.69,780.97,781.27,781.59,781.83,781.66,781.12,780.05,778.17,776.35,774.70,773.18,771.98,771.72,771.73,772.12,772.78
769.09,769.67,770.36,771.73,773.43,774.95,775.60,775.74,774.87,772.99,770.78,768.60,766.53,765.21,765.41,765.78,765.88,765.74,765.44,765.18,765.46,766.14,767.07,768.17,769.39,773.97,779.10,781.99,784.07,785.75,786.87,787.25,786.86,786.50,785.86,785.17,784.78,784.46,783.75,782.71,781.44,780.22,779.12,777.45,775.25,772.99,770.83,769.15,768.01,767.66,768.72,770.60,772.83,775.18,777.38,778.51,778.85,778.67,778.04,776.85,775.11,773.19,771.23,769.15,766.50,763.27,760.40,759.75,759.39,759.15,759.05,759.15,759.32,759.47,759.60,759.74,759.98,760.46,763.45,767.68,770.61,772.87,775.04,776.71,777.56,777.98,777.79,777.32,776.64,775.60,774.12,773.16,772.63,772.00,769.99,764.75,760.54,758.90,757.89,757.15,756.45,755.73,755.06,754.79,754.63,754.52,754.49,754.54,754.68,754.86,755.04,755.20,755.28,755.86,757.17,759.49,762.25,765.31,768.41,771.46,774.41,777.36,779.96,782.25,784.44,786.71,788.83,790.51,791.63,792.72,793.43,793.73,793.64,793.28,792.98,792.27,791.27,790.30,789.45,787.58,785.36,783.30,781.79,781.08,781.65,783.24,785.18,786.30,786.82,787.05,787.06,786.60,786.25,785.87,785.59,785.88,786.72,789.87,793.63,794.78,789.89,786.11,783.17,780.51,778.44,776.82,775.17,774.16,775.25,776.59,777.84,778.78,779.23,779.31,779.22,779.25,779.46,779.68,779.57,779.41,779.47,780.00,780.76,781.63,782.37,782.76,782.70,782.58,782.46,782.39,782.33,782.31,782.31,782.33,782.34,782.12,781.82,781.50,781.22,781.13,781.04,780.84,780.60,780.41,780.06,777.71,774.02,769.53,764.99,760.31,755.80,752.51,752.70,756.02,760.31,764.81,768.99,771.27,773.13,774.95,776.77,778.43,779.79,780.92,781.77,782.16,782.49,782.64,782.65,782.50,782.02,781.46,781.01,780.67,780.36,780.17,780.10,780.12,780.22,780.43,780.79,781.23,781.67,781.91,781.71,780.96,779.64,777.67,775.77,774.04,772.45,771.21,771.02,771.23,771.81,772.63
770.00,771.39,773.12,774.92,776.89,778.81,779.26,778.59,776.97,774.62,772.10,769.49,767.24,765.71,765.36,765.70,766.03,766.08,765.82,765.52,765.37,765.53,766.11,767.20,768.40,771.53,775.98,780.50,782.65,783.68,784.34,784.71,784.46,784.24,783.76,783.14,782.66,782.38,782.15,781.52,780.34,779.23,778.18,776.89,775.22,773.15,771.15,769.40,767.85,766.82,767.71,769.25,771.22,773.41,775.28,776.42,776.74,776.50,775.87,774.70,773.01,771.11,769.18,767.18,764.42,761.78,759.91,759.57,759.31,759.15,759.15,759.35,759.56,759.73,759.93,760.32,761.24,763.19,766.74,770.56,772.81,775.57,778.22,780.03,780.63,780.75,780.57,780.21,779.56,778.19,776.58,774.78,772.97,771.00,767.64,762.82,759.40,758.19,757.18,756.25,755.55,755.10,754.87,754.79,754.76,754.75,754.79,754.82,755.21,755.84,756.59,757.30,757.43,757.11,757.06,758.19,760.68,763.85,767.20,770.58,773.98,777.38,780.22,782.59,784.75,786.94,788.94,790.46,791.38,792.31,793.48,794.58,795.25,794.96,794.80,794.20,793.28,792.31,791.56,789.96,787.89,785.77,784.26,783.08,783.64,785.53,787.41,788.74,789.30,789.44,789.36,789.03,788.71,788.38,788.37,789.52,791.54,794.48,795.40,791.12,786.83,783.48,780.82,778.67,776.84,775.42,773.92,772.99,774.09,775.39,776.68,777.68,778.11,778.00,777.67,777.50,777.63,777.92,777.75,777.76,778.31,779.58,780.52,781.35,781.99,782.30,782.20,782.10,782.01,781.93,781.87,781.86,781.86,781.84,781.77,781.55,781.21,780.95,780.82,780.74,780.61,780.48,780.34,780.12,779.51,777.75,774.86,770.90,766.49,760.81,755.17,751.06,751.02,754.64,759.30,764.44,769.50,771.49,773.06,774.76,776.49,777.79,778.90,780.08,781.20,781.99,782.42,782.58,782.62,782.53,782.19,781.77,781.30,780.83,780.42,780.17,780.06,780.05,780.14,780.31,780.74,781.27,781.76,781.88,781.65,780.75,779.19,777.03,774.93,773.04,771.44,770.39,770.40,770.89,771.58,772.37
771.89,773.28,775.35,777.38,779.30,780.91,781.35,780.39,778.56,776.09,773.18,770.24,767.90,766.22,765.30,765.55,765.98,766.18,766.08,765.81,765.51,765.37,765.53,766.23,767.48,769.66,773.15,777.76,780.41,781.35,781.83,782.19,782.04,781.83,781.37,780.78,780.27,779.94,779.86,779.58,778.83,777.78,776.73,775.70,774.60,773.16,771.37,769.66,767.98,766.56,766.75,768.02,769.76,771.65,773.32,774.34,774.63,774.35,773.65,772.57,770.90,769.00,767.07,765.11,762.56,760.66,759.71,759.47,759.24,759.17,759.27,759.50,759.73,760.21,760.69,761.37,763.09,765.65,768.79,771.82,774.00,776.79,779.41,781.15,781.68,781.84,781.65,781.33,780.64,778.98,776.99,774.70,772.18,769.16,764.69,760.99,758.66,757.60,756.59,755.64,755.09,754.94,755.13,755.55,755.99,756.35,756.57,756.55,756.99,757.80,758.86,759.93,760.24,759.42,758.27,757.90,759.42,762.39,765.92,769.65,773.33,776.85,779.82,782.25,784.30,786.34,788.14,789.58,790.60,791.55,793.15,794.88,796.24,796.55,796.53,796.08,795.34,794.53,793.88,792.42,790.38,788.11,786.39,785.00,785.52,787.54,789.64,791.16,791.78,791.86,791.69,791.39,791.08,790.94,791.42,793.36,794.68,795.13,793.34,788.07,784.14,781.22,778.91,777.03,775.26,773.73,772.40,771.77,772.84,774.12,775.48,776.47,776.74,776.46,776.03,775.79,775.86,776.13,776.27,776.91,778.10,779.63,780.49,781.17,781.65,781.86,781.73,781.63,781.54,781.44,781.37,781.36,781.34,781.29,781.19,780.96,780.69,780.51,780.42,780.30,779.99,779.64,779.22,778.55,777.56,776.13,774.09,771.18,767.11,760.92,754.68,750.22,750.25,753.94,758.76,764.23,769.67,771.57,773.01,774.40,775.67,776.73,777.75,778.86,779.96,780.82,781.44,781.78,781.91,781.86,781.75,781.52,781.18,780.78,780.44,780.21,780.07,780.03,780.12,780.27,780.74,781.35,781.86,781.88,781.63,780.72,779.11,776.85,774.65,772.53,770.74,769.65,769.73,770.47,771.29,772.08
774.38,775.30,777.22,779.25,780.98,782.11,782.60,781.62,779.82,777.36,774.10,770.94,768.54,766.70,765.28,765.40,765.83,766.16,766.25,766.07,765.79,765.50,765.29,765.43,766.55,768.11,770.61,774.36,777.47,778.57,779.03,779.34,779.26,779.01,778.54,777.99,777.52,777.16,777.07,777.08,776.89,775.98,774.96,774.14,773.55,772.86,771.38,769.80,768.17,766.54,765.85,766.86,768.40,769.97,771.47,772.29,772.51,772.24,771.45,770.48,768.84,766.93,765.01,763.07,760.99,759.86,759.63,759.40,759.19,759.21,759.40,759.63,759.90,760.78,761.64,762.64,764.96,767.50,769.83,772.04,774.44,777.06,779.44,781.04,781.62,781.92,781.79,781.44,780.64,778.72,776.31,773.77,770.86,767.00,761.91,759.50,758.21,757.17,756.19,755.35,755.12,755.39,756.00,756.96,757.91,758.69,759.15,759.14,759.58,760.45,761.64,762.88,763.32,762.32,760.34,758.31,758.48,760.91,764.43,768.47,772.42,775.91,778.91,781.42,783.35,785.17,786.77,788.20,789.47,790.61,792.67,794.98,796.99,798.00,798.17,797.91,797.45,796.89,796.37,795.00,792.92,790.41,788.29,786.86,787.28,789.27,791.85,793.56,794.22,794.28,794.03,793.72,793.41,793.53,794.50,796.59,796.17,793.55,789.77,785.70,781.89,779.33,777.35,775.55,773.75,772.00,770.83,770.59,771.68,772.98,774.35,775.24,775.25,774.82,774.35,774.10,774.16,774.46,775.16,776.57,778.33,779.86,780.53,781.00,781.31,781.39,781.26,781.17,781.06,780.93,780.86,780.84,780.78,780.67,780.53,780.30,780.03,779.83,779.67,779.43,778.89,778.23,777.36,776.11,774.79,773.56,772.30,770.51,766.86,760.72,754.32,749.72,749.94,753.55,758.42,763.99,769.49,771.44,772.81,773.81,774.51,775.43,776.40,777.41,778.33,779.05,779.82,780.38,780.65,780.70,780.81,780.79,780.63,780.42,780.26,780.18,780.09,780.04,780.13,780.29,780.79,781.42,781.94,781.88,781.61,780.75,779.20,776.93,774.71,772.42,770.41,769.11,769.00,769.98,770.99,771.81
777.25,777.61,778.85,780.41,782.00,783.31,783.77,782.72,780.78,778.18,774.85,771.69,769.14,767.03,765.40,765.37,765.72,766.10,766.35,766.35,766.15,765.86,765.58,765.40,765.54,766.65,768.51,770.91,773.44,774.53,774.92,775.02,774.99,774.83,774.47,774.10,773.89,773.73,773.76,773.94,774.10,773.76,772.96,772.36,772.01,771.58,770.72,769.46,767.93,766.30,764.97,765.71,767.14,768.57,769.75,770.28,770.41,770.16,769.38,768.50,766.99,765.18,763.29,761.40,760.22,759.67,759.50,759.29,759.20,759.31,759.53,759.79,760.23,761.33,762.53,763.80,765.65,767.57,769.42,771.40,773.83,776.48,778.81,780.45,781.19,781.47,781.59,781.22,780.12,777.96,775.48,772.89,769.59,765.02,760.80,759.03,758.06,757.14,756.22,755.67,756.15,757.31,758.43,759.47,760.29,761.07,761.85,762.19,762.85,763.82,764.98,766.05,766.37,765.53,763.14,759.35,758.22,759.38,762.21,766.38,770.91,774.41,777.40,779.99,781.92,783.45,785.00,786.51,787.97,789.61,792.32,795.41,798.10,799.17,799.61,799.72,799.65,799.45,799.10,797.90,795.77,792.83,789.98,788.62,788.77,790.51,793.99,795.88,796.63,796.70,796.36,796.00,795.68,796.12,797.06,796.92,794.40,791.28,788.03,784.50,780.75,778.25,776.29,774.40,772.52,770.77,769.71,769.67,771.02,772.48,773.62,774.13,773.83,773.23,772.69,772.40,772.53,773.34,774.78,776.56,778.39,779.87,780.44,780.73,780.86,780.83,780.74,780.66,780.57,780.48,780.40,780.34,780.20,779.95,779.60,779.24,778.58,777.96,777.47,776.92,776.26,775.45,774.35,772.87,771.61,770.70,769.85,768.42,764.93,759.97,754.11,749.35,749.63,753.02,757.82,763.31,768.61,770.82,771.94,772.64,773.21,773.97,774.89,775.84,776.60,776.96,777.50,778.07,778.61,779.02,779.20,779.25,779.24,779.23,779.41,779.83,780.03,780.10,780.20,780.40,780.88,781.45,781.89,781.82,781.50,780.63,779.14,777.05,774.97,772.91,770.94,769.25,768.18,769.38,770.77,771.72
779.79,779.88,780.61,781.78,783.20,784.56,784.95,783.56,781.32,778.61,775.50,772.54,769.93,767.64,765.81,765.38,765.61,765.98,766.30,766.49,766.46,766.24,765.91,765.60,765.29,765.75,766.84,768.36,770.09,770.93,771.23,771.26,771.28,771.21,771.02,770.84,770.85,771.17,771.33,771.48,771.70,771.64,771.17,770.76,770.52,770.22,769.75,768.79,767.52,766.06,764.46,764.85,766.03,767.28,768.13,768.41,768.46,768.20,767.32,766.47,765.08,763.38,761.68,760.38,759.81,759.55,759.39,759.24,759.26,759.42,759.64,760.01,761.16,762.56,763.96,765.28,766.51,767.78,769.21,770.92,773.12,775.53,777.74,779.46,780.45,780.77,780.94,780.40,778.98,776.71,774.22,771.44,767.68,762.80,760.04,758.83,758.02,757.19,756.39,756.36,757.46,759.14,760.56,761.63,762.40,763.27,764.38,765.19,766.21,767.24,768.19,768.99,769.26,768.67,766.33,761.77,758.96,758.84,760.65,764.17,768.88,772.42,775.39,777.97,779.96,781.47,783.15,784.99,786.94,789.17,792.45,796.12,799.26,800.35,800.85,801.10,801.22,801.15,800.93,800.04,798.45,796.06,793.13,791.84,792.05,793.71,796.77,798.13,798.62,798.64,798.37,798.07,797.83,797.77,797.47,795.71,792.35,789.39,786.80,783.89,780.34,777.98,776.03,774.02,772.00,770.01,768.89,769.00,770.63,772.00,772.72,772.84,772.41,771.79,771.06,770.84,771.41,772.76,774.38,775.97,777.48,778.81,779.52,779.90,780.00,779.85,779.74,779.61,779.45,779.28,779.16,778.98,778.71,778.36,777.98,777.71,776.88,775.97,775.14,774.28,773.51,772.53,771.27,769.84,768.67,767.93,767.31,766.22,763.38,758.94,753.50,749.03,749.44,752.66,757.32,762.46,767.17,769.61,770.76,771.42,771.91,772.51,773.38,774.19,774.70,774.79,775.13,775.65,776.31,776.99,777.33,777.55,777.70,777.93,778.51,779.26,779.74,780.02,780.22,780.50,780.92,781.37,781.68,781.56,781.11,780.13,778.69,776.87,775.01,773.18,771.33,769.41,767.56,768.59,770.24,771.56
782.05,782.09,782.52,783.41,784.64,785.88,786.23,784.45,781.83,779.01,776.22,773.55,770.96,768.50,766.50,765.49,765.48,765.81,766.14,766.49,766.68,766.58,766.26,765.94,765.62,765.39,765.65,766.65,767.52,767.95,768.13,768.20,768.27,768.30,768.36,768.44,768.66,769.54,769.78,769.79,769.87,769.85,769.63,769.39,769.16,768.91,768.59,767.90,766.94,765.74,764.18,764.19,765.00,766.00,766.57,766.67,766.67,766.35,765.32,764.41,763.14,761.65,760.30,759.88,759.61,759.43,759.31,759.25,759.36,759.56,759.82,760.46,762.62,764.36,765.81,767.02,767.70,768.44,769.48,770.88,772.68,774.63,776.60,778.36,779.56,779.87,779.86,779.05,777.37,775.07,772.59,769.45,765.32,760.69,759.47,758.76,758.03,757.26,756.60,757.23,758.88,760.92,762.56,763.63,764.35,765.28,766.67,767.98,769.38,770.45,771.16,771.65,771.99,771.58,769.56,765.15,760.60,759.20,759.80,762.13,766.59,770.11,773.01,775.51,777.60,779.35,781.38,783.77,786.51,789.39,793.04,796.96,800.28,801.41,801.81,802.06,802.20,802.12,801.95,801.41,800.66,799.48,797.10,795.97,796.43,797.97,799.66,800.07,800.09,800.02,799.90,799.72,799.43,798.28,796.15,793.52,790.38,787.87,785.79,783.52,780.36,778.24,776.36,774.25,772.11,769.80,768.43,768.45,770.07,771.17,771.47,771.28,770.82,770.21,769.27,769.35,770.69,772.41,773.70,774.69,775.65,776.76,777.72,778.37,778.55,778.31,778.18,777.99,777.71,777.41,777.26,776.94,776.53,776.14,775.90,775.84,775.07,774.03,772.90,771.77,770.81,769.65,768.33,767.07,765.95,765.25,764.73,764.01,762.13,757.72,752.57,748.75,749.32,752.46,756.90,761.51,765.42,767.92,769.27,770.02,770.44,770.94,771.78,772.42,772.70,772.60,772.80,773.24,773.90,774.70,775.32,775.80,776.20,776.71,777.66,778.57,779.26,779.76,780.14,780.52,780.85,781.12,781.26,781.07,780.45,779.36,777.97,776.43,774.80,773.15,771.41,769.40,767.04,767.69,769.48,771.24
784.25,784.24,784.54,785.35,786.40,787.44,788.07,786.58,783.88,780.65,777.67,775.10,772.39,769.69,767.44,765.87,765.41,765.52,765.89,766.27,766.64,766.82,766.74,766.38,766.02,765.66,765.53,765.78,765.97,766.00,766.02,766.07,766.20,766.39,766.94,767.72,768.51,769.13,769.25,769.23,769.28,769.17,768.70,768.34,768.14,767.85,767.50,766.91,766.08,764.97,763.76,763.45,763.79,764.50,765.00,765.02,764.94,764.60,763.56,762.47,761.36,760.43,759.85,759.63,759.45,759.37,759.37,759.41,759.54,759.71,760.34,761.96,764.52,766.34,767.74,768.86,769.58,770.32,771.20,772.31,773.72,775.12,776.72,778.11,778.85,778.74,778.15,777.05,775.44,773.24,770.64,767.02,763.09,760.01,759.22,758.65,758.00,757.29,756.74,757.72,760.23,763.35,765.68,766.71,766.67,766.95,768.33,769.97,771.44,772.62,773.46,773.97,774.31,773.63,771.79,768.46,763.23,760.45,759.74,761.06,764.73,767.78,770.45,772.88,775.05,777.27,780.11,783.54,787.36,790.82,794.18,797.57,800.50,801.71,802.11,802.41,802.63,802.56,802.33,801.85,801.31,800.67,799.49,798.97,799.16,799.82,800.54,800.54,800.45,800.35,800.20,799.92,798.57,796.51,794.00,791.27,788.77,786.60,784.59,782.52,780.14,778.40,776.73,774.79,772.74,770.77,768.88,767.54,767.67,768.64,769.11,768.95,768.20,767.23,766.54,767.59,769.98,771.23,771.88,772.35,772.87,773.59,774.47,775.22,775.52,775.38,775.51,775.44,775.22,775.00,774.92,774.67,774.30,774.02,773.98,773.96,773.31,772.31,771.11,769.75,768.38,767.13,765.88,764.51,763.31,762.59,762.14,761.68,760.46,756.37,751.69,748.40,749.12,752.31,756.50,760.65,763.96,765.87,767.07,767.66,767.93,768.75,769.58,770.29,770.66,770.46,770.59,770.92,771.52,772.40,773.24,774.20,775.14,776.06,777.09,777.95,778.61,779.13,779.56,780.00,780.26,780.38,780.35,780.08,779.52,778.60,777.34,775.76,774.14,772.52,770.74,768.62,766.19,766.82,768.69,770.57
786.41,786.38,786.63,787.37,788.28,789.07,789.66,788.68,786.38,783.14,779.64,776.76,773.86,770.97,768.47,766.66,765.67,765.38,765.66,766.05,766.48,766.84,767.00,766.73,766.36,766.02,765.76,765.60,765.38,765.30,765.27,765.27,765.39,765.64,766.45,767.62,768.69,768.87,768.84,768.83,768.85,768.65,767.85,767.33,767.14,766.79,766.40,765.91,765.17,764.11,763.10,762.59,762.57,762.96,763.44,763.39,763.23,762.83,761.87,760.96,760.23,759.77,759.62,759.47,759.39,759.41,759.51,759.60,759.76,760.39,761.78,764.14,766.65,768.35,769.62,770.68,771.53,772.32,773.12,774.05,775.23,776.34,777.40,778.08,778.10,777.63,776.43,775.05,773.49,771.25,768.18,764.47,761.24,759.62,759.00,758.48,757.91,757.31,757.00,758.27,761.75,766.03,768.66,769.52,769.03,768.79,769.86,771.80,773.39,774.64,775.60,776.22,776.58,775.64,773.75,771.05,766.30,762.60,760.96,761.69,764.00,765.95,768.13,770.50,772.73,775.37,778.81,783.04,787.75,791.55,794.57,797.36,799.84,801.35,802.09,802.57,802.87,802.84,802.57,802.10,801.62,801.22,800.77,800.56,800.54,800.63,800.74,800.57,800.32,800.04,799.66,798.92,796.86,794.36,791.85,789.49,787.45,785.48,783.50,781.55,779.68,778.15,776.62,774.93,773.25,771.70,769.74,767.55,765.99,765.89,765.91,765.60,764.83,763.85,763.66,765.30,768.02,768.91,769.21,769.43,769.76,770.27,771.05,771.82,772.29,772.42,772.72,772.78,772.68,772.55,772.52,772.37,772.15,772.03,772.11,772.09,771.42,770.38,769.10,767.56,765.93,764.63,763.49,762.17,760.61,759.72,759.26,758.95,758.28,754.87,750.89,748.09,748.72,751.68,755.60,759.41,762.32,763.82,764.74,765.05,765.05,765.86,766.66,767.66,768.42,768.36,768.60,768.88,769.55,770.75,771.85,773.07,774.29,775.45,776.48,777.13,777.65,778.09,778.51,778.92,779.12,779.16,779.09,778.93,778.55,777.81,776.70,775.14,773.55,771.95,770.14,767.91,765.45,765.86,767.58,769.44
788.51,788.48,788.71,789.35,790.08,790.62,790.79,790.35,788.87,786.07,781.91,778.41,775.28,772.30,769.59,767.83,766.31,765.44,765.49,765.85,766.24,766.66,766.99,766.93,766.62,766.38,766.22,766.03,765.67,765.75,765.83,765.78,765.81,766.01,766.78,767.91,768.83,768.56,768.43,768.43,768.39,768.13,767.03,766.35,766.15,765.71,765.32,764.91,764.26,763.20,762.21,761.64,761.40,761.49,761.92,761.84,761.59,761.13,760.33,759.99,759.80,759.65,759.50,759.38,759.43,759.57,759.73,759.93,760.27,761.83,764.23,766.85,768.95,770.35,771.46,772.45,773.42,774.24,775.03,775.91,777.00,778.08,778.39,778.07,777.29,776.55,774.84,773.16,771.54,769.03,765.25,761.96,759.89,759.30,758.77,758.29,757.81,757.42,757.50,759.18,763.62,768.80,771.24,771.86,771.35,770.87,771.38,773.59,775.41,776.71,777.66,778.41,778.77,777.66,775.52,772.79,769.45,765.53,763.59,764.21,764.76,765.08,766.47,768.64,770.80,773.67,777.39,782.01,787.23,791.16,793.90,796.17,798.29,800.34,801.76,802.58,802.97,803.00,802.74,802.26,801.80,801.43,801.09,800.76,800.61,800.53,800.29,800.08,799.59,798.99,798.24,796.73,794.56,792.14,789.86,788.17,786.35,784.45,782.54,780.68,778.91,777.40,775.94,774.52,773.39,772.25,770.68,768.42,765.43,763.44,762.34,761.67,761.14,760.58,760.96,762.57,764.72,765.47,765.79,766.07,766.43,766.95,767.69,768.43,769.08,769.60,769.98,770.12,770.12,770.05,770.05,770.00,769.91,769.88,769.95,769.95,769.22,768.12,766.77,765.13,763.42,762.05,760.97,759.87,757.78,756.60,756.03,755.79,755.62,753.25,750.18,747.82,748.08,750.47,754.01,757.56,760.21,761.63,762.21,762.15,761.85,762.24,763.11,764.60,765.96,766.27,766.80,767.10,768.02,769.84,771.23,772.45,773.65,774.81,775.75,776.08,776.36,776.68,777.00,777.32,777.47,777.51,777.55,777.69,777.53,776.97,776.02,774.63,773.11,771.57,769.74,767.44,764.94,764.81,766.07,767.80
790.38,790.32,790.37,790.59,790.86,791.06,791.06,790.62,789.27,786.69,782.88,779.72,776.65,773.61,770.86,768.83,767.12,765.87,765.34,765.65,766.04,766.47,766.88,767.07,766.93,766.80,766.69,766.50,765.93,766.14,766.37,766.36,766.41,766.57,767.20,768.07,768.63,768.20,768.03,768.03,767.98,767.63,766.50,765.61,765.14,764.77,764.38,763.94,763.27,762.31,761.49,761.01,760.73,760.61,760.66,760.61,760.47,760.23,759.86,759.71,759.63,759.55,759.50,759.49,759.57,759.70,760.10,761.30,762.87,764.92,767.21,769.39,771.04,772.27,773.27,774.16,775.15,776.04,776.91,777.82,778.78,779.27,778.71,777.64,776.48,775.45,773.60,771.53,769.25,766.26,762.66,760.50,759.55,759.15,758.71,758.25,758.07,758.27,758.81,762.00,766.56,770.91,773.23,774.01,773.57,772.95,773.16,775.42,777.56,778.97,779.74,780.30,780.38,779.04,776.63,773.68,770.70,768.18,767.46,768.44,768.27,767.72,767.78,768.49,769.76,772.25,775.88,780.25,785.03,789.36,792.01,794.07,796.19,798.76,800.92,802.17,802.75,802.86,802.64,802.25,801.85,801.50,801.09,800.53,799.73,798.81,797.99,797.29,796.70,796.11,795.25,793.54,791.65,789.78,788.09,786.70,785.08,783.31,781.44,779.48,777.46,776.12,774.86,773.48,772.40,771.36,769.82,767.69,765.14,763.11,761.69,760.73,760.17,759.86,759.93,760.58,761.53,761.89,762.14,762.51,762.99,763.58,764.33,765.12,765.93,766.68,767.03,766.92,766.77,766.75,766.90,767.05,766.31,765.39,765.13,765.74,765.80,765.26,764.22,762.77,760.85,759.00,757.50,756.42,754.52,753.17,752.48,752.48,752.82,751.63,749.54,747.53,747.19,748.87,751.39,753.98,756.18,757.80,758.27,758.02,757.59,758.00,759.75,761.93,763.66,764.17,764.73,765.21,766.62,769.18,770.86,772.16,773.33,774.31,774.73,774.77,774.87,775.09,775.40,775.71,775.84,775.90,775.99,776.20,776.24,775.93,775.26,774.24,772.89,771.45,769.64,767.24,764.62,763.69,764.30,765.78
791.57,791.46,791.36,791.26,791.18,791.13,790.97,790.37,788.95,786.54,783.24,780.64,777.87,774.93,772.18,769.80,767.97,766.46,765.41,765.51,765.85,766.26,766.69,767.02,767.09,767.10,767.05,766.84,766.26,766.58,766.91,766.95,767.03,767.19,767.66,768.20,768.32,767.82,767.63,767.63,767.57,767.15,766.01,764.89,764.13,763.82,763.43,762.93,762.27,761.44,760.83,760.49,760.26,760.09,759.91,759.86,759.80,759.73,759.65,759.61,759.56,759.53,759.57,759.64,759.81,760.25,761.22,763.26,765.70,768.15,770.26,771.78,773.03,774.18,775.13,775.89,776.83,777.84,778.70,779.44,780.04,779.98,778.80,777.24,775.77,774.48,772.74,770.72,768.20,764.57,761.13,759.76,759.50,759.13,758.74,758.49,758.79,759.67,760.75,764.89,769.45,773.24,775.53,776.27,775.82,775.04,774.95,777.19,779.42,780.89,781.63,782.00,781.69,780.07,777.45,774.42,772.20,771.42,772.07,773.45,773.19,772.43,771.46,770.66,770.70,772.00,774.75,778.29,782.25,786.42,789.30,791.55,793.90,797.32,800.18,801.75,802.42,802.57,802.42,801.98,801.55,801.11,800.24,799.13,797.57,795.88,794.69,793.83,793.38,792.93,792.05,790.47,788.92,787.49,786.19,785.01,783.63,782.04,780.23,778.18,775.98,774.63,773.49,772.24,771.10,769.91,768.26,766.44,765.14,763.94,762.96,762.17,761.61,761.39,760.88,760.44,760.17,759.97,759.94,760.13,760.44,760.79,761.29,762.00,762.86,763.68,763.99,763.65,763.42,763.51,763.82,764.03,762.88,761.43,760.90,761.70,762.24,761.96,760.84,759.23,757.25,755.34,753.83,752.90,751.45,750.24,749.56,749.58,750.02,749.67,748.41,746.83,746.18,747.24,748.76,750.35,751.90,753.34,753.69,753.49,753.20,753.69,755.92,758.81,761.21,762.03,762.64,763.40,765.28,768.37,770.51,771.92,772.93,773.56,773.64,773.52,773.46,773.55,773.81,774.07,774.19,774.28,774.41,774.63,774.89,774.83,774.44,773.68,772.57,771.31,769.54,767.02,764.27,762.62,762.64,763.88
