725.85,724.63,724.95,726.55,729.20,731.97,730.98,728.85,726.56,724.56,723.62,726.19,731.66,737.71,741.72,743.90,743.98,743.01,741.39,738.97,734.75,729.51,722.97,714.33,709.43,710.42,714.62,719.79,725.12,730.43,734.14,735.76,736.23,737.20,739.27,742.13,745.24,748.15,752.04,755.82,758.82,761.37,763.72,765.92,767.93,769.56,770.40,770.62,770.55,770.42,770.29,770.06,768.78,767.05,767.68,768.12,768.08,767.76,767.47,767.33,767.31,767.43,767.72,768.02,768.10,768.04,767.91,767.82,767.64,767.79,767.92,767.71,767.54,767.48,767.27,766.85,766.38,765.94,765.54,765.19,764.86,764.66,764.50,764.32,764.10,763.82,763.56,763.41,763.41,763.61,763.94,764.30,764.64,764.91,764.99,765.00,764.84,764.52,764.32,764.27,764.30,764.47,764.88,765.13,765.13,764.94,764.63,764.28,764.85,765.97,767.36,768.81,769.92,770.63,771.14,771.62,772.09,772.58,773.05,773.52,774.03,774.55,775.16,775.82,776.35,776.68,776.73,776.67,776.64,776.63,776.46,776.11,775.65,775.18,774.50,774.58,774.78,774.25,773.83,773.45,773.43,773.82,774.14,774.21,774.11,773.90,773.62,773.33,773.19,773.11,773.03,773.05,772.78,772.34,771.83,771.34,770.87,770.62,770.57,770.63,770.75,770.92,771.12,771.50,772.39,773.37,774.29,775.24,776.41,777.50,778.44,779.12,779.45,779.56,779.24,778.79,778.46,778.55,778.64,778.51,778.12,777.33,776.07,775.61,775.52,775.52,775.52,775.43,775.25,774.93,774.24,773.06,771.68,770.49,769.77,769.43,769.15,768.88,768.67,768.56,768.59,768.67,768.75,768.77,768.76,768.77,768.79,768.78,768.73,768.70,768.64,768.57,768.49,768.41,768.30,768.21,768.18,768.10,768.10,768.11,768.10,768.04,767.82,767.53,767.16,766.59,765.73,764.63,763.10,761.31,760.51,760.19,759.97,759.81,759.88,759.81,759.37,758.84,758.45,757.86,758.09,758.85,759.78,760.16,759.30,758.94,759.62,761.29,762.00,762.58,762.95,762.95,762.74,762.44,762.22,762.21
731.54,730.75,731.29,732.18,733.82,736.06,735.69,733.84,731.35,728.64,726.49,728.09,733.09,738.90,742.70,745.21,744.57,742.81,740.87,738.13,733.44,727.95,721.58,713.92,711.50,714.56,719.81,724.76,728.95,733.74,737.78,740.26,741.02,741.16,742.37,744.51,746.93,749.14,751.86,754.64,757.24,760.03,762.39,764.58,766.73,768.75,770.05,770.54,770.60,770.51,770.34,770.18,769.21,767.95,768.76,768.98,768.75,768.37,768.02,767.52,767.35,767.39,767.52,767.69,767.61,767.39,767.15,767.02,766.66,766.61,766.59,766.30,766.22,766.26,766.18,765.89,765.53,765.19,764.94,764.74,764.61,764.46,764.30,764.15,763.98,763.72,763.46,763.38,763.43,763.47,763.76,764.13,764.50,764.78,764.68,764.63,764.56,764.49,764.54,764.84,765.21,765.61,766.06,766.43,766.45,766.22,765.74,764.99,764.75,765.26,766.47,768.12,769.57,770.42,770.94,771.40,771.89,772.41,772.94,773.48,774.04,774.61,775.25,775.95,776.63,777.18,777.42,777.48,777.48,777.48,777.32,776.98,776.51,776.05,775.58,775.64,775.58,774.68,774.10,773.46,773.24,773.55,773.75,773.81,773.73,773.55,773.30,773.12,773.07,773.06,773.07,773.17,772.96,772.58,772.15,771.73,771.32,771.21,771.28,771.35,771.41,771.54,771.68,771.91,772.52,773.37,774.24,775.21,776.53,778.09,779.40,780.15,780.23,780.33,780.23,780.11,780.04,779.98,779.86,779.32,778.26,776.66,775.30,774.59,774.32,774.30,774.30,774.26,774.06,773.63,772.85,771.79,770.71,769.88,769.48,769.21,768.99,768.80,768.63,768.50,768.46,768.48,768.50,768.48,768.38,768.42,768.49,768.48,768.43,768.42,768.39,768.34,768.30,768.25,768.18,768.12,768.10,768.10,768.15,768.18,768.15,768.05,767.71,767.27,766.78,766.23,765.52,764.36,762.93,761.52,760.75,760.42,760.07,759.70,759.67,759.50,759.11,758.85,758.97,758.97,759.72,760.76,761.77,762.30,761.41,761.15,761.83,763.01,763.59,764.11,764.40,764.34,764.14,763.94,763.75,763.70
737.93,737.28,737.87,738.64,739.68,740.96,741.07,739.92,737.28,733.52,730.34,730.72,734.77,740.04,743.75,746.56,744.99,742.06,739.13,734.88,730.06,724.64,718.71,713.34,714.67,719.61,725.26,729.84,733.02,736.67,740.51,743.87,745.48,746.07,747.64,749.62,750.62,751.45,752.89,754.55,756.39,759.12,761.45,763.69,765.89,767.89,769.58,770.42,770.66,770.57,770.36,770.19,769.93,769.68,769.80,769.68,769.35,768.91,768.44,767.58,767.60,767.80,767.72,767.66,767.27,766.81,766.45,766.25,765.83,765.55,765.31,765.00,764.97,765.03,765.06,764.99,764.81,764.63,764.54,764.49,764.41,764.26,764.11,763.95,763.80,763.62,763.36,763.33,763.46,763.38,763.55,763.87,764.27,764.56,764.10,763.95,764.29,765.00,765.59,766.08,766.58,767.09,767.56,768.00,767.98,767.68,767.19,766.50,765.33,764.95,765.78,767.60,769.23,770.16,770.69,771.17,771.69,772.33,773.00,773.67,774.29,774.89,775.48,776.09,776.78,777.45,777.99,778.29,778.32,778.33,778.20,777.88,777.43,776.98,776.63,776.51,776.13,775.00,774.27,773.63,773.24,773.21,773.35,773.43,773.38,773.23,773.10,773.17,773.35,773.49,773.56,773.63,773.42,773.07,772.70,772.37,771.94,771.89,772.05,772.12,772.14,772.25,772.38,772.48,772.66,773.35,774.18,775.13,776.41,777.92,779.35,780.27,780.44,780.47,780.45,780.40,780.30,780.14,779.85,779.14,777.97,776.39,775.17,773.80,772.85,772.60,772.53,772.43,772.11,771.59,770.91,770.23,769.73,769.39,769.17,768.90,768.72,768.54,768.39,768.44,768.55,768.57,768.53,768.51,768.29,768.50,768.72,768.73,768.72,768.72,768.72,768.72,768.77,768.78,768.81,768.81,768.76,768.75,768.81,768.81,768.74,768.63,768.13,767.42,766.63,765.88,765.35,764.26,763.28,762.80,762.44,762.24,761.89,761.42,761.09,760.78,760.92,761.38,761.90,761.93,762.28,763.01,763.88,764.12,763.07,762.71,763.35,764.58,765.21,765.69,765.94,765.85,765.69,765.53,765.37,765.25
744.53,744.91,745.50,745.85,746.18,746.70,747.17,746.90,745.25,741.92,737.44,737.10,739.53,743.14,746.53,748.50,746.14,741.73,736.80,732.23,727.69,722.63,717.75,715.43,717.77,723.02,728.92,733.82,736.91,739.93,743.33,746.71,748.76,749.75,751.03,752.42,753.21,753.82,755.04,756.39,757.71,759.56,761.43,763.35,765.34,767.42,769.38,770.34,770.66,770.67,770.47,770.26,770.10,770.00,769.99,769.92,769.68,769.23,768.46,767.57,767.82,768.25,768.23,768.17,767.59,766.73,765.90,765.49,764.97,764.53,764.26,764.17,764.20,764.30,764.43,764.50,764.31,764.19,764.17,764.20,764.20,764.07,763.91,763.76,763.61,763.45,763.24,763.31,763.55,763.53,763.41,763.61,763.97,764.24,764.18,764.51,765.11,765.83,766.44,767.15,767.85,768.50,769.02,769.34,769.30,769.05,768.70,768.22,766.98,766.21,766.36,767.43,768.88,769.90,770.56,771.07,771.61,772.26,773.00,773.77,774.48,775.07,775.65,776.27,776.97,777.66,778.25,778.72,779.05,779.19,779.11,778.82,778.39,778.00,777.75,777.32,776.53,775.32,774.43,773.76,773.37,773.29,773.30,773.29,773.27,773.25,773.26,773.43,773.69,773.90,774.02,774.09,773.90,773.62,773.34,773.06,772.63,772.62,772.84,772.90,772.86,772.96,773.09,773.15,773.21,773.57,774.16,775.01,776.34,777.92,779.37,780.29,780.48,780.50,780.47,780.36,780.16,779.84,779.24,778.44,777.52,776.46,775.43,773.98,772.46,771.25,770.68,770.59,770.48,770.22,769.85,769.45,769.15,768.93,768.77,768.61,768.59,768.58,768.56,768.69,768.83,768.88,768.88,768.88,768.37,768.81,769.31,769.36,769.40,769.41,769.41,769.42,769.45,769.49,769.53,769.54,769.51,769.51,769.50,769.45,769.37,769.21,768.68,767.93,767.12,766.44,765.99,765.37,764.83,764.53,764.32,764.22,764.00,763.63,763.20,762.79,762.91,763.49,764.26,764.57,764.92,765.56,766.26,766.16,765.13,764.85,765.43,766.38,766.91,767.30,767.47,767.34,767.19,767.03,766.88,766.72
748.43,749.92,751.06,751.47,751.59,751.85,752.56,752.71,751.74,749.12,744.60,743.82,744.86,746.91,749.57,750.75,748.17,742.80,736.06,731.51,727.20,722.50,718.65,718.65,720.90,725.61,731.57,737.31,740.46,743.14,746.14,749.26,751.41,752.70,753.68,754.60,755.50,756.23,757.45,758.72,759.80,760.94,762.48,764.09,765.70,767.41,769.34,770.38,770.75,770.80,770.56,770.32,770.13,770.03,770.00,770.00,769.82,769.29,768.29,767.64,768.09,768.67,768.80,768.78,768.07,766.85,765.51,764.73,764.21,763.80,763.57,763.61,763.63,763.78,763.97,764.08,763.89,763.81,763.83,763.90,763.96,763.86,763.72,763.56,763.39,763.28,763.19,763.34,763.65,763.74,763.44,763.44,763.65,763.89,764.41,765.20,765.98,766.63,767.25,768.07,768.88,769.58,770.09,770.33,770.29,770.12,769.91,769.63,768.69,767.91,767.64,767.98,768.99,769.86,770.49,771.00,771.54,772.18,772.93,773.74,774.47,775.03,775.59,776.20,776.89,777.57,778.19,778.81,779.39,779.75,779.78,779.62,779.33,778.96,778.72,778.04,776.94,775.63,774.62,773.91,773.51,773.42,773.46,773.38,773.31,773.31,773.52,773.75,774.03,774.29,774.47,774.56,774.44,774.24,774.02,773.73,773.34,773.39,773.63,773.65,773.60,773.69,773.79,773.84,773.87,774.00,774.47,775.34,776.65,778.21,779.50,780.28,780.45,780.45,780.35,780.09,779.69,779.18,778.36,777.51,776.74,776.05,775.19,773.86,772.13,770.34,769.51,769.35,769.35,769.29,769.13,768.96,768.83,768.70,768.60,768.55,768.65,768.77,768.87,769.03,769.18,769.25,769.33,769.44,768.97,769.49,770.06,770.17,770.24,770.24,770.24,770.26,770.27,770.33,770.37,770.38,770.38,770.38,770.34,770.26,770.14,769.91,769.41,768.70,767.98,767.50,767.18,766.91,766.66,766.41,766.29,766.26,766.18,765.95,765.49,765.06,765.00,765.46,766.41,767.05,767.41,767.87,768.33,768.08,767.22,767.07,767.55,768.13,768.47,768.72,768.81,768.69,768.57,768.43,768.26,768.08
747.65,750.00,752.60,754.00,754.80,755.62,756.39,756.18,754.94,752.84,750.52,749.57,749.90,751.01,752.39,753.21,751.33,745.99,738.24,733.87,729.51,725.11,722.01,722.79,724.10,727.54,733.29,740.38,743.47,746.10,748.87,751.57,753.43,754.87,755.80,756.61,757.71,758.69,759.88,761.16,762.38,763.44,764.98,766.44,767.51,768.06,769.53,770.58,771.02,770.92,770.59,770.32,770.16,770.08,770.01,770.00,769.69,768.98,767.98,767.93,768.46,769.05,769.37,769.36,768.55,767.13,765.41,764.02,763.74,763.58,763.43,763.35,763.24,763.41,763.60,763.64,763.50,763.46,763.50,763.58,763.65,763.64,763.52,763.35,763.16,763.14,763.22,763.45,763.75,763.97,763.69,763.42,763.31,763.57,764.64,765.62,766.49,767.30,768.04,768.77,769.49,770.11,770.51,770.82,770.80,770.67,770.57,770.45,770.07,769.74,769.58,769.60,769.87,770.20,770.54,770.97,771.49,772.09,772.78,773.52,774.15,774.67,775.14,775.69,776.37,777.01,777.71,778.43,779.10,779.73,780.01,780.15,780.13,779.77,779.43,778.63,777.42,775.98,774.85,774.11,773.64,773.49,773.82,773.79,773.47,773.28,773.77,774.06,774.35,774.65,774.93,775.08,775.04,774.93,774.75,774.34,774.04,774.17,774.42,774.40,774.38,774.46,774.51,774.54,774.61,774.76,775.39,776.44,777.63,778.94,779.80,780.25,780.38,780.32,780.07,779.55,778.80,778.06,777.28,776.38,775.47,774.70,773.92,772.86,771.49,770.06,769.53,769.14,768.95,768.86,768.73,768.68,768.78,768.88,768.88,768.92,769.00,769.12,769.26,769.43,769.59,769.70,769.87,770.20,770.43,770.70,770.95,771.14,771.21,771.18,771.18,771.23,771.24,771.30,771.38,771.42,771.42,771.42,771.41,771.33,771.14,770.79,770.38,769.79,769.22,769.02,768.95,768.73,768.48,768.34,768.31,768.30,768.32,768.23,767.79,767.45,767.15,767.34,768.37,769.28,769.54,769.62,769.70,769.63,769.18,769.14,769.44,769.65,769.72,769.77,769.78,769.76,769.74,769.62,769.43,769.21
746.55,749.18,752.02,754.38,756.42,758.23,759.34,759.12,757.88,755.97,754.09,753.11,753.45,754.54,755.44,754.87,752.36,747.12,739.84,735.40,731.30,728.06,726.42,727.42,728.07,731.49,736.84,742.51,745.75,748.49,751.07,753.45,755.41,757.01,758.02,758.81,759.96,761.27,762.62,763.98,765.24,766.18,767.55,768.70,769.34,769.39,770.19,770.95,771.28,771.01,770.60,770.32,770.16,770.10,770.05,769.98,769.33,768.55,768.48,768.92,769.36,769.71,769.92,769.95,769.50,768.42,766.91,765.53,764.63,764.14,763.83,763.55,763.27,763.22,763.25,763.25,763.15,763.13,763.18,763.25,763.33,763.37,763.31,763.19,763.12,763.15,763.35,763.58,763.83,764.08,763.91,763.57,763.36,763.69,764.85,765.86,766.79,767.70,768.52,769.30,769.96,770.48,770.87,771.25,771.32,771.24,771.12,770.99,770.76,770.55,770.41,770.35,770.43,770.62,770.89,771.25,771.65,772.10,772.59,773.13,773.74,774.30,774.75,775.19,775.81,776.47,777.14,777.84,778.53,779.18,779.66,780.11,780.43,780.37,780.18,779.42,778.20,776.70,775.24,774.35,773.77,773.53,774.00,774.12,773.82,773.48,773.71,774.11,774.55,775.00,775.44,775.72,775.66,775.44,775.10,774.62,774.27,774.47,774.96,775.38,775.54,775.72,775.89,776.02,776.19,776.54,777.16,778.00,778.91,779.61,779.96,780.12,780.13,779.83,779.29,778.57,777.72,776.88,776.12,775.20,774.15,773.14,772.45,771.48,770.49,769.70,769.29,768.91,768.79,768.87,768.92,769.00,769.15,769.29,769.33,769.37,769.44,769.53,769.69,770.01,770.36,770.67,771.00,771.42,771.77,771.95,772.06,772.16,772.20,772.17,772.15,772.15,772.16,772.26,772.38,772.46,772.47,772.50,772.48,772.36,772.13,771.79,771.34,770.74,770.22,770.11,770.02,769.86,769.69,769.57,769.56,769.56,769.58,769.54,769.29,769.10,768.89,768.94,769.48,769.99,770.11,770.11,770.10,770.05,769.86,769.84,769.94,770.04,770.06,770.06,770.06,770.05,770.00,769.94,769.85,769.74
745.62,748.30,751.09,754.16,757.26,759.95,761.54,761.64,760.63,758.85,757.01,756.04,756.51,757.73,758.36,756.32,752.91,747.80,741.35,736.74,732.88,730.79,730.52,731.50,731.80,735.28,740.10,744.16,747.64,750.50,752.94,755.14,757.32,759.14,760.36,761.28,762.39,763.91,765.43,766.83,767.99,768.74,769.76,770.51,770.79,770.63,770.92,771.32,771.45,771.07,770.64,770.36,770.20,770.12,770.08,769.84,769.10,768.57,769.22,769.87,770.16,770.29,770.36,770.43,770.33,769.68,768.55,767.22,765.72,764.83,764.31,763.86,763.48,763.19,763.06,763.05,762.95,762.93,762.99,763.07,763.12,763.18,763.15,763.11,763.15,763.23,763.45,763.69,763.92,764.16,764.13,763.78,763.52,763.89,765.03,766.04,767.00,767.98,768.86,769.70,770.33,770.77,771.19,771.65,771.81,771.77,771.63,771.47,771.27,771.09,770.94,770.87,770.91,771.08,771.35,771.64,771.95,772.24,772.53,772.89,773.46,774.02,774.45,774.85,775.49,776.23,776.94,777.64,778.31,778.85,779.45,780.07,780.62,780.85,780.82,780.21,779.12,777.62,775.88,774.74,773.98,773.65,774.15,774.42,774.22,773.78,773.63,774.07,774.65,775.30,775.95,776.23,776.04,775.63,775.11,774.53,774.06,774.25,774.92,775.73,776.12,776.55,776.99,777.42,777.88,778.39,778.87,779.36,779.95,780.09,779.99,779.83,779.60,779.03,778.25,777.39,776.53,775.63,774.88,773.90,772.72,771.54,770.95,770.10,769.48,769.30,769.00,768.78,768.83,769.07,769.32,769.58,769.82,769.99,770.10,770.16,770.26,770.35,770.51,770.94,771.45,771.94,772.39,772.79,773.09,773.20,773.23,773.21,773.19,773.18,773.13,773.08,773.11,773.24,773.38,773.48,773.51,773.59,773.54,773.37,773.12,772.79,772.27,771.62,771.09,770.97,770.80,770.67,770.54,770.40,770.39,770.39,770.38,770.36,770.28,770.20,770.11,770.08,770.14,770.22,770.24,770.24,770.22,770.15,770.12,770.08,770.04,770.10,770.11,770.11,770.10,770.09,770.03,770.01,770.01,770.01
745.33,747.94,750.80,753.97,757.22,760.23,762.44,763.50,763.10,761.49,759.88,759.00,759.40,760.45,760.76,757.77,753.75,748.79,743.04,738.17,734.24,732.70,733.10,733.84,734.35,737.24,741.30,745.22,749.04,751.91,754.35,756.67,759.06,761.26,762.99,764.28,765.25,766.67,768.19,769.44,770.23,770.65,771.06,771.29,771.32,771.21,771.45,771.54,771.40,771.08,770.75,770.49,770.30,770.17,770.06,769.39,769.34,769.74,769.99,770.19,770.36,770.48,770.56,770.63,770.52,770.17,769.39,767.85,766.35,765.28,764.57,764.13,763.79,763.44,763.28,763.29,763.10,763.06,763.15,763.24,763.19,763.20,763.15,763.15,763.27,763.35,763.46,763.73,764.09,764.26,764.38,764.04,763.68,763.97,765.15,766.17,767.13,768.13,769.10,769.91,770.51,771.00,771.51,771.98,772.20,772.24,772.14,771.99,771.83,771.67,771.52,771.39,771.38,771.57,771.85,772.11,772.40,772.62,772.86,773.19,773.60,773.98,774.35,774.88,775.80,776.75,777.69,778.56,779.22,779.45,779.97,780.49,780.89,781.16,781.14,780.88,780.17,778.72,777.04,775.50,774.41,774.01,774.38,774.75,774.66,774.22,773.77,773.95,774.59,775.52,776.43,776.33,775.76,775.12,774.48,773.70,773.03,773.05,773.58,774.30,774.99,775.91,776.96,778.06,779.25,779.69,779.81,779.90,780.12,780.12,779.79,779.23,778.51,777.72,776.88,776.03,775.18,774.32,773.49,772.35,771.06,769.99,769.55,768.99,768.71,768.82,768.77,768.92,769.18,769.47,769.81,770.42,770.92,771.28,771.55,771.80,772.02,772.16,772.30,772.64,773.09,773.56,773.96,774.22,774.41,774.42,774.37,774.30,774.24,774.17,774.11,774.06,774.14,774.28,774.39,774.47,774.55,774.68,774.60,774.39,774.09,773.75,773.15,772.43,771.83,771.62,771.34,771.12,770.91,770.73,770.71,770.71,770.68,770.62,770.53,770.46,770.34,770.26,770.28,770.35,770.37,770.37,770.35,770.28,770.21,770.13,770.09,770.11,770.16,770.14,770.10,770.10,770.09,770.09,770.09,770.09
747.48,749.25,751.50,754.25,757.31,760.41,762.83,764.80,765.59,765.05,763.82,762.93,762.82,762.93,762.06,758.60,754.54,749.90,744.58,739.34,735.91,735.13,736.04,736.57,737.02,739.25,742.64,746.41,750.05,752.91,755.46,757.95,760.48,762.93,765.11,766.86,767.95,768.88,769.85,770.62,771.08,771.42,771.65,771.74,771.71,771.62,771.70,771.64,771.46,771.22,770.95,770.72,770.50,770.34,770.22,769.78,769.83,770.16,770.25,770.33,770.45,770.60,770.69,770.73,770.59,770.27,769.62,768.27,766.91,765.74,764.88,764.44,764.11,763.77,763.59,763.53,763.28,763.08,763.12,763.29,763.42,763.44,763.39,763.36,763.42,763.55,763.44,763.58,764.00,764.39,764.62,764.51,764.40,764.74,765.64,766.50,767.37,768.32,769.30,770.05,770.64,771.15,771.68,772.19,772.55,772.72,772.66,772.51,772.36,772.20,772.05,771.90,771.85,772.03,772.31,772.55,772.82,773.00,773.21,773.51,773.88,774.24,774.59,775.12,776.13,777.24,778.33,779.31,780.03,780.17,780.52,780.91,781.24,781.45,781.49,781.34,780.86,779.80,778.31,776.78,775.71,775.31,775.43,775.60,775.23,774.47,773.91,773.98,774.63,775.73,776.84,776.25,775.23,774.26,773.40,772.54,771.91,771.81,772.17,772.86,773.49,774.48,775.65,776.89,778.10,778.80,779.21,779.48,779.65,779.39,778.82,778.06,777.18,776.32,775.42,774.50,773.63,772.95,772.26,771.25,770.12,769.20,768.62,768.22,768.19,768.59,768.89,769.20,769.71,770.53,771.66,772.33,772.79,773.13,773.40,773.68,773.83,773.91,773.97,774.11,774.42,774.73,774.96,775.08,775.20,775.23,775.18,775.06,774.96,774.93,774.87,774.80,774.88,774.96,774.99,775.00,775.05,775.12,775.05,774.89,774.69,774.43,773.88,773.19,772.57,772.24,771.92,771.64,771.38,771.18,771.06,771.04,771.00,770.91,770.80,770.71,770.59,770.48,770.45,770.48,770.49,770.48,770.43,770.36,770.28,770.22,770.18,770.16,770.19,770.17,770.14,770.14,770.11,770.10,770.10,770.10
750.27,751.23,752.77,754.95,757.65,760.66,763.16,765.84,767.75,768.38,767.63,766.83,766.25,765.35,763.14,759.46,755.54,751.19,746.11,740.57,737.91,738.07,739.55,739.88,739.98,741.43,744.11,747.59,750.86,753.71,756.40,759.05,761.66,764.27,766.80,768.91,770.06,770.48,770.83,771.11,771.34,771.72,771.94,772.04,772.05,772.02,772.00,771.91,771.78,771.62,771.36,771.09,770.82,770.60,770.49,770.39,770.35,770.36,770.38,770.46,770.58,770.70,770.78,770.78,770.59,770.22,769.59,768.56,767.40,766.23,765.30,764.82,764.45,764.14,763.92,763.78,763.47,763.10,763.04,763.26,763.59,763.69,763.68,763.63,763.61,763.78,763.49,763.42,763.78,764.43,764.81,765.01,765.25,765.70,766.28,766.95,767.70,768.56,769.50,770.19,770.78,771.34,771.90,772.47,772.93,773.19,773.16,773.03,772.88,772.72,772.57,772.42,772.33,772.48,772.76,773.00,773.23,773.41,773.59,773.84,774.21,774.62,775.01,775.56,776.56,777.72,778.88,779.92,780.67,780.85,781.07,781.35,781.64,781.81,781.88,781.75,781.41,780.81,779.70,778.34,777.34,776.94,776.78,776.52,775.68,774.59,774.04,774.14,774.84,776.06,777.27,776.21,774.77,773.46,772.35,771.37,770.74,770.54,770.76,771.37,771.85,772.75,773.89,775.09,776.04,776.95,777.73,778.33,778.63,778.27,777.56,776.69,775.75,774.86,773.89,772.91,772.05,771.55,771.07,770.31,769.43,768.65,767.88,767.50,767.64,768.29,769.04,769.63,770.58,772.07,773.93,774.59,774.88,775.08,775.24,775.42,775.44,775.41,775.37,775.30,775.42,775.54,775.58,775.61,775.69,775.76,775.75,775.62,775.49,775.50,775.44,775.34,775.39,775.39,775.35,775.30,775.29,775.30,775.22,775.13,775.03,774.84,774.40,773.81,773.22,772.82,772.49,772.17,771.89,771.66,771.44,771.37,771.32,771.21,771.06,770.97,770.84,770.71,770.64,770.62,770.60,770.56,770.49,770.41,770.33,770.29,770.26,770.21,770.19,770.19,770.19,770.17,770.11,770.09,770.09,770.09
752.33,753.53,754.80,756.53,758.72,761.31,763.94,766.69,768.81,769.88,769.76,769.46,769.09,767.90,764.86,761.15,757.33,752.99,747.81,742.34,740.60,742.06,744.59,744.71,743.79,744.12,745.81,748.58,751.48,754.32,757.13,759.88,762.46,765.03,767.60,769.65,770.36,770.63,770.78,770.98,771.29,771.72,772.03,772.25,772.43,772.60,772.80,772.86,772.81,772.66,772.28,771.82,771.41,771.09,770.89,770.75,770.65,770.63,770.70,770.83,770.89,770.88,770.79,770.73,770.53,770.05,769.36,768.66,767.77,766.88,766.06,765.38,764.82,764.50,764.25,763.97,763.66,763.29,763.06,763.06,763.38,763.69,763.89,763.96,763.91,764.00,763.80,763.49,763.41,764.09,764.80,765.37,765.89,766.45,766.95,767.55,768.23,768.97,769.73,770.42,771.09,771.75,772.41,773.08,773.47,773.64,773.63,773.54,773.39,773.24,773.08,772.94,772.85,772.94,773.16,773.44,773.69,773.86,774.02,774.23,774.55,775.03,775.66,776.41,777.26,778.23,779.30,780.26,780.92,781.22,781.50,781.83,782.18,782.43,782.43,782.20,781.88,781.64,781.39,780.16,779.08,778.63,778.14,777.03,775.68,774.52,774.17,774.55,775.54,776.88,777.87,776.47,774.87,773.35,771.92,770.55,769.53,769.21,769.38,769.78,770.18,770.99,772.13,773.33,773.95,774.49,775.11,775.83,776.54,776.68,776.20,775.35,774.31,773.28,772.27,771.38,770.66,770.10,769.85,769.43,768.78,768.01,767.24,766.61,766.58,767.42,768.88,770.39,772.36,774.51,776.03,776.75,776.82,776.64,776.49,776.46,776.32,776.14,775.96,775.77,775.68,775.63,775.62,775.69,775.82,775.91,775.94,775.89,775.80,775.76,775.65,775.52,775.48,775.42,775.39,775.36,775.31,775.30,775.14,775.01,774.90,774.68,774.40,774.01,773.62,773.38,773.02,772.66,772.35,772.12,771.89,771.74,771.62,771.48,771.32,771.18,771.03,770.90,770.82,770.71,770.63,770.56,770.49,770.41,770.33,770.26,770.22,770.20,770.14,770.13,770.13,770.12,770.10,770.05,770.03,770.03
753.99,755.54,756.93,758.44,760.31,762.69,765.19,767.76,769.64,770.59,770.82,770.68,770.30,769.08,766.15,762.79,759.25,754.83,749.35,744.34,744.25,746.64,749.04,748.59,747.45,747.23,748.17,750.24,752.71,755.32,757.96,760.54,762.80,764.94,767.11,768.87,769.54,769.73,769.83,770.08,770.65,771.43,771.93,772.31,772.70,773.19,773.58,773.86,774.01,773.97,773.64,773.16,772.62,772.06,771.58,771.28,771.13,771.11,771.18,771.27,771.21,771.04,770.80,770.46,770.13,769.64,769.05,768.61,767.91,767.21,766.52,765.83,765.23,764.82,764.48,764.17,763.82,763.47,763.16,762.99,763.19,763.53,763.84,764.06,764.17,764.21,764.12,763.74,763.37,763.78,764.31,765.11,765.94,766.55,767.13,767.75,768.42,769.12,769.82,770.68,771.53,772.31,772.97,773.63,773.98,774.11,774.12,774.01,773.87,773.71,773.56,773.41,773.33,773.42,773.63,773.89,774.11,774.27,774.42,774.62,775.00,775.53,776.31,777.20,778.04,778.93,779.84,780.63,781.18,781.51,781.79,782.11,782.47,782.85,782.93,782.74,782.45,782.26,782.22,781.37,780.50,779.90,779.13,777.76,776.41,775.43,775.13,775.44,776.44,777.56,777.94,776.29,774.54,772.89,771.34,769.95,768.75,768.12,767.98,768.22,768.62,769.41,770.48,771.61,772.24,772.77,773.37,774.03,774.65,774.97,774.81,774.13,772.95,771.74,770.51,769.45,768.70,768.48,768.75,768.65,768.14,767.40,766.63,765.99,766.11,767.43,769.61,771.98,774.24,776.14,777.25,777.87,777.88,777.57,777.20,776.97,776.69,776.40,776.12,775.88,775.69,775.57,775.54,775.63,775.84,776.00,776.10,776.11,776.04,775.93,775.78,775.61,775.46,775.29,775.19,775.12,775.05,775.01,774.88,774.74,774.59,774.33,773.98,773.61,773.29,773.12,772.88,772.69,772.52,772.32,772.12,771.93,771.76,771.60,771.41,771.22,771.05,770.92,770.80,770.65,770.56,770.48,770.40,770.33,770.27,770.22,770.15,770.14,770.08,770.06,770.06,770.06,770.06,770.02,770.00,770.00
755.38,757.38,759.06,760.51,762.20,764.46,766.74,768.92,770.34,770.95,771.34,771.18,770.68,769.57,767.26,764.35,761.03,756.46,750.70,746.55,748.24,751.22,752.98,751.86,750.82,750.44,750.93,752.47,754.53,756.80,759.06,761.09,762.61,764.18,765.82,767.25,768.05,768.25,768.35,768.75,769.69,770.97,771.71,772.27,772.89,773.66,774.17,774.66,775.04,775.17,775.04,774.72,774.15,773.35,772.57,772.11,771.88,771.81,771.82,771.77,771.54,771.20,770.79,770.05,769.55,769.10,768.68,768.41,767.88,767.32,766.75,766.14,765.59,765.06,764.63,764.30,763.92,763.58,763.23,762.98,763.05,763.32,763.67,764.02,764.32,764.39,764.41,764.09,763.64,763.73,763.92,764.77,765.77,766.36,767.00,767.68,768.37,769.07,769.81,770.87,771.94,772.86,773.54,774.16,774.46,774.58,774.63,774.50,774.34,774.18,774.02,773.87,773.78,773.89,774.13,774.38,774.59,774.77,774.96,775.21,775.62,776.17,776.96,777.89,778.81,779.69,780.44,781.05,781.51,781.86,782.13,782.41,782.76,783.24,783.44,783.34,783.08,782.77,782.56,782.13,781.56,780.85,779.90,778.69,777.65,776.93,776.63,776.72,777.52,778.20,777.84,775.94,774.00,772.23,770.66,769.42,768.20,767.21,766.64,766.74,767.13,767.93,768.94,769.97,770.75,771.45,772.08,772.60,772.92,773.25,773.44,773.03,771.73,770.25,768.69,767.37,766.61,766.92,767.75,767.93,767.50,766.81,766.05,765.68,766.25,768.10,770.91,773.89,775.98,777.17,777.90,778.33,778.35,778.07,777.57,777.18,776.78,776.39,776.04,775.78,775.51,775.36,775.34,775.48,775.77,776.03,776.21,776.27,776.21,776.08,775.88,775.65,775.42,775.11,774.89,774.76,774.67,774.58,774.49,774.37,774.17,773.82,773.32,772.88,772.58,772.43,772.37,772.45,772.47,772.33,772.16,771.95,771.77,771.59,771.37,771.14,770.97,770.82,770.68,770.52,770.42,770.35,770.27,770.21,770.19,770.14,770.10,770.09,770.02,769.94,769.87,769.81,769.77,769.73,769.72,769.74
756.45,759.11,761.04,762.62,764.24,766.21,768.54,769.99,770.85,771.39,771.80,771.67,771.13,770.22,768.66,765.76,762.07,757.13,751.59,749.16,751.56,754.62,756.18,754.79,753.42,753.15,753.93,755.59,757.32,759.41,761.01,761.62,761.23,762.44,764.03,765.38,766.16,766.43,766.62,767.29,768.70,770.39,771.40,772.17,772.88,773.60,774.15,774.61,775.02,775.38,775.66,775.83,775.61,774.94,774.18,773.67,773.32,773.02,772.70,772.38,771.94,771.44,770.75,769.48,768.97,768.58,768.18,767.99,767.67,767.24,766.71,766.11,765.56,765.06,764.60,764.19,763.80,763.44,763.09,762.89,763.03,763.31,763.59,763.87,764.14,764.42,764.61,764.53,764.37,764.70,765.02,765.50,765.98,766.34,766.80,767.44,768.13,768.85,769.67,770.77,771.93,773.07,774.07,774.65,774.91,775.06,775.15,775.06,774.88,774.66,774.47,774.32,774.23,774.35,774.62,774.98,775.40,775.75,776.12,776.50,776.71,777.11,777.66,778.38,779.36,780.32,781.02,781.58,782.09,782.57,782.93,783.26,783.59,783.94,784.13,784.05,783.74,783.26,782.83,782.41,781.95,781.38,780.67,779.99,779.32,778.75,778.56,778.57,778.86,778.96,778.21,775.88,773.66,771.64,769.92,768.77,767.61,766.45,765.61,765.44,765.73,766.50,767.52,768.59,769.43,770.15,770.68,771.03,771.26,771.75,772.27,772.18,770.91,768.84,766.93,765.64,765.24,766.10,766.99,767.19,766.82,766.22,765.46,766.08,767.49,769.52,772.70,775.37,776.89,777.57,778.09,778.36,778.36,778.14,777.71,777.27,776.74,776.27,775.89,775.54,775.05,774.80,774.85,775.15,775.51,775.90,776.19,776.30,776.33,776.22,775.99,775.72,775.46,775.02,774.72,774.54,774.39,774.21,774.07,773.92,773.68,773.16,772.53,772.10,771.86,771.75,771.86,772.05,772.15,772.08,771.88,771.69,771.53,771.36,771.13,770.94,770.78,770.65,770.54,770.39,770.30,770.22,770.15,770.13,770.13,770.09,770.03,770.03,770.01,769.61,769.14,768.82,768.54,768.35,768.27,768.37
757.33,760.44,762.63,764.41,766.10,767.86,769.73,770.72,771.38,771.96,772.39,772.19,771.55,770.71,769.51,766.43,762.28,757.33,752.66,751.93,754.88,757.74,758.87,757.31,755.69,755.52,756.75,759.04,760.97,762.79,763.65,763.15,761.63,761.56,762.41,763.53,764.30,764.58,765.01,766.01,767.74,769.63,770.99,771.95,772.66,773.25,773.68,774.11,774.66,775.39,776.01,776.34,776.25,775.77,775.25,774.91,774.52,774.05,773.50,772.93,772.29,771.61,770.70,769.13,768.34,767.90,767.62,767.50,767.29,766.96,766.54,766.03,765.49,764.99,764.51,764.07,763.71,763.32,763.00,762.87,763.12,763.45,763.75,764.02,764.27,764.62,765.11,765.44,765.69,766.12,766.52,766.76,766.93,767.08,767.24,767.52,768.00,768.68,769.57,770.70,771.98,773.31,774.51,775.11,775.38,775.57,775.72,775.73,775.60,775.38,775.14,774.97,774.89,775.06,775.44,776.00,776.56,777.02,777.45,777.82,777.91,778.16,778.50,779.02,779.90,780.75,781.42,782.04,782.70,783.37,783.80,784.09,784.35,784.71,785.04,784.98,784.55,783.85,783.19,782.65,782.16,781.69,781.17,780.75,780.30,779.89,779.78,779.74,779.76,779.53,778.49,775.88,773.58,771.51,769.75,768.68,767.65,766.41,765.29,764.80,764.81,765.37,766.22,767.19,767.93,768.59,769.06,769.36,769.61,770.31,771.05,771.17,769.93,767.21,765.33,764.26,764.10,765.25,766.18,766.49,766.27,765.77,765.50,766.71,768.56,770.79,773.96,776.24,777.37,777.75,778.02,778.09,778.06,777.91,777.61,777.21,776.67,776.19,775.81,775.30,774.46,773.95,773.95,774.43,774.95,775.49,775.86,775.98,776.04,775.92,775.68,775.41,775.13,774.73,774.41,774.16,773.95,773.72,773.53,773.36,773.09,772.40,771.73,771.34,771.18,771.18,771.38,771.61,771.76,771.77,771.59,771.40,771.23,771.08,770.90,770.72,770.57,770.46,770.37,770.23,770.11,770.03,769.99,769.98,769.87,769.58,769.19,768.83,768.68,768.08,767.44,767.03,766.63,766.42,766.35,766.49
758.10,761.39,763.87,765.90,767.75,769.39,770.50,771.31,772.02,772.66,773.09,772.74,771.95,771.06,769.85,766.49,761.94,757.36,754.14,754.86,758.11,760.59,761.15,759.43,757.69,757.70,759.53,762.75,765.09,766.48,766.60,765.42,763.51,761.74,761.36,761.91,762.52,762.74,763.51,764.89,766.80,768.69,770.35,771.42,771.98,772.36,772.54,772.97,773.79,774.96,775.86,776.20,776.16,775.91,775.76,775.68,775.34,774.77,774.08,773.32,772.52,771.66,770.56,768.83,767.66,767.10,766.98,766.96,766.77,766.53,766.25,765.89,765.39,764.87,764.37,763.93,763.59,763.23,762.97,762.94,763.32,763.69,764.07,764.40,764.70,765.11,765.93,766.76,767.39,767.80,768.19,768.39,768.44,768.38,768.18,767.94,768.03,768.61,769.51,770.69,772.09,773.58,774.85,775.50,775.84,776.10,776.32,776.47,776.45,776.27,776.01,775.81,775.77,776.00,776.53,777.32,777.97,778.46,778.84,779.08,779.10,779.22,779.42,779.78,780.44,781.01,781.66,782.41,783.27,784.12,784.56,784.80,785.01,785.47,786.00,785.97,785.41,784.47,783.59,782.86,782.28,781.83,781.43,781.04,780.69,780.42,780.33,780.25,780.22,779.88,778.69,776.01,773.85,771.94,770.27,769.24,768.36,767.06,765.66,764.78,764.38,764.53,765.05,765.76,766.31,766.84,767.28,767.62,767.94,768.84,769.65,769.79,768.57,765.43,763.87,763.14,763.08,764.26,765.21,765.69,765.72,765.45,765.99,767.41,769.36,771.78,774.68,776.59,777.51,777.76,777.77,777.64,777.54,777.45,777.32,777.03,776.56,776.14,775.76,775.11,773.80,772.90,772.71,773.33,774.07,774.78,775.22,775.30,775.36,775.18,774.93,774.67,774.40,774.17,773.89,773.59,773.31,773.08,772.89,772.74,772.46,771.66,771.00,770.61,770.50,770.68,770.91,771.15,771.35,771.45,771.32,771.11,770.92,770.78,770.67,770.47,770.34,770.26,770.15,769.96,769.79,769.70,769.68,769.60,769.28,768.61,767.72,766.77,766.33,765.63,765.01,764.67,764.25,764.15,764.14,764.28
758.81,761.92,764.57,767.01,769.12,770.67,771.71,772.45,773.06,773.56,773.87,773.32,772.38,771.31,769.89,766.32,761.74,758.20,756.97,758.01,760.58,762.60,763.03,761.10,759.34,760.12,763.00,766.84,768.44,769.05,768.76,767.54,765.71,763.77,762.33,761.40,760.96,761.03,762.12,763.79,765.68,767.41,768.87,769.53,769.51,769.37,769.26,769.85,771.01,772.51,773.84,774.98,775.56,775.66,775.87,775.71,775.28,774.69,773.97,773.13,772.30,771.37,770.04,767.97,766.77,766.31,766.31,766.42,766.25,766.02,765.78,765.50,765.13,764.66,764.16,763.67,763.26,762.95,762.94,763.18,763.56,763.95,764.34,764.78,765.39,766.29,767.28,768.19,768.93,769.41,769.82,770.04,770.00,769.62,769.15,768.72,768.53,768.76,769.53,770.72,772.19,773.71,774.96,775.60,776.11,776.55,776.91,777.17,777.29,777.25,777.09,776.92,776.89,777.17,777.75,778.58,779.31,779.76,780.05,780.18,780.06,780.07,780.14,780.31,780.75,781.14,781.78,782.64,783.63,784.27,784.73,785.15,785.61,786.10,786.45,786.32,785.80,784.94,783.78,782.91,782.29,781.86,781.51,781.13,780.79,780.53,780.41,780.33,780.19,779.87,778.92,776.62,774.94,773.51,772.17,771.05,769.92,768.52,766.93,765.40,764.54,764.09,764.09,764.50,764.88,765.23,765.53,765.83,766.21,766.93,767.42,767.20,765.84,763.81,762.57,761.97,762.03,762.93,763.65,764.18,764.61,765.16,766.32,767.86,769.80,772.21,774.87,776.48,777.27,777.52,777.45,777.17,777.02,776.96,776.90,776.71,776.37,776.02,775.65,774.99,773.35,771.86,771.18,771.79,772.63,773.49,774.00,774.08,774.09,773.83,773.50,773.22,773.12,773.08,772.87,772.56,772.28,772.14,772.17,772.25,772.13,771.29,770.66,769.98,769.59,770.08,770.39,770.67,770.92,771.08,771.04,770.85,770.65,770.50,770.37,770.20,770.12,770.02,769.75,769.32,769.01,768.88,768.78,768.32,767.71,766.99,766.06,764.83,763.91,763.12,762.56,762.25,761.95,761.88,761.88,762.02
759.89,762.80,765.57,768.16,770.33,771.81,772.60,773.30,773.90,774.37,774.60,774.01,772.99,771.75,770.08,766.58,762.51,760.27,760.83,762.15,763.95,765.07,764.90,762.93,761.13,762.52,765.91,769.39,770.33,770.41,769.87,768.62,766.63,764.54,762.46,760.59,759.44,759.60,760.87,762.55,764.26,765.75,767.11,767.45,766.90,766.33,766.02,766.52,767.65,769.23,770.93,772.59,773.70,774.33,775.21,775.20,774.79,774.23,773.52,772.63,771.61,770.40,768.84,766.65,765.53,765.35,765.67,765.86,765.72,765.46,765.13,764.76,764.42,764.17,763.85,763.40,762.99,762.88,763.08,763.47,763.86,764.24,764.71,765.37,766.32,767.53,768.64,769.55,770.29,770.87,771.33,771.58,771.47,770.85,770.14,769.52,769.10,769.02,769.60,770.77,772.29,773.85,775.03,775.67,776.21,776.65,776.92,777.21,777.44,777.61,777.73,777.84,777.97,778.32,778.88,779.59,780.23,780.65,780.90,780.94,780.78,780.73,780.72,780.77,780.97,781.22,781.78,782.62,783.55,783.88,784.13,784.56,785.28,786.34,786.56,786.36,785.88,785.03,783.75,782.82,782.17,781.74,781.45,781.12,780.73,780.34,780.09,779.98,779.69,779.27,778.67,777.35,776.19,775.11,774.04,773.03,771.90,770.35,768.52,766.68,765.23,764.23,763.71,763.66,763.71,763.90,764.12,764.36,764.72,765.19,765.34,764.86,763.60,762.28,761.35,760.99,761.26,762.03,762.73,763.39,764.10,765.06,766.49,768.00,769.72,771.82,774.10,775.45,776.10,776.31,776.26,776.07,775.99,775.99,775.96,775.85,775.65,775.41,775.12,774.61,773.09,771.33,770.08,770.14,771.04,772.01,772.58,772.62,772.58,772.29,771.98,771.78,771.79,771.86,771.72,771.50,771.34,771.30,771.51,771.78,771.82,771.18,770.64,769.88,769.21,769.16,769.38,769.92,770.42,770.67,770.73,770.57,770.37,770.17,769.99,769.79,769.60,769.35,768.99,768.47,768.10,767.85,767.53,766.78,765.99,765.23,764.33,763.06,761.85,761.00,760.48,760.20,759.95,759.83,759.80,759.91
761.47,764.22,767.00,769.41,771.36,772.61,772.88,773.55,774.27,774.84,775.14,774.77,773.80,772.39,770.47,767.38,764.38,763.58,765.48,767.13,768.21,768.05,766.81,765.00,763.12,764.81,767.97,770.15,770.76,770.63,769.93,768.52,766.09,763.66,761.36,759.30,757.94,758.40,759.66,761.11,762.49,763.77,765.20,765.37,764.43,763.58,763.07,763.15,763.86,765.29,767.28,769.09,770.54,771.88,773.73,774.14,773.85,773.29,772.60,771.72,770.31,768.65,766.86,764.83,763.82,764.04,764.91,765.12,764.98,764.63,764.14,763.58,763.24,763.39,763.44,763.17,762.86,763.05,763.41,763.79,764.18,764.59,765.25,766.21,767.46,768.71,769.96,770.88,771.51,772.17,772.71,773.00,772.84,772.06,771.18,770.34,769.69,769.40,769.74,770.87,772.44,774.03,775.11,775.72,776.15,776.34,776.30,776.50,776.82,777.24,777.74,778.33,778.80,779.30,779.81,780.30,780.68,781.08,781.29,781.25,781.14,781.04,780.99,780.99,781.02,781.19,781.62,782.30,782.98,782.95,782.79,782.96,783.91,786.04,786.30,786.09,785.64,784.73,783.53,782.58,781.91,781.49,781.24,780.97,780.49,779.86,779.40,779.23,778.69,778.09,777.81,777.92,777.30,776.41,775.56,774.86,774.01,772.31,770.27,768.49,766.41,764.97,763.99,763.35,762.91,762.96,763.10,763.24,763.48,763.74,763.62,763.11,762.18,760.90,760.28,760.31,760.88,761.70,762.61,763.46,764.27,765.14,766.45,767.73,769.06,770.59,772.35,773.46,773.94,774.05,774.13,774.25,774.39,774.49,774.49,774.39,774.34,774.24,774.07,773.83,772.94,771.34,769.59,768.62,769.34,770.35,770.96,771.01,770.93,770.68,770.52,770.48,770.48,770.54,770.53,770.50,770.55,770.62,770.92,771.26,771.43,771.21,770.79,770.25,769.36,768.00,767.91,768.86,769.81,770.22,770.36,770.26,770.02,769.75,769.51,769.23,768.76,768.27,767.87,767.45,767.10,766.65,766.00,765.12,764.26,763.43,762.54,761.49,760.25,759.37,758.86,758.59,758.29,758.05,757.94,757.99
763.64,766.38,768.71,770.64,771.78,771.82,771.69,772.24,773.04,773.91,774.79,775.37,774.62,772.98,771.03,768.36,766.78,767.07,769.10,770.40,770.72,770.00,768.54,766.81,765.07,766.38,768.87,770.49,771.08,770.71,769.68,767.97,765.41,762.88,760.47,758.29,756.75,756.90,757.97,759.17,760.32,761.97,763.18,763.09,761.96,760.72,759.15,758.52,759.03,760.76,763.10,765.18,767.22,769.39,771.67,772.33,771.86,770.90,770.02,769.17,767.69,765.95,764.18,762.29,761.23,761.57,762.73,763.05,762.55,762.10,761.80,761.60,761.78,762.67,763.21,763.14,763.15,763.42,763.76,764.12,764.53,765.12,766.08,767.26,768.60,770.02,771.51,772.49,772.98,773.54,774.08,774.34,774.13,773.30,772.38,771.47,770.65,770.07,770.14,771.21,772.76,774.28,775.19,775.70,775.88,775.85,775.74,775.77,775.97,776.35,776.89,777.59,778.32,779.24,780.11,780.64,781.07,781.16,781.01,780.68,780.37,780.02,779.78,779.82,780.28,780.60,781.03,781.56,781.98,781.74,781.39,781.26,782.05,784.72,785.25,785.18,784.90,784.28,783.24,782.33,781.65,781.24,780.98,780.56,779.93,779.24,778.66,778.15,777.37,776.67,776.47,776.86,776.94,776.66,776.13,775.50,774.73,773.28,771.50,769.76,767.54,765.85,764.63,763.77,763.13,762.74,762.40,762.18,762.36,762.50,762.45,762.02,761.15,760.30,760.05,760.36,761.04,761.71,762.42,763.19,763.98,764.79,765.82,766.77,767.78,768.97,770.20,771.04,771.50,771.70,771.90,772.29,772.64,772.89,773.01,772.79,772.69,772.61,772.52,772.44,772.26,771.40,770.00,768.44,767.48,768.06,769.00,769.51,769.47,769.33,769.22,769.15,769.04,769.13,769.36,769.60,769.72,769.85,770.24,770.57,770.68,770.57,770.29,769.80,768.90,767.44,766.88,767.83,769.02,769.68,769.83,769.69,769.45,769.18,768.85,768.54,768.03,767.44,766.93,766.44,765.88,765.19,764.36,763.43,762.57,761.75,760.94,760.10,759.10,758.20,757.58,757.24,756.84,756.46,756.21,756.13
765.79,768.38,770.13,771.31,771.57,770.74,770.38,770.79,771.67,772.87,774.35,775.82,775.53,773.97,772.12,769.90,769.34,770.21,771.95,772.95,772.62,771.55,770.11,768.52,767.00,767.80,769.56,770.81,771.37,770.80,769.42,767.37,764.76,762.19,759.76,757.51,755.74,755.18,755.83,756.76,757.86,760.09,761.04,760.45,758.83,757.05,754.84,753.72,754.00,755.91,758.84,761.43,764.09,766.99,769.64,770.38,769.83,768.69,767.47,766.43,764.94,763.18,761.20,758.96,757.47,757.65,759.00,759.74,759.12,758.73,758.88,759.61,760.75,762.29,763.31,763.55,763.72,763.95,764.27,764.67,765.20,765.99,767.14,768.45,769.83,771.42,773.10,774.13,774.56,775.04,775.55,775.77,775.52,774.68,773.76,772.79,771.80,770.94,770.61,771.53,772.96,774.34,775.15,775.57,775.55,775.26,774.83,774.55,774.53,774.88,775.56,776.46,777.45,778.77,780.00,780.63,780.99,780.47,779.56,778.65,778.19,777.79,777.33,777.07,777.51,778.04,778.95,779.75,779.97,779.41,778.53,777.99,778.70,782.02,783.54,784.02,784.00,783.72,782.94,782.12,781.46,781.03,780.75,780.01,779.21,778.48,777.86,777.19,776.33,775.55,775.23,775.72,776.21,776.40,776.19,775.63,774.91,773.69,772.16,770.50,768.42,766.66,765.26,764.25,763.53,762.84,762.14,761.62,761.55,761.51,761.44,761.11,760.41,760.00,759.98,760.32,760.90,761.42,761.96,762.64,763.39,764.11,764.84,765.52,766.27,767.17,768.06,768.77,769.23,769.53,769.85,770.36,770.82,771.23,771.48,771.10,770.88,770.78,770.77,770.94,771.27,771.08,770.16,768.35,765.98,766.08,767.17,768.03,768.11,767.99,767.83,767.67,767.53,767.65,768.10,768.57,768.82,769.01,769.41,769.69,769.69,769.57,769.27,768.78,767.98,766.76,766.03,766.92,768.25,769.14,769.27,769.07,768.81,768.53,768.17,767.84,767.32,766.69,766.06,765.46,764.74,763.88,762.89,761.92,761.08,760.34,759.66,758.94,758.06,757.15,756.45,756.05,755.71,755.34,755.08,754.96
767.60,769.82,770.94,771.12,770.65,769.82,769.38,769.66,770.60,772.12,774.04,776.07,776.53,775.64,774.00,772.23,771.99,772.75,773.97,774.91,774.17,772.87,771.48,770.14,768.91,769.25,770.34,771.24,771.64,770.93,769.28,766.89,764.21,761.62,759.23,757.00,754.92,753.26,753.18,753.82,755.08,757.94,758.70,757.35,754.75,752.28,750.32,749.16,749.16,750.98,754.89,758.26,761.49,764.85,767.88,768.45,768.10,767.20,765.53,763.93,762.44,760.59,758.02,754.74,752.35,752.05,753.46,754.99,754.73,754.68,755.65,757.96,760.49,762.45,763.83,764.58,764.62,764.70,765.05,765.62,766.38,767.32,768.48,769.79,771.24,772.96,774.66,775.74,776.26,776.71,777.18,777.35,777.09,776.29,775.37,774.29,773.16,772.03,771.11,771.73,772.89,774.08,774.91,775.24,775.14,774.48,773.29,772.47,772.15,772.58,773.69,775.07,776.29,777.83,779.25,779.93,779.96,778.47,776.41,774.62,774.18,774.10,773.38,772.32,771.93,772.66,774.65,776.31,776.43,775.38,773.51,772.43,773.33,777.54,781.07,782.64,783.00,783.03,782.64,782.00,781.37,780.90,780.58,779.38,778.31,777.56,776.97,776.51,775.83,774.97,774.30,774.98,775.40,775.66,775.75,775.33,774.66,773.52,772.09,770.58,768.90,767.26,765.77,764.57,763.84,763.14,762.45,761.78,761.23,760.87,760.58,760.29,760.02,759.95,759.88,759.92,760.15,760.61,761.12,761.79,762.49,763.04,763.50,764.02,764.58,765.22,766.07,766.84,767.35,767.70,768.12,768.47,768.93,769.47,769.83,769.29,768.92,768.78,768.89,769.40,769.91,770.09,769.59,767.86,765.08,764.81,765.67,766.53,766.79,766.56,766.22,765.95,765.96,766.16,766.68,767.31,767.82,768.08,768.39,768.52,768.43,768.20,767.70,767.14,766.49,765.70,765.29,766.20,767.56,768.60,768.74,768.47,768.14,767.83,767.51,767.13,766.60,765.95,765.25,764.51,763.80,762.90,761.79,760.69,759.90,759.35,758.83,758.08,757.08,756.17,755.50,755.12,755.03,754.92,754.84,754.81
767.75,769.82,770.73,770.88,770.52,769.73,768.83,768.87,769.78,771.42,773.50,775.62,777.02,777.32,776.16,774.75,774.82,775.63,776.51,776.76,775.77,774.42,773.08,771.91,770.86,770.75,771.29,771.96,771.84,771.00,769.36,766.95,764.06,761.16,758.56,756.16,753.84,751.85,751.15,751.18,752.04,754.67,755.65,754.47,751.84,749.23,747.36,746.28,746.69,749.63,754.99,758.72,761.64,764.29,766.58,766.86,766.53,765.73,764.04,762.30,760.50,758.29,755.40,752.04,749.75,749.15,749.85,750.69,751.02,752.27,754.62,757.87,760.58,762.76,764.42,765.50,765.90,766.07,766.46,767.11,767.94,768.89,770.01,771.39,773.05,774.77,776.28,777.36,778.02,778.40,778.70,778.81,778.59,777.88,776.82,775.64,774.37,772.97,771.59,771.68,772.46,773.43,774.19,774.43,773.87,772.55,770.59,768.76,768.07,768.61,770.15,772.17,773.51,774.50,775.27,775.61,774.88,773.14,771.39,770.26,770.15,770.14,769.22,767.86,767.32,768.01,769.57,770.79,770.91,770.45,769.50,769.02,769.86,773.26,778.43,781.19,782.04,782.34,782.26,781.80,781.27,780.80,780.35,778.84,777.44,776.52,776.01,775.68,775.09,774.26,773.51,773.85,774.47,774.88,774.97,774.66,773.83,772.71,771.47,770.13,768.62,767.12,765.74,764.63,763.91,763.25,762.57,761.87,761.21,760.74,760.42,760.25,760.28,760.54,760.15,759.85,759.89,760.10,760.37,760.80,761.31,761.79,762.15,762.48,762.81,763.25,764.11,764.90,765.44,765.81,766.20,766.38,766.82,767.30,767.46,766.86,766.59,766.52,766.62,767.05,767.55,767.77,767.47,766.23,763.88,763.67,764.46,765.18,765.11,764.82,764.45,764.20,764.39,764.76,765.36,766.06,766.70,767.09,767.25,767.25,767.09,766.80,766.35,765.75,765.06,764.40,764.45,765.49,766.84,767.93,768.06,767.81,767.49,767.18,766.85,766.40,765.78,765.05,764.27,763.50,762.72,761.93,761.06,760.06,759.30,758.69,758.06,757.26,756.29,755.54,755.07,754.85,754.80,754.73,754.69,754.67
767.19,769.11,770.08,770.51,770.46,769.77,768.39,768.19,769.09,770.83,772.95,775.07,777.18,778.53,778.14,777.23,777.48,778.20,778.71,778.31,777.25,776.00,774.78,773.77,772.83,772.27,772.17,772.38,771.77,770.91,769.38,766.97,763.89,760.75,757.82,755.13,752.65,750.61,749.38,748.94,749.54,751.64,752.75,751.81,749.30,746.66,744.71,743.95,745.09,749.11,755.60,759.65,762.22,763.99,765.25,765.23,764.87,764.23,762.90,761.18,759.01,756.41,753.39,750.30,748.20,747.21,747.09,747.42,748.37,750.63,753.97,757.85,760.57,762.76,764.60,766.03,766.90,767.43,767.99,768.69,769.56,770.44,771.53,772.98,774.79,776.52,777.93,778.97,779.65,779.96,780.11,780.17,780.00,779.38,778.14,776.78,775.28,773.61,771.89,771.43,771.81,772.55,773.12,773.20,772.03,769.71,766.56,763.87,762.66,763.35,765.52,767.92,769.48,770.10,770.29,770.19,768.67,767.06,766.10,765.99,766.15,765.93,764.78,763.37,763.06,763.76,764.66,765.27,765.47,765.86,766.45,767.14,768.27,770.92,776.58,779.95,781.21,781.69,781.84,781.56,781.15,780.72,780.24,778.68,776.88,775.48,775.13,774.90,774.41,773.64,772.81,772.60,773.23,773.69,773.71,773.51,772.63,771.61,770.52,769.32,767.94,766.59,765.41,764.50,763.82,763.20,762.54,761.90,761.39,761.14,761.00,761.00,761.22,761.66,760.88,760.12,759.83,759.82,759.86,760.02,760.30,760.67,760.94,761.10,761.22,761.46,762.17,762.89,763.45,763.88,764.19,764.25,764.61,764.95,764.87,764.33,764.18,764.18,764.24,764.49,764.87,765.03,764.88,764.21,762.55,762.55,763.32,763.89,763.44,763.00,762.64,762.49,762.85,763.40,764.06,764.80,765.54,766.00,766.02,765.90,765.72,765.41,765.05,764.44,763.70,763.16,763.62,764.78,766.15,767.26,767.34,767.09,766.77,766.44,766.10,765.63,765.01,764.24,763.33,762.48,761.62,760.91,760.29,759.44,758.71,758.04,757.35,756.56,755.65,755.11,754.85,754.77,754.69,754.63,754.60,754.58
766.00,767.66,769.04,769.85,770.09,769.55,767.94,767.55,768.52,770.47,772.52,774.70,776.88,778.67,779.51,779.45,779.64,779.86,779.81,779.25,778.39,777.46,776.55,775.72,774.81,773.79,772.78,771.90,771.18,770.55,769.09,766.56,763.44,760.33,757.01,753.83,751.37,749.41,747.86,747.42,748.43,749.81,750.62,749.52,746.87,744.11,741.85,741.86,743.98,748.31,754.91,759.42,762.09,763.31,763.57,763.25,762.88,762.61,762.27,760.70,758.15,755.27,752.45,749.83,747.54,745.81,745.11,746.24,747.69,749.75,752.84,757.01,760.07,761.95,763.78,765.75,767.03,768.39,769.37,770.13,771.02,771.78,772.90,774.36,776.12,777.99,779.62,780.54,780.89,781.23,781.31,781.36,781.28,780.74,779.24,777.46,775.59,773.64,771.75,770.84,770.87,771.31,771.51,771.33,769.38,765.46,760.22,757.32,755.30,756.21,759.38,761.50,763.58,764.72,765.02,764.44,762.39,761.32,761.35,762.09,762.22,761.35,759.87,758.68,759.05,759.93,760.66,761.10,761.44,762.60,764.99,767.45,769.82,772.84,776.63,779.24,780.64,781.18,781.37,781.26,781.00,780.69,780.42,779.34,776.94,774.53,774.45,774.35,774.03,773.33,772.23,771.29,771.39,771.60,771.59,771.46,770.97,770.20,769.21,767.99,766.78,765.64,764.73,764.11,763.54,762.94,762.32,761.84,761.87,762.42,762.82,763.09,763.33,763.63,762.43,760.95,759.93,759.89,759.85,759.81,759.84,759.96,760.02,760.06,760.08,760.13,760.28,760.72,761.30,761.85,762.07,762.11,762.31,762.42,762.22,761.93,761.87,761.87,761.87,761.93,762.11,762.19,762.15,761.95,761.14,761.42,762.20,762.68,761.99,761.22,760.83,760.90,761.37,762.06,762.77,763.54,764.35,764.73,764.65,764.50,764.36,764.05,763.74,763.15,762.48,762.20,762.90,764.10,765.50,766.69,766.61,766.27,765.90,765.53,765.15,764.80,764.39,763.71,762.61,761.51,760.55,759.81,759.23,758.50,757.80,757.22,756.72,756.14,755.26,754.90,754.78,754.71,754.63,754.61,754.60,754.58
763.99,765.24,766.62,767.75,768.41,768.24,766.80,766.71,767.80,769.66,771.71,773.76,775.83,777.88,779.61,780.03,780.19,780.09,779.53,778.29,777.16,776.06,775.06,774.39,773.60,772.68,771.63,770.43,769.28,768.40,766.95,764.75,762.27,759.23,755.72,752.37,750.03,748.16,746.53,746.04,747.08,748.18,747.77,745.71,742.77,740.44,738.38,739.69,742.98,746.87,751.80,757.62,761.38,762.25,761.87,760.52,759.34,758.75,758.77,757.77,755.73,753.17,750.40,747.68,745.48,744.06,743.73,745.02,746.63,748.41,750.88,754.40,757.74,760.38,762.89,765.29,766.94,768.83,770.25,771.30,772.35,773.20,774.36,775.76,777.38,779.23,780.76,781.54,781.74,781.96,782.03,782.07,781.89,781.08,779.08,776.84,774.63,772.40,769.82,767.85,767.25,767.63,768.17,768.02,766.29,762.66,757.52,754.03,751.31,751.50,754.00,755.66,757.17,758.81,759.27,757.32,755.51,754.95,755.35,756.37,757.07,756.81,757.06,757.90,758.84,759.86,760.88,761.80,762.70,764.09,766.62,769.58,772.66,775.78,778.26,779.79,780.63,780.96,781.04,780.97,780.72,780.34,780.09,779.24,776.82,774.11,773.67,773.57,773.53,773.01,771.73,770.45,769.95,769.78,769.67,769.46,769.04,768.41,767.53,766.40,765.64,764.97,764.38,763.87,763.34,762.99,762.74,762.62,762.82,763.56,764.28,764.82,765.15,765.39,764.35,762.83,761.51,761.21,760.87,760.30,759.80,759.79,759.76,759.78,759.80,759.79,759.77,759.88,760.19,760.54,760.64,760.66,760.74,760.76,760.60,760.45,760.41,760.39,760.36,760.36,760.40,760.41,760.41,760.38,760.13,760.39,760.88,761.19,760.74,760.14,759.81,759.87,760.32,760.97,761.74,762.60,763.39,763.58,763.37,763.14,762.96,762.69,762.38,761.89,761.39,761.32,762.20,763.58,765.04,766.07,765.70,765.32,764.95,764.57,764.19,763.83,763.66,763.27,762.31,761.17,760.31,759.37,758.33,757.56,756.98,756.53,756.12,755.64,755.07,754.85,754.77,754.71,754.70,754.70,754.70,754.68
761.57,762.48,763.83,765.21,766.25,766.51,765.51,765.92,767.17,768.86,770.76,772.54,774.49,776.75,779.10,780.00,780.19,779.82,778.75,776.84,775.29,773.84,772.58,771.95,771.27,770.57,769.65,768.34,766.76,765.51,763.91,761.79,759.58,756.80,753.57,750.54,748.45,746.74,745.19,744.71,745.67,746.61,745.03,742.06,738.83,736.67,734.84,737.41,741.75,745.11,748.40,755.07,759.85,760.74,759.43,756.93,754.94,753.98,754.08,753.69,752.37,750.27,747.52,744.73,742.89,742.18,742.54,743.91,745.64,747.22,749.01,751.58,755.04,758.59,761.90,764.74,766.84,769.11,770.89,772.25,773.49,774.55,775.78,777.11,778.56,780.28,781.59,782.26,782.43,782.51,782.58,782.58,782.21,780.97,778.43,775.69,773.00,770.12,766.39,763.16,762.01,762.60,763.84,763.99,762.89,760.24,756.01,752.14,748.89,748.09,749.41,750.56,751.36,753.21,753.78,750.94,749.88,749.93,750.66,751.85,753.19,754.03,756.29,759.26,760.89,762.20,763.55,764.93,766.26,767.64,769.97,772.86,775.92,778.63,780.02,780.58,780.78,780.86,780.80,780.57,780.12,779.54,779.25,778.52,776.38,773.81,772.86,772.77,772.99,772.66,771.34,769.97,768.76,768.07,767.82,767.50,767.12,766.63,765.94,765.03,764.70,764.47,764.13,763.69,763.25,763.21,763.37,763.61,763.88,764.67,765.57,766.34,766.81,767.06,766.37,765.06,763.65,763.08,762.46,761.41,760.49,760.38,760.24,760.27,760.31,760.28,760.11,759.76,759.63,759.70,759.69,759.68,759.67,759.63,759.55,759.48,759.45,759.40,759.33,759.31,759.23,759.19,759.18,759.22,759.35,759.50,759.69,759.83,759.69,759.38,759.14,759.12,759.54,760.11,760.89,761.75,762.45,762.46,762.15,761.83,761.58,761.34,761.04,760.69,760.42,760.56,761.62,763.21,764.67,765.39,764.71,764.31,763.97,763.59,763.21,762.83,762.83,762.75,762.09,761.06,760.30,759.16,757.63,756.65,756.17,755.86,755.56,755.19,754.95,754.84,754.77,754.74,754.80,754.81,754.88,754.94
758.65,759.56,761.38,762.80,763.88,764.62,764.47,765.51,767.01,768.51,769.80,771.06,773.02,775.52,778.00,779.69,780.12,779.46,777.81,775.77,773.83,771.95,770.35,769.42,768.73,768.02,766.91,765.22,763.60,762.15,759.92,756.59,752.78,750.80,749.23,747.66,746.21,744.81,743.64,743.41,744.31,744.99,743.37,740.50,737.08,733.70,731.70,734.83,739.67,743.05,746.62,751.69,756.29,758.24,754.63,751.35,749.41,748.62,748.60,748.49,747.63,745.81,743.14,740.95,739.99,740.20,741.33,743.11,745.33,747.01,748.34,749.94,753.13,756.91,760.67,764.11,766.95,769.41,771.25,772.68,774.12,775.64,776.98,778.26,779.60,780.95,782.02,782.67,782.95,783.02,783.05,782.93,782.27,780.46,777.50,774.25,770.50,765.89,760.06,755.52,754.36,755.84,758.18,759.10,758.93,757.47,754.58,751.33,747.92,746.34,746.60,747.19,747.97,749.14,749.55,748.38,748.82,749.93,751.40,753.08,754.60,756.86,759.95,763.38,766.24,768.31,769.71,770.76,771.67,772.85,775.59,777.89,779.18,780.04,780.55,780.82,780.91,780.81,780.68,779.82,778.66,777.64,777.33,776.60,775.11,773.26,772.04,772.15,772.44,772.22,771.24,770.17,767.96,766.42,765.94,765.59,765.44,765.29,765.02,764.62,764.37,764.13,763.86,763.56,763.46,763.68,764.01,764.37,764.84,765.78,766.75,767.59,768.24,768.61,768.33,767.34,766.04,765.46,764.75,763.84,763.08,762.84,762.42,762.40,762.48,762.38,761.80,760.49,759.73,759.61,759.54,759.49,759.42,759.36,759.27,759.20,759.13,759.04,758.92,758.85,758.73,758.59,758.55,758.67,758.82,758.98,759.12,759.19,759.10,758.92,758.74,758.74,759.19,759.68,760.30,760.91,761.32,761.29,761.03,760.66,760.28,760.04,759.75,759.60,759.66,760.10,761.36,763.15,764.44,764.55,763.60,763.22,762.96,762.62,762.24,761.90,761.87,761.88,761.64,760.97,760.18,758.99,757.35,755.80,755.28,755.13,755.06,754.96,754.85,754.81,754.80,754.79,754.86,754.88,755.23,755.62
755.42,756.70,759.15,760.98,762.24,763.19,763.82,765.14,766.70,768.12,769.14,770.07,771.88,774.29,776.72,778.83,779.40,778.87,777.47,775.44,773.38,771.38,769.50,767.94,766.57,765.37,764.00,762.20,760.20,758.26,755.68,752.30,748.84,747.27,746.14,744.99,743.83,742.72,742.02,742.06,742.78,743.16,741.39,737.95,733.70,730.28,729.37,732.70,737.47,741.36,745.58,750.32,754.20,755.38,751.18,747.83,745.90,745.03,744.76,744.35,743.26,741.50,739.23,737.50,738.21,740.11,742.61,745.49,747.69,749.05,750.01,751.26,754.08,757.52,760.86,763.98,767.16,769.64,771.49,773.07,774.78,776.57,777.95,779.19,780.45,781.58,782.44,782.99,783.22,783.15,783.06,782.75,781.66,779.14,775.63,772.08,768.05,763.07,757.03,752.24,750.27,750.90,753.22,754.01,754.05,753.26,751.40,749.05,746.03,744.41,744.51,745.43,746.16,746.98,747.64,748.11,749.95,752.05,754.05,755.80,757.22,760.27,763.88,767.31,769.98,772.27,773.57,774.33,775.02,776.35,778.55,780.05,780.52,780.67,780.86,781.00,780.98,780.56,779.63,778.24,776.85,775.82,775.45,774.85,773.73,772.30,771.12,771.24,771.63,771.70,771.18,770.28,767.99,766.06,765.10,764.81,764.74,764.68,764.55,764.32,764.12,764.00,763.90,763.81,763.82,764.10,764.48,764.96,765.78,766.93,767.95,768.86,769.68,770.25,770.22,769.52,768.45,767.82,767.46,767.23,767.06,766.87,766.52,766.30,765.86,764.90,763.50,761.71,760.44,759.82,759.68,759.54,759.46,759.43,759.41,759.37,759.33,759.25,759.14,759.05,758.88,758.67,758.50,758.46,758.41,758.43,758.50,758.54,758.47,758.36,758.24,758.26,758.72,759.13,759.61,760.03,760.26,760.18,759.84,759.42,759.08,759.05,759.18,759.41,759.79,760.51,761.79,763.33,764.13,763.69,762.62,762.17,761.93,761.66,761.31,760.96,760.72,760.53,760.31,759.79,759.03,757.82,756.29,755.26,754.95,754.88,754.86,754.85,754.85,754.85,754.85,754.89,755.15,755.97,757.06,757.87
752.01,753.85,756.99,759.50,761.14,762.11,763.36,764.79,766.31,767.72,768.66,769.43,770.98,773.12,775.40,777.63,778.20,777.94,777.13,775.39,773.48,771.54,769.57,767.47,765.19,763.23,761.47,759.60,757.19,754.72,751.94,748.96,746.45,744.96,743.69,742.40,741.06,739.95,739.46,739.80,740.77,740.89,738.88,734.66,729.56,726.56,727.26,730.72,735.28,739.95,744.88,749.80,752.84,752.70,748.78,745.54,743.40,742.14,741.52,740.63,739.14,737.34,735.61,734.86,737.53,741.30,745.26,749.19,751.26,752.32,753.12,754.31,756.68,759.43,761.91,764.27,767.47,769.86,771.74,773.50,775.49,777.43,778.84,780.02,781.14,782.11,782.83,783.24,783.33,783.06,782.57,781.68,779.92,776.71,772.68,769.15,765.30,760.69,755.55,751.17,748.21,747.23,748.79,749.05,748.96,748.46,747.36,745.91,743.81,742.90,743.59,745.19,745.88,746.55,747.59,749.36,752.27,755.17,757.60,759.42,760.89,764.09,767.64,770.69,772.55,774.40,775.23,775.55,776.01,777.52,779.30,780.43,780.78,780.79,780.84,780.89,780.74,780.01,778.07,776.33,775.00,774.13,773.68,773.20,772.29,771.10,770.13,770.15,770.70,771.17,771.10,770.35,768.44,766.36,764.84,764.63,764.54,764.46,764.35,764.16,764.02,764.03,764.13,764.24,764.27,764.50,764.89,765.56,766.74,768.09,769.19,770.18,771.15,771.94,772.10,771.71,770.97,770.37,770.43,770.86,771.17,770.98,770.69,770.18,769.05,767.13,764.96,763.01,761.38,760.23,759.91,759.72,759.74,759.84,759.93,759.96,759.93,759.87,759.78,759.63,759.37,759.08,758.79,758.50,758.21,758.07,758.03,758.05,757.96,757.86,757.74,757.74,758.14,758.47,758.83,759.12,759.21,759.09,758.64,758.26,758.17,758.50,759.17,759.79,760.43,761.37,762.38,763.33,763.52,762.64,761.55,760.99,760.69,760.47,760.12,759.70,759.20,758.74,758.39,757.98,757.37,756.31,755.11,754.94,754.89,754.86,754.82,754.82,754.88,755.05,755.25,755.49,756.06,757.75,759.52,760.67
748.44,750.96,754.73,758.28,760.66,761.57,762.89,764.38,765.94,767.40,768.33,769.16,770.45,772.20,774.25,776.09,776.39,776.06,775.67,775.13,773.79,772.21,770.62,768.96,766.15,763.31,760.72,758.41,756.09,753.48,750.61,747.57,744.60,742.63,741.29,739.67,736.93,734.80,733.28,734.10,737.16,737.40,734.89,730.51,725.52,722.45,724.53,728.53,733.38,738.86,744.21,748.83,751.54,751.40,747.81,744.06,740.90,738.63,737.47,736.60,735.21,733.41,732.21,734.69,739.09,744.00,748.65,752.13,754.52,756.19,757.48,758.69,760.45,762.14,763.69,765.37,767.92,770.22,772.25,774.21,776.26,778.26,779.78,780.87,781.60,782.38,783.07,783.39,783.31,782.76,780.97,778.23,774.96,771.34,767.24,764.51,761.34,757.28,753.89,750.48,747.25,745.04,745.02,745.02,744.70,744.08,743.21,742.24,742.03,743.38,745.87,747.94,748.73,749.38,750.46,752.42,755.30,758.31,761.24,764.02,766.67,768.52,770.46,772.43,773.72,773.57,772.78,771.94,771.64,772.88,776.46,779.27,780.35,780.29,779.93,779.65,779.39,778.68,776.23,774.64,773.61,772.82,772.20,771.62,770.76,769.77,769.04,768.93,769.77,770.66,770.83,770.41,769.00,766.88,764.88,764.63,764.48,764.41,764.38,764.33,764.34,764.39,764.51,764.64,764.71,764.83,765.42,766.47,767.81,769.19,770.46,771.62,772.66,773.60,774.01,774.06,773.88,773.70,773.68,773.58,773.26,772.62,771.72,770.74,769.36,767.46,765.45,763.72,762.14,760.79,760.04,760.00,760.45,760.96,761.24,761.36,761.21,761.06,760.90,760.49,759.94,759.56,759.29,758.98,758.68,758.45,758.28,758.12,757.93,757.74,757.46,757.22,757.36,757.64,757.97,758.16,758.13,757.98,757.53,757.56,758.25,759.15,759.99,760.69,761.40,762.25,762.37,762.24,761.79,760.90,759.89,759.19,758.73,758.37,757.87,757.23,756.57,756.09,755.93,755.81,755.62,755.30,754.94,754.90,754.85,754.85,754.88,754.88,754.89,755.82,757.00,758.02,759.01,760.31,761.70,762.72
745.50,748.56,752.14,756.07,759.26,760.98,762.47,764.17,765.48,766.31,767.18,768.40,769.83,771.48,773.22,774.35,774.40,774.11,773.92,773.93,773.25,772.14,770.90,769.62,766.90,763.87,761.06,758.65,756.26,753.62,750.83,747.92,744.90,742.13,739.55,736.73,733.28,730.35,728.35,728.93,731.99,732.55,730.23,726.31,722.13,720.02,722.58,726.71,731.70,737.53,742.99,747.37,749.92,749.96,746.87,743.09,739.26,735.78,733.20,731.89,730.83,730.05,730.61,735.20,740.44,745.57,750.28,754.16,757.13,759.33,761.13,762.75,764.23,765.35,766.23,767.20,768.96,770.95,772.99,775.03,777.06,778.92,780.36,781.32,781.87,782.55,783.20,783.44,783.21,782.34,779.54,775.34,770.45,765.51,761.64,758.67,755.75,752.85,750.89,748.61,745.73,743.06,741.94,741.40,741.08,740.85,740.67,740.56,741.38,743.84,747.38,750.22,752.18,753.59,754.84,756.35,758.67,761.44,764.41,767.36,769.74,770.88,771.81,772.72,773.08,771.67,769.99,768.54,767.88,769.30,773.26,776.58,778.10,777.94,777.48,777.12,776.90,776.47,774.68,773.29,772.29,771.54,770.87,770.27,769.64,768.96,768.29,768.37,769.30,770.20,770.40,770.03,768.81,766.85,764.90,764.66,764.55,764.53,764.56,764.61,764.73,764.91,765.17,765.49,765.79,766.36,767.27,768.24,768.87,770.14,771.52,772.81,773.92,774.71,775.09,775.25,775.29,775.28,775.14,774.73,774.01,772.93,771.64,770.35,768.84,766.99,765.08,763.41,761.95,760.96,761.03,761.50,762.19,762.77,763.00,763.02,762.77,762.51,762.24,761.62,760.94,760.40,759.96,759.55,759.23,758.97,758.74,758.51,758.28,758.05,757.69,757.26,756.97,756.93,757.05,757.11,757.00,756.88,756.93,757.51,758.61,759.69,760.56,761.08,761.47,761.85,761.36,760.33,759.19,758.19,757.55,757.08,756.75,756.49,756.14,755.68,755.24,754.94,754.90,754.90,754.90,754.89,754.87,754.89,754.86,754.87,754.90,755.03,755.93,757.92,759.92,761.24,762.14,763.09,764.05,764.70
743.02,746.42,749.42,753.26,757.24,760.40,762.20,764.02,764.76,764.56,765.30,767.01,768.89,770.69,772.17,772.46,772.30,772.09,772.00,772.05,771.94,771.33,770.37,769.41,767.34,764.71,762.13,759.90,757.44,754.88,752.31,749.75,747.02,743.52,739.19,734.74,731.03,727.52,725.11,724.58,725.96,726.87,725.28,722.30,719.35,718.76,721.22,725.24,730.25,736.04,741.41,745.61,748.07,748.22,745.64,742.13,737.90,733.28,729.01,726.95,726.44,727.36,730.32,735.95,741.33,746.02,750.42,755.29,759.09,761.76,764.04,766.29,767.68,768.56,769.03,769.37,770.41,772.02,773.92,775.89,777.68,779.26,780.52,781.38,781.90,782.63,783.20,783.31,782.89,781.69,778.16,773.04,766.79,760.18,756.58,752.78,749.80,748.20,747.19,745.92,743.66,741.08,739.46,738.63,738.79,739.36,740.06,740.96,742.04,744.41,747.93,751.42,754.95,757.69,759.43,760.31,761.84,763.97,766.47,768.90,770.13,771.23,771.88,771.93,771.10,769.01,767.00,765.42,764.86,766.82,770.09,773.00,774.68,774.48,774.12,773.88,773.80,773.76,773.23,772.08,771.00,770.26,769.64,769.09,768.78,768.47,767.81,768.21,769.02,769.67,769.78,769.27,768.06,766.41,764.91,764.73,764.70,764.76,764.88,765.03,765.28,765.62,766.08,766.65,767.27,768.51,769.77,770.45,770.02,771.00,772.38,773.76,774.87,775.33,775.50,775.55,775.54,775.50,775.20,774.64,773.74,772.32,770.86,769.39,767.79,766.01,764.12,762.49,761.37,761.19,762.67,763.74,764.46,764.87,764.92,764.78,764.45,764.11,763.71,762.95,762.24,761.51,760.84,760.33,759.99,759.69,759.41,759.12,758.87,758.63,758.28,757.72,756.94,756.42,756.18,756.06,755.94,755.90,756.69,757.82,759.00,760.01,760.79,761.02,760.82,760.37,759.50,757.96,756.38,755.33,755.19,755.15,755.12,755.10,755.07,755.03,754.99,754.95,754.95,754.96,754.94,754.88,754.84,754.89,754.89,754.93,755.04,755.54,757.80,760.85,763.43,764.80,765.29,765.94,766.49,766.70
740.66,743.89,747.05,750.99,755.59,760.20,762.64,763.53,763.11,762.15,762.61,764.38,766.68,768.96,770.54,770.40,769.98,769.79,769.93,769.96,769.95,769.50,768.81,768.38,767.65,765.84,763.59,761.53,759.70,757.51,755.45,753.50,750.96,747.96,743.44,738.28,733.87,729.76,725.09,721.64,720.67,721.51,720.88,719.19,717.46,717.46,719.97,724.15,729.19,734.64,739.97,743.98,746.07,745.85,743.26,739.56,734.96,730.08,725.85,723.10,723.65,726.26,730.42,736.16,741.11,745.34,749.51,754.79,759.99,763.46,766.08,768.58,769.70,770.28,770.56,770.84,771.88,773.50,775.20,776.57,777.31,778.55,779.89,780.88,781.46,782.50,783.01,782.67,781.67,780.17,776.12,771.03,764.97,758.18,754.07,750.38,747.50,745.71,744.53,743.36,741.12,738.63,737.82,739.07,741.15,742.78,743.51,744.71,745.42,746.09,747.22,749.64,753.06,757.15,760.52,761.88,762.87,763.53,764.53,765.96,767.09,769.02,770.29,770.28,768.44,765.46,763.01,761.64,761.94,764.46,767.35,769.86,771.51,771.67,771.46,771.33,771.32,771.35,771.13,770.48,769.72,769.03,768.47,767.96,767.73,767.65,767.47,767.72,768.24,768.69,768.72,768.08,767.15,765.98,764.91,764.79,764.82,765.01,765.38,765.93,766.48,766.91,767.35,767.87,768.47,769.57,770.95,771.96,771.66,771.95,773.03,774.27,775.09,775.38,775.50,775.51,775.43,775.23,774.60,773.65,772.48,771.09,769.54,767.89,766.26,764.64,762.88,761.91,762.08,763.14,764.53,765.40,765.89,766.15,766.22,766.25,766.00,765.65,765.17,764.32,763.55,762.79,762.18,761.92,761.62,761.10,760.48,759.88,759.48,759.21,758.86,758.26,757.26,756.37,755.70,755.33,755.32,755.50,756.47,757.69,758.89,759.90,760.43,760.47,759.75,757.94,756.71,755.91,755.32,754.94,754.96,755.01,755.06,755.11,755.17,755.22,755.24,755.24,755.25,755.35,755.17,754.98,754.88,754.90,754.90,755.15,755.89,757.57,760.22,763.37,766.25,768.16,768.43,768.66,768.81,768.73
738.90,742.20,745.61,749.71,754.77,760.23,762.82,762.89,761.67,760.22,760.24,761.70,764.01,766.45,768.08,767.85,767.35,767.16,767.34,767.40,767.53,767.27,766.78,766.62,766.60,765.78,764.48,763.04,761.57,759.57,757.56,755.57,753.05,750.38,746.07,740.95,736.41,731.78,725.77,720.48,717.59,717.46,717.06,716.20,715.50,716.30,718.96,723.21,728.29,733.70,739.15,742.98,744.41,743.20,739.89,735.67,731.11,726.65,722.87,720.31,721.82,725.52,730.24,735.67,740.38,744.38,748.24,753.10,759.02,763.24,766.53,769.64,770.68,771.22,771.62,772.09,773.11,774.23,775.08,775.50,775.58,776.74,778.18,779.53,780.73,782.13,782.52,781.73,780.01,777.70,773.40,768.50,762.90,756.60,752.23,748.82,746.01,743.78,742.12,740.62,738.50,736.90,738.15,741.22,744.49,746.65,747.30,748.30,748.68,748.37,748.02,749.22,752.22,756.63,760.46,761.81,762.28,761.35,760.71,761.22,762.97,765.77,767.53,767.51,765.15,761.47,758.70,757.68,759.01,762.09,764.65,766.58,767.76,767.73,767.12,766.96,767.40,768.31,768.86,768.68,768.24,767.80,767.61,767.52,767.59,767.76,767.91,768.07,768.23,768.30,768.12,767.47,766.70,765.80,765.04,765.10,765.32,765.72,766.28,767.00,767.70,768.23,768.82,769.59,770.40,771.46,772.68,773.60,773.43,773.15,773.56,774.33,775.01,775.25,775.32,775.18,774.82,774.35,773.44,772.27,770.92,769.43,767.78,766.22,764.72,763.32,762.26,762.26,763.27,764.79,765.93,766.71,767.13,767.32,767.41,767.60,767.49,767.20,766.74,765.90,765.03,764.17,763.57,763.51,763.43,762.94,762.12,761.14,760.55,760.15,759.67,758.98,757.96,756.61,755.56,754.99,755.00,755.20,756.12,757.25,758.35,759.26,759.60,759.09,757.84,756.11,755.22,755.05,755.11,755.14,755.24,755.32,755.40,755.48,755.56,755.66,755.71,755.72,755.74,755.98,755.93,755.76,755.64,755.72,756.00,756.71,758.13,760.70,763.80,766.46,768.70,770.30,770.45,770.35,770.21,769.96
738.12,741.68,745.25,749.57,754.85,760.43,762.63,762.19,760.64,758.95,758.35,759.25,761.18,763.36,764.88,764.82,764.44,764.21,764.25,764.42,764.80,764.78,764.44,764.24,764.21,764.40,764.53,764.13,762.71,760.73,758.35,755.71,753.09,750.39,746.46,741.95,737.86,732.76,726.62,720.84,716.63,714.77,713.91,713.37,713.41,715.24,718.11,722.28,727.39,733.15,738.94,742.47,742.91,740.22,735.66,730.75,726.61,723.08,719.92,718.46,720.71,724.84,729.65,734.58,739.22,743.21,746.70,750.49,756.36,761.21,765.46,769.50,770.73,771.50,772.24,773.03,773.83,773.99,773.51,772.82,772.69,773.96,775.54,777.47,779.73,781.42,781.65,780.47,778.05,774.60,770.32,765.55,760.38,754.99,750.74,747.55,744.72,742.06,739.78,737.75,736.11,736.25,740.30,744.51,747.92,750.00,750.61,751.13,751.36,751.07,750.54,750.78,753.13,756.49,759.24,759.99,760.08,757.86,755.77,755.54,758.37,761.91,763.84,763.65,761.15,757.15,754.29,753.70,755.90,759.29,761.68,763.06,763.47,762.79,761.50,761.33,762.55,764.98,766.78,767.04,766.85,766.83,767.25,767.85,768.44,768.90,769.19,769.38,769.12,768.64,768.12,767.53,766.75,765.89,765.31,765.69,766.25,766.89,767.56,768.22,768.94,769.63,770.56,771.84,773.08,774.25,775.07,775.42,775.17,774.52,774.01,774.02,774.64,774.93,774.95,774.53,773.74,772.91,771.81,770.58,769.16,767.46,765.75,764.50,763.32,762.28,762.43,763.47,764.70,765.84,766.80,767.72,768.25,768.50,768.61,768.89,768.97,768.83,768.43,767.69,766.69,765.70,765.04,765.07,765.30,765.00,764.14,762.92,762.17,761.57,760.86,760.04,759.06,757.25,755.83,755.06,754.93,754.95,755.64,756.55,757.43,758.11,758.39,757.12,755.44,755.12,755.17,755.37,755.53,755.61,755.75,755.84,755.92,756.00,756.09,756.22,756.32,756.35,756.39,756.84,757.16,757.22,757.17,757.53,758.40,759.77,761.75,764.69,768.15,769.90,770.72,771.20,771.24,770.95,770.61,770.24
740.30,743.25,746.61,750.90,755.85,760.54,762.25,761.71,760.22,758.37,756.85,757.58,759.09,760.64,761.74,761.87,761.51,761.16,761.10,761.55,762.02,762.20,762.11,761.90,761.87,762.28,762.92,763.32,762.54,760.89,758.60,755.88,753.20,750.46,746.80,742.57,738.27,732.96,726.75,720.80,715.96,712.79,711.93,711.60,711.83,714.00,716.91,720.78,725.82,732.19,738.68,741.17,740.09,736.20,731.23,726.30,722.37,719.32,717.10,716.90,719.46,723.63,728.65,733.42,737.71,741.45,744.83,748.42,753.80,759.04,763.92,768.19,770.21,771.22,771.98,772.61,772.76,772.50,771.81,770.85,770.12,771.21,773.25,775.76,778.32,779.92,779.73,778.43,776.23,772.85,768.66,763.64,758.35,753.46,749.63,745.82,742.59,740.06,737.32,735.22,735.46,737.96,742.20,746.93,749.70,751.16,752.00,752.78,753.38,753.60,753.63,754.06,754.52,754.60,754.57,754.94,756.04,754.40,752.15,751.43,754.82,758.61,760.08,759.00,755.90,752.65,750.63,750.31,751.82,753.68,756.90,759.13,759.73,759.32,759.37,760.23,761.91,764.32,766.62,767.48,767.69,767.81,768.28,768.88,769.70,770.52,770.91,771.23,770.52,769.46,768.60,767.80,766.97,766.12,765.66,766.50,767.40,768.17,768.90,769.75,770.75,771.90,773.12,774.39,775.71,776.47,776.83,776.83,776.24,775.34,774.40,773.83,773.84,773.90,773.82,773.34,772.45,771.43,770.15,768.66,767.10,765.59,764.27,763.22,762.59,762.59,763.47,764.56,765.57,766.51,767.49,768.51,769.31,769.77,769.91,770.33,770.69,770.76,770.42,769.62,768.55,767.67,767.17,767.16,767.03,766.16,765.37,765.02,764.46,763.97,763.26,762.26,760.89,758.96,757.17,755.78,754.99,754.90,755.17,755.66,756.28,756.82,757.20,756.28,755.02,755.02,755.39,755.78,756.03,756.12,756.26,756.36,756.44,756.53,756.65,756.76,756.88,757.00,757.19,757.74,758.22,758.62,759.19,760.56,762.26,764.16,766.18,768.25,770.17,771.21,771.67,771.72,771.34,770.84,770.23,769.42
742.77,745.09,747.94,752.08,756.69,760.53,761.78,761.30,759.95,757.99,755.70,756.04,757.17,758.12,758.36,758.08,757.52,757.13,757.24,758.02,758.64,758.99,759.05,758.86,758.81,759.63,760.95,762.11,762.03,760.92,758.96,756.38,753.62,750.84,747.09,742.67,738.08,732.78,726.65,720.56,715.21,711.21,710.22,709.98,710.28,712.60,715.56,719.16,724.10,730.90,737.54,739.05,737.00,732.64,727.50,722.68,718.81,715.91,714.31,715.24,717.93,721.81,726.51,730.98,734.93,738.86,742.91,747.05,752.12,757.26,762.16,766.44,769.21,770.60,771.39,771.76,771.46,770.89,770.00,768.83,767.85,769.16,771.68,774.60,777.12,777.71,776.93,775.74,774.19,771.48,767.47,762.44,757.31,752.99,749.71,745.68,742.05,738.97,735.16,733.55,735.66,739.88,743.70,748.18,750.40,751.49,752.40,753.14,753.74,754.18,754.55,754.90,753.98,752.11,750.52,750.53,752.08,751.18,749.25,748.28,751.52,754.56,755.24,753.67,750.82,749.31,748.71,748.98,750.06,750.96,753.96,756.25,757.05,757.35,758.64,760.51,762.72,765.23,767.62,768.73,769.24,769.61,770.24,770.84,771.77,772.74,773.05,773.08,771.84,770.23,769.02,768.05,767.16,766.40,766.17,767.29,768.40,769.87,771.33,772.31,773.35,774.63,775.88,777.00,778.00,778.33,778.29,777.91,776.96,775.86,774.68,773.66,773.01,772.67,772.45,771.96,771.07,769.79,768.25,766.72,765.32,764.15,763.27,762.70,762.70,763.43,764.58,765.58,766.43,767.21,768.05,769.08,770.29,771.18,771.45,771.99,772.53,772.77,772.53,771.71,770.65,769.90,769.50,769.31,768.56,767.19,766.60,767.15,766.90,766.56,765.92,764.80,762.89,760.49,758.43,756.96,756.21,755.82,755.35,755.18,755.41,755.74,756.08,755.64,754.98,755.04,755.50,756.04,756.45,756.65,756.79,756.88,756.97,757.08,757.20,757.31,757.43,757.59,757.85,758.38,758.96,759.83,761.22,763.32,765.49,767.57,769.40,770.72,771.54,772.03,772.15,771.79,771.09,770.24,769.23,767.98
744.56,746.51,748.63,752.61,757.10,760.39,761.23,760.89,759.69,757.61,754.87,754.48,755.28,755.79,754.69,753.23,752.17,751.88,752.51,753.61,754.46,754.89,754.96,754.81,754.76,756.42,758.82,760.75,761.35,760.90,759.50,757.20,754.36,751.59,747.27,742.09,737.27,732.25,726.39,720.19,714.32,710.00,708.61,708.26,708.71,711.05,714.19,717.67,722.48,729.29,735.19,736.00,733.88,729.93,724.75,720.07,716.15,713.11,711.68,713.51,716.26,719.50,723.25,727.22,730.97,735.66,741.19,746.50,751.57,756.02,760.22,764.36,767.63,769.57,770.46,770.53,770.15,769.25,767.92,766.53,766.00,768.16,771.08,774.09,776.20,774.73,773.21,772.35,771.77,770.17,766.48,761.92,757.47,753.86,751.19,747.70,743.77,739.21,733.48,732.95,736.50,741.39,744.59,747.98,750.04,751.22,751.90,752.05,751.96,752.06,752.24,751.86,750.67,749.36,748.32,747.97,748.75,748.28,746.96,746.06,748.27,749.39,749.13,747.92,746.71,747.88,749.18,750.48,751.92,753.17,754.35,755.22,755.95,757.20,759.07,761.56,764.52,767.63,769.73,770.58,771.22,772.13,773.21,773.94,774.83,775.63,775.61,774.77,772.91,770.86,769.24,768.19,767.25,766.72,766.86,768.00,769.23,772.16,775.18,776.14,776.80,777.63,778.59,779.48,779.74,779.74,779.37,778.58,777.33,776.05,774.74,773.43,772.22,771.39,770.96,770.47,769.57,767.91,766.11,764.89,764.08,763.32,762.86,763.15,763.83,764.68,765.60,766.57,767.42,768.08,768.53,769.49,771.21,772.72,773.31,773.91,774.47,774.81,774.75,773.99,773.08,772.38,771.89,771.35,769.80,768.28,768.04,769.19,769.30,769.10,768.56,767.38,764.89,761.47,759.28,758.59,758.98,758.01,756.50,755.43,755.08,755.06,755.10,755.03,754.91,754.97,755.39,756.05,756.71,757.19,757.32,757.40,757.51,757.64,757.74,757.87,757.98,758.10,758.30,758.68,759.30,760.78,763.12,765.35,767.41,769.23,770.71,771.75,772.58,772.69,772.23,771.34,770.45,769.12,767.59,765.96
743.25,745.29,747.75,752.85,757.88,760.25,760.54,760.07,758.60,756.08,753.21,752.70,753.28,753.51,752.08,749.96,748.61,748.26,748.88,749.80,750.40,750.64,750.63,750.57,750.90,752.85,755.62,758.19,759.47,759.61,758.69,756.81,754.31,751.93,746.68,740.30,735.77,731.16,725.86,719.94,713.92,709.43,707.25,706.76,707.67,710.08,713.55,717.40,722.14,728.05,732.71,733.26,730.80,726.25,721.30,717.25,713.69,711.11,710.93,714.03,717.06,720.48,724.80,729.12,733.18,737.46,741.93,746.15,749.94,753.89,758.05,762.18,765.32,767.38,768.14,767.62,766.58,765.33,764.15,763.71,765.08,767.85,770.82,773.26,774.17,771.86,769.83,768.87,768.62,767.83,765.00,761.15,757.03,753.25,750.46,747.18,743.51,738.90,732.23,731.86,736.26,741.86,744.59,747.24,749.30,750.72,751.33,751.09,750.37,749.82,749.52,749.08,748.48,747.61,746.67,745.96,745.90,745.32,744.43,743.87,744.96,745.30,745.72,746.40,747.38,749.47,751.17,752.99,755.27,756.87,757.39,757.57,757.85,758.69,760.59,763.77,767.43,770.45,771.80,772.76,773.89,775.35,776.94,777.52,777.92,778.22,777.93,776.61,774.28,771.68,769.50,768.38,767.36,766.97,767.39,768.56,770.79,774.75,778.21,778.66,779.04,779.41,779.82,780.20,780.20,780.00,779.30,778.20,776.93,775.62,774.08,772.45,771.03,770.25,769.65,768.84,767.69,766.24,764.93,764.01,763.50,763.41,763.52,764.12,765.04,766.15,767.25,768.14,768.72,769.05,769.38,770.79,772.59,774.15,775.10,775.79,776.37,776.82,776.98,776.40,775.75,775.11,774.19,772.53,770.40,769.07,769.13,770.39,770.89,770.77,770.27,769.13,766.45,762.52,760.17,759.82,760.90,760.26,758.55,757.01,756.00,755.21,754.95,754.90,754.90,754.96,755.41,756.07,756.79,757.43,757.79,757.96,758.07,758.18,758.30,758.41,758.53,758.65,758.78,759.03,759.82,761.73,764.64,767.23,769.14,770.63,771.85,772.73,773.13,772.66,771.74,770.59,769.18,767.42,765.63,763.91
741.08,743.72,747.14,752.97,758.03,759.52,759.02,758.20,756.35,753.49,750.92,750.60,751.15,751.30,749.86,747.40,745.71,745.13,745.59,746.17,746.44,746.50,746.51,746.72,747.57,749.59,752.32,755.13,756.90,757.41,756.85,755.36,753.29,750.99,745.25,738.39,734.14,729.83,725.18,719.71,713.66,709.02,706.14,705.49,706.73,709.30,713.03,717.34,721.95,726.60,730.11,730.06,727.02,722.06,717.72,714.31,711.29,709.58,711.14,715.47,719.38,723.40,728.05,732.42,736.43,739.86,742.80,745.57,748.19,751.72,755.88,759.98,762.91,764.76,765.11,763.90,762.12,760.84,760.30,761.17,764.39,767.77,770.70,772.46,772.19,769.36,766.63,765.28,765.13,764.97,763.27,760.34,756.63,752.53,749.30,745.90,742.33,737.89,731.23,730.58,735.18,741.18,743.84,746.07,748.17,749.76,750.36,749.84,748.58,747.46,746.78,746.47,746.45,745.94,745.07,744.19,743.49,742.71,742.11,741.97,742.53,742.86,744.19,746.41,748.84,751.26,753.16,755.37,758.23,760.31,760.84,760.94,761.13,761.76,763.57,766.91,770.66,773.34,773.98,774.92,776.35,778.13,779.77,780.15,780.17,780.09,779.63,778.18,775.54,772.47,769.85,768.66,767.61,767.25,767.72,768.90,771.84,776.45,780.11,780.17,780.38,780.42,780.37,780.26,779.95,779.43,778.47,777.19,775.86,774.39,772.74,771.11,769.81,769.21,768.56,767.58,766.31,765.09,764.24,763.63,763.43,763.89,764.64,765.45,766.48,767.77,769.03,769.93,770.34,770.54,771.17,772.93,774.59,775.93,776.90,777.54,778.10,778.67,779.02,778.64,778.24,777.65,776.38,773.86,771.41,770.02,770.08,771.45,772.36,772.23,771.63,770.48,767.97,764.05,761.46,760.96,762.39,762.66,761.18,759.41,757.92,756.61,756.04,755.61,755.24,755.20,755.64,756.30,757.04,757.76,758.29,758.50,758.62,758.73,758.86,758.96,759.08,759.21,759.37,759.77,760.93,763.21,766.35,768.98,770.69,771.93,772.91,773.53,773.30,772.32,771.04,769.57,767.60,765.52,763.58,761.84
738.86,742.86,747.89,753.00,756.69,757.53,755.89,754.37,752.10,749.27,747.74,747.90,748.79,749.19,747.89,745.51,743.25,742.16,742.43,742.55,742.60,742.69,742.97,743.79,745.23,747.15,749.37,751.66,753.50,754.05,753.59,752.37,750.66,747.60,742.50,736.87,732.62,728.37,724.35,719.43,713.42,708.60,705.44,704.53,705.69,708.52,712.38,716.99,721.33,724.57,727.33,725.72,721.82,717.31,714.24,711.26,708.93,708.63,712.35,717.59,723.47,728.57,732.24,735.55,738.54,740.85,742.60,744.36,746.74,749.98,753.82,757.79,760.68,761.85,761.34,759.36,757.01,756.37,757.17,759.48,763.70,767.80,770.66,771.87,770.88,767.53,763.63,761.52,761.33,761.62,761.25,759.59,756.60,752.38,748.45,744.49,740.37,735.81,730.53,729.16,732.85,738.61,741.99,744.31,746.41,747.99,748.55,747.89,746.25,744.90,744.22,744.06,744.20,743.89,743.28,742.58,741.78,740.86,740.37,740.69,741.94,743.25,745.10,747.31,749.44,751.84,754.33,756.89,759.57,762.41,763.73,764.59,765.62,767.22,768.96,771.32,773.97,776.12,776.39,776.88,778.05,779.64,780.32,780.60,780.68,780.60,780.19,779.13,776.40,773.11,770.43,769.14,768.15,767.61,767.73,768.87,771.41,776.13,780.14,780.28,780.50,780.46,780.26,779.84,778.88,777.79,776.63,775.37,773.81,771.87,770.44,769.47,768.79,768.30,767.85,767.16,766.15,764.91,764.05,763.80,764.04,764.71,766.14,767.26,768.35,769.58,770.76,771.86,772.48,773.06,774.71,776.33,777.64,778.47,778.73,779.04,779.57,780.20,780.66,780.43,780.22,779.69,778.40,775.95,773.61,771.48,771.02,772.67,774.01,773.75,772.76,771.44,769.63,766.53,763.51,762.12,763.38,765.29,764.51,762.83,761.24,760.15,759.21,757.75,756.31,755.90,756.25,756.93,757.69,758.40,758.88,759.05,759.17,759.31,759.41,759.55,759.67,759.81,760.18,761.29,763.21,765.77,768.58,770.53,771.99,773.13,773.92,773.98,772.91,771.66,770.16,768.15,765.70,763.52,761.53,759.77
740.40,744.63,749.51,753.56,755.73,755.25,753.38,750.49,747.27,744.50,743.63,744.19,745.49,746.39,745.61,743.48,740.89,739.06,738.40,738.01,737.93,738.29,739.23,741.01,743.03,745.05,747.07,749.02,750.51,750.92,750.64,749.78,748.05,744.94,740.83,736.40,732.33,728.38,724.41,719.40,713.29,708.43,704.88,703.30,703.85,706.65,710.01,714.16,718.57,722.43,724.47,721.86,717.35,712.98,710.85,708.54,707.49,708.73,713.37,719.17,725.49,730.41,732.94,734.50,736.02,737.74,739.83,742.49,745.29,748.45,751.90,755.31,757.62,757.93,756.53,754.03,752.30,752.25,754.40,758.21,762.87,766.91,769.74,770.96,769.80,765.55,761.12,758.34,757.42,757.67,757.85,757.55,756.23,753.36,749.85,745.71,741.14,736.08,730.43,727.47,728.85,733.03,737.47,741.58,744.10,745.29,745.35,744.86,743.30,742.01,741.44,741.53,741.80,741.80,741.52,740.98,740.03,739.40,739.44,740.30,741.87,743.33,744.87,746.47,748.12,750.23,752.80,755.38,757.97,761.76,764.59,767.03,769.28,771.07,772.55,774.64,776.88,778.38,778.50,778.56,779.17,780.22,780.64,780.97,781.06,780.90,780.46,779.64,777.21,774.16,771.50,769.68,768.60,767.94,767.84,768.84,770.49,775.41,780.07,780.14,780.14,779.77,779.16,778.30,777.01,775.70,774.38,773.02,771.52,770.10,769.06,768.35,767.86,767.43,767.03,766.50,765.73,764.77,764.09,764.06,764.65,765.94,768.30,769.77,770.75,771.66,772.79,773.92,774.94,776.13,777.93,779.09,779.87,780.30,780.39,780.59,781.01,781.55,781.97,781.84,781.72,781.32,780.40,778.70,776.91,774.99,774.28,775.28,776.23,775.74,774.36,772.62,770.88,768.34,765.29,763.35,764.08,766.64,767.24,766.50,765.02,763.50,761.86,759.87,758.04,757.22,757.30,757.86,758.52,759.09,759.44,759.61,759.89,760.33,760.80,761.31,761.74,762.14,762.73,764.07,766.08,768.33,770.51,772.19,773.45,774.24,774.41,773.64,772.31,770.88,769.05,766.59,763.93,761.61,759.68,758.08
743.03,746.99,751.00,753.77,754.56,752.95,750.81,746.53,742.41,739.66,738.81,739.60,741.47,743.13,743.02,741.23,739.13,737.07,735.21,733.77,733.24,733.76,735.32,737.93,740.60,742.95,744.99,746.63,747.65,747.87,747.76,747.27,745.71,743.15,740.10,736.63,732.66,728.85,724.67,719.39,713.15,708.18,704.16,701.84,701.69,704.28,707.07,710.52,714.85,719.58,721.50,718.49,713.76,709.51,707.85,706.15,706.44,709.06,714.11,720.23,726.14,730.19,731.41,730.96,731.01,732.79,736.15,740.11,743.55,746.84,749.98,752.67,754.18,753.73,751.76,749.22,748.42,749.04,752.23,757.05,761.83,765.51,768.18,769.51,768.52,763.77,759.16,755.68,753.70,753.63,754.04,754.86,755.24,754.17,751.58,747.52,742.66,737.17,731.21,727.16,726.03,727.82,732.62,738.41,741.38,742.19,741.79,741.47,740.12,738.89,738.35,738.71,739.23,739.62,739.78,739.57,738.72,738.53,739.03,740.19,741.83,743.34,744.48,745.44,746.66,748.27,750.53,752.78,755.13,759.80,764.09,768.14,771.62,773.38,774.68,776.69,778.79,779.95,780.09,779.94,780.08,780.59,780.97,781.35,781.40,781.14,780.64,780.00,778.02,775.34,772.62,770.16,768.96,768.24,767.98,768.83,769.66,774.37,779.21,779.24,779.14,778.56,777.63,776.40,774.98,773.56,772.17,770.79,769.51,768.72,768.01,767.40,766.95,766.56,766.19,765.75,765.24,764.68,764.37,764.79,765.95,767.94,770.96,772.61,773.40,773.94,774.96,775.99,777.29,778.89,780.55,781.30,781.67,781.88,781.98,782.14,782.46,782.85,783.17,783.12,783.04,782.81,782.30,781.33,780.10,778.69,777.91,778.14,778.55,777.88,776.23,774.10,772.17,769.92,766.88,764.52,764.63,767.44,769.31,769.55,768.28,766.26,764.01,761.75,759.78,758.59,758.47,759.01,759.70,760.29,760.74,761.02,761.47,762.13,762.85,763.67,764.40,765.07,765.83,767.14,768.94,770.72,772.34,773.88,774.70,774.87,774.35,772.97,771.60,770.00,767.85,765.04,762.26,759.89,758.03,756.58
745.41,748.72,751.28,752.45,752.40,750.92,747.47,742.37,738.04,735.07,732.75,733.25,736.13,739.16,739.76,738.51,739.10,738.60,735.36,731.31,729.25,729.33,731.03,733.72,737.36,740.60,742.99,744.25,744.79,744.85,744.77,744.59,744.15,743.31,741.24,737.98,733.71,729.35,724.71,719.22,712.92,707.48,702.84,699.95,699.30,701.43,704.01,706.79,710.27,714.72,718.32,716.22,712.17,708.31,705.90,704.45,705.66,709.13,714.15,720.14,724.57,726.80,726.37,723.73,722.83,726.10,732.15,736.83,740.98,744.73,747.87,749.86,750.41,749.55,748.09,746.72,746.66,748.26,751.52,755.80,760.25,763.46,765.49,766.67,766.42,762.74,758.42,754.08,750.62,749.87,750.34,751.42,752.68,753.45,752.13,748.63,743.84,738.50,734.07,731.30,728.36,726.58,729.25,734.82,737.88,738.80,738.45,738.07,736.81,735.39,734.52,735.12,736.25,737.25,738.08,738.77,738.81,739.04,739.42,740.07,741.42,743.34,744.65,745.50,746.60,747.29,748.55,749.74,751.24,756.39,761.36,766.37,770.76,772.51,774.02,775.94,778.08,779.92,780.40,780.67,780.92,781.18,781.50,781.82,781.77,781.38,780.86,780.34,778.88,776.53,773.44,770.37,769.10,768.46,768.20,768.91,769.59,772.73,775.99,776.31,776.64,776.46,775.73,774.48,773.14,771.66,770.41,769.43,768.59,767.82,767.11,766.50,766.05,765.65,765.32,765.01,764.75,764.67,765.14,766.87,769.35,771.91,774.48,775.75,776.30,776.60,777.24,777.93,778.94,780.25,781.65,782.49,783.01,783.32,783.48,783.68,783.94,784.21,784.42,784.40,784.34,784.26,783.92,782.98,781.93,781.00,780.47,780.45,780.61,780.01,778.49,776.32,773.95,771.38,768.17,765.50,765.01,767.77,769.87,770.46,769.48,767.39,765.16,762.95,760.94,759.56,759.58,760.53,761.79,763.06,764.32,765.06,765.54,765.87,766.10,766.79,767.48,768.15,768.93,769.95,771.16,772.61,774.20,775.54,775.16,774.19,773.09,771.97,770.73,768.94,766.57,763.67,760.80,758.65,756.79,755.35
746.34,748.39,749.93,750.42,750.10,748.84,745.70,741.22,736.89,733.12,729.63,728.93,730.68,733.38,735.35,736.38,738.96,739.44,735.76,730.37,726.38,725.15,726.35,729.07,732.80,736.46,739.36,741.00,741.72,741.78,741.72,741.75,741.86,741.83,740.64,738.09,734.09,729.69,724.82,719.26,713.10,707.46,702.56,699.31,698.01,699.08,701.36,704.36,707.99,712.20,715.97,714.83,711.69,708.19,705.26,703.54,704.94,708.63,713.16,718.02,720.85,721.70,720.63,718.30,718.34,722.34,729.00,734.91,739.53,743.33,745.92,746.72,746.84,745.82,744.66,744.20,745.59,748.00,751.17,754.80,758.44,760.93,762.35,763.32,763.64,761.59,757.77,753.50,749.87,748.35,748.06,748.83,750.21,751.67,751.88,749.85,746.12,741.50,737.89,734.54,730.05,725.73,724.89,729.37,732.58,734.10,734.49,734.57,734.12,734.07,734.77,736.31,738.46,740.27,741.49,742.11,742.70,743.63,744.34,744.73,745.45,746.58,747.33,747.86,748.75,749.20,750.07,750.63,750.92,753.73,757.98,762.52,766.69,769.78,771.88,773.67,775.59,777.75,779.28,780.33,780.99,781.37,781.78,782.16,782.13,781.74,781.23,780.73,779.72,777.54,773.89,770.51,769.25,768.68,768.43,769.00,769.58,771.39,773.35,774.04,774.87,775.44,775.00,773.42,771.84,770.48,769.42,768.60,767.90,767.34,767.02,766.86,766.68,766.27,766.11,766.15,766.46,767.32,768.54,770.69,773.39,775.96,777.70,778.52,778.86,778.97,779.20,779.71,780.56,781.70,783.03,783.92,784.42,784.74,784.95,785.16,785.38,785.61,785.77,785.71,785.61,785.50,785.21,784.49,783.52,782.74,782.24,782.01,781.73,781.00,779.79,778.06,775.58,772.27,768.92,766.21,765.23,767.78,770.09,771.09,770.50,768.52,766.35,764.21,762.24,760.80,760.90,762.19,763.88,765.60,767.31,768.49,769.23,769.71,770.07,770.51,771.05,771.50,771.80,772.50,773.40,774.53,775.63,775.75,774.47,772.92,771.60,770.67,769.54,768.00,765.80,762.98,760.49,758.45,756.48,754.98
746.09,746.95,747.79,747.98,747.61,746.61,744.51,741.33,737.20,732.46,728.05,725.75,725.55,727.10,730.34,734.04,737.97,739.04,735.55,729.50,723.94,721.30,721.63,724.10,727.24,730.83,734.18,736.64,738.13,738.47,738.55,738.76,739.12,739.38,738.85,737.10,733.66,729.54,724.64,719.16,713.30,707.65,702.69,699.15,697.19,697.14,699.22,702.76,706.88,710.88,713.99,713.57,711.32,708.18,704.95,702.74,704.00,707.60,711.43,714.79,716.16,716.04,714.92,713.90,715.64,720.07,726.48,733.52,738.41,741.86,743.60,743.27,743.18,742.14,741.39,741.96,744.75,747.72,750.73,753.73,756.53,758.47,759.50,760.28,760.91,760.35,757.10,753.39,750.22,748.03,746.57,746.70,747.88,749.49,751.05,750.47,747.97,744.25,741.13,736.27,730.33,724.52,721.28,724.95,728.27,730.32,731.36,731.96,732.70,734.53,737.28,739.94,742.97,745.32,746.62,746.87,747.72,749.18,750.25,750.62,750.79,750.94,751.06,751.35,752.07,752.50,753.14,753.25,752.49,752.42,755.15,758.44,761.79,765.93,768.53,770.38,772.20,774.56,777.40,779.49,780.76,781.35,781.90,782.39,782.46,782.14,781.66,781.13,780.44,778.35,774.24,770.69,769.43,768.91,768.67,769.10,769.62,770.49,771.56,772.64,773.91,775.13,774.92,772.95,771.11,769.84,768.89,768.10,767.45,767.23,767.44,767.81,768.04,767.87,768.10,768.61,769.50,771.21,772.99,775.06,777.34,779.50,780.42,780.87,781.07,781.06,780.97,781.35,782.10,783.13,784.41,785.26,785.67,785.92,786.19,786.35,786.57,786.79,786.92,786.79,786.64,786.46,786.22,785.77,784.91,784.14,783.59,783.15,782.42,781.53,780.62,779.38,776.97,773.03,769.59,766.87,765.47,767.79,770.28,771.64,771.43,769.64,767.57,765.53,763.63,762.19,762.29,763.84,765.87,767.87,769.82,771.35,772.46,773.30,774.10,774.44,774.78,774.88,774.60,774.97,775.54,776.21,776.50,775.22,773.28,771.46,770.09,769.27,768.23,767.02,765.19,762.69,760.69,758.70,756.60,755.06
743.78,744.64,745.25,745.15,744.61,743.86,742.91,741.34,737.80,732.45,727.43,723.64,721.68,721.89,724.98,729.99,733.97,735.28,732.72,726.44,721.28,718.23,717.34,718.61,720.11,722.59,725.86,729.59,732.91,734.29,734.97,735.53,735.89,735.98,735.41,734.00,731.35,727.80,723.29,718.25,712.94,707.51,702.66,698.81,696.26,695.90,698.32,702.18,706.45,710.22,712.07,711.44,709.52,706.87,703.81,701.12,702.12,705.53,708.62,710.70,711.25,710.97,710.42,710.49,713.58,718.60,724.91,731.92,736.74,739.03,739.64,739.24,738.88,737.92,738.38,740.80,743.68,746.63,749.35,751.96,754.63,757.05,758.47,759.22,759.46,759.06,756.23,753.29,750.92,748.64,745.69,744.96,745.89,747.50,749.26,748.65,746.45,743.45,740.65,733.80,726.42,721.36,721.99,727.24,730.58,732.01,732.35,732.76,735.00,738.17,741.65,744.90,747.77,749.35,750.01,750.28,750.94,751.77,752.65,753.43,753.82,754.22,754.69,755.34,756.22,756.40,756.34,756.04,755.44,754.90,755.38,756.83,758.90,760.96,763.08,765.65,768.31,770.95,775.06,778.57,780.63,781.24,781.84,782.48,782.74,782.59,782.06,781.52,780.72,778.66,774.82,771.15,769.75,769.20,768.96,769.30,769.71,770.70,772.04,773.39,774.76,775.75,775.34,773.38,771.62,770.05,768.82,767.97,767.62,767.86,768.39,768.96,769.57,770.75,771.88,772.89,773.93,775.44,777.09,778.61,779.96,781.11,781.77,782.24,782.50,782.53,782.46,782.73,783.40,784.36,785.34,785.88,786.14,786.32,786.51,786.66,786.88,787.06,787.13,787.03,786.89,786.79,786.69,786.43,785.93,785.23,784.52,783.84,783.07,782.17,781.23,779.99,777.75,774.29,770.79,767.73,766.10,768.30,770.85,772.37,772.37,770.74,768.85,766.98,765.17,763.66,763.64,765.29,767.49,769.57,771.46,773.14,774.56,775.84,777.19,778.16,778.25,777.90,777.55,777.48,777.31,776.88,775.98,774.26,772.11,770.22,768.83,767.98,766.98,765.80,764.42,762.80,760.99,758.98,756.83,755.34
741.31,742.14,742.72,742.33,741.28,739.93,738.89,737.77,735.16,730.94,726.48,722.25,719.16,718.12,720.38,724.46,728.18,730.28,729.29,723.38,718.70,715.54,713.89,714.18,714.68,716.32,719.13,723.06,727.15,729.67,731.24,732.17,732.45,732.31,731.61,730.31,728.23,725.18,721.39,717.18,712.59,707.38,702.18,697.76,694.81,694.75,697.76,701.58,705.50,708.83,709.33,708.44,706.76,704.50,701.86,699.07,699.77,702.64,704.73,705.85,706.33,706.59,707.01,708.41,711.94,716.88,722.57,728.05,731.30,732.50,732.60,732.49,733.59,734.79,737.10,740.53,743.43,746.06,748.43,750.80,753.45,756.08,757.57,758.17,758.13,757.81,755.81,753.55,751.48,749.08,745.03,743.27,743.67,745.41,747.32,746.17,743.35,739.70,735.50,728.46,722.43,720.10,724.30,730.51,734.18,735.65,735.76,736.00,737.99,741.08,744.66,747.95,750.26,751.52,752.18,752.66,753.32,753.97,754.81,755.85,756.61,757.38,758.10,758.87,759.80,759.96,759.68,759.19,758.51,757.72,757.22,757.97,759.84,761.80,763.94,765.95,767.66,769.42,773.63,777.72,780.24,781.00,781.82,782.67,783.06,782.87,782.05,781.36,780.27,778.20,774.80,771.24,769.98,769.52,769.29,769.50,770.03,771.41,773.07,774.32,775.72,776.40,775.84,774.02,772.26,770.45,769.04,768.15,767.92,768.47,769.39,770.60,772.20,774.29,775.81,776.84,777.64,778.66,779.83,780.84,781.69,782.40,782.96,783.45,783.84,784.06,784.02,784.13,784.55,785.21,785.85,786.22,786.44,786.62,786.77,786.92,787.12,787.27,787.35,787.30,787.19,787.12,787.06,786.90,786.58,786.01,785.32,784.56,783.69,782.73,781.68,780.37,778.26,775.16,771.62,768.46,766.99,769.16,772.05,773.68,773.50,771.95,770.17,768.38,766.58,764.96,764.60,766.15,768.30,770.40,772.61,774.69,776.49,777.99,779.11,779.93,779.86,779.37,778.90,778.18,777.30,776.23,774.88,773.22,771.15,769.34,767.92,766.83,765.76,764.64,763.50,762.29,760.71,758.67,756.63,755.53
738.69,739.59,739.98,739.15,737.31,734.82,732.85,731.53,730.03,727.94,725.06,721.27,717.55,715.34,716.26,718.33,721.70,724.86,725.67,720.72,716.33,713.06,711.04,710.66,710.66,711.75,713.99,717.49,721.54,724.90,727.27,728.55,728.76,728.43,727.58,726.34,724.64,722.08,719.18,715.96,712.13,707.09,701.22,696.09,692.93,693.73,697.48,701.08,704.32,706.88,706.17,705.04,703.43,701.29,699.12,696.89,697.52,699.68,700.75,701.22,701.97,702.99,704.43,706.99,710.30,714.54,719.10,722.35,723.56,724.22,724.71,725.53,728.93,733.07,737.28,741.18,744.15,746.30,748.27,750.42,753.03,755.42,756.59,756.90,756.70,756.51,755.57,753.93,751.74,748.95,744.12,741.36,741.22,743.36,745.34,743.28,739.24,734.14,727.95,721.99,719.08,720.55,727.59,734.09,737.98,739.75,739.97,740.11,740.94,743.06,746.21,749.19,750.94,752.26,753.32,754.12,754.93,755.74,756.71,757.87,759.01,760.26,761.19,761.97,762.90,763.27,763.20,762.76,761.93,760.99,760.40,761.11,763.29,766.37,768.86,769.80,769.74,769.96,773.19,777.09,779.75,780.82,781.98,783.03,783.38,782.92,781.68,780.74,779.31,777.18,774.29,771.19,770.28,770.00,769.76,769.81,770.66,772.49,774.37,775.37,776.69,777.06,776.38,774.77,772.93,770.95,769.44,768.52,768.27,768.99,770.45,772.62,775.42,777.87,779.34,780.12,780.51,781.04,781.63,782.26,782.93,783.63,784.15,784.60,785.07,785.46,785.41,785.35,785.46,785.73,786.05,786.36,786.61,786.81,786.97,787.12,787.28,787.44,787.56,787.56,787.50,787.43,787.38,787.26,786.96,786.53,785.97,785.23,784.25,783.18,782.01,780.60,778.58,775.74,772.19,769.10,768.00,770.22,773.48,775.21,774.75,773.25,771.50,769.69,767.85,766.12,765.32,766.58,768.54,770.58,773.28,775.95,778.17,779.70,780.20,780.41,780.21,779.74,779.01,777.62,776.19,774.83,773.50,772.10,770.25,768.54,767.07,765.72,764.57,763.52,762.48,761.35,759.99,758.10,756.50,756.17
735.44,737.07,736.10,734.20,731.37,727.54,724.61,723.44,722.86,722.54,722.66,720.30,716.57,713.16,712.03,713.36,716.80,720.47,722.37,719.52,714.62,710.70,708.57,708.22,707.99,708.88,711.01,714.37,717.89,720.59,722.63,724.00,724.44,724.10,723.33,722.26,720.85,719.00,716.95,714.49,711.07,705.81,699.25,693.54,690.59,693.21,697.65,701.32,703.75,704.63,703.54,702.19,700.01,697.07,694.96,695.29,696.87,698.56,699.36,699.73,700.17,701.06,702.66,704.90,707.54,710.26,712.80,714.80,716.11,718.41,721.64,725.54,730.17,734.62,739.18,743.67,746.96,748.69,750.13,751.86,754.05,755.00,755.17,755.03,754.83,754.77,754.80,753.76,751.18,746.77,741.51,738.32,738.34,741.69,743.34,740.05,734.46,728.12,722.32,718.01,718.18,722.98,731.46,737.41,740.15,741.24,741.59,741.80,742.27,743.38,745.28,747.93,750.01,751.58,752.86,754.00,755.09,756.23,757.38,758.57,759.94,761.94,763.41,764.41,765.56,766.54,767.11,767.23,766.85,766.06,765.66,765.94,767.40,770.94,773.75,775.06,774.97,773.99,774.64,777.13,779.64,781.39,782.81,783.78,783.50,782.27,780.92,779.68,777.98,775.76,773.24,771.67,771.28,771.12,770.84,770.65,772.15,774.05,775.70,776.82,777.74,777.77,777.02,775.54,773.69,771.59,769.90,768.83,768.54,769.33,771.73,774.97,778.14,779.93,780.94,781.56,781.98,782.45,782.97,783.60,784.32,785.10,785.44,785.70,785.87,785.91,785.80,785.71,785.75,785.88,786.04,786.28,786.52,786.72,786.87,787.03,787.23,787.40,787.53,787.53,787.51,787.55,787.57,787.40,787.07,786.67,786.21,785.58,784.54,783.38,782.11,780.64,778.74,776.17,772.74,769.71,768.78,771.29,774.26,775.98,775.93,774.57,772.82,770.84,768.85,767.21,766.04,766.83,768.34,770.09,773.05,776.42,778.92,780.27,780.64,780.55,780.25,779.51,778.11,776.58,775.10,773.65,772.24,770.83,768.91,767.05,765.50,764.42,763.41,762.45,761.45,760.31,758.98,757.98,758.04,759.34
732.73,734.43,732.94,729.85,725.89,721.54,718.39,717.16,716.94,717.65,719.56,718.43,715.26,711.57,709.18,709.85,712.90,716.57,719.16,717.88,713.23,709.21,706.90,706.04,705.62,706.51,708.65,711.81,714.82,716.92,718.43,719.46,719.89,719.53,718.93,718.17,717.08,715.75,714.30,712.40,709.47,704.45,697.63,691.54,688.53,691.93,696.79,700.53,702.51,702.42,701.07,698.54,695.98,694.24,694.33,696.95,699.84,702.04,703.02,703.38,703.38,703.55,704.22,705.33,706.55,707.69,708.80,710.28,712.64,716.62,721.82,727.78,733.36,737.61,742.09,746.77,749.40,750.82,751.95,753.10,754.08,753.79,753.37,753.06,752.90,752.99,753.62,752.96,750.11,744.40,738.24,734.77,735.36,740.04,741.66,737.50,730.71,723.48,718.47,716.20,718.78,725.56,734.57,739.51,741.47,742.30,742.89,743.20,743.56,744.11,745.10,747.04,749.16,750.84,752.20,753.53,754.91,756.26,757.55,758.77,760.11,762.56,764.72,766.38,767.82,769.45,770.62,771.27,771.50,772.08,772.43,772.64,773.42,776.19,778.61,779.92,779.92,778.60,777.57,778.79,780.84,782.76,783.90,783.95,782.93,781.32,779.81,778.25,776.40,774.32,772.50,772.52,772.99,773.11,772.87,773.01,774.69,776.37,777.66,778.51,778.98,778.82,777.95,776.33,774.36,772.14,770.31,769.08,768.77,769.50,772.52,776.45,779.78,781.26,782.13,782.74,783.22,783.74,784.39,784.93,785.45,786.01,786.17,786.28,786.27,786.11,785.93,785.84,785.83,785.88,785.95,786.13,786.34,786.52,786.68,786.86,787.08,787.27,787.40,787.43,787.43,787.51,787.56,787.40,787.07,786.69,786.27,785.69,784.63,783.39,782.05,780.58,778.81,776.58,773.40,770.43,769.39,772.14,774.90,776.71,777.13,775.86,774.21,772.05,769.82,768.20,767.16,767.47,768.35,769.75,772.89,776.97,779.65,780.66,780.88,780.58,780.03,779.00,777.26,775.61,774.03,772.52,771.02,769.54,767.94,766.65,765.61,764.55,763.44,762.06,760.65,759.44,758.70,758.50,759.67,762.20
