498.75,498.75,498.75,498.73,498.70,498.70,498.70,498.70,498.69,498.66,498.66,498.66,498.66,498.66,498.66,498.66,498.66,498.66,498.66,498.66,498.66,498.66,498.66,498.66,498.66,498.66,498.66,498.66,498.66,498.68,498.70,498.70,498.70,498.70,498.70,498.70,498.70,498.70,498.70,498.70,498.71,498.75,498.75,498.78,498.80,498.80,498.80,498.80,498.80,498.80,498.80,498.86,498.90,498.92,498.99,499.04,499.11,499.17,499.21,499.28,499.36,499.43,499.51,499.59,499.60,499.60,499.61,499.66,499.69,499.70,499.70,499.70,499.70,499.70,499.72,499.75,499.75,499.75,499.78,499.80,499.80,499.80,499.80,499.80,499.80,499.80,499.80,499.80,499.80,499.80,499.80,499.80,499.80,499.80,499.80,499.80,499.80,499.80,499.80,499.80,499.83,499.87,499.89,499.90,499.90,499.90,499.90,499.90,499.90,499.90,499.90,499.91,499.97,500.14,500.38,500.61,500.84,501.08,501.31,501.53,501.73,501.93,502.11,502.24,502.32,502.47,502.62,502.75,502.84,502.99,503.14,503.28,503.41,503.56,503.72,503.77,503.87,504.15,504.22,504.28,504.37,504.49,504.67,504.83,505.08,505.37,505.61,505.83,506.08,506.36,506.67,506.94,507.21,507.46,507.68,507.83,507.99,508.16,508.32,508.45,508.60,508.75,508.91,509.07,509.26,509.48,509.69,509.86,509.97,510.07,510.20,510.49,511.05,511.70,512.29,512.78,513.17,513.60,514.10,514.61,515.17,515.79,516.41,517.02,517.63,518.23,518.86,519.30,519.77,520.27,520.68,520.86,521.26,521.83,522.47,523.15,523.79,524.39,524.97,525.53,526.13,526.68,527.15,527.54,527.96,528.77,529.83,531.08,532.56,534.06,535.53,536.89,537.94,538.86,539.75,540.64,541.57,542.49,543.45,544.57,545.85,547.13,548.42,549.92,551.68,553.72,555.66,557.59,559.58,561.65,563.84,566.02,568.20,570.46,573.00,575.56,578.09,581.05,584.84,588.67,592.80,596.95,600.95,604.81,608.71,611.63,614.09,616.97,619.53,623.32,627.90,633.06,638.91,644.19,649.74,655.60
498.80,498.80,498.80,498.76,498.72,498.72,498.72,498.72,498.71,498.70,498.70,498.70,498.70,498.70,498.70,498.70,498.70,498.70,498.70,498.70,498.70,498.70,498.70,498.70,498.70,498.70,498.70,498.70,498.70,498.70,498.70,498.70,498.70,498.70,498.70,498.70,498.70,498.70,498.71,498.72,498.74,498.79,498.80,498.80,498.80,498.80,498.80,498.80,498.80,498.80,498.80,498.86,498.90,498.92,498.99,499.07,499.15,499.20,499.23,499.30,499.37,499.43,499.51,499.59,499.62,499.63,499.64,499.69,499.70,499.70,499.70,499.72,499.72,499.72,499.75,499.80,499.80,499.80,499.80,499.80,499.80,499.80,499.80,499.80,499.80,499.80,499.80,499.80,499.80,499.80,499.80,499.80,499.80,499.80,499.80,499.80,499.80,499.80,499.80,499.80,499.85,499.90,499.90,499.90,499.90,499.90,499.90,499.90,499.92,499.93,499.95,499.98,500.06,500.23,500.44,500.66,500.87,501.10,501.32,501.53,501.77,502.00,502.20,502.35,502.45,502.60,502.75,502.89,502.99,503.12,503.28,503.45,503.60,503.76,503.91,503.91,503.99,504.36,504.45,504.48,504.52,504.59,504.71,504.86,505.10,505.41,505.70,505.89,506.09,506.33,506.61,506.91,507.16,507.39,507.61,507.76,507.92,508.07,508.23,508.38,508.53,508.69,508.84,508.98,509.13,509.35,509.54,509.69,509.81,509.85,509.93,510.26,510.93,511.57,512.07,512.40,512.67,513.07,513.58,514.10,514.63,515.23,515.85,516.45,517.06,517.68,518.29,518.79,519.40,520.05,520.47,520.59,520.95,521.51,522.14,522.81,523.46,524.09,524.72,525.27,525.76,526.18,526.59,527.08,527.65,528.66,529.83,531.04,532.44,533.85,535.30,536.65,537.63,538.55,539.41,540.27,541.19,542.05,543.04,544.22,545.53,546.84,548.22,549.76,551.54,553.68,555.72,557.70,559.72,561.82,564.00,566.21,568.45,570.74,573.21,575.68,578.14,581.03,584.73,588.50,592.89,597.49,602.04,606.31,609.91,612.49,614.72,617.47,619.82,623.43,628.61,635.23,641.76,647.46,652.89,658.13
498.80,498.80,498.80,498.79,498.78,498.78,498.78,498.78,498.75,498.70,498.70,498.70,498.70,498.70,498.70,498.70,498.70,498.70,498.70,498.70,498.70,498.70,498.70,498.70,498.70,498.70,498.70,498.70,498.70,498.70,498.70,498.70,498.70,498.70,498.70,498.70,498.70,498.70,498.75,498.78,498.79,498.80,498.80,498.80,498.80,498.80,498.80,498.80,498.80,498.80,498.80,498.86,498.90,498.92,498.99,499.07,499.15,499.22,499.29,499.37,499.39,499.44,499.51,499.59,499.65,499.69,499.69,499.70,499.70,499.70,499.73,499.78,499.78,499.78,499.79,499.80,499.80,499.80,499.80,499.80,499.80,499.80,499.80,499.80,499.80,499.80,499.80,499.80,499.80,499.80,499.80,499.80,499.80,499.80,499.80,499.80,499.80,499.80,499.80,499.80,499.85,499.90,499.90,499.90,499.90,499.90,499.90,499.90,499.96,500.02,500.09,500.17,500.30,500.45,500.62,500.79,500.95,501.17,501.37,501.54,501.77,502.01,502.23,502.43,502.57,502.73,502.88,503.03,503.17,503.26,503.45,503.64,503.80,503.95,504.11,504.07,504.14,504.60,504.67,504.71,504.76,504.77,504.80,504.93,505.17,505.47,505.77,506.00,506.19,506.36,506.56,506.85,507.10,507.33,507.55,507.70,507.86,508.01,508.16,508.31,508.47,508.62,508.75,508.86,509.00,509.22,509.41,509.55,509.63,509.70,509.87,510.24,510.84,511.33,511.61,511.82,512.09,512.49,513.00,513.57,514.15,514.72,515.32,515.89,516.48,517.10,517.72,518.42,519.16,519.85,520.26,520.34,520.66,521.19,521.81,522.44,523.11,523.79,524.41,524.82,525.12,525.47,525.97,526.75,527.81,529.00,530.20,531.39,532.66,533.91,535.17,536.36,537.29,538.17,538.98,539.82,540.74,541.60,542.66,543.89,545.20,546.52,547.90,549.31,551.02,553.36,555.64,557.77,559.85,561.96,564.18,566.37,568.58,570.88,573.35,575.82,578.25,581.02,584.42,587.94,592.48,597.18,601.67,605.86,609.22,611.79,614.37,617.83,620.77,624.69,631.00,639.48,645.55,652.50,658.68,663.63
498.86,498.86,498.86,498.86,498.84,498.80,498.80,498.80,498.78,498.75,498.75,498.75,498.73,498.70,498.70,498.70,498.70,498.70,498.70,498.70,498.70,498.70,498.70,498.70,498.70,498.70,498.72,498.75,498.75,498.75,498.75,498.75,498.75,498.75,498.75,498.75,498.75,498.75,498.78,498.80,498.80,498.80,498.80,498.80,498.80,498.80,498.80,498.80,498.80,498.81,498.84,498.88,498.90,498.92,498.99,499.07,499.15,499.22,499.30,499.38,499.43,499.49,499.55,499.60,499.66,499.70,499.70,499.70,499.74,499.75,499.76,499.80,499.80,499.80,499.80,499.80,499.80,499.80,499.82,499.86,499.86,499.86,499.86,499.86,499.86,499.86,499.86,499.86,499.86,499.86,499.86,499.86,499.86,499.86,499.86,499.86,499.86,499.85,499.81,499.80,499.85,499.90,499.90,499.90,499.90,499.90,499.90,499.91,500.00,500.11,500.23,500.35,500.50,500.68,500.88,501.07,501.22,501.40,501.58,501.74,501.94,502.16,502.37,502.55,502.70,502.86,503.01,503.17,503.31,503.44,503.64,503.84,503.99,504.15,504.30,504.21,504.25,504.80,504.90,504.96,505.03,505.05,505.03,505.11,505.33,505.62,505.85,506.08,506.29,506.46,506.63,506.86,507.08,507.29,507.48,507.63,507.79,507.94,508.08,508.21,508.35,508.51,508.65,508.77,508.93,509.11,509.26,509.37,509.49,509.61,509.83,510.19,510.65,510.92,511.10,511.29,511.55,511.91,512.45,513.03,513.61,514.19,514.77,515.35,515.96,516.62,517.29,518.07,518.88,519.59,519.93,520.02,520.32,520.83,521.49,522.19,522.88,523.46,523.88,524.18,524.43,524.92,525.68,526.64,527.77,528.92,530.17,531.53,532.87,533.81,534.65,535.57,536.62,537.63,538.54,539.40,540.29,541.14,542.29,543.57,544.88,546.19,547.50,548.84,550.53,552.99,555.36,557.61,559.87,562.18,564.42,566.61,568.80,571.11,573.63,576.14,578.68,581.50,584.79,588.10,592.13,596.35,600.47,604.33,607.73,610.86,614.13,617.99,621.79,626.16,632.73,641.63,648.67,656.46,662.89,667.72
498.91,498.90,498.90,498.90,498.88,498.82,498.81,498.81,498.81,498.80,498.80,498.80,498.76,498.72,498.72,498.72,498.72,498.72,498.72,498.72,498.72,498.72,498.72,498.72,498.72,498.72,498.74,498.80,498.80,498.80,498.80,498.80,498.80,498.80,498.80,498.80,498.80,498.80,498.80,498.80,498.80,498.80,498.80,498.80,498.80,498.80,498.80,498.80,498.81,498.83,498.88,498.90,498.90,498.92,498.99,499.07,499.15,499.22,499.30,499.38,499.46,499.53,499.60,499.62,499.67,499.71,499.72,499.72,499.77,499.80,499.80,499.80,499.80,499.80,499.81,499.81,499.81,499.81,499.86,499.90,499.90,499.90,499.90,499.90,499.90,499.90,499.90,499.90,499.90,499.90,499.90,499.90,499.90,499.90,499.90,499.90,499.90,499.89,499.83,499.81,499.86,499.90,499.90,499.90,499.90,499.90,499.90,499.91,500.02,500.18,500.34,500.49,500.68,500.90,501.13,501.34,501.51,501.67,501.82,501.98,502.13,502.34,502.53,502.70,502.85,502.99,503.14,503.29,503.43,503.57,503.77,503.97,504.13,504.28,504.40,504.30,504.36,504.94,505.09,505.19,505.28,505.34,505.32,505.37,505.56,505.81,505.97,506.18,506.40,506.60,506.75,506.90,507.11,507.30,507.47,507.62,507.78,507.92,508.05,508.15,508.29,508.44,508.58,508.72,508.88,509.03,509.14,509.24,509.38,509.53,509.78,510.09,510.38,510.47,510.58,510.75,511.00,511.33,511.90,512.47,513.04,513.65,514.24,514.89,515.60,516.31,517.03,517.85,518.67,519.32,519.57,519.71,520.00,520.50,521.22,521.95,522.58,523.00,523.24,523.47,523.76,524.42,525.38,526.46,527.56,528.65,529.90,531.37,532.73,533.38,533.90,534.63,535.78,536.94,537.97,538.92,539.82,540.72,541.91,543.19,544.47,545.71,546.92,548.27,550.04,552.55,555.00,557.38,559.83,562.35,564.66,566.92,569.20,571.58,574.13,576.67,579.34,582.25,585.47,588.62,592.06,595.69,599.37,602.90,606.43,610.15,614.04,618.17,622.77,627.72,634.31,642.96,651.13,659.35,665.78,670.56
498.97,498.91,498.90,498.90,498.89,498.88,498.88,498.88,498.85,498.80,498.80,498.80,498.79,498.78,498.78,498.78,498.78,498.78,498.78,498.78,498.78,498.78,498.78,498.78,498.78,498.78,498.79,498.80,498.80,498.80,498.80,498.80,498.80,498.80,498.80,498.80,498.80,498.80,498.80,498.80,498.80,498.80,498.80,498.80,498.80,498.80,498.80,498.80,498.83,498.88,498.90,498.90,498.90,498.92,498.99,499.07,499.15,499.22,499.30,499.38,499.46,499.53,499.61,499.67,499.69,499.73,499.78,499.78,499.79,499.80,499.80,499.80,499.80,499.80,499.83,499.88,499.88,499.88,499.89,499.90,499.90,499.90,499.90,499.90,499.90,499.90,499.90,499.90,499.90,499.90,499.90,499.90,499.90,499.90,499.90,499.90,499.90,499.90,499.89,499.88,499.89,499.90,499.90,499.90,499.90,499.90,499.90,499.91,500.02,500.18,500.34,500.50,500.82,501.09,501.30,501.48,501.69,501.86,502.02,502.17,502.33,502.49,502.69,502.89,503.03,503.13,503.27,503.40,503.49,503.59,503.74,503.93,504.13,504.27,504.26,504.26,504.45,504.96,505.15,505.28,505.43,505.56,505.68,505.76,505.90,506.07,506.23,506.40,506.56,506.72,506.88,507.03,507.20,507.39,507.60,507.75,507.90,508.02,508.13,508.27,508.42,508.53,508.62,508.73,508.88,509.03,509.14,509.22,509.32,509.47,509.68,509.88,510.00,510.02,510.04,510.17,510.42,510.75,511.32,511.89,512.45,513.08,513.81,514.69,515.58,516.38,517.15,517.98,518.66,519.08,519.22,519.47,519.77,520.27,521.06,521.65,521.98,522.23,522.46,522.71,523.20,523.90,524.80,525.88,527.02,528.17,529.34,530.56,531.68,532.23,532.81,533.65,534.81,535.97,537.10,538.22,539.31,540.36,541.51,542.69,543.84,544.84,545.88,547.46,549.55,552.00,554.56,557.09,559.67,562.32,564.82,567.36,569.94,572.55,575.10,577.65,580.38,583.34,586.50,589.55,592.70,595.90,599.17,602.61,606.28,610.20,614.27,618.54,623.55,629.34,636.00,643.74,652.34,660.17,666.32,671.14
498.99,498.95,498.94,498.94,498.94,498.94,498.91,498.90,498.88,498.85,498.85,498.81,498.80,498.80,498.80,498.80,498.80,498.80,498.80,498.80,498.80,498.80,498.80,498.80,498.80,498.80,498.80,498.80,498.80,498.80,498.80,498.80,498.80,498.80,498.80,498.80,498.80,498.80,498.80,498.80,498.80,498.80,498.80,498.80,498.81,498.84,498.85,498.85,498.86,498.89,498.90,498.90,498.90,498.92,498.99,499.07,499.15,499.22,499.30,499.38,499.46,499.53,499.61,499.69,499.73,499.77,499.80,499.80,499.80,499.80,499.81,499.84,499.85,499.85,499.87,499.90,499.90,499.90,499.90,499.90,499.90,499.90,499.90,499.90,499.90,499.90,499.90,499.90,499.90,499.90,499.90,499.90,499.90,499.90,499.90,499.90,499.90,499.90,499.90,499.90,499.90,499.90,499.90,499.90,499.90,499.90,499.90,499.91,500.02,500.18,500.36,500.60,501.02,501.33,501.53,501.67,501.88,502.06,502.21,502.37,502.52,502.68,502.85,503.05,503.23,503.32,503.45,503.56,503.60,503.68,503.76,503.90,504.09,504.23,504.28,504.32,504.51,504.97,505.16,505.31,505.47,505.62,505.77,505.87,506.01,506.19,506.35,506.50,506.65,506.80,506.96,507.12,507.27,507.46,507.67,507.84,508.02,508.14,508.25,508.40,508.55,508.65,508.73,508.81,508.93,509.08,509.19,509.26,509.35,509.46,509.61,509.74,509.80,509.81,509.83,509.93,510.09,510.29,510.79,511.38,512.02,512.84,513.71,514.67,515.63,516.50,517.31,518.04,518.53,518.82,519.05,519.35,519.63,520.04,520.62,520.97,521.16,521.39,521.72,522.14,522.76,523.48,524.32,525.31,526.45,527.58,528.72,529.82,530.68,531.11,531.75,532.73,533.88,535.04,536.23,537.42,538.59,539.68,540.75,541.80,542.80,543.70,545.04,546.89,549.07,551.43,554.02,556.57,559.14,561.81,564.48,567.34,570.55,573.80,576.36,578.91,581.63,584.58,587.69,590.55,593.33,596.13,599.08,602.50,606.36,610.40,614.42,618.38,623.01,629.52,636.71,643.98,651.84,658.68,664.59,669.84
499.01,499.01,499.00,499.00,499.00,498.99,498.93,498.91,498.90,498.90,498.89,498.84,498.81,498.81,498.81,498.81,498.81,498.81,498.81,498.81,498.81,498.81,498.81,498.81,498.81,498.81,498.81,498.81,498.81,498.81,498.81,498.81,498.81,498.81,498.81,498.81,498.81,498.81,498.81,498.81,498.81,498.81,498.81,498.81,498.83,498.89,498.90,498.90,498.90,498.90,498.90,498.90,498.90,498.92,498.99,499.07,499.15,499.22,499.30,499.38,499.46,499.53,499.61,499.69,499.76,499.80,499.80,499.81,499.81,499.81,499.84,499.89,499.90,499.90,499.90,499.90,499.90,499.90,499.90,499.90,499.90,499.90,499.90,499.90,499.90,499.90,499.90,499.90,499.90,499.90,499.90,499.90,499.90,499.90,499.90,499.90,499.90,499.90,499.90,499.90,499.90,499.90,499.90,499.90,499.90,499.90,499.90,499.91,500.02,500.19,500.39,500.74,501.24,501.58,501.76,501.86,502.07,502.24,502.41,502.56,502.72,502.87,503.02,503.20,503.42,503.50,503.63,503.73,503.75,503.81,503.83,503.90,504.05,504.19,504.33,504.40,504.57,504.97,505.16,505.31,505.47,505.62,505.76,505.88,506.04,506.26,506.42,506.58,506.72,506.87,507.02,507.18,507.34,507.53,507.75,507.92,508.13,508.26,508.38,508.53,508.68,508.79,508.87,508.95,509.02,509.15,509.25,509.34,509.41,509.49,509.56,509.63,509.70,509.70,509.76,509.83,509.89,509.95,510.36,510.96,511.74,512.74,513.74,514.75,515.72,516.63,517.45,518.03,518.36,518.58,518.94,519.24,519.50,519.78,520.10,520.21,520.35,520.62,521.05,521.67,522.35,523.09,523.89,524.76,525.86,526.97,528.07,529.08,529.70,530.02,530.74,531.85,533.02,534.19,535.40,536.63,537.83,538.91,539.84,540.73,541.62,542.59,544.33,546.39,548.56,550.83,553.41,555.93,558.48,561.13,564.00,567.26,571.14,575.08,577.82,580.33,582.98,585.84,588.81,591.49,593.96,596.42,599.14,602.58,606.59,610.61,614.40,617.91,622.00,629.17,637.05,644.14,651.10,657.03,662.69,668.28
499.07,499.07,499.02,499.00,499.00,499.00,498.98,498.93,498.90,498.90,498.90,498.88,498.88,498.88,498.88,498.88,498.88,498.88,498.88,498.88,498.88,498.88,498.88,498.88,498.88,498.88,498.88,498.88,498.88,498.88,498.88,498.88,498.88,498.88,498.88,498.88,498.88,498.88,498.88,498.88,498.88,498.88,498.88,498.88,498.88,498.90,498.90,498.90,498.90,498.90,498.90,498.90,498.90,498.92,498.99,499.07,499.15,499.22,499.30,499.38,499.46,499.53,499.61,499.69,499.76,499.80,499.81,499.87,499.88,499.88,499.88,499.90,499.90,499.90,499.90,499.90,499.90,499.90,499.90,499.90,499.90,499.90,499.90,499.90,499.90,499.90,499.90,499.90,499.90,499.90,499.90,499.90,499.90,499.90,499.90,499.90,499.90,499.90,499.90,499.90,499.90,499.90,499.90,499.90,499.90,499.90,499.90,499.91,500.02,500.21,500.49,500.97,501.45,501.78,501.96,502.05,502.21,502.41,502.60,502.76,502.91,503.06,503.22,503.39,503.60,503.65,503.76,503.88,503.93,503.95,503.95,504.00,504.10,504.19,504.29,504.43,504.67,504.98,505.16,505.31,505.47,505.61,505.72,505.89,506.11,506.34,506.54,506.70,506.82,506.94,507.09,507.25,507.45,507.64,507.82,508.03,508.21,508.36,508.50,508.66,508.81,508.95,509.06,509.13,509.15,509.24,509.32,509.40,509.48,509.55,509.59,509.63,509.69,509.70,509.76,509.81,509.84,509.91,510.12,510.81,511.79,512.80,513.81,514.81,515.81,516.74,517.47,517.91,518.19,518.43,518.75,519.01,519.24,519.47,519.65,519.75,519.88,520.15,520.60,521.27,521.96,522.70,523.46,524.24,525.24,526.35,527.40,528.23,528.69,529.06,529.88,531.08,532.30,533.51,534.75,535.96,537.11,538.14,538.91,539.60,540.45,541.89,543.78,545.84,547.95,550.13,552.70,555.26,557.81,560.49,563.68,567.52,571.80,576.10,579.63,581.95,584.40,586.99,589.48,592.14,594.61,596.99,599.61,603.12,607.08,610.66,613.87,617.07,621.10,628.83,637.34,644.75,651.69,657.78,663.09,668.28
499.10,499.09,499.06,499.04,499.03,499.00,499.00,498.97,498.94,498.94,498.91,498.90,498.90,498.90,498.90,498.90,498.90,498.90,498.90,498.90,498.90,498.90,498.90,498.90,498.90,498.90,498.90,498.90,498.90,498.90,498.90,498.90,498.90,498.90,498.90,498.90,498.90,498.90,498.90,498.90,498.90,498.90,498.90,498.90,498.90,498.90,498.90,498.90,498.90,498.90,498.90,498.90,498.90,498.92,498.99,499.07,499.15,499.22,499.30,499.38,499.46,499.53,499.61,499.69,499.76,499.82,499.85,499.89,499.90,499.90,499.90,499.90,499.90,499.90,499.90,499.90,499.90,499.90,499.90,499.90,499.90,499.90,499.90,499.90,499.90,499.90,499.90,499.90,499.90,499.90,499.90,499.90,499.90,499.90,499.90,499.90,499.90,499.90,499.90,499.90,499.90,499.90,499.90,499.90,499.90,499.90,499.90,499.91,500.02,500.29,500.68,501.19,501.65,501.97,502.16,502.28,502.43,502.62,502.80,502.95,503.10,503.26,503.41,503.58,503.76,503.82,503.91,504.01,504.08,504.09,504.11,504.15,504.19,504.24,504.31,504.49,504.73,504.99,505.16,505.31,505.47,505.62,505.77,505.98,506.21,506.44,506.63,506.79,506.92,507.04,507.20,507.35,507.54,507.74,507.93,508.12,508.31,508.48,508.63,508.79,508.94,509.10,509.22,509.28,509.32,509.36,509.43,509.50,509.57,509.63,509.66,509.71,509.78,509.78,509.82,509.85,509.85,509.93,510.30,511.12,512.14,513.12,514.12,515.10,516.05,516.87,517.38,517.71,517.96,518.20,518.48,518.72,518.95,519.16,519.33,519.41,519.56,519.81,520.23,520.88,521.57,522.32,523.06,523.79,524.67,525.74,526.67,527.34,527.87,528.48,529.43,530.62,531.75,532.87,534.06,535.26,536.38,537.27,537.98,538.70,539.69,541.29,543.27,545.25,547.18,549.16,551.41,553.96,556.67,559.64,563.30,567.66,572.18,576.57,580.34,582.69,585.08,587.44,589.57,592.20,594.85,597.47,600.34,604.00,607.93,611.55,614.83,618.11,622.71,630.17,638.67,646.62,652.77,658.12,663.03,668.24
499.11,499.11,499.10,499.10,499.07,499.01,499.01,499.00,499.00,498.98,498.92,498.90,498.90,498.90,498.91,498.91,498.91,498.91,498.91,498.91,498.91,498.91,498.91,498.91,498.91,498.91,498.91,498.91,498.91,498.91,498.91,498.91,498.91,498.91,498.91,498.91,498.91,498.91,498.91,498.91,498.91,498.91,498.91,498.91,498.91,498.91,498.91,498.91,498.91,498.91,498.91,498.91,498.91,498.93,498.99,499.07,499.15,499.22,499.30,499.38,499.46,499.53,499.61,499.69,499.76,499.84,499.89,499.90,499.90,499.90,499.90,499.90,499.90,499.90,499.90,499.90,499.90,499.90,499.90,499.90,499.90,499.90,499.90,499.90,499.90,499.90,499.90,499.90,499.90,499.90,499.90,499.90,499.90,499.90,499.90,499.90,499.90,499.90,499.90,499.90,499.90,499.90,499.90,499.90,499.90,499.90,499.90,499.91,500.05,500.40,500.92,501.38,501.86,502.18,502.38,502.52,502.68,502.83,502.99,503.14,503.30,503.45,503.61,503.76,503.91,503.99,504.07,504.15,504.21,504.22,504.27,504.31,504.31,504.33,504.39,504.55,504.77,505.00,505.16,505.31,505.47,505.65,505.87,506.10,506.33,506.54,506.70,506.86,507.01,507.16,507.32,507.47,507.63,507.82,508.03,508.20,508.42,508.60,508.75,508.92,509.07,509.23,509.35,509.43,509.49,509.51,509.55,509.62,509.69,509.71,509.77,509.85,509.94,509.97,509.99,510.00,510.01,510.12,510.77,511.70,512.68,513.63,514.62,515.52,516.33,516.96,517.23,517.47,517.70,517.93,518.17,518.40,518.63,518.86,519.06,519.15,519.30,519.54,519.91,520.50,521.17,521.92,522.67,523.37,524.14,525.13,525.97,526.53,527.25,528.17,529.23,530.34,531.34,532.30,533.41,534.59,535.68,536.47,537.21,538.10,539.26,540.81,542.81,544.68,546.40,548.13,550.00,552.50,555.40,558.67,562.69,567.46,572.17,576.51,580.30,582.88,585.32,587.55,589.44,592.03,594.89,597.88,601.12,604.94,608.85,612.75,616.56,620.47,625.92,632.60,640.47,648.69,653.73,657.98,662.51,667.89
499.18,499.17,499.12,499.10,499.09,499.07,499.07,499.03,499.00,499.00,498.97,498.92,498.90,498.91,498.97,498.97,498.97,498.97,498.97,498.97,498.97,498.97,498.97,498.97,498.97,498.97,498.97,498.97,498.97,498.97,498.97,498.97,498.97,498.97,498.97,498.97,498.97,498.97,498.97,498.97,498.97,498.97,498.97,498.97,498.97,498.97,498.97,498.97,498.97,498.97,498.97,498.97,498.97,498.98,499.00,499.07,499.15,499.22,499.30,499.38,499.46,499.53,499.61,499.69,499.76,499.84,499.90,499.90,499.90,499.90,499.90,499.90,499.90,499.90,499.90,499.90,499.90,499.90,499.90,499.90,499.90,499.90,499.90,499.90,499.90,499.90,499.90,499.90,499.90,499.90,499.90,499.90,499.90,499.90,499.90,499.90,499.90,499.90,499.90,499.90,499.90,499.90,499.90,499.90,499.90,499.90,499.90,499.91,500.16,500.59,501.12,501.58,502.10,502.43,502.62,502.72,502.88,503.03,503.18,503.34,503.49,503.65,503.80,503.96,504.09,504.14,504.23,504.32,504.34,504.35,504.41,504.45,504.46,504.50,504.53,504.62,504.77,505.00,505.16,505.31,505.49,505.71,505.94,506.17,506.40,506.62,506.76,506.92,507.08,507.23,507.38,507.54,507.69,507.89,508.11,508.26,508.48,508.67,508.84,509.04,509.20,509.36,509.47,509.55,509.63,509.65,509.66,509.69,509.76,509.83,509.90,510.03,510.27,510.43,510.51,510.55,510.62,510.96,511.54,512.40,513.40,514.37,515.32,515.98,516.45,516.80,516.99,517.21,517.44,517.67,517.90,518.13,518.37,518.58,518.75,518.89,519.08,519.34,519.66,520.09,520.73,521.47,522.22,522.92,523.68,524.56,525.42,526.24,527.15,528.14,529.14,530.12,531.07,532.05,533.05,534.10,535.18,536.17,537.14,538.16,539.31,540.71,542.46,544.21,545.92,547.63,549.41,551.84,554.60,557.62,561.27,566.24,571.08,575.48,579.65,582.81,585.52,587.83,589.75,592.23,595.11,598.20,601.53,605.32,609.19,613.26,617.95,623.87,630.00,635.69,641.89,648.61,653.20,657.02,661.27,666.46
499.20,499.19,499.15,499.12,499.10,499.10,499.10,499.06,499.02,499.00,499.00,498.96,498.94,498.95,499.00,499.00,499.00,499.00,499.00,499.00,499.00,499.00,499.00,499.00,499.00,499.00,499.00,499.00,499.00,499.00,499.00,499.00,499.00,499.00,499.00,499.00,499.00,499.00,499.00,499.00,499.00,499.00,499.00,499.00,499.00,499.00,499.00,499.00,499.00,499.00,499.00,499.00,499.01,499.03,499.04,499.08,499.15,499.22,499.30,499.38,499.46,499.53,499.61,499.69,499.76,499.84,499.91,499.93,499.94,499.95,499.97,499.97,499.97,499.97,499.96,499.94,499.94,499.94,499.94,499.94,499.94,499.94,499.92,499.90,499.90,499.90,499.90,499.90,499.90,499.90,499.90,499.90,499.90,499.90,499.90,499.90,499.90,499.90,499.90,499.90,499.90,499.90,499.90,499.90,499.90,499.90,499.90,499.92,500.30,500.81,501.31,501.78,502.31,502.66,502.84,502.92,503.07,503.22,503.38,503.53,503.69,503.84,504.00,504.15,504.29,504.31,504.40,504.47,504.48,504.50,504.55,504.57,504.58,504.63,504.66,504.70,504.81,505.00,505.16,505.34,505.55,505.81,506.04,506.27,506.49,506.68,506.83,506.99,507.14,507.29,507.45,507.61,507.78,507.97,508.17,508.36,508.56,508.75,508.94,509.14,509.32,509.49,509.61,509.69,509.75,509.77,509.77,509.78,509.84,509.94,510.10,510.34,510.68,510.99,511.12,511.23,511.44,511.90,512.40,513.17,514.09,514.98,515.68,516.11,516.38,516.58,516.76,516.99,517.20,517.41,517.64,517.88,518.09,518.29,518.47,518.65,518.87,519.14,519.45,519.78,520.34,521.04,521.78,522.55,523.39,524.26,525.16,526.10,527.07,528.07,529.03,529.96,530.89,531.88,532.88,533.88,534.94,536.02,537.13,538.23,539.39,540.75,542.36,544.05,545.74,547.42,549.13,551.50,554.18,556.95,559.89,564.33,569.07,573.70,578.20,581.95,585.14,587.99,590.63,593.26,596.08,599.27,602.93,606.92,610.68,614.59,619.68,626.98,632.52,637.25,642.32,647.88,652.08,655.67,659.64,664.53
499.21,499.20,499.19,499.15,499.11,499.11,499.10,499.10,499.06,499.01,499.00,499.00,498.99,499.00,499.00,499.00,499.00,499.00,499.00,499.00,499.00,499.00,499.00,499.00,499.00,499.00,499.00,499.01,499.01,499.01,499.01,499.01,499.01,499.01,499.01,499.01,499.01,499.01,499.01,499.01,499.01,499.01,499.01,499.01,499.01,499.01,499.01,499.01,499.01,499.01,499.01,499.01,499.04,499.09,499.10,499.11,499.15,499.22,499.30,499.38,499.46,499.53,499.61,499.69,499.76,499.84,499.92,499.98,500.00,500.05,500.10,500.10,500.11,500.11,500.08,500.03,500.02,500.02,500.02,500.01,500.01,500.01,499.98,499.94,499.94,499.95,499.96,499.96,499.95,499.94,499.94,499.93,499.93,499.93,499.94,499.96,499.96,499.96,499.96,499.96,499.96,499.96,499.95,499.94,499.94,499.93,499.93,499.95,500.46,501.02,501.51,501.98,502.51,502.86,503.04,503.13,503.26,503.42,503.57,503.73,503.88,504.04,504.19,504.35,504.48,504.50,504.55,504.60,504.61,504.68,504.70,504.70,504.70,504.72,504.77,504.80,504.86,505.01,505.17,505.38,505.64,505.93,506.16,506.39,506.58,506.74,506.90,507.05,507.20,507.36,507.51,507.67,507.88,508.07,508.25,508.47,508.64,508.85,509.04,509.22,509.44,509.61,509.74,509.83,509.90,509.91,509.92,509.93,509.98,510.14,510.44,510.81,511.19,511.61,511.78,511.99,512.36,512.82,513.29,513.94,514.69,515.38,515.71,515.97,516.18,516.36,516.60,516.82,517.03,517.22,517.45,517.68,517.87,518.06,518.28,518.50,518.72,518.98,519.28,519.60,520.03,520.65,521.41,522.27,523.23,524.18,525.10,526.03,526.97,527.95,528.91,529.84,530.77,531.77,532.82,533.86,534.89,535.96,537.09,538.23,539.44,540.83,542.42,544.08,545.76,547.39,549.03,551.35,553.98,556.53,558.70,562.04,566.45,571.46,576.23,580.62,584.41,588.07,591.83,594.94,597.78,601.13,605.23,609.62,613.30,616.91,621.96,629.66,633.83,637.72,642.15,646.89,650.64,654.15,657.91,662.52
499.25,499.21,499.20,499.18,499.17,499.16,499.11,499.10,499.09,499.05,499.01,499.00,499.00,499.00,499.00,499.00,499.00,499.00,499.00,499.00,499.00,499.00,499.00,499.00,499.00,499.00,499.02,499.06,499.06,499.06,499.06,499.06,499.06,499.06,499.06,499.06,499.06,499.06,499.06,499.06,499.06,499.06,499.06,499.06,499.06,499.06,499.06,499.06,499.06,499.06,499.06,499.06,499.08,499.11,499.16,499.17,499.18,499.22,499.30,499.38,499.46,499.53,499.61,499.69,499.76,499.84,499.92,500.00,500.05,500.12,500.18,500.23,500.28,500.30,500.28,500.26,500.26,500.26,500.24,500.20,500.20,500.20,500.21,500.23,500.24,500.28,500.34,500.34,500.28,500.23,500.18,500.13,500.10,500.12,500.26,500.34,500.36,500.36,500.36,500.36,500.36,500.35,500.30,500.24,500.19,500.14,500.11,500.17,500.56,501.12,501.71,502.23,502.72,503.08,503.28,503.37,503.47,503.61,503.77,503.92,504.08,504.23,504.39,504.52,504.63,504.68,504.72,504.73,504.75,504.81,504.83,504.83,504.83,504.84,504.86,504.87,504.92,505.08,505.28,505.50,505.75,506.00,506.23,506.46,506.65,506.80,506.96,507.12,507.27,507.42,507.58,507.74,507.95,508.15,508.32,508.54,508.75,508.94,509.13,509.34,509.52,509.68,509.87,510.06,510.09,510.10,510.13,510.22,510.45,510.87,511.24,511.58,511.92,512.27,512.46,512.66,512.99,513.45,513.96,514.48,514.96,515.35,515.61,515.84,516.06,516.29,516.61,516.86,517.11,517.36,517.59,517.82,518.04,518.25,518.47,518.66,518.84,519.03,519.25,519.51,519.82,520.45,521.31,522.22,523.17,524.14,525.10,526.02,526.95,527.90,528.84,529.76,530.70,531.74,532.78,533.82,534.87,535.90,536.99,538.13,539.32,540.68,542.30,543.95,545.61,547.27,548.90,551.10,553.49,555.80,557.96,560.29,564.18,569.41,574.70,579.92,584.29,588.36,592.66,596.65,600.29,604.00,608.07,612.72,616.82,620.90,625.72,631.75,635.63,639.26,642.84,646.25,649.40,653.05,657.08,661.87
499.29,499.24,499.21,499.20,499.20,499.19,499.14,499.11,499.10,499.09,499.04,499.03,499.03,499.03,499.03,499.03,499.03,499.03,499.03,499.03,499.03,499.03,499.03,499.03,499.03,499.03,499.05,499.10,499.10,499.10,499.10,499.10,499.10,499.10,499.10,499.10,499.10,499.10,499.10,499.10,499.10,499.10,499.10,499.10,499.10,499.10,499.10,499.10,499.10,499.10,499.10,499.12,499.13,499.14,499.19,499.22,499.23,499.25,499.33,499.40,499.49,499.56,499.64,499.72,499.79,499.87,499.95,500.02,500.11,500.18,500.25,500.34,500.41,500.45,500.47,500.49,500.49,500.49,500.46,500.43,500.45,500.48,500.54,500.59,500.60,500.67,500.75,500.77,500.73,500.65,500.57,500.53,500.51,500.56,500.73,500.83,500.88,500.88,500.90,500.90,500.92,500.92,500.84,500.78,500.72,500.64,500.61,500.69,500.93,501.38,501.96,502.42,502.91,503.29,503.52,503.60,503.70,503.82,503.96,504.12,504.27,504.43,504.58,504.71,504.79,504.84,504.86,504.86,504.87,504.92,504.93,504.93,504.93,504.93,504.93,504.94,505.00,505.15,505.37,505.60,505.84,506.07,506.32,506.54,506.72,506.87,507.02,507.18,507.35,507.52,507.68,507.83,508.03,508.22,508.40,508.61,508.84,509.02,509.20,509.40,509.56,509.73,510.04,510.42,510.44,510.49,510.59,510.78,511.15,511.73,512.18,512.51,512.76,513.06,513.20,513.31,513.49,513.87,514.36,514.78,515.10,515.33,515.57,515.83,516.12,516.40,516.74,517.01,517.29,517.59,517.84,518.08,518.31,518.53,518.73,518.89,519.02,519.17,519.33,519.54,519.77,520.39,521.28,522.22,523.14,524.11,525.07,525.99,526.92,527.87,528.80,529.73,530.67,531.73,532.76,533.79,534.86,535.88,536.92,538.01,539.18,540.50,542.10,543.77,545.47,547.21,548.93,550.90,553.02,555.19,557.33,559.08,562.43,567.60,573.71,579.57,584.26,588.54,593.17,597.89,602.26,606.39,610.69,615.97,620.31,624.65,629.17,633.58,637.21,641.27,644.89,647.62,650.61,654.43,658.47,662.87
499.30,499.28,499.23,499.20,499.20,499.20,499.19,499.14,499.10,499.10,499.09,499.09,499.09,499.09,499.09,499.09,499.09,499.09,499.09,499.09,499.09,499.09,499.09,499.09,499.09,499.09,499.09,499.10,499.11,499.11,499.11,499.11,499.11,499.11,499.11,499.11,499.11,499.11,499.11,499.11,499.11,499.11,499.11,499.11,499.11,499.11,499.11,499.11,499.11,499.11,499.11,499.16,499.19,499.20,499.21,499.27,499.29,499.31,499.39,499.47,499.54,499.62,499.70,499.78,499.85,499.93,500.01,500.09,500.16,500.24,500.32,500.39,500.47,500.54,500.61,500.67,500.68,500.69,500.68,500.70,500.77,500.84,500.92,500.96,500.98,501.05,501.13,501.20,501.23,501.17,501.10,501.11,501.17,501.25,501.34,501.41,501.45,501.47,501.53,501.55,501.59,501.62,501.56,501.54,501.49,501.44,501.45,501.52,501.62,501.88,502.27,502.62,503.11,503.49,503.71,503.80,503.94,504.04,504.16,504.30,504.46,504.60,504.75,504.89,504.96,504.98,504.98,504.98,504.98,504.99,505.00,505.00,505.00,505.00,505.00,505.05,505.13,505.24,505.45,505.68,505.90,506.15,506.44,506.63,506.78,506.94,507.10,507.25,507.45,507.64,507.80,507.95,508.12,508.31,508.52,508.69,508.90,509.09,509.24,509.40,509.56,509.76,510.24,510.87,510.96,511.10,511.33,511.64,512.05,512.63,513.18,513.53,513.67,513.94,513.97,513.92,513.92,514.11,514.51,514.88,515.17,515.42,515.66,516.00,516.36,516.70,516.96,517.25,517.55,517.86,518.15,518.40,518.63,518.84,519.00,519.15,519.25,519.37,519.52,519.70,519.94,520.51,521.33,522.24,523.15,524.08,525.01,525.94,526.87,527.85,528.80,529.73,530.67,531.73,532.76,533.79,534.86,535.88,536.89,537.93,539.05,540.32,541.90,543.63,545.42,547.27,549.15,550.86,552.69,554.79,556.79,558.39,561.25,566.11,573.31,579.50,584.24,588.53,593.31,598.55,603.47,608.13,613.01,619.13,623.44,627.75,632.01,635.40,638.88,643.95,648.46,651.32,654.62,658.64,662.30,665.72
499.30,499.30,499.27,499.23,499.20,499.20,499.20,499.18,499.14,499.10,499.10,499.10,499.10,499.10,499.10,499.10,499.10,499.10,499.10,499.10,499.10,499.10,499.10,499.10,499.10,499.10,499.10,499.11,499.15,499.16,499.16,499.16,499.16,499.16,499.16,499.16,499.16,499.16,499.16,499.16,499.16,499.16,499.16,499.16,499.16,499.16,499.16,499.16,499.16,499.16,499.16,499.22,499.26,499.26,499.26,499.33,499.36,499.37,499.41,499.48,499.56,499.63,499.71,499.79,499.86,499.94,500.02,500.10,500.17,500.25,500.33,500.40,500.48,500.56,500.64,500.72,500.80,500.86,500.91,500.96,501.04,501.12,501.19,501.26,501.31,501.39,501.46,501.54,501.62,501.67,501.65,501.69,501.77,501.85,501.92,501.97,502.00,502.06,502.13,502.14,502.18,502.25,502.26,502.26,502.24,502.24,502.28,502.32,502.38,502.55,502.82,503.17,503.49,503.74,503.92,504.04,504.15,504.24,504.33,504.44,504.55,504.66,504.76,504.88,504.98,505.00,505.00,505.02,505.06,505.06,505.10,505.12,505.12,505.12,505.16,505.23,505.32,505.45,505.63,505.82,506.02,506.26,506.52,506.69,506.85,507.01,507.21,507.37,507.54,507.72,507.88,508.03,508.19,508.38,508.59,508.75,508.93,509.10,509.25,509.40,509.56,509.77,510.23,510.93,511.41,511.81,512.15,512.50,512.95,513.54,514.07,514.41,514.50,514.61,514.62,514.56,514.50,514.53,514.69,514.95,515.28,515.64,515.98,516.34,516.69,516.97,517.21,517.50,517.79,518.07,518.42,518.71,518.96,519.16,519.31,519.47,519.56,519.65,519.78,520.00,520.46,521.04,521.71,522.46,523.24,524.13,525.06,525.98,526.91,527.86,528.80,529.74,530.72,531.75,532.79,533.84,534.87,535.88,536.91,537.96,539.02,540.26,542.03,543.94,545.86,547.75,549.60,551.22,552.85,554.60,556.32,557.91,560.57,565.28,573.15,579.37,584.00,588.13,592.86,598.74,604.57,610.10,615.44,620.94,625.22,630.00,634.90,638.91,644.02,649.23,653.40,656.20,659.31,663.68,667.23,670.43
499.32,499.30,499.30,499.26,499.22,499.20,499.20,499.20,499.17,499.13,499.13,499.13,499.13,499.13,499.13,499.13,499.13,499.13,499.13,499.13,499.13,499.13,499.13,499.13,499.13,499.13,499.13,499.14,499.19,499.20,499.20,499.20,499.20,499.20,499.20,499.20,499.20,499.20,499.20,499.20,499.20,499.20,499.20,499.20,499.20,499.20,499.20,499.20,499.20,499.22,499.22,499.27,499.31,499.32,499.33,499.38,499.41,499.43,499.43,499.49,499.56,499.63,499.71,499.79,499.86,499.94,500.02,500.10,500.17,500.25,500.33,500.40,500.48,500.56,500.65,500.75,500.88,500.97,501.04,501.12,501.20,501.29,501.38,501.45,501.53,501.61,501.69,501.76,501.86,501.98,502.02,502.08,502.15,502.23,502.30,502.34,502.38,502.47,502.56,502.59,502.65,502.72,502.79,502.82,502.84,502.88,502.95,502.97,503.03,503.14,503.32,503.63,503.80,503.94,504.07,504.20,504.28,504.36,504.44,504.51,504.59,504.68,504.77,504.86,504.98,505.00,505.01,505.05,505.12,505.15,505.20,505.24,505.25,505.26,505.32,505.41,505.53,505.68,505.84,505.99,506.17,506.38,506.59,506.76,506.92,507.11,507.31,507.48,507.63,507.78,507.94,508.10,508.25,508.43,508.63,508.79,508.94,509.10,509.25,509.40,509.56,509.77,510.20,510.88,511.59,512.18,512.63,513.03,513.54,514.13,514.64,514.97,515.06,515.07,515.07,515.06,515.05,515.03,515.00,515.16,515.49,515.93,516.32,516.69,517.00,517.23,517.47,517.76,518.02,518.30,518.66,518.99,519.26,519.48,519.63,519.75,519.84,519.94,520.10,520.38,520.96,521.59,522.20,522.84,523.51,524.30,525.16,526.07,526.98,527.90,528.83,529.77,530.78,531.78,532.83,533.89,534.89,535.90,536.97,538.00,539.05,540.31,542.20,544.23,546.22,548.16,549.97,551.58,553.15,554.77,556.38,557.93,560.58,565.27,573.03,579.15,583.69,587.72,592.39,598.73,605.17,611.25,616.86,622.05,626.99,632.75,638.65,643.60,649.72,654.66,658.26,660.84,663.64,667.76,670.98,673.91
499.37,499.31,499.30,499.29,499.26,499.21,499.20,499.20,499.19,499.19,499.19,499.19,499.19,499.19,499.19,499.19,499.19,499.19,499.19,499.19,499.19,499.19,499.19,499.19,499.19,499.19,499.19,499.19,499.20,499.20,499.20,499.20,499.20,499.20,499.20,499.20,499.20,499.20,499.20,499.20,499.20,499.20,499.20,499.20,499.20,499.20,499.20,499.20,499.23,499.28,499.29,499.30,499.33,499.38,499.39,499.40,499.44,499.49,499.49,499.50,499.56,499.63,499.71,499.79,499.86,499.94,500.02,500.10,500.17,500.25,500.33,500.40,500.48,500.56,500.67,500.80,500.89,500.97,501.05,501.13,501.21,501.35,501.44,501.52,501.60,501.68,501.75,501.83,501.91,502.00,502.07,502.14,502.22,502.29,502.37,502.44,502.51,502.60,502.74,502.82,502.89,502.97,503.04,503.12,503.18,503.25,503.33,503.40,503.47,503.56,503.67,503.84,503.94,504.03,504.12,504.20,504.28,504.36,504.44,504.51,504.60,504.73,504.83,504.91,504.99,505.00,505.04,505.12,505.19,505.26,505.29,505.33,505.38,505.39,505.45,505.56,505.71,505.87,506.02,506.18,506.34,506.50,506.67,506.82,507.02,507.22,507.38,507.54,507.69,507.85,508.00,508.16,508.31,508.47,508.64,508.79,508.94,509.10,509.25,509.40,509.56,509.77,510.17,510.78,511.37,511.96,512.52,513.06,513.64,514.20,514.70,515.07,515.24,515.27,515.27,515.34,515.47,515.58,515.55,515.63,515.87,516.26,516.65,516.98,517.26,517.49,517.73,518.02,518.28,518.54,518.87,519.23,519.55,519.80,519.93,519.96,520.03,520.21,520.50,520.81,521.33,522.00,522.72,523.40,524.04,524.64,525.35,526.20,527.06,527.97,528.89,529.84,530.85,531.85,532.90,533.96,534.96,535.97,537.03,538.08,539.15,540.48,542.32,544.30,546.32,548.35,550.16,551.79,553.53,555.49,557.25,558.77,561.67,566.44,572.99,578.89,583.42,587.45,592.14,598.58,605.05,611.03,616.60,622.47,629.19,636.50,643.53,649.26,654.78,659.13,662.28,664.45,666.95,669.78,672.24,674.55
499.39,499.36,499.31,499.30,499.29,499.25,499.21,499.20,499.20,499.20,499.20,499.20,499.20,499.20,499.20,499.20,499.20,499.20,499.20,499.20,499.20,499.20,499.20,499.20,499.20,499.20,499.20,499.20,499.20,499.24,499.25,499.25,499.25,499.25,499.25,499.25,499.25,499.25,499.25,499.25,499.25,499.25,499.25,499.25,499.25,499.25,499.25,499.25,499.26,499.31,499.34,499.36,499.37,499.41,499.45,499.45,499.50,499.56,499.56,499.56,499.61,499.67,499.71,499.79,499.86,499.94,500.02,500.10,500.17,500.25,500.33,500.40,500.48,500.56,500.67,500.81,500.89,501.00,501.10,501.18,501.26,501.37,501.45,501.53,501.61,501.69,501.76,501.84,501.93,502.04,502.13,502.20,502.28,502.36,502.44,502.51,502.59,502.67,502.78,502.87,502.94,503.02,503.10,503.18,503.25,503.35,503.46,503.54,503.62,503.69,503.78,503.89,503.97,504.05,504.13,504.21,504.32,504.38,504.44,504.51,504.60,504.74,504.84,504.92,504.99,505.00,505.05,505.15,505.26,505.34,505.36,505.40,505.47,505.50,505.54,505.65,505.80,505.96,506.12,506.27,506.42,506.59,506.78,506.94,507.12,507.29,507.45,507.61,507.76,507.92,508.07,508.23,508.38,508.53,508.69,508.84,508.96,509.10,509.25,509.40,509.56,509.77,510.12,510.63,511.21,511.82,512.41,513.01,513.62,514.17,514.69,515.09,515.30,515.44,515.56,515.73,515.91,516.06,516.13,516.19,516.32,516.60,516.97,517.27,517.50,517.71,517.98,518.24,518.51,518.80,519.11,519.45,519.77,520.00,520.11,520.16,520.26,520.49,520.85,521.25,521.69,522.32,523.05,523.77,524.44,525.08,525.76,526.52,527.25,528.10,528.99,529.90,530.90,531.91,532.97,534.02,535.02,536.03,537.13,538.23,539.40,540.86,542.67,544.60,546.56,548.51,550.38,552.23,554.17,556.23,558.20,561.20,565.16,569.72,574.38,579.56,584.03,588.18,592.82,598.74,605.04,610.81,616.05,621.94,630.29,638.01,644.47,649.88,654.90,658.97,661.94,663.92,666.15,668.20,669.91,671.40
499.40,499.39,499.32,499.30,499.30,499.29,499.24,499.22,499.22,499.21,499.20,499.20,499.21,499.22,499.22,499.22,499.22,499.22,499.22,499.22,499.22,499.22,499.22,499.22,499.22,499.22,499.22,499.22,499.22,499.27,499.30,499.30,499.30,499.30,499.30,499.30,499.30,499.30,499.30,499.30,499.30,499.30,499.30,499.30,499.30,499.30,499.30,499.31,499.32,499.33,499.38,499.41,499.42,499.44,499.51,499.52,499.56,499.61,499.62,499.62,499.66,499.70,499.73,499.79,499.86,499.94,500.02,500.10,500.17,500.25,500.33,500.40,500.48,500.57,500.69,500.81,500.91,501.04,501.15,501.22,501.30,501.38,501.47,501.55,501.63,501.70,501.78,501.86,501.95,502.08,502.17,502.25,502.33,502.40,502.48,502.56,502.63,502.71,502.79,502.87,502.94,503.02,503.12,503.19,503.27,503.38,503.50,503.59,503.66,503.74,503.82,503.90,503.98,504.07,504.15,504.23,504.37,504.41,504.45,504.53,504.60,504.74,504.84,504.92,504.99,505.00,505.05,505.16,505.30,505.38,505.41,505.46,505.53,505.61,505.62,505.72,505.87,506.02,506.18,506.34,506.49,506.67,506.89,507.05,507.20,507.36,507.51,507.67,507.83,507.98,508.13,508.29,508.44,508.60,508.75,508.90,508.99,509.11,509.25,509.40,509.56,509.77,510.07,510.50,511.11,511.73,512.35,512.96,513.58,514.14,514.67,515.09,515.32,515.55,515.78,516.02,516.24,516.42,516.59,516.69,516.77,516.96,517.28,517.53,517.73,517.93,518.23,518.48,518.75,519.05,519.35,519.65,519.95,520.17,520.25,520.36,520.51,520.78,521.19,521.66,522.05,522.62,523.33,524.08,524.80,525.50,526.19,526.88,527.52,528.32,529.14,530.00,531.00,532.00,533.04,534.09,535.09,536.13,537.22,538.34,539.57,541.15,542.98,544.89,546.80,548.69,550.65,552.74,554.87,557.01,559.33,563.96,568.80,572.92,576.11,580.58,584.98,589.29,593.88,599.27,605.39,610.94,615.77,621.49,630.80,638.35,643.79,648.54,653.02,656.81,659.71,661.75,663.80,665.34,666.42,667.20
499.40,499.39,499.33,499.30,499.30,499.30,499.29,499.28,499.28,499.27,499.21,499.20,499.24,499.28,499.28,499.28,499.28,499.28,499.28,499.28,499.28,499.28,499.28,499.28,499.28,499.28,499.28,499.28,499.28,499.29,499.30,499.30,499.30,499.30,499.30,499.30,499.30,499.30,499.30,499.30,499.30,499.30,499.30,499.30,499.30,499.30,499.30,499.34,499.38,499.39,499.40,499.45,499.49,499.50,499.57,499.59,499.59,499.62,499.68,499.69,499.69,499.73,499.78,499.80,499.86,499.94,500.02,500.10,500.17,500.25,500.33,500.40,500.48,500.61,500.73,500.83,500.96,501.06,501.15,501.22,501.30,501.38,501.50,501.62,501.69,501.77,501.85,501.93,502.01,502.09,502.17,502.25,502.33,502.40,502.48,502.56,502.64,502.71,502.79,502.87,502.94,503.04,503.18,503.26,503.34,503.42,503.51,503.59,503.66,503.74,503.82,503.90,504.03,504.13,504.21,504.29,504.38,504.45,504.52,504.58,504.61,504.74,504.84,504.92,504.99,505.00,505.05,505.16,505.30,505.38,505.45,505.52,505.60,505.67,505.69,505.78,505.94,506.09,506.25,506.40,506.58,506.79,506.96,507.12,507.27,507.42,507.58,507.74,507.89,508.04,508.20,508.36,508.51,508.66,508.81,508.97,509.05,509.14,509.25,509.40,509.56,509.77,510.07,510.50,511.11,511.73,512.35,512.96,513.58,514.18,514.71,515.09,515.32,515.55,515.78,516.02,516.26,516.54,516.77,516.97,517.18,517.39,517.59,517.76,517.95,518.19,518.49,518.73,519.00,519.30,519.55,519.85,520.12,520.30,520.40,520.59,520.81,521.11,521.53,522.04,522.39,522.94,523.64,524.36,525.11,525.82,526.51,527.21,527.90,528.66,529.41,530.18,531.13,532.13,533.14,534.15,535.17,536.29,537.30,538.30,539.47,541.14,543.07,545.02,546.95,548.89,551.00,553.23,555.51,557.90,560.86,566.49,571.28,574.61,577.75,581.84,586.21,590.68,595.32,600.44,606.50,611.85,616.32,621.81,630.63,637.34,641.81,645.83,649.64,652.95,655.87,658.39,660.41,661.75,662.54,662.93
499.40,499.39,499.36,499.35,499.33,499.30,499.30,499.30,499.30,499.29,499.25,499.25,499.27,499.30,499.30,499.30,499.30,499.30,499.30,499.30,499.30,499.30,499.30,499.30,499.30,499.30,499.30,499.30,499.30,499.33,499.35,499.35,499.35,499.35,499.35,499.35,499.35,499.35,499.35,499.35,499.35,499.35,499.35,499.35,499.35,499.35,499.35,499.40,499.45,499.45,499.45,499.51,499.55,499.56,499.60,499.64,499.65,499.66,499.70,499.74,499.75,499.76,499.81,499.84,499.88,499.94,500.02,500.10,500.17,500.25,500.33,500.41,500.52,500.64,500.75,500.87,500.99,501.10,501.19,501.27,501.35,501.43,501.53,501.63,501.71,501.79,501.86,501.94,502.02,502.10,502.21,502.30,502.38,502.45,502.53,502.61,502.69,502.76,502.84,502.92,503.00,503.08,503.20,503.28,503.35,503.43,503.51,503.59,503.66,503.74,503.83,503.94,504.06,504.15,504.23,504.30,504.38,504.46,504.53,504.60,504.65,504.75,504.84,504.92,504.99,505.00,505.03,505.11,505.26,505.37,505.46,505.56,505.67,505.74,505.75,505.85,506.00,506.15,506.31,506.49,506.69,506.87,507.02,507.18,507.34,507.49,507.65,507.80,507.98,508.14,508.27,508.46,508.62,508.77,508.93,509.08,509.17,509.25,509.34,509.45,509.57,509.77,510.07,510.50,511.11,511.73,512.35,512.96,513.58,514.19,514.74,515.13,515.37,515.60,515.83,516.06,516.31,516.62,516.86,517.09,517.32,517.55,517.75,517.94,518.15,518.39,518.65,518.89,519.15,519.41,519.65,519.95,520.25,520.50,520.67,520.89,521.13,521.44,521.85,522.38,522.79,523.32,523.96,524.66,525.39,526.12,526.84,527.53,528.23,528.93,529.56,530.23,531.16,532.12,533.11,534.12,535.14,536.29,537.41,538.51,539.74,541.47,543.34,545.20,547.05,548.87,550.72,553.13,555.73,558.47,561.89,566.98,571.42,574.86,578.31,582.48,587.06,591.90,597.00,602.13,607.34,612.11,616.56,621.95,629.68,635.32,638.94,642.11,644.96,647.51,649.94,652.20,653.90,655.17,655.89,656.16
499.41,499.40,499.40,499.40,499.38,499.32,499.31,499.31,499.31,499.30,499.30,499.30,499.30,499.30,499.30,499.31,499.31,499.31,499.31,499.31,499.31,499.31,499.31,499.31,499.31,499.31,499.31,499.31,499.31,499.37,499.40,499.40,499.40,499.40,499.40,499.40,499.40,499.40,499.40,499.40,499.40,499.40,499.40,499.40,499.40,499.41,499.42,499.46,499.50,499.51,499.51,499.57,499.61,499.62,499.62,499.67,499.71,499.72,499.73,499.79,499.81,499.81,499.83,499.89,499.90,499.94,500.02,500.10,500.17,500.25,500.33,500.43,500.57,500.67,500.78,500.91,501.01,501.14,501.24,501.32,501.40,501.48,501.55,501.64,501.73,501.80,501.88,501.95,502.03,502.12,502.25,502.35,502.43,502.50,502.58,502.66,502.73,502.81,502.89,502.97,503.04,503.12,503.20,503.28,503.35,503.43,503.51,503.60,503.68,503.75,503.85,503.98,504.07,504.15,504.23,504.30,504.38,504.46,504.53,504.61,504.69,504.77,504.84,504.92,504.99,505.00,505.00,505.05,505.20,505.35,505.46,505.57,505.70,505.79,505.82,505.92,506.06,506.22,506.38,506.59,506.78,506.94,507.09,507.26,507.42,507.57,507.73,507.88,508.08,508.25,508.36,508.57,508.74,508.89,509.04,509.19,509.28,509.36,509.44,509.51,509.60,509.78,510.07,510.50,511.11,511.73,512.35,512.98,513.60,514.21,514.77,515.19,515.42,515.65,515.89,516.13,516.38,516.68,516.93,517.16,517.39,517.62,517.85,518.09,518.33,518.57,518.78,519.01,519.24,519.47,519.71,520.00,520.36,520.71,520.97,521.21,521.43,521.74,522.17,522.71,523.20,523.70,524.28,524.98,525.67,526.42,527.15,527.84,528.51,529.12,529.65,530.25,531.17,532.09,533.05,534.05,535.08,536.23,537.49,538.73,540.03,541.76,543.52,545.30,547.05,548.71,550.20,552.68,555.59,558.68,562.38,566.54,570.54,574.32,578.28,582.77,587.62,592.83,598.40,603.49,607.80,611.95,616.31,621.30,627.57,632.22,635.27,637.63,639.45,641.15,642.88,644.58,645.98,647.30,648.19,648.64
499.46,499.41,499.40,499.40,499.39,499.38,499.38,499.38,499.35,499.30,499.30,499.30,499.30,499.30,499.31,499.36,499.38,499.38,499.38,499.38,499.38,499.38,499.38,499.38,499.38,499.38,499.38,499.38,499.38,499.39,499.40,499.40,499.40,499.40,499.40,499.40,499.40,499.40,499.40,499.40,499.40,499.40,499.40,499.40,499.41,499.47,499.47,499.49,499.52,499.57,499.57,499.59,499.63,499.68,499.68,499.69,499.74,499.77,499.78,499.86,499.88,499.88,499.88,499.90,499.90,499.94,500.02,500.10,500.17,500.25,500.35,500.48,500.58,500.71,500.82,500.92,501.06,501.16,501.25,501.32,501.40,501.48,501.55,501.66,501.78,501.87,501.94,502.02,502.10,502.18,502.27,502.35,502.43,502.50,502.58,502.66,502.74,502.81,502.89,502.97,503.04,503.12,503.20,503.28,503.35,503.43,503.52,503.65,503.74,503.82,503.90,503.99,504.07,504.15,504.23,504.30,504.38,504.46,504.53,504.61,504.69,504.77,504.84,504.92,504.99,505.00,505.00,505.04,505.14,505.29,505.43,505.55,505.65,505.79,505.91,506.01,506.13,506.28,506.44,506.65,506.85,507.00,507.16,507.37,507.54,507.70,507.85,508.01,508.18,508.33,508.48,508.64,508.80,508.95,509.11,509.26,509.35,509.43,509.50,509.58,509.66,509.80,510.07,510.50,511.11,511.73,512.38,513.04,513.66,514.28,514.80,515.19,515.42,515.65,515.93,516.20,516.44,516.75,516.99,517.22,517.45,517.68,517.91,518.19,518.49,518.74,518.87,519.07,519.30,519.54,519.77,520.02,520.40,520.84,521.22,521.47,521.70,522.00,522.44,523.03,523.56,524.06,524.61,525.30,526.00,526.70,527.41,528.09,528.66,529.17,529.69,530.31,531.23,532.11,533.02,533.99,535.02,536.16,537.39,538.65,540.01,541.60,543.29,545.04,546.78,548.35,549.48,551.74,554.74,558.11,561.59,565.22,568.86,572.73,577.45,582.53,587.66,593.03,598.64,603.21,607.25,611.10,614.81,618.32,622.60,626.70,629.98,631.77,632.70,633.59,634.44,635.33,636.84,638.47,640.00,641.34
499.49,499.45,499.44,499.42,499.40,499.40,499.40,499.40,499.38,499.35,499.35,499.35,499.35,499.35,499.35,499.39,499.40,499.40,499.40,499.40,499.40,499.40,499.40,499.40,499.40,499.40,499.40,499.40,499.40,499.40,499.42,499.44,499.44,499.44,499.44,499.44,499.44,499.44,499.44,499.44,499.44,499.44,499.44,499.44,499.45,499.50,499.53,499.54,499.56,499.60,499.64,499.65,499.67,499.71,499.74,499.75,499.79,499.85,499.85,499.89,499.90,499.90,499.90,499.90,499.90,499.94,500.02,500.10,500.17,500.27,500.38,500.50,500.62,500.74,500.85,500.97,501.08,501.17,501.26,501.37,501.44,501.52,501.60,501.69,501.81,501.89,501.96,502.04,502.12,502.19,502.27,502.35,502.43,502.51,502.62,502.70,502.78,502.86,502.94,503.01,503.09,503.17,503.25,503.32,503.40,503.48,503.56,503.67,503.76,503.84,503.92,504.00,504.07,504.15,504.23,504.30,504.38,504.46,504.53,504.61,504.69,504.77,504.84,504.92,504.99,505.00,505.00,505.03,505.12,505.27,505.40,505.51,505.63,505.79,505.94,506.07,506.19,506.36,506.54,506.73,506.91,507.07,507.26,507.46,507.63,507.78,507.94,508.10,508.25,508.40,508.56,508.72,508.89,509.06,509.22,509.37,509.46,509.53,509.60,509.64,509.69,509.81,510.07,510.50,511.11,511.73,512.38,513.07,513.68,514.30,514.82,515.19,515.42,515.69,515.99,516.26,516.51,516.81,517.05,517.28,517.52,517.75,518.01,518.34,518.66,518.93,519.06,519.27,519.48,519.68,519.89,520.17,520.56,521.00,521.44,521.75,522.00,522.31,522.73,523.31,523.86,524.37,524.94,525.63,526.33,526.97,527.60,528.21,528.72,529.18,529.69,530.33,531.25,532.14,533.06,534.00,534.99,536.07,537.29,538.60,539.99,541.54,543.13,544.81,546.48,547.93,548.97,550.81,553.67,557.40,560.98,564.31,567.59,571.29,576.30,581.61,586.50,591.20,596.11,601.40,605.35,608.89,612.27,614.93,617.84,620.74,623.16,624.52,625.31,625.98,626.54,627.09,628.22,629.87,631.60,633.22
499.50,499.50,499.50,499.45,499.41,499.41,499.41,499.40,499.40,499.39,499.39,499.39,499.39,499.39,499.39,499.40,499.40,499.40,499.41,499.41,499.41,499.41,499.41,499.41,499.41,499.41,499.41,499.41,499.41,499.41,499.44,499.50,499.50,499.50,499.50,499.50,499.50,499.50,499.50,499.50,499.50,499.50,499.50,499.50,499.51,499.52,499.57,499.60,499.61,499.62,499.69,499.70,499.71,499.73,499.79,499.81,499.85,499.89,499.89,499.90,499.90,499.90,499.90,499.90,499.90,499.94,500.02,500.10,500.18,500.30,500.43,500.53,500.66,500.76,500.88,501.01,501.09,501.18,501.29,501.42,501.50,501.58,501.65,501.74,501.82,501.90,501.98,502.05,502.13,502.21,502.28,502.36,502.44,502.52,502.66,502.75,502.83,502.91,502.99,503.06,503.14,503.22,503.29,503.38,503.45,503.52,503.61,503.68,503.76,503.84,503.92,504.00,504.09,504.16,504.23,504.30,504.38,504.46,504.53,504.61,504.69,504.77,504.84,504.92,504.99,505.00,505.00,505.03,505.11,505.25,505.36,505.48,505.63,505.79,505.95,506.11,506.26,506.44,506.65,506.82,506.98,507.15,507.37,507.54,507.69,507.85,508.00,508.16,508.31,508.47,508.63,508.79,509.00,509.18,509.34,509.49,509.58,509.65,509.69,509.69,509.70,509.81,510.07,510.50,511.11,511.73,512.39,513.07,513.68,514.31,514.83,515.20,515.45,515.75,516.05,516.32,516.57,516.88,517.12,517.35,517.59,517.83,518.13,518.50,518.85,519.13,519.31,519.54,519.74,519.89,520.09,520.43,520.80,521.20,521.65,522.03,522.31,522.63,523.05,523.59,524.13,524.67,525.25,525.94,526.61,527.19,527.73,528.25,528.73,529.19,529.70,530.34,531.27,532.19,533.11,534.03,534.97,535.98,537.25,538.65,540.10,541.61,543.07,544.64,546.19,547.52,548.57,549.96,552.56,556.59,560.37,563.55,566.53,569.95,574.82,580.13,584.55,588.29,592.16,598.01,601.90,605.30,608.65,610.92,613.02,614.71,616.00,616.98,617.84,618.52,619.11,619.67,620.38,621.88,623.57,625.12
499.50,499.50,499.50,499.49,499.47,499.47,499.47,499.43,499.40,499.40,499.40,499.40,499.40,499.40,499.40,499.40,499.40,499.43,499.47,499.47,499.47,499.47,499.47,499.47,499.47,499.47,499.47,499.47,499.47,499.47,499.48,499.50,499.50,499.50,499.50,499.50,499.50,499.50,499.50,499.50,499.50,499.50,499.50,499.53,499.57,499.57,499.60,499.64,499.68,499.69,499.75,499.77,499.77,499.79,499.86,499.88,499.88,499.90,499.90,499.90,499.90,499.90,499.90,499.90,499.90,499.94,500.02,500.10,500.22,500.34,500.45,500.57,500.68,500.80,500.92,501.01,501.10,501.22,501.33,501.42,501.50,501.58,501.65,501.75,501.88,501.96,502.03,502.12,502.19,502.26,502.35,502.43,502.50,502.58,502.68,502.76,502.84,502.91,502.99,503.07,503.15,503.22,503.30,503.38,503.45,503.53,503.61,503.69,503.76,503.84,503.93,504.06,504.15,504.19,504.23,504.30,504.38,504.46,504.53,504.61,504.69,504.77,504.84,504.92,504.99,505.00,505.00,505.01,505.05,505.19,505.33,505.48,505.63,505.79,505.99,506.17,506.34,506.55,506.73,506.89,507.04,507.21,507.44,507.61,507.76,507.92,508.07,508.23,508.38,508.55,508.75,508.92,509.09,509.25,509.40,509.55,509.65,509.69,509.70,509.70,509.70,509.81,510.07,510.50,511.11,511.77,512.43,513.07,513.69,514.35,514.88,515.28,515.57,515.82,516.12,516.39,516.64,516.94,517.18,517.41,517.66,517.95,518.26,518.63,518.98,519.28,519.55,519.84,520.05,520.24,520.50,520.77,521.09,521.44,521.85,522.24,522.59,522.96,523.37,523.91,524.46,525.00,525.56,526.19,526.73,527.26,527.78,528.26,528.73,529.24,529.77,530.40,531.32,532.20,533.11,534.04,534.97,535.92,537.41,539.04,540.61,541.99,543.35,544.67,545.95,547.15,548.23,549.39,551.70,555.54,559.40,562.56,565.47,568.60,572.63,577.76,581.86,585.04,587.89,591.24,594.95,598.90,602.64,605.09,607.43,609.16,610.31,611.01,611.25,611.69,612.42,613.42,614.53,615.89,617.35,618.73
499.53,499.53,499.51,499.50,499.50,499.50,499.50,499.46,499.44,499.43,499.41,499.43,499.44,499.44,499.44,499.44,499.44,499.46,499.50,499.50,499.50,499.50,499.50,499.50,499.50,499.50,499.50,499.50,499.50,499.50,499.50,499.51,499.53,499.53,499.53,499.53,499.53,499.53,499.53,499.53,499.53,499.53,499.53,499.56,499.61,499.63,499.63,499.69,499.74,499.75,499.79,499.82,499.84,499.85,499.89,499.90,499.90,499.90,499.90,499.90,499.90,499.90,499.90,499.90,499.90,499.94,500.03,500.14,500.26,500.37,500.48,500.61,500.72,500.83,500.94,501.02,501.13,501.25,501.36,501.46,501.53,501.62,501.69,501.79,501.91,501.99,502.06,502.14,502.22,502.29,502.37,502.45,502.53,502.60,502.68,502.76,502.84,502.92,503.02,503.11,503.19,503.26,503.34,503.42,503.49,503.57,503.65,503.73,503.80,503.88,503.97,504.09,504.17,504.22,504.25,504.31,504.38,504.46,504.53,504.61,504.69,504.77,504.84,504.92,504.99,505.00,505.00,505.00,505.02,505.17,505.33,505.49,505.68,505.87,506.09,506.27,506.44,506.64,506.80,506.98,507.15,507.31,507.51,507.67,507.83,507.99,508.17,508.33,508.48,508.65,508.85,509.00,509.16,509.33,509.51,509.65,509.72,509.74,509.74,509.74,509.74,509.83,510.07,510.51,511.14,511.83,512.48,513.10,513.73,514.41,514.93,515.32,515.62,515.88,516.18,516.47,516.73,517.01,517.25,517.50,517.77,518.08,518.39,518.76,519.11,519.42,519.73,520.04,520.29,520.52,520.80,521.07,521.38,521.72,522.08,522.44,522.82,523.22,523.65,524.16,524.68,525.20,525.76,526.33,526.81,527.33,527.84,528.30,528.76,529.27,529.79,530.39,531.17,531.96,532.82,533.71,534.63,535.77,537.45,539.23,540.81,541.89,543.01,544.14,545.30,546.51,547.65,548.79,550.79,554.09,557.85,561.08,563.97,566.74,569.86,574.06,577.98,581.33,584.01,586.10,589.14,592.71,596.26,598.89,601.20,603.01,604.40,605.38,605.73,606.31,607.20,608.33,609.43,610.52,611.64,612.74
499.60,499.59,499.53,499.51,499.51,499.50,499.50,499.50,499.50,499.48,499.43,499.47,499.50,499.50,499.50,499.50,499.50,499.50,499.50,499.50,499.51,499.51,499.51,499.51,499.51,499.51,499.51,499.51,499.51,499.51,499.51,499.52,499.58,499.60,499.60,499.60,499.60,499.60,499.60,499.60,499.60,499.60,499.61,499.61,499.63,499.69,499.70,499.75,499.80,499.81,499.81,499.86,499.89,499.89,499.90,499.90,499.90,499.90,499.90,499.90,499.90,499.90,499.90,499.90,499.90,499.94,500.04,500.18,500.28,500.40,500.52,500.62,500.76,500.86,500.94,501.03,501.17,501.27,501.39,501.51,501.60,501.67,501.75,501.83,501.91,502.00,502.07,502.15,502.23,502.30,502.38,502.46,502.54,502.61,502.69,502.77,502.85,502.94,503.07,503.16,503.24,503.31,503.39,503.47,503.54,503.63,503.70,503.78,503.86,503.94,504.02,504.09,504.17,504.24,504.29,504.31,504.38,504.46,504.53,504.61,504.69,504.77,504.84,504.92,504.98,504.99,504.99,504.99,505.02,505.17,505.33,505.52,505.75,505.98,506.21,506.39,506.55,506.71,506.87,507.08,507.26,507.42,507.58,507.74,507.90,508.07,508.28,508.44,508.60,508.76,508.93,509.08,509.24,509.42,509.63,509.77,509.80,509.81,509.81,509.80,509.80,509.86,510.07,510.51,511.19,511.88,512.54,513.15,513.79,514.48,514.97,515.33,515.63,515.94,516.25,516.55,516.84,517.08,517.31,517.59,517.90,518.21,518.52,518.89,519.24,519.55,519.86,520.17,520.47,520.75,521.00,521.30,521.65,522.00,522.32,522.63,523.01,523.43,523.88,524.35,524.82,525.33,525.87,526.40,526.88,527.40,527.90,528.37,528.84,529.30,529.81,530.35,530.92,531.60,532.38,533.18,534.05,535.44,537.23,539.07,540.60,541.32,542.18,543.20,544.36,545.66,546.90,548.13,549.82,552.36,555.85,559.17,562.01,564.42,566.69,569.53,573.23,577.00,579.98,582.02,584.25,586.86,589.75,592.46,594.56,596.49,598.33,599.90,600.94,601.98,603.03,604.00,604.79,605.51,606.25,607.02
499.60,499.60,499.57,499.56,499.55,499.50,499.50,499.50,499.50,499.49,499.47,499.49,499.50,499.50,499.50,499.50,499.50,499.50,499.50,499.50,499.54,499.56,499.56,499.56,499.56,499.56,499.56,499.56,499.56,499.56,499.56,499.57,499.60,499.60,499.60,499.60,499.60,499.60,499.60,499.60,499.61,499.66,499.67,499.67,499.69,499.75,499.76,499.79,499.82,499.86,499.87,499.89,499.90,499.90,499.90,499.90,499.90,499.90,499.90,499.90,499.90,499.90,499.90,499.90,499.90,499.97,500.09,500.20,500.32,500.43,500.53,500.62,500.76,500.86,500.96,501.08,501.19,501.31,501.43,501.52,501.60,501.68,501.75,501.83,501.92,502.04,502.13,502.20,502.28,502.37,502.44,502.51,502.60,502.67,502.75,502.83,502.90,502.99,503.09,503.17,503.25,503.32,503.40,503.48,503.55,503.63,503.71,503.78,503.86,503.97,504.07,504.10,504.17,504.21,504.25,504.31,504.38,504.46,504.53,504.61,504.69,504.77,504.84,504.91,504.93,504.94,504.94,504.95,505.02,505.17,505.37,505.59,505.82,506.05,506.28,506.47,506.62,506.78,506.98,507.17,507.34,507.49,507.65,507.85,508.02,508.18,508.36,508.52,508.67,508.85,509.04,509.20,509.36,509.52,509.70,509.84,509.87,509.87,509.87,509.86,509.81,509.86,510.07,510.51,511.19,511.90,512.55,513.18,513.85,514.54,515.03,515.38,515.69,516.00,516.31,516.62,516.91,517.14,517.38,517.69,518.03,518.34,518.65,519.02,519.37,519.68,519.99,520.30,520.61,520.91,521.20,521.50,521.83,522.15,522.46,522.77,523.18,523.61,524.02,524.49,524.95,525.43,525.94,526.47,526.99,527.49,527.99,528.49,528.96,529.42,529.90,530.39,530.89,531.51,532.15,532.79,533.49,534.57,536.20,537.94,539.44,540.17,541.12,542.23,543.45,544.76,546.05,547.34,548.75,550.62,553.63,556.71,559.37,561.56,563.37,565.30,568.01,571.00,573.73,576.35,578.77,581.07,583.30,585.63,587.96,590.38,592.70,594.62,596.26,597.92,599.17,599.76,600.28,600.77,601.27,601.73
499.63,499.63,499.61,499.60,499.58,499.54,499.53,499.53,499.52,499.50,499.50,499.50,499.50,499.51,499.53,499.53,499.53,499.53,499.53,499.53,499.57,499.60,499.60,499.60,499.60,499.60,499.60,499.60,499.60,499.60,499.60,499.61,499.63,499.63,499.63,499.63,499.63,499.63,499.63,499.63,499.64,499.69,499.72,499.74,499.75,499.79,499.80,499.80,499.83,499.89,499.90,499.90,499.90,499.90,499.90,499.90,499.90,499.90,499.90,499.90,499.90,499.90,499.90,499.90,499.90,499.98,500.12,500.21,500.35,500.45,500.53,500.64,500.77,500.88,500.99,501.12,501.22,501.35,501.44,501.53,501.63,501.71,501.78,501.87,501.95,502.08,502.16,502.24,502.32,502.40,502.47,502.55,502.63,502.70,502.78,502.86,502.94,503.01,503.09,503.17,503.25,503.33,503.43,503.51,503.59,503.67,503.74,503.82,503.92,504.03,504.13,504.14,504.18,504.20,504.23,504.30,504.38,504.46,504.53,504.61,504.69,504.77,504.83,504.87,504.90,504.90,504.90,504.93,505.03,505.20,505.40,505.62,505.86,506.11,506.35,506.53,506.69,506.88,507.08,507.25,507.40,507.55,507.72,507.93,508.12,508.27,508.43,508.59,508.74,508.91,509.11,509.27,509.44,509.61,509.76,509.91,510.02,510.05,510.02,509.99,509.94,509.98,510.17,510.55,511.20,511.92,512.60,513.28,513.97,514.65,515.11,515.45,515.76,516.07,516.38,516.67,516.95,517.21,517.47,517.80,518.16,518.47,518.78,519.13,519.47,519.78,520.11,520.43,520.73,521.03,521.32,521.63,521.94,522.25,522.56,522.89,523.33,523.77,524.18,524.62,525.08,525.55,526.02,526.54,527.08,527.58,528.12,528.69,529.18,529.63,530.07,530.52,531.02,531.62,532.19,532.73,533.31,534.09,535.28,536.60,537.85,538.81,540.01,541.28,542.58,543.89,545.20,546.51,547.80,549.26,551.52,554.13,556.57,558.61,560.01,561.42,563.27,565.44,567.87,570.68,573.06,575.16,577.25,579.77,582.51,585.11,587.54,589.91,592.19,594.32,595.72,596.15,596.68,597.21,597.59,597.81
499.69,499.69,499.63,499.61,499.60,499.60,499.59,499.59,499.56,499.51,499.50,499.50,499.50,499.53,499.58,499.59,499.59,499.59,499.59,499.59,499.60,499.60,499.60,499.61,499.61,499.61,499.61,499.61,499.61,499.61,499.61,499.62,499.68,499.69,499.69,499.69,499.69,499.69,499.69,499.69,499.70,499.71,499.76,499.79,499.79,499.80,499.80,499.80,499.83,499.89,499.90,499.90,499.90,499.90,499.90,499.90,499.90,499.90,499.90,499.90,499.90,499.90,499.90,499.90,499.90,499.98,500.12,500.21,500.35,500.45,500.55,500.69,500.79,500.91,501.03,501.13,501.27,501.37,501.45,501.55,501.68,501.77,501.84,501.92,502.00,502.09,502.17,502.25,502.33,502.40,502.48,502.55,502.64,502.71,502.79,502.87,502.94,503.02,503.10,503.18,503.25,503.35,503.48,503.57,503.65,503.73,503.80,503.89,504.02,504.13,504.19,504.19,504.20,504.20,504.23,504.30,504.38,504.46,504.53,504.61,504.69,504.77,504.80,504.83,504.88,504.89,504.89,504.93,505.03,505.25,505.42,505.63,505.88,506.16,506.41,506.60,506.77,506.99,507.15,507.31,507.47,507.62,507.78,507.99,508.18,508.33,508.49,508.64,508.79,508.95,509.11,509.27,509.48,509.67,509.82,510.00,510.27,510.34,510.27,510.21,510.20,510.25,510.38,510.64,511.23,511.94,512.69,513.44,514.14,514.78,515.21,515.52,515.83,516.14,516.44,516.72,516.98,517.27,517.58,517.92,518.28,518.59,518.89,519.22,519.53,519.86,520.22,520.54,520.86,521.15,521.40,521.69,522.00,522.31,522.64,523.02,523.46,523.92,524.36,524.76,525.21,525.68,526.14,526.62,527.15,527.69,528.29,528.94,529.49,529.90,530.30,530.74,531.29,531.90,532.47,533.01,533.56,534.13,534.71,535.35,536.16,537.42,538.94,540.39,541.75,543.05,544.37,545.67,546.97,548.26,549.61,551.60,553.77,555.68,556.76,558.06,559.34,560.87,562.99,565.49,567.52,569.57,572.04,575.23,578.43,580.86,583.05,585.93,588.76,591.15,592.66,593.23,594.02,594.81,595.16,595.22
499.70,499.70,499.67,499.67,499.67,499.66,499.61,499.60,499.59,499.56,499.56,499.56,499.56,499.57,499.60,499.60,499.60,499.60,499.60,499.60,499.60,499.60,499.61,499.66,499.67,499.67,499.67,499.67,499.67,499.67,499.67,499.67,499.69,499.70,499.70,499.70,499.70,499.70,499.70,499.72,499.76,499.76,499.79,499.80,499.80,499.80,499.80,499.83,499.87,499.90,499.90,499.90,499.90,499.90,499.90,499.90,499.90,499.90,499.90,499.90,499.90,499.90,499.90,499.90,499.90,499.98,500.12,500.21,500.35,500.48,500.60,500.71,500.83,500.95,501.06,501.18,501.29,501.37,501.47,501.59,501.70,501.78,501.85,501.93,502.02,502.14,502.23,502.30,502.38,502.45,502.53,502.61,502.69,502.76,502.85,502.92,503.00,503.08,503.15,503.23,503.30,503.39,503.50,503.58,503.69,503.79,503.88,504.00,504.11,504.20,504.26,504.26,504.26,504.26,504.27,504.31,504.38,504.46,504.53,504.61,504.69,504.77,504.80,504.81,504.83,504.83,504.83,504.89,505.03,505.25,505.47,505.70,505.98,506.24,506.47,506.66,506.84,507.06,507.22,507.38,507.53,507.69,507.85,508.02,508.19,508.34,508.50,508.65,508.80,508.96,509.12,509.27,509.49,509.68,509.84,510.06,510.48,510.60,510.54,510.51,510.51,510.60,510.74,510.94,511.31,511.86,512.55,513.33,514.15,514.85,515.30,515.64,515.95,516.26,516.53,516.80,517.09,517.39,517.70,518.03,518.34,518.61,518.91,519.26,519.60,519.91,520.25,520.56,520.90,521.22,521.46,521.76,522.07,522.39,522.76,523.19,523.61,524.05,524.51,524.94,525.36,525.81,526.25,526.69,527.26,527.88,528.52,529.16,529.74,530.13,530.57,531.11,531.66,532.31,532.92,533.50,534.03,534.52,535.03,535.48,535.93,536.71,538.21,539.68,541.00,542.27,543.58,544.82,546.02,547.18,548.31,549.72,551.33,552.97,554.39,555.92,557.26,558.52,559.98,562.11,564.59,567.25,570.06,573.01,575.84,578.20,580.44,583.13,585.87,588.15,589.81,590.84,591.77,592.41,592.67,592.88
499.72,499.72,499.72,499.71,499.70,499.69,499.64,499.63,499.62,499.60,499.60,499.60,499.60,499.60,499.60,499.60,499.62,499.63,499.63,499.63,499.63,499.63,499.64,499.69,499.70,499.70,499.70,499.70,499.70,499.70,499.70,499.70,499.70,499.72,499.72,499.72,499.72,499.72,499.72,499.75,499.80,499.80,499.80,499.80,499.80,499.80,499.80,499.85,499.90,499.90,499.90,499.90,499.90,499.90,499.90,499.90,499.90,499.90,499.90,499.90,499.90,499.90,499.90,499.90,499.90,499.98,500.12,500.21,500.35,500.50,500.63,500.74,500.87,500.98,501.09,501.21,501.29,501.38,501.50,501.63,501.72,501.80,501.88,501.96,502.04,502.18,502.26,502.34,502.42,502.50,502.57,502.65,502.73,502.80,502.88,502.96,503.03,503.11,503.19,503.27,503.36,503.45,503.53,503.62,503.75,503.87,503.97,504.10,504.19,504.25,504.30,504.30,504.30,504.30,504.30,504.31,504.38,504.46,504.53,504.61,504.67,504.74,504.78,504.78,504.78,504.80,504.80,504.86,505.03,505.27,505.51,505.78,506.08,506.31,506.54,506.73,506.90,507.12,507.28,507.44,507.60,507.75,507.90,508.06,508.22,508.37,508.52,508.66,508.80,508.96,509.12,509.29,509.49,509.68,509.86,510.15,510.66,510.85,510.80,510.81,510.85,510.99,511.15,511.32,511.56,511.93,512.46,513.15,514.02,514.80,515.31,515.66,515.97,516.30,516.59,516.89,517.22,517.55,517.86,518.17,518.45,518.70,519.00,519.35,519.68,519.97,520.26,520.56,520.91,521.26,521.52,521.82,522.12,522.44,522.84,523.29,523.70,524.12,524.56,525.02,525.42,525.85,526.30,526.76,527.38,528.01,528.64,529.28,529.88,530.28,530.83,531.52,532.08,532.73,533.38,533.99,534.51,535.01,535.53,535.93,536.17,536.53,537.70,539.02,540.27,541.45,542.61,543.78,544.96,546.13,547.22,548.29,549.53,550.95,552.53,554.14,555.60,556.91,558.26,560.31,563.14,566.15,569.05,571.68,574.10,576.37,578.58,580.86,583.33,585.34,586.95,588.20,589.04,589.55,589.93,590.48
499.79,499.79,499.79,499.74,499.70,499.70,499.69,499.69,499.65,499.61,499.61,499.61,499.61,499.61,499.61,499.61,499.65,499.69,499.69,499.69,499.69,499.69,499.69,499.70,499.70,499.70,499.70,499.70,499.70,499.70,499.70,499.70,499.71,499.76,499.79,499.79,499.79,499.79,499.79,499.79,499.80,499.80,499.80,499.80,499.80,499.80,499.80,499.85,499.90,499.90,499.90,499.90,499.90,499.90,499.90,499.90,499.90,499.90,499.90,499.90,499.90,499.90,499.90,499.90,499.90,499.98,500.12,500.21,500.35,500.50,500.65,500.79,500.88,501.01,501.13,501.21,501.30,501.43,501.54,501.64,501.78,501.87,501.94,502.02,502.10,502.19,502.26,502.34,502.42,502.50,502.58,502.66,502.73,502.80,502.89,502.97,503.04,503.12,503.19,503.27,503.39,503.51,503.60,503.74,503.84,503.95,504.09,504.18,504.26,504.30,504.31,504.31,504.31,504.31,504.31,504.31,504.38,504.46,504.53,504.59,504.62,504.68,504.71,504.71,504.72,504.78,504.80,504.86,505.04,505.33,505.58,505.85,506.13,506.37,506.61,506.79,506.97,507.19,507.35,507.50,507.66,507.81,507.97,508.12,508.27,508.43,508.58,508.68,508.81,508.97,509.13,509.34,509.52,509.68,509.88,510.27,510.84,511.07,511.07,511.09,511.22,511.41,511.61,511.78,512.00,512.26,512.54,512.97,513.75,514.61,515.16,515.53,515.85,516.23,516.60,516.97,517.34,517.71,518.04,518.35,518.64,518.88,519.18,519.50,519.79,520.03,520.27,520.56,520.91,521.28,521.58,521.88,522.14,522.44,522.84,523.29,523.70,524.09,524.50,524.95,525.36,525.79,526.27,526.82,527.49,528.04,528.61,529.27,529.88,530.33,531.07,531.97,532.52,533.14,533.81,534.44,534.98,535.52,536.05,536.44,536.67,536.94,537.49,538.42,539.54,540.58,541.38,542.47,543.77,545.13,546.23,547.33,548.54,549.86,551.17,552.58,554.08,555.78,557.85,560.21,563.03,565.84,568.47,570.95,573.13,575.24,577.22,578.99,581.13,582.71,583.99,585.05,585.49,586.01,586.86,587.90
499.80,499.80,499.80,499.78,499.74,499.70,499.70,499.70,499.68,499.66,499.66,499.66,499.66,499.66,499.66,499.66,499.68,499.70,499.70,499.70,499.70,499.70,499.70,499.70,499.70,499.70,499.70,499.71,499.75,499.75,499.75,499.75,499.76,499.79,499.80,499.80,499.80,499.80,499.80,499.80,499.80,499.80,499.80,499.80,499.80,499.80,499.80,499.85,499.90,499.90,499.90,499.90,499.90,499.90,499.90,499.90,499.90,499.90,499.90,499.90,499.90,499.90,499.90,499.90,499.90,499.98,500.12,500.21,500.35,500.50,500.65,500.79,500.88,501.02,501.14,501.22,501.34,501.45,501.57,501.69,501.79,501.88,501.95,502.03,502.11,502.19,502.26,502.34,502.43,502.54,502.63,502.70,502.78,502.86,502.94,503.01,503.10,503.17,503.25,503.36,503.48,503.59,503.71,503.82,503.94,504.06,504.17,504.29,504.34,504.36,504.36,504.36,504.36,504.36,504.36,504.36,504.39,504.43,504.48,504.55,504.60,504.67,504.70,504.70,504.71,504.78,504.80,504.86,505.05,505.34,505.62,505.89,506.16,506.43,506.67,506.86,507.03,507.25,507.42,507.57,507.73,507.87,507.99,508.13,508.29,508.44,508.59,508.72,508.86,509.01,509.18,509.36,509.52,509.68,509.89,510.34,510.96,511.26,511.35,511.45,511.64,511.83,512.01,512.18,512.40,512.64,512.89,513.22,513.70,514.30,514.88,515.36,515.72,516.11,516.49,516.86,517.21,517.60,517.99,518.36,518.70,519.02,519.33,519.67,519.95,520.14,520.33,520.62,520.94,521.29,521.63,521.83,522.04,522.35,522.78,523.24,523.65,524.03,524.44,524.89,525.29,525.70,526.21,526.92,527.66,528.20,528.69,529.23,529.84,530.49,531.39,532.38,532.97,533.59,534.25,534.91,535.48,536.02,536.54,536.90,537.14,537.38,537.77,538.32,538.98,539.70,540.32,541.32,542.58,543.97,545.19,546.40,547.67,548.97,550.28,551.76,553.41,555.32,557.57,559.83,562.40,564.99,567.47,569.86,571.84,573.75,575.52,576.92,578.78,580.07,580.97,581.57,581.73,582.55,583.85,585.30
499.81,499.80,499.80,499.80,499.77,499.73,499.70,499.70,499.70,499.70,499.70,499.70,499.70,499.70,499.70,499.70,499.70,499.70,499.70,499.70,499.70,499.71,499.72,499.72,499.72,499.72,499.72,499.73,499.79,499.80,499.80,499.80,499.80,499.80,499.80,499.80,499.80,499.80,499.80,499.80,499.80,499.80,499.80,499.80,499.80,499.80,499.80,499.85,499.90,499.90,499.90,499.90,499.90,499.90,499.90,499.90,499.90,499.90,499.90,499.90,499.90,499.90,499.90,499.90,499.90,499.98,500.12,500.21,500.35,500.50,500.65,500.80,500.90,501.02,501.15,501.25,501.38,501.48,501.60,501.73,501.82,501.90,501.98,502.05,502.13,502.20,502.28,502.36,502.45,502.58,502.67,502.75,502.83,502.90,502.98,503.07,503.15,503.24,503.33,503.46,503.57,503.68,503.81,503.92,504.04,504.16,504.26,504.39,504.41,504.40,504.40,504.40,504.40,504.40,504.40,504.40,504.40,504.40,504.44,504.51,504.59,504.65,504.69,504.70,504.71,504.78,504.80,504.87,505.06,505.36,505.65,505.93,506.19,506.49,506.74,506.92,507.09,507.30,507.46,507.62,507.77,507.91,508.01,508.15,508.31,508.46,508.60,508.75,508.90,509.06,509.22,509.37,509.52,509.68,509.90,510.38,511.05,511.46,511.66,511.84,512.07,512.24,512.40,512.58,512.80,513.04,513.31,513.59,513.83,514.17,514.70,515.22,515.59,515.96,516.34,516.69,517.01,517.40,517.86,518.28,518.68,519.06,519.40,519.78,520.08,520.26,520.42,520.69,520.99,521.31,521.62,521.71,521.91,522.25,522.71,523.16,523.57,523.97,524.37,524.81,525.22,525.64,526.20,527.03,527.81,528.40,528.86,529.25,529.84,530.69,531.74,532.78,533.40,534.03,534.71,535.37,535.98,536.54,537.03,537.38,537.61,537.86,538.23,538.59,538.93,539.32,539.71,540.66,541.97,543.42,544.80,546.09,547.37,548.64,549.87,551.45,553.21,555.13,557.21,559.25,561.52,563.91,566.33,568.60,570.40,572.12,573.66,574.85,576.54,577.83,578.68,579.15,579.39,580.57,582.21,583.91
499.87,499.81,499.80,499.80,499.80,499.77,499.72,499.70,499.70,499.70,499.70,499.70,499.70,499.70,499.70,499.70,499.70,499.70,499.70,499.70,499.70,499.74,499.78,499.78,499.78,499.78,499.78,499.79,499.80,499.80,499.80,499.80,499.80,499.80,499.80,499.80,499.80,499.80,499.80,499.80,499.80,499.80,499.80,499.80,499.80,499.80,499.80,499.85,499.90,499.90,499.90,499.90,499.90,499.90,499.90,499.90,499.90,499.90,499.90,499.90,499.90,499.90,499.90,499.90,499.90,499.98,500.12,500.21,500.35,500.50,500.65,500.81,500.95,501.05,501.16,501.30,501.39,501.52,501.64,501.74,501.88,501.97,502.03,502.12,502.19,502.27,502.35,502.43,502.51,502.59,502.67,502.75,502.83,502.91,502.98,503.11,503.22,503.31,503.45,503.55,503.67,503.79,503.89,504.03,504.13,504.25,504.38,504.47,504.43,504.40,504.40,504.40,504.40,504.40,504.40,504.40,504.40,504.40,504.44,504.51,504.59,504.61,504.65,504.70,504.71,504.78,504.80,504.89,505.13,505.42,505.68,505.95,506.25,506.55,506.80,506.99,507.14,507.30,507.46,507.62,507.77,507.92,508.07,508.22,508.38,508.51,508.61,508.75,508.90,509.06,509.22,509.37,509.52,509.68,509.90,510.38,511.09,511.64,511.99,512.21,512.45,512.62,512.81,513.02,513.19,513.46,513.73,513.97,514.21,514.46,514.79,515.13,515.46,515.78,516.14,516.50,516.82,517.21,517.66,518.12,518.55,518.94,519.38,519.78,520.12,520.38,520.55,520.78,521.05,521.33,521.50,521.54,521.78,522.18,522.64,523.04,523.48,523.90,524.29,524.69,525.14,525.67,526.31,527.10,527.87,528.61,529.14,529.44,529.95,530.92,532.09,533.17,533.80,534.47,535.16,535.82,536.44,537.05,537.54,537.90,538.13,538.38,538.79,539.35,539.84,539.96,539.93,540.97,542.54,544.23,545.80,547.01,548.20,549.34,550.23,551.83,553.56,555.17,556.64,558.47,560.40,562.65,565.13,567.18,568.89,570.39,571.73,572.98,574.68,576.46,578.01,579.19,580.14,581.63,583.37,585.07
499.89,499.85,499.81,499.80,499.80,499.79,499.76,499.72,499.70,499.70,499.70,499.70,499.70,499.70,499.70,499.70,499.70,499.72,499.75,499.75,499.75,499.77,499.80,499.80,499.80,499.80,499.80,499.80,499.80,499.80,499.80,499.80,499.80,499.80,499.80,499.80,499.80,499.80,499.80,499.80,499.80,499.80,499.80,499.80,499.80,499.81,499.84,499.88,499.90,499.90,499.90,499.90,499.90,499.90,499.90,499.90,499.90,499.90,499.90,499.90,499.90,499.90,499.90,499.90,499.90,499.98,500.12,500.21,500.35,500.50,500.65,500.81,500.96,501.06,501.17,501.32,501.44,501.55,501.67,501.78,501.89,501.98,502.05,502.13,502.21,502.29,502.36,502.44,502.52,502.60,502.67,502.75,502.84,502.95,503.03,503.17,503.30,503.42,503.54,503.65,503.77,503.88,504.00,504.12,504.23,504.35,504.45,504.49,504.47,504.45,504.45,504.45,504.45,504.45,504.45,504.45,504.45,504.45,504.47,504.51,504.59,504.60,504.64,504.71,504.75,504.79,504.83,504.93,505.14,505.44,505.72,505.99,506.26,506.57,506.85,507.05,507.20,507.36,507.51,507.67,507.80,507.92,508.08,508.23,508.39,508.53,508.65,508.80,508.93,509.06,509.22,509.37,509.52,509.70,509.95,510.43,511.12,511.61,511.94,512.20,512.44,512.67,512.90,513.13,513.33,513.61,513.90,514.16,514.39,514.63,514.86,515.07,515.28,515.58,515.92,516.27,516.63,517.06,517.49,517.93,518.37,518.76,519.18,519.61,520.00,520.33,520.61,520.84,521.05,521.22,521.29,521.33,521.63,522.07,522.53,522.96,523.41,523.84,524.22,524.62,525.07,525.67,526.39,527.17,527.98,528.76,529.42,529.94,530.57,531.40,532.46,533.52,534.22,534.92,535.59,536.24,536.90,537.51,538.05,538.40,538.60,538.85,539.27,540.13,541.08,541.55,541.59,542.54,544.02,545.66,547.23,548.38,549.59,550.87,551.99,553.55,555.21,556.66,557.77,559.06,560.72,562.75,564.99,566.95,568.60,570.35,572.28,574.39,576.52,578.70,580.72,582.35,583.52,584.78,586.13,587.54
499.90,499.89,499.84,499.81,499.80,499.80,499.80,499.75,499.72,499.72,499.72,499.72,499.72,499.72,499.72,499.72,499.72,499.74,499.80,499.80,499.80,499.80,499.80,499.80,499.80,499.80,499.80,499.80,499.80,499.80,499.80,499.80,499.80,499.80,499.80,499.80,499.80,499.80,499.80,499.80,499.80,499.80,499.80,499.80,499.80,499.81,499.87,499.90,499.90,499.90,499.90,499.90,499.90,499.90,499.90,499.90,499.90,499.90,499.90,499.90,499.90,499.90,499.90,499.90,499.90,499.98,500.12,500.21,500.35,500.50,500.65,500.81,500.96,501.06,501.17,501.33,501.48,501.57,501.69,501.82,501.90,501.99,502.07,502.15,502.23,502.30,502.38,502.45,502.53,502.61,502.69,502.77,502.88,503.01,503.11,503.24,503.38,503.52,503.61,503.75,503.86,503.96,504.11,504.21,504.33,504.44,504.51,504.51,504.51,504.51,504.51,504.51,504.51,504.51,504.51,504.51,504.50,504.50,504.50,504.51,504.59,504.60,504.64,504.72,504.79,504.80,504.85,504.96,505.14,505.44,505.75,506.02,506.28,506.59,506.90,507.11,507.26,507.40,507.56,507.72,507.84,507.94,508.10,508.25,508.40,508.54,508.70,508.85,508.96,509.08,509.23,509.38,509.54,509.73,510.00,510.49,511.11,511.50,511.76,512.05,512.30,512.59,512.85,513.09,513.33,513.63,513.93,514.22,514.46,514.70,514.89,515.03,515.15,515.41,515.70,516.05,516.45,516.90,517.30,517.72,518.14,518.53,518.90,519.37,519.83,520.24,520.60,520.85,520.99,521.05,521.06,521.14,521.49,521.96,522.42,522.88,523.34,523.76,524.16,524.55,525.02,525.69,526.47,527.25,528.08,528.88,529.66,530.45,531.25,531.95,532.86,533.88,534.66,535.36,536.01,536.66,537.35,537.97,538.53,538.89,539.07,539.31,539.84,541.00,542.39,543.36,543.68,544.55,545.85,547.37,548.83,550.00,551.29,552.74,554.18,555.71,557.24,558.52,559.38,560.16,561.65,563.52,565.54,567.46,569.17,571.27,573.84,576.77,579.41,582.01,584.42,586.40,587.74,588.75,589.75,591.04
499.90,499.90,499.89,499.84,499.80,499.80,499.80,499.79,499.78,499.78,499.78,499.78,499.78,499.78,499.78,499.78,499.78,499.79,499.80,499.80,499.80,499.80,499.80,499.80,499.80,499.80,499.80,499.80,499.80,499.80,499.80,499.80,499.80,499.80,499.80,499.80,499.80,499.80,499.80,499.80,499.80,499.80,499.80,499.80,499.80,499.81,499.87,499.90,499.90,499.90,499.90,499.90,499.90,499.90,499.90,499.90,499.90,499.90,499.90,499.90,499.90,499.90,499.90,499.90,499.90,499.98,500.12,500.21,500.35,500.50,500.65,500.81,500.96,501.06,501.17,501.33,501.48,501.57,501.69,501.82,501.91,502.04,502.13,502.22,502.29,502.37,502.44,502.52,502.60,502.68,502.75,502.87,502.99,503.09,503.23,503.33,503.45,503.59,503.68,503.81,503.93,504.02,504.18,504.32,504.43,504.51,504.58,504.58,504.58,504.58,504.58,504.58,504.58,504.58,504.58,504.57,504.51,504.50,504.50,504.51,504.59,504.60,504.64,504.72,504.79,504.80,504.85,504.96,505.14,505.44,505.75,506.05,506.35,506.65,506.96,507.17,507.31,507.41,507.56,507.72,507.87,508.00,508.16,508.31,508.43,508.54,508.70,508.85,509.00,509.14,509.29,509.45,509.61,509.76,510.01,510.53,510.99,511.34,511.62,511.88,512.16,512.42,512.66,512.90,513.19,513.50,513.78,514.03,514.33,514.62,514.86,515.05,515.19,515.32,515.53,515.85,516.26,516.71,517.11,517.47,517.82,518.20,518.53,519.09,519.68,520.15,520.48,520.68,520.80,520.86,520.87,520.99,521.39,521.89,522.36,522.82,523.23,523.66,524.09,524.50,525.05,525.79,526.60,527.38,528.16,528.98,529.82,530.67,531.62,532.51,533.37,534.23,535.09,535.76,536.43,537.12,537.80,538.42,538.98,539.37,539.57,539.81,540.78,542.13,543.59,544.89,545.78,546.71,547.90,549.32,550.52,551.96,553.38,554.79,556.42,557.98,559.21,560.13,560.82,561.53,563.09,565.06,567.15,569.10,571.23,573.53,576.07,578.99,582.05,585.19,588.01,590.25,592.10,593.22,594.54,596.43
499.90,499.90,499.90,499.87,499.83,499.80,499.80,499.80,499.80,499.80,499.80,499.80,499.80,499.80,499.80,499.80,499.80,499.80,499.80,499.80,499.80,499.80,499.80,499.80,499.80,499.80,499.81,499.84,499.85,499.82,499.80,499.80,499.80,499.80,499.80,499.80,499.80,499.80,499.80,499.80,499.80,499.80,499.80,499.80,499.80,499.81,499.87,499.90,499.90,499.90,499.90,499.90,499.90,499.90,499.90,499.90,499.90,499.90,499.90,499.90,499.90,499.90,499.90,499.90,499.90,499.98,500.12,500.21,500.35,500.50,500.65,500.81,500.96,501.06,501.17,501.33,501.48,501.60,501.72,501.83,501.94,502.06,502.15,502.23,502.31,502.39,502.46,502.56,502.67,502.74,502.85,502.97,503.09,503.20,503.31,503.43,503.55,503.66,503.78,503.89,504.01,504.13,504.25,504.40,504.50,504.56,504.60,504.60,504.60,504.60,504.60,504.60,504.60,504.60,504.60,504.59,504.56,504.54,504.54,504.55,504.59,504.60,504.64,504.72,504.79,504.80,504.85,504.98,505.19,505.49,505.79,506.10,506.40,506.68,506.99,507.20,507.34,507.46,507.61,507.76,507.92,508.06,508.19,508.33,508.46,508.59,508.74,508.86,509.00,509.16,509.31,509.47,509.62,509.78,510.01,510.50,510.87,511.18,511.45,511.72,511.99,512.26,512.51,512.76,513.06,513.37,513.64,513.89,514.19,514.48,514.74,514.98,515.15,515.24,515.41,515.67,516.01,516.43,516.79,517.14,517.48,517.84,518.18,518.83,519.53,520.08,520.36,520.51,520.61,520.66,520.69,520.88,521.29,521.78,522.25,522.74,523.16,523.58,524.02,524.44,525.10,525.88,526.68,527.46,528.26,529.08,529.92,530.82,531.79,532.75,533.66,534.56,535.50,536.30,537.01,537.69,538.36,539.01,539.60,540.09,540.47,540.84,541.91,543.29,544.75,546.14,547.29,548.37,549.49,550.62,551.58,553.16,554.91,556.64,558.32,559.63,560.64,561.45,562.13,563.00,564.61,566.55,568.59,570.70,573.05,575.46,577.99,580.84,584.06,587.44,590.57,593.18,595.39,597.22,599.37,602.00
499.90,499.90,499.90,499.90,499.87,499.82,499.81,499.81,499.81,499.81,499.81,499.81,499.81,499.80,499.80,499.80,499.80,499.80,499.81,499.81,499.81,499.81,499.81,499.81,499.81,499.81,499.84,499.89,499.89,499.85,499.81,499.81,499.81,499.80,499.80,499.80,499.81,499.81,499.81,499.81,499.81,499.81,499.81,499.81,499.81,499.82,499.88,499.90,499.90,499.90,499.90,499.90,499.90,499.90,499.90,499.90,499.90,499.90,499.90,499.90,499.90,499.90,499.90,499.90,499.90,499.98,500.11,500.20,500.35,500.50,500.65,500.81,500.95,501.05,501.17,501.33,501.48,501.63,501.74,501.85,501.99,502.09,502.17,502.25,502.32,502.40,502.48,502.60,502.73,502.82,502.95,503.06,503.17,503.31,503.40,503.53,503.65,503.75,503.89,503.99,504.11,504.23,504.33,504.47,504.56,504.61,504.62,504.62,504.62,504.62,504.62,504.62,504.62,504.62,504.62,504.62,504.61,504.61,504.61,504.61,504.62,504.62,504.65,504.72,504.79,504.81,504.86,504.99,505.23,505.54,505.85,506.15,506.45,506.70,507.00,507.21,507.37,507.51,507.67,507.82,507.97,508.11,508.21,508.35,508.50,508.65,508.78,508.88,509.02,509.17,509.33,509.48,509.63,509.78,509.99,510.43,510.75,511.02,511.28,511.58,511.83,512.12,512.39,512.64,512.94,513.25,513.52,513.77,514.07,514.33,514.61,514.88,515.09,515.19,515.32,515.50,515.76,516.11,516.42,516.77,517.13,517.45,517.83,518.53,519.28,519.86,520.16,520.32,520.41,520.46,520.50,520.77,521.19,521.66,522.14,522.66,523.09,523.52,523.97,524.42,525.18,525.98,526.76,527.54,528.36,529.13,529.97,530.91,531.86,532.85,533.84,534.84,535.83,536.77,537.59,538.30,538.98,539.70,540.35,540.97,541.58,542.12,543.13,544.45,545.88,547.22,548.42,549.62,550.70,551.57,552.37,553.93,555.98,558.14,559.83,560.85,561.72,562.55,563.34,564.38,566.00,567.81,569.75,572.14,574.62,577.10,579.65,582.44,585.62,589.07,592.44,595.49,598.04,600.69,603.65,606.86
499.90,499.90,499.90,499.90,499.89,499.88,499.88,499.88,499.88,499.88,499.88,499.88,499.84,499.80,499.80,499.80,499.80,499.83,499.87,499.88,499.88,499.88,499.88,499.88,499.88,499.88,499.88,499.90,499.90,499.88,499.88,499.88,499.87,499.82,499.80,499.82,499.87,499.88,499.88,499.88,499.88,499.88,499.88,499.88,499.88,499.88,499.89,499.90,499.90,499.90,499.90,499.90,499.90,499.90,499.90,499.90,499.90,499.90,499.90,499.90,499.90,499.90,499.90,499.90,499.90,499.95,500.06,500.19,500.35,500.50,500.65,500.80,500.90,501.03,501.17,501.33,501.48,501.63,501.75,501.85,502.00,502.13,502.23,502.30,502.38,502.47,502.58,502.70,502.81,502.94,503.04,503.16,503.28,503.39,503.52,503.62,503.74,503.87,503.97,504.10,504.20,504.31,504.44,504.54,504.63,504.68,504.68,504.68,504.68,504.68,504.68,504.68,504.68,504.68,504.68,504.68,504.68,504.68,504.68,504.68,504.68,504.68,504.69,504.72,504.80,504.86,504.89,504.99,505.24,505.54,505.85,506.15,506.46,506.75,507.06,507.27,507.42,507.58,507.74,507.85,507.97,508.12,508.26,508.41,508.56,508.70,508.80,508.93,509.08,509.24,509.39,509.54,509.65,509.78,509.97,510.32,510.58,510.86,511.15,511.46,511.75,512.01,512.28,512.57,512.88,513.19,513.46,513.71,514.01,514.31,514.57,514.81,515.03,515.17,515.28,515.41,515.60,515.81,516.05,516.35,516.69,517.06,517.45,518.05,518.65,519.17,519.68,520.04,520.19,520.22,520.31,520.63,521.10,521.60,522.06,522.55,523.00,523.45,523.93,524.51,525.26,526.08,526.89,527.66,528.40,529.03,529.85,530.92,531.92,532.91,533.89,534.85,535.86,536.89,537.90,538.83,539.70,540.61,541.30,542.00,542.78,543.49,544.38,545.59,546.94,548.12,549.11,550.18,551.25,552.26,553.20,554.28,556.22,558.66,560.41,561.40,562.37,563.38,564.36,565.33,566.75,568.34,570.22,573.01,575.69,578.26,580.87,583.64,586.54,589.83,593.36,596.91,599.98,602.93,605.89,608.88
499.90,499.90,499.90,499.90,499.90,499.90,499.90,499.90,499.90,499.90,499.90,499.90,499.87,499.84,499.84,499.84,499.84,499.86,499.90,499.90,499.90,499.90,499.90,499.90,499.90,499.90,499.90,499.90,499.90,499.90,499.90,499.90,499.90,499.86,499.84,499.86,499.89,499.90,499.90,499.90,499.90,499.90,499.90,499.90,499.90,499.90,499.90,499.90,499.90,499.90,499.90,499.90,499.90,499.90,499.90,499.90,499.90,499.90,499.90,499.90,499.90,499.90,499.90,499.90,499.90,499.94,500.04,500.19,500.35,500.50,500.65,500.79,500.88,501.02,501.17,501.33,501.48,501.63,501.75,501.85,502.00,502.15,502.27,502.37,502.45,502.56,502.68,502.80,502.91,503.03,503.14,503.26,503.38,503.49,503.61,503.72,503.84,503.96,504.07,504.19,504.30,504.42,504.54,504.64,504.71,504.74,504.74,504.74,504.71,504.70,504.70,504.70,504.70,504.70,504.70,504.70,504.70,504.70,504.70,504.70,504.70,504.70,504.70,504.72,504.80,504.88,504.90,504.99,505.24,505.54,505.87,506.20,506.50,506.81,507.13,507.34,507.48,507.61,507.76,507.88,508.01,508.16,508.29,508.43,508.59,508.73,508.84,508.99,509.12,509.26,509.42,509.57,509.69,509.80,509.98,510.33,510.59,510.87,511.18,511.49,511.80,512.05,512.32,512.62,512.90,513.20,513.49,513.75,514.03,514.34,514.62,514.84,515.01,515.16,515.24,515.32,515.45,515.58,515.79,516.13,516.56,517.06,517.45,517.90,518.32,518.71,519.17,519.60,519.85,519.97,520.11,520.51,521.00,521.49,521.95,522.42,522.91,523.39,523.90,524.58,525.31,526.04,526.76,527.47,528.13,528.80,529.70,530.88,531.93,532.94,533.92,534.89,535.90,536.97,538.05,539.09,540.05,541.05,541.88,542.70,543.57,544.41,545.28,546.36,547.52,548.56,549.47,550.49,551.57,552.64,553.68,554.74,556.86,559.56,561.23,562.28,563.32,564.40,565.46,566.43,567.50,568.93,570.98,573.97,576.78,579.44,582.06,584.78,587.50,590.70,594.23,597.91,601.35,604.45,607.40,610.36
499.91,499.91,499.91,499.91,499.91,499.91,499.91,499.90,499.90,499.90,499.90,499.90,499.90,499.89,499.89,499.89,499.89,499.89,499.90,499.90,499.90,499.90,499.90,499.90,499.90,499.90,499.90,499.90,499.90,499.90,499.90,499.90,499.90,499.89,499.89,499.89,499.90,499.90,499.90,499.90,499.90,499.90,499.90,499.90,499.90,499.90,499.90,499.90,499.90,499.90,499.90,499.90,499.90,499.90,499.90,499.90,499.90,499.90,499.90,499.90,499.90,499.90,499.90,499.90,499.90,499.94,500.04,500.19,500.35,500.50,500.65,500.79,500.88,501.02,501.17,501.33,501.48,501.63,501.75,501.85,502.00,502.16,502.32,502.44,502.52,502.66,502.76,502.88,503.02,503.12,503.25,503.36,503.46,503.60,503.69,503.82,503.94,504.04,504.18,504.28,504.40,504.52,504.62,504.75,504.79,504.80,504.80,504.79,504.75,504.71,504.71,504.71,504.71,504.71,504.71,504.71,504.71,504.71,504.71,504.71,504.71,504.71,504.71,504.73,504.80,504.88,504.90,504.99,505.24,505.55,505.91,506.25,506.56,506.87,507.19,507.40,507.53,507.62,507.76,507.91,508.07,508.20,508.30,508.44,508.59,508.74,508.89,509.04,509.15,509.26,509.42,509.56,509.71,509.83,510.01,510.45,510.73,511.01,511.31,511.62,511.93,512.18,512.44,512.74,512.98,513.28,513.58,513.86,514.12,514.40,514.71,514.93,515.02,515.16,515.18,515.22,515.29,515.39,515.65,516.10,516.68,517.32,517.76,518.08,518.34,518.59,518.85,519.22,519.56,519.82,520.02,520.49,520.97,521.44,521.90,522.37,522.88,523.38,523.90,524.61,525.27,525.87,526.45,527.08,527.70,528.50,529.57,530.83,531.91,532.93,533.93,534.93,535.94,537.01,538.09,539.13,540.14,541.14,542.12,543.07,544.00,544.92,545.84,546.79,547.75,548.68,549.61,550.65,551.77,552.89,554.02,555.34,557.74,560.62,562.19,563.37,564.47,565.57,566.64,567.64,568.42,569.82,572.17,575.15,578.01,580.73,583.35,585.94,588.57,591.70,595.13,598.67,602.32,605.57,608.62,611.72
499.97,499.97,499.97,499.97,499.97,499.97,499.97,499.93,499.90,499.90,499.90,499.90,499.90,499.90,499.90,499.90,499.90,499.90,499.90,499.90,499.90,499.90,499.90,499.90,499.90,499.90,499.90,499.90,499.90,499.90,499.90,499.90,499.90,499.90,499.90,499.90,499.90,499.90,499.90,499.90,499.90,499.90,499.90,499.90,499.90,499.90,499.90,499.90,499.90,499.90,499.90,499.90,499.90,499.90,499.90,499.90,499.90,499.90,499.90,499.90,499.90,499.90,499.90,499.90,499.90,499.94,500.04,500.19,500.35,500.50,500.65,500.79,500.88,501.02,501.17,501.33,501.48,501.63,501.75,501.85,502.00,502.20,502.38,502.50,502.58,502.68,502.81,502.95,503.10,503.23,503.33,503.45,503.57,503.68,503.81,503.92,504.03,504.16,504.26,504.39,504.50,504.61,504.73,504.79,504.80,504.80,504.80,504.80,504.78,504.77,504.77,504.77,504.77,504.77,504.77,504.77,504.77,504.77,504.77,504.77,504.77,504.77,504.77,504.77,504.81,504.88,504.90,504.99,505.24,505.60,505.93,506.25,506.56,506.88,507.23,507.47,507.60,507.68,507.77,507.92,508.07,508.22,508.35,508.50,508.63,508.74,508.90,509.05,509.15,509.26,509.41,509.51,509.66,509.83,510.09,510.57,510.90,511.20,511.49,511.75,512.06,512.31,512.58,512.87,513.11,513.40,513.68,513.94,514.23,514.49,514.78,515.00,515.07,515.12,515.09,515.05,515.04,515.16,515.77,516.41,517.04,517.72,518.33,518.74,519.05,519.32,519.50,519.65,519.86,520.12,520.39,520.80,521.29,521.77,522.19,522.65,523.13,523.63,524.13,524.58,524.97,525.47,526.08,526.68,527.25,528.26,529.51,530.82,531.86,532.87,533.88,534.88,535.89,536.96,538.01,539.03,540.03,541.04,542.00,542.94,543.88,544.85,545.79,546.75,547.71,548.64,549.57,550.68,551.96,553.35,554.71,556.17,558.43,561.09,562.91,564.29,565.55,566.74,567.80,568.82,570.04,571.87,574.36,577.07,579.76,582.46,585.04,587.42,589.97,592.90,596.02,599.29,602.97,606.76,610.26,613.53
500.00,500.00,500.00,500.00,500.00,500.00,500.00,499.96,499.94,499.94,499.94,499.94,499.94,499.94,499.94,499.94,499.94,499.94,499.94,499.94,499.94,499.94,499.94,499.94,499.94,499.92,499.90,499.90,499.90,499.90,499.90,499.90,499.90,499.90,499.90,499.90,499.90,499.90,499.90,499.90,499.90,499.90,499.90,499.90,499.90,499.90,499.90,499.90,499.90,499.90,499.90,499.90,499.90,499.90,499.90,499.90,499.90,499.90,499.90,499.90,499.90,499.90,499.90,499.90,499.90,499.94,500.04,500.19,500.35,500.50,500.65,500.79,500.88,501.02,501.17,501.33,501.48,501.61,501.74,501.88,502.04,502.24,502.41,502.55,502.68,502.78,502.89,503.00,503.13,503.28,503.40,503.51,503.63,503.75,503.90,504.01,504.13,504.25,504.36,504.48,504.60,504.70,504.82,504.84,504.84,504.84,504.84,504.84,504.84,504.84,504.84,504.84,504.84,504.84,504.84,504.84,504.84,504.84,504.84,504.84,504.84,504.84,504.84,504.84,504.84,504.88,504.90,505.00,505.28,505.63,505.95,506.25,506.57,506.91,507.32,507.56,507.68,507.71,507.81,507.93,508.07,508.22,508.38,508.51,508.63,508.74,508.90,509.02,509.14,509.25,509.37,509.45,509.61,509.81,510.13,510.66,511.04,511.36,511.64,511.89,512.19,512.44,512.70,513.00,513.24,513.51,513.76,514.01,514.29,514.53,514.79,515.00,515.06,515.07,515.00,514.88,514.79,515.10,515.93,516.73,517.43,518.15,518.88,519.43,519.85,520.12,520.25,520.32,520.44,520.65,520.94,521.31,521.77,522.23,522.64,523.11,523.59,524.11,524.62,525.03,525.36,525.77,526.26,526.74,527.15,528.10,529.37,530.71,531.75,532.62,533.49,534.45,535.51,536.59,537.63,538.70,539.80,540.86,541.82,542.77,543.76,544.81,545.81,546.82,547.82,548.75,549.75,551.04,552.48,554.00,555.52,557.06,559.05,561.35,563.32,565.01,566.50,567.84,569.10,570.72,572.62,574.73,577.13,579.89,582.36,584.76,587.18,589.61,592.02,594.73,597.80,601.34,605.40,609.07,612.43,615.76
500.01,500.01,500.01,500.01,500.01,500.01,500.01,500.00,500.00,500.00,500.00,500.00,500.00,499.99,499.99,499.99,499.99,499.99,499.99,499.99,499.99,499.99,499.99,499.99,499.99,499.94,499.90,499.90,499.90,499.90,499.90,499.90,499.90,499.90,499.90,499.90,499.90,499.90,499.90,499.90,499.90,499.90,499.90,499.90,499.90,499.90,499.90,499.90,499.90,499.90,499.90,499.90,499.90,499.90,499.90,499.90,499.90,499.90,499.90,499.90,499.90,499.90,499.90,499.90,499.90,499.94,500.04,500.19,500.35,500.50,500.65,500.79,500.88,501.02,501.17,501.33,501.48,501.58,501.74,501.94,502.09,502.26,502.41,502.59,502.80,502.94,503.00,503.06,503.15,503.30,503.44,503.54,503.65,503.80,503.95,504.10,504.22,504.33,504.47,504.56,504.69,504.81,504.88,504.89,504.89,504.89,504.89,504.89,504.89,504.89,504.89,504.89,504.89,504.89,504.89,504.89,504.89,504.89,504.89,504.89,504.89,504.89,504.89,504.89,504.89,504.90,504.90,505.02,505.32,505.64,505.96,506.28,506.62,507.00,507.45,507.71,507.79,507.75,507.86,507.96,508.07,508.22,508.37,508.47,508.59,508.73,508.88,508.98,509.10,509.23,509.31,509.40,509.59,509.82,510.14,510.73,511.15,511.48,511.76,512.00,512.29,512.54,512.79,513.07,513.30,513.54,513.77,514.01,514.25,514.49,514.73,514.92,515.00,515.00,514.93,514.71,514.55,515.13,516.04,516.95,517.79,518.59,519.38,520.07,520.60,520.89,520.99,521.13,521.24,521.36,521.61,521.96,522.35,522.78,523.24,523.70,524.22,524.76,525.31,525.88,526.37,526.72,527.01,527.26,527.45,528.07,529.12,530.46,531.48,532.13,532.82,533.71,534.84,535.94,537.02,538.18,539.43,540.59,541.58,542.59,543.69,544.88,546.00,547.08,548.11,549.08,550.22,551.72,553.30,554.80,556.39,557.95,559.65,561.55,563.55,565.57,567.33,568.92,570.64,573.34,576.07,578.46,580.73,583.76,585.97,587.93,590.10,592.68,594.90,597.43,600.75,605.06,609.65,612.46,615.07,618.23
500.06,500.06,500.06,500.06,500.06,500.06,500.06,500.06,500.06,500.06,500.06,500.06,500.03,500.00,500.00,500.00,500.00,500.00,500.00,500.00,500.00,500.00,500.00,500.00,500.00,499.95,499.90,499.90,499.90,499.90,499.90,499.90,499.90,499.90,499.90,499.90,499.90,499.90,499.90,499.90,499.90,499.90,499.90,499.90,499.90,499.90,499.90,499.90,499.90,499.90,499.90,499.90,499.90,499.90,499.90,499.90,499.90,499.90,499.90,499.90,499.90,499.90,499.90,499.90,499.90,499.94,500.04,500.19,500.35,500.50,500.64,500.75,500.87,501.02,501.17,501.33,501.48,501.61,501.77,501.95,502.11,502.30,502.47,502.64,502.82,502.97,503.12,503.23,503.30,503.37,503.46,503.55,503.65,503.81,503.96,504.12,504.26,504.39,504.54,504.63,504.75,504.87,504.90,504.90,504.90,504.90,504.90,504.90,504.90,504.90,504.90,504.90,504.90,504.90,504.90,504.90,504.90,504.90,504.90,504.90,504.90,504.90,504.90,504.90,504.90,504.90,504.90,505.02,505.33,505.64,506.03,506.44,506.85,507.29,507.75,507.98,508.01,507.91,507.90,507.96,508.07,508.21,508.32,508.44,508.56,508.68,508.82,508.91,509.04,509.17,509.25,509.38,509.58,509.84,510.20,510.80,511.26,511.59,511.82,512.01,512.21,512.41,512.60,512.80,512.94,513.19,513.45,513.69,513.97,514.25,514.53,514.79,514.97,514.89,514.77,514.49,514.28,514.86,515.75,516.79,517.88,518.91,519.81,520.55,521.21,521.71,521.82,521.96,522.07,522.16,522.32,522.58,522.96,523.41,523.88,524.34,524.86,525.42,526.01,526.58,527.14,527.65,528.05,528.27,528.34,528.37,528.81,529.77,530.48,531.18,532.03,533.04,534.14,535.28,536.44,537.62,538.79,539.99,541.10,542.22,543.48,545.01,546.38,547.56,548.62,549.70,551.05,552.53,554.05,555.62,557.19,558.71,560.35,562.17,564.14,566.16,568.09,570.26,573.08,576.31,580.18,583.88,587.02,589.53,591.54,593.55,595.65,597.70,599.56,602.15,606.09,611.22,615.07,616.55,617.86,620.13
500.13,500.13,500.13,500.13,500.13,500.13,500.13,500.13,500.12,500.10,500.10,500.10,500.06,500.02,500.02,500.02,500.02,500.02,500.02,500.02,500.01,500.00,500.00,500.00,500.00,499.95,499.90,499.90,499.90,499.90,499.90,499.90,499.90,499.90,499.90,499.90,499.90,499.90,499.90,499.90,499.90,499.90,499.90,499.90,499.90,499.90,499.90,499.90,499.90,499.90,499.90,499.90,499.90,499.90,499.90,499.90,499.90,499.90,499.90,499.90,499.90,499.90,499.90,499.90,499.90,499.94,500.04,500.19,500.35,500.50,500.63,500.72,500.86,501.02,501.17,501.33,501.48,501.63,501.80,501.98,502.13,502.34,502.51,502.67,502.85,503.00,503.20,503.36,503.46,503.49,503.53,503.61,503.70,503.81,503.96,504.12,504.27,504.42,504.58,504.67,504.79,504.91,504.96,505.00,505.04,505.10,505.15,505.13,505.13,505.13,505.13,505.13,505.11,505.10,505.10,505.10,505.10,505.09,505.07,505.07,505.07,505.07,505.06,505.04,505.04,505.02,504.98,505.10,505.45,505.78,506.22,506.67,507.11,507.58,508.04,508.26,508.26,508.11,507.99,507.98,508.06,508.18,508.29,508.41,508.53,508.64,508.76,508.87,508.99,509.10,509.19,509.37,509.58,509.86,510.23,510.80,511.23,511.50,511.68,511.86,512.02,512.17,512.30,512.41,512.50,512.74,513.00,513.25,513.56,513.87,514.17,514.45,514.66,514.55,514.41,514.17,514.01,514.56,515.43,516.55,517.81,519.03,520.04,520.84,521.59,522.27,522.59,522.77,522.90,522.99,523.08,523.27,523.62,524.07,524.58,525.07,525.53,526.03,526.59,527.17,527.80,528.44,529.03,529.46,529.61,529.20,529.00,529.39,529.83,530.77,531.87,533.00,534.17,535.27,536.41,537.53,538.59,539.70,540.84,542.08,543.51,545.24,546.81,548.13,549.33,550.65,552.18,553.65,555.14,556.69,558.21,559.67,561.23,562.93,564.83,566.80,568.91,571.64,575.39,579.28,584.03,588.41,591.76,594.04,596.30,598.89,601.28,602.68,604.25,607.37,612.14,617.84,621.18,621.86,622.00,622.87
