769.47,766.00,762.02,756.82,752.12,748.36,746.54,746.98,747.86,749.76,751.64,753.29,755.00,756.39,758.26,760.69,763.59,766.39,769.41,773.22,777.56,781.09,783.99,786.48,788.88,791.45,793.96,796.40,798.81,800.93,801.95,802.20,801.66,800.61,799.24,795.35,790.46,785.38,779.53,769.52,762.10,757.98,757.06,758.44,761.70,764.99,767.26,767.67,767.76,769.73,771.10,770.54,770.64,773.54,777.07,779.93,781.23,783.56,787.23,790.41,791.29,791.35,790.92,790.10,788.85,787.08,785.15,783.11,781.09,779.34,777.92,776.58,775.27,774.28,774.58,775.29,776.09,776.89,777.62,777.98,778.39,778.96,780.10,783.50,787.44,790.52,792.37,793.71,794.93,795.84,795.85,793.78,790.31,787.99,786.55,785.49,784.33,783.00,781.43,779.65,777.74,776.11,775.13,774.64,774.40,774.17,773.90,773.78,773.96,774.47,774.94,775.37,775.77,776.15,776.21,775.79,775.15,774.52,773.93,773.40,773.41,773.93,774.46,775.12,776.12,777.26,778.24,778.72,778.74,778.89,779.78,782.09,785.04,787.43,789.01,789.86,790.15,790.76,791.45,791.96,792.44,792.98,794.09,795.75,797.42,799.17,800.46,800.88,800.07,798.81,797.67,796.50,795.20,793.93,792.38,790.67,788.72,786.28,784.01,784.83,787.29,789.76,791.38,792.58,793.31,793.46,793.03,792.57,792.30,792.46,793.35,794.41,794.15,792.91,790.72,787.07,781.75,778.22,776.75,775.76,773.86,770.87,767.05,762.81,759.63,757.51,755.67,753.73,751.75,752.76,753.62,753.40,752.18,751.47,752.04,753.09,754.28,756.13,758.92,760.87,761.82,762.49,762.40,761.62,760.29,758.81,758.77,759.92,761.22,762.13,762.25,762.20,762.36,762.79,763.50,764.48,766.07,767.85,769.54,771.15,772.72,774.15,775.50,777.02,778.84,781.35,784.33,787.40,789.81,791.76,793.88,796.40,799.06,801.50,803.75,805.80,807.52,808.73,809.47,809.89,809.99,809.71,808.99,808.75,809.17,809.84,810.28,809.96,808.60,805.89,802.44,798.73,795.18,793.59,798.03,801.56
772.44,768.88,763.67,756.20,750.75,747.29,746.65,749.04,751.66,754.76,757.42,759.47,761.04,761.96,763.14,764.79,766.94,769.15,771.84,775.51,779.77,782.83,785.69,788.65,791.50,793.87,796.33,798.69,800.89,802.64,803.20,802.63,801.38,799.76,797.80,793.87,789.10,783.88,777.30,765.79,759.95,757.62,757.63,760.24,764.70,768.28,769.73,768.22,766.19,766.78,767.96,768.68,770.75,774.15,777.28,779.60,781.19,783.51,787.11,790.25,791.25,791.76,791.44,790.79,789.82,788.01,785.96,783.77,781.61,779.70,778.23,776.84,775.45,774.41,774.71,775.24,775.87,776.57,777.22,777.63,778.20,778.87,779.84,782.37,785.85,788.98,791.21,792.76,794.36,795.64,795.89,793.96,790.88,788.86,787.81,787.29,786.48,785.16,783.55,781.77,779.95,777.69,776.02,774.96,774.37,773.94,773.64,773.76,774.37,775.02,775.54,775.95,776.31,776.60,776.43,775.86,775.12,774.34,773.66,773.25,773.64,774.65,775.29,775.80,776.57,777.31,777.54,777.44,777.28,777.77,779.49,782.80,786.35,789.08,790.84,791.73,792.18,792.97,793.80,794.29,794.39,794.18,794.60,795.87,797.56,799.45,801.13,802.07,801.73,800.99,799.83,798.43,796.87,795.13,793.28,791.37,789.29,786.76,784.60,785.56,788.04,790.32,791.87,793.29,794.38,794.91,794.72,794.43,794.48,794.94,795.77,796.56,795.81,794.24,792.26,789.72,784.14,780.35,779.18,778.99,777.28,773.99,769.41,764.05,760.06,757.54,755.38,753.33,752.09,753.93,755.10,754.93,753.74,752.07,751.93,752.64,753.67,754.91,757.72,759.98,761.35,762.50,763.01,762.51,761.32,759.80,758.63,759.25,760.81,762.56,763.40,763.78,763.80,763.73,763.90,764.15,765.15,766.45,767.86,769.69,771.45,773.02,774.56,776.50,778.75,781.61,784.82,788.03,790.61,792.68,794.71,796.75,798.48,800.31,802.15,803.93,805.57,806.93,807.88,808.59,809.01,808.72,808.23,808.55,809.58,810.31,810.77,810.57,809.48,807.10,803.69,799.90,795.95,793.73,798.09,801.69
774.50,771.38,766.59,758.27,750.82,747.59,747.85,751.11,755.99,759.10,761.03,762.39,763.78,765.60,767.30,768.99,770.75,772.10,774.17,777.31,781.08,783.94,786.69,789.82,793.07,795.95,798.63,800.92,802.94,804.41,804.25,802.84,800.76,798.22,795.14,791.69,787.19,781.37,773.50,762.87,758.61,757.82,759.24,763.36,768.13,771.11,772.01,771.06,769.77,768.10,767.46,768.77,771.08,773.14,774.92,776.48,777.95,780.24,785.14,789.72,790.97,791.86,791.74,791.10,790.01,788.24,786.15,783.95,781.74,779.71,778.22,776.83,775.50,774.60,775.16,775.79,776.35,776.84,777.29,777.79,778.37,778.98,779.80,781.84,784.74,787.76,790.44,792.34,794.16,795.54,795.91,794.35,791.97,790.53,789.80,789.36,788.78,787.36,785.54,783.51,781.31,779.27,777.39,775.82,774.85,774.33,773.95,773.99,774.55,775.12,775.86,776.45,776.86,777.09,776.66,775.96,775.18,774.33,773.47,773.46,773.97,774.63,774.96,775.45,775.99,776.32,776.19,776.04,775.89,776.74,779.21,782.96,787.01,790.04,792.07,793.68,794.59,795.62,796.59,797.10,796.81,796.34,795.91,795.99,797.59,799.46,801.35,802.77,803.05,802.36,801.03,799.45,797.75,795.92,793.96,791.79,789.46,787.11,785.30,786.29,788.56,790.60,792.13,793.60,795.08,796.34,796.62,796.43,796.73,797.43,798.15,798.58,797.53,795.68,793.50,791.23,787.75,784.66,782.80,782.57,780.85,776.52,770.88,765.21,760.45,757.69,755.34,753.24,752.83,754.36,755.41,755.55,754.92,753.59,752.40,752.16,753.11,754.13,756.04,758.39,760.64,762.07,763.37,763.52,762.57,760.75,759.13,759.04,760.15,762.02,763.67,765.00,765.44,765.46,765.80,766.00,766.20,766.31,766.60,768.17,770.10,771.96,773.98,776.86,779.43,782.19,785.17,788.13,790.38,792.23,793.91,795.47,796.99,798.62,800.33,801.97,803.40,804.73,805.72,806.52,807.08,806.94,807.52,808.63,809.88,810.58,811.07,810.77,809.61,807.39,803.99,800.20,796.31,794.12,798.16,801.69
773.56,770.09,765.07,757.35,750.78,747.68,747.83,751.16,756.44,760.04,762.48,764.32,766.07,768.03,770.18,772.30,774.09,775.18,776.33,778.52,781.70,784.50,787.28,790.53,794.10,797.59,800.30,802.53,804.17,804.87,804.29,802.51,800.00,796.95,793.32,789.37,784.66,778.40,769.97,761.35,758.37,758.60,761.14,766.29,770.20,772.67,773.67,772.94,771.46,769.31,768.22,769.03,769.99,771.60,774.30,777.37,779.09,781.26,785.78,790.00,791.19,792.17,791.85,791.01,789.89,788.01,785.90,783.69,781.52,779.59,778.16,776.75,775.53,774.94,775.70,776.43,776.99,777.42,777.85,778.31,778.84,779.53,780.61,782.61,785.16,787.88,790.46,792.36,794.21,795.58,796.03,795.01,793.82,793.10,792.48,791.58,790.36,788.51,786.38,784.09,781.74,779.77,777.85,776.14,775.02,774.51,774.12,774.13,774.62,775.10,775.81,776.50,777.09,777.47,776.97,776.26,775.52,774.71,773.75,773.60,773.88,774.28,774.53,774.88,775.21,775.39,775.32,775.21,775.18,776.23,778.83,782.35,786.04,789.18,791.76,793.95,795.66,797.26,798.62,799.28,798.75,798.06,797.28,796.88,798.05,799.72,801.91,803.80,804.23,803.45,802.00,800.29,798.44,796.46,794.26,791.94,789.57,787.39,785.85,786.81,788.90,790.83,792.38,793.95,795.60,797.15,798.13,798.46,798.80,799.24,799.61,799.75,798.99,797.44,795.28,793.06,790.64,788.20,785.80,783.48,781.05,776.40,770.85,765.74,760.85,757.82,755.30,753.27,753.25,754.62,755.65,755.98,755.63,754.80,753.67,752.70,752.38,753.24,754.64,756.62,758.91,760.91,762.60,763.81,763.85,762.13,760.04,759.18,759.69,761.30,763.06,764.78,765.94,766.72,767.46,767.94,768.41,768.54,768.17,767.96,769.26,771.29,773.73,776.59,779.33,781.90,784.39,786.80,788.86,790.72,792.34,793.68,794.90,796.41,798.06,799.71,801.23,802.54,803.60,804.51,805.22,805.51,806.72,808.40,810.05,810.94,811.31,810.88,809.61,807.21,803.69,799.93,796.46,794.85,798.47,801.57
770.75,767.49,763.13,756.99,752.20,748.81,747.90,750.31,754.86,759.15,762.52,765.19,767.80,769.91,772.47,775.10,777.11,778.11,778.47,779.79,782.38,785.13,787.93,791.23,795.01,798.90,801.58,803.71,804.94,804.88,803.88,801.85,798.93,795.35,791.38,787.00,781.94,775.30,766.78,760.34,758.53,759.67,763.18,768.77,771.75,773.88,775.17,774.55,772.75,770.63,769.58,769.94,769.44,770.89,774.75,779.49,781.73,783.89,787.39,790.56,791.61,792.39,791.75,790.69,789.47,787.52,785.41,783.24,781.14,779.39,778.03,776.63,775.56,775.32,776.25,777.09,777.67,778.09,778.53,778.93,779.50,780.42,781.93,784.02,786.34,788.74,791.06,792.85,794.55,795.79,796.30,795.81,795.59,795.35,794.66,793.20,791.16,788.92,786.58,784.18,781.80,779.80,777.86,776.14,775.04,774.58,774.24,774.23,774.63,775.03,775.65,776.41,777.20,777.79,777.34,776.66,775.97,775.25,774.36,773.95,773.89,774.04,774.21,774.39,774.52,774.63,774.72,774.70,774.80,775.99,778.60,781.80,785.06,788.25,791.23,793.74,796.07,798.20,799.99,800.99,800.52,799.70,798.71,798.00,798.68,800.29,802.67,804.74,805.13,804.35,802.84,801.02,799.02,796.86,794.45,792.02,789.69,787.67,786.34,787.26,789.23,791.08,792.68,794.34,796.03,797.71,799.26,800.04,800.38,800.55,800.61,800.51,800.09,798.94,796.89,794.62,792.64,790.45,787.45,782.97,779.78,775.32,770.43,766.11,761.46,758.13,755.39,753.40,753.51,754.78,755.82,756.30,756.20,755.79,754.99,753.69,752.29,752.63,753.47,754.91,756.90,759.26,761.27,763.42,764.64,763.68,761.27,759.66,759.46,760.62,762.30,764.13,765.84,767.35,768.57,769.50,770.55,771.04,770.37,768.65,768.81,770.54,773.16,775.77,778.55,780.98,783.07,784.89,786.61,788.44,790.10,791.42,792.39,793.94,795.68,797.40,799.00,800.24,801.44,802.54,803.46,804.38,806.09,808.17,810.16,811.25,811.55,811.00,809.51,806.74,803.00,799.20,796.51,796.08,799.11,801.55
765.21,764.36,763.70,760.69,757.81,753.03,749.27,748.61,750.79,755.99,760.43,763.92,768.35,771.26,774.19,777.17,779.62,780.48,780.73,781.71,783.81,786.43,789.05,792.30,796.02,799.65,802.34,804.20,805.09,804.70,803.05,800.72,797.10,792.58,788.43,784.56,779.22,772.20,764.32,759.63,758.92,761.07,765.34,770.17,772.94,775.19,776.70,776.22,774.49,772.34,771.57,772.45,771.56,772.98,776.81,781.69,784.95,787.44,789.58,791.30,792.24,792.17,791.26,790.01,788.54,786.67,784.66,782.58,780.61,779.05,777.76,776.44,775.59,775.71,776.80,777.71,778.35,778.79,779.18,779.57,780.46,781.93,784.00,786.15,788.40,790.59,792.62,794.31,795.47,796.41,796.97,796.74,796.51,795.95,794.85,792.99,790.39,788.09,785.95,783.83,781.62,779.44,777.34,775.67,774.88,774.50,774.32,774.34,774.58,774.91,775.48,776.30,777.26,778.05,777.80,777.18,776.51,775.93,775.58,774.99,774.56,774.39,774.36,774.29,774.23,774.28,774.47,774.59,774.78,776.10,778.91,782.13,785.43,788.58,791.40,793.59,795.77,798.01,800.17,801.86,802.20,801.50,800.26,799.13,799.41,801.51,803.74,805.22,805.37,804.94,803.52,801.63,799.49,797.05,794.58,792.15,789.86,787.99,786.81,787.75,789.64,791.42,793.11,794.75,796.42,798.10,799.64,800.33,800.74,801.01,801.09,800.82,800.38,799.43,797.66,795.12,792.77,789.79,785.79,780.65,777.15,773.75,770.20,766.52,762.67,758.97,755.82,753.74,753.62,754.80,755.85,756.49,756.73,756.37,755.79,755.08,754.16,752.91,752.74,753.51,754.96,756.88,759.31,761.73,764.02,765.39,763.07,760.75,759.72,760.25,761.84,763.46,765.04,766.63,768.28,769.88,771.45,772.31,771.96,770.75,769.04,769.28,771.45,773.90,776.53,779.04,781.13,782.53,783.45,784.88,786.62,788.27,789.21,791.23,793.33,795.15,796.59,797.59,799.11,800.64,801.94,803.84,805.96,808.17,810.18,811.38,811.81,811.17,809.27,805.85,801.73,797.65,796.41,798.45,800.46,801.94
767.42,767.30,767.30,765.34,762.41,757.80,752.81,749.06,749.21,753.31,757.91,762.41,767.81,771.66,775.02,778.18,780.86,782.34,783.48,784.78,786.45,788.64,791.13,794.19,797.61,800.87,803.39,804.70,804.94,804.05,801.96,798.49,794.15,789.66,786.02,782.72,777.31,769.96,762.20,759.26,759.36,762.39,767.61,771.79,774.61,776.96,778.52,778.21,776.48,774.29,773.46,774.51,774.79,775.93,778.86,783.13,787.01,789.42,790.98,792.04,792.50,791.79,790.60,789.11,787.41,785.58,783.64,781.68,779.92,778.60,777.35,776.13,775.62,776.23,777.31,778.31,779.00,779.58,780.50,781.52,782.66,784.14,786.15,788.33,790.59,792.83,794.90,796.48,797.07,797.54,797.78,797.19,796.57,795.62,793.94,791.41,789.07,786.42,784.16,782.38,780.61,778.80,776.91,775.40,774.83,774.52,774.41,774.46,774.63,774.89,775.49,776.36,777.37,778.25,778.40,778.08,777.61,777.23,777.04,776.52,776.01,775.64,775.29,774.75,774.41,774.31,774.42,774.60,775.06,776.65,779.62,782.72,785.97,789.18,792.16,794.62,796.95,799.02,800.96,802.72,803.77,803.67,802.60,801.28,801.50,803.19,804.66,805.48,805.54,805.31,803.96,802.08,799.93,797.54,795.17,792.81,790.55,788.66,787.30,788.04,789.79,791.52,793.19,794.85,796.53,798.21,799.75,800.45,800.90,801.26,801.39,800.98,800.51,799.56,797.72,795.03,792.41,788.86,784.56,780.67,778.46,775.90,772.81,769.29,765.18,760.47,756.53,754.10,753.61,754.72,755.79,756.56,757.12,756.95,756.48,755.92,755.21,753.98,753.36,753.26,753.71,755.07,757.22,759.78,762.61,765.13,764.80,762.64,760.78,760.27,761.37,762.72,764.23,765.89,767.73,769.55,771.31,772.71,773.36,772.77,770.55,769.46,770.08,771.69,773.80,776.12,778.22,779.60,780.25,781.25,782.41,783.53,784.58,787.52,790.47,792.66,793.75,794.44,795.43,796.96,799.24,802.24,804.64,807.26,809.92,811.47,812.08,811.33,809.05,805.00,800.46,797.81,797.94,800.36,801.90,803.10
771.76,771.47,770.79,768.65,765.02,760.96,755.71,750.02,748.76,751.28,755.61,760.88,766.75,771.47,775.27,778.55,781.39,783.63,785.85,787.70,789.25,791.22,793.69,796.52,799.51,802.34,804.41,805.05,804.55,802.98,800.36,795.70,790.99,787.03,784.02,780.99,775.42,767.93,760.59,759.11,759.85,763.58,769.52,773.23,776.25,778.69,780.23,780.11,778.45,776.29,775.29,776.30,778.08,779.16,781.21,784.61,788.60,790.71,792.01,792.72,792.49,791.33,789.82,788.09,786.20,784.40,782.49,780.70,779.17,778.05,776.87,775.88,775.77,776.83,777.87,779.00,779.91,780.81,782.38,784.06,785.36,786.67,788.54,790.77,793.12,795.39,797.39,798.70,798.78,798.77,798.58,797.55,796.44,795.07,792.72,789.40,787.57,784.73,782.32,780.74,779.47,778.15,776.58,775.26,774.82,774.57,774.51,774.58,774.77,775.03,775.72,776.64,777.63,778.57,779.03,779.02,778.81,778.63,778.50,778.17,777.73,777.19,776.47,775.44,774.79,774.50,774.45,774.64,775.37,777.27,780.40,783.40,786.56,789.80,793.00,795.92,798.45,800.34,801.94,803.54,805.04,805.54,804.83,803.62,803.84,804.79,805.42,805.64,805.69,805.56,804.29,802.43,800.28,798.06,795.82,793.57,791.37,789.41,787.84,788.30,789.83,791.50,793.13,794.83,796.53,798.21,799.76,800.51,801.04,801.47,801.63,801.10,800.57,799.55,797.62,794.81,791.99,788.28,784.32,782.13,781.21,779.19,776.25,772.71,768.20,762.35,757.45,754.55,753.61,754.61,755.71,756.59,757.39,757.50,757.12,756.55,755.92,755.22,754.43,753.59,753.10,753.78,755.29,757.79,760.87,763.99,766.03,764.59,762.28,760.73,761.12,762.23,763.62,765.18,766.93,768.70,770.49,772.33,773.93,774.19,772.80,771.21,770.22,770.60,772.00,773.94,775.81,777.08,777.71,778.54,779.19,779.59,780.45,783.68,787.08,789.55,790.44,791.20,791.69,793.05,796.05,799.94,802.77,806.03,809.56,811.54,812.37,811.52,808.90,804.39,799.52,798.60,799.83,801.87,803.29,804.55
772.83,771.52,769.68,765.97,761.93,757.60,753.31,749.83,748.90,750.88,754.67,759.63,765.32,770.52,774.70,778.19,781.18,783.65,786.11,788.50,790.93,793.83,796.59,799.22,801.77,804.08,804.96,804.89,803.73,801.14,797.24,792.43,788.53,785.65,782.74,778.87,772.50,765.45,760.29,759.20,760.50,764.39,770.00,773.71,777.12,779.65,781.14,781.33,780.04,778.16,777.07,777.75,780.03,782.18,784.58,787.33,790.09,791.64,792.80,793.16,792.10,790.81,788.89,786.89,785.02,783.18,781.27,779.70,778.44,777.32,776.29,775.98,776.42,777.55,778.69,780.10,781.73,783.50,785.31,786.90,788.08,789.45,791.67,794.11,796.69,798.64,799.66,800.13,800.00,799.67,799.15,798.19,796.83,795.02,791.94,787.79,786.26,784.17,781.88,779.95,779.04,777.81,776.43,775.30,774.83,774.62,774.58,774.67,774.97,775.59,776.48,777.42,778.38,779.29,779.52,779.56,779.56,779.58,779.65,779.63,779.28,778.54,777.44,776.16,775.21,774.67,774.52,774.65,775.38,777.47,780.94,784.07,787.10,790.18,793.35,796.50,799.08,801.09,802.76,804.22,805.43,805.79,805.57,805.15,805.22,805.52,805.70,805.77,805.82,805.70,804.50,802.63,800.38,798.20,796.06,793.96,791.89,789.95,788.49,788.67,789.84,791.39,793.06,794.80,796.53,798.21,799.77,800.64,801.31,801.82,801.88,801.26,800.59,799.59,797.82,794.94,791.98,789.25,786.98,785.46,783.63,781.42,778.66,775.16,771.30,764.63,758.76,755.26,753.76,754.58,755.70,756.66,757.52,757.97,757.70,757.15,756.59,756.00,755.26,754.49,753.82,753.53,754.09,756.09,759.04,762.47,765.51,765.70,764.24,762.27,761.67,762.70,763.76,764.60,765.59,766.97,768.73,770.41,771.86,773.61,775.90,776.46,775.21,773.86,774.55,775.71,776.54,776.77,777.58,779.20,780.45,780.68,780.04,780.76,782.53,784.56,786.14,788.30,789.60,790.78,792.83,796.63,800.62,804.97,809.16,811.62,812.73,811.81,809.04,804.55,799.72,799.28,800.74,802.63,804.36,805.96
769.02,766.19,763.55,759.75,756.45,753.51,751.11,749.61,749.61,752.11,755.62,759.89,765.51,770.54,774.70,778.25,781.34,783.85,786.35,788.97,791.89,795.35,798.52,801.33,803.61,804.94,805.15,804.35,802.44,799.07,794.27,789.90,786.60,784.11,781.27,775.57,769.78,764.71,760.95,759.61,760.66,763.95,768.63,772.03,775.76,778.95,781.21,782.10,781.60,779.98,778.69,778.90,781.09,784.11,787.03,789.54,791.58,793.00,793.59,793.24,791.85,790.43,788.17,785.78,783.61,781.71,780.17,778.99,778.05,777.16,776.18,776.12,776.83,778.07,779.32,781.23,783.44,785.73,787.88,789.47,791.04,792.82,794.93,797.13,798.99,800.17,800.62,800.89,800.84,800.51,799.98,799.26,798.38,796.45,793.17,788.68,785.04,782.63,781.00,779.87,778.94,777.44,776.07,775.14,774.82,774.67,774.64,774.73,775.10,776.09,777.23,778.31,779.31,780.15,780.30,780.41,780.56,780.74,780.94,780.81,780.31,779.45,778.24,776.85,775.63,774.82,774.66,774.72,775.17,776.93,780.22,783.57,786.97,790.13,793.06,795.88,798.55,800.89,802.97,804.71,805.80,806.06,805.99,805.86,805.83,805.86,805.90,805.93,805.91,805.72,804.47,802.53,800.25,798.12,796.07,794.07,792.10,790.24,788.91,788.89,789.67,790.88,792.71,794.65,796.58,798.40,799.91,800.90,801.72,802.23,802.01,801.29,800.53,799.50,797.85,795.40,792.89,790.76,789.02,787.40,785.13,782.83,780.40,777.49,773.93,767.33,760.91,756.34,754.24,754.65,755.64,756.61,757.55,758.39,758.36,757.90,757.36,756.78,756.10,755.40,754.67,753.90,753.65,754.87,757.44,761.17,764.94,766.54,765.90,763.74,762.40,763.13,764.26,765.26,766.13,767.16,768.62,769.86,770.82,772.85,776.60,779.38,780.28,779.51,779.83,779.92,779.52,778.76,778.51,779.94,782.22,784.28,784.31,784.07,784.34,785.50,788.03,791.38,793.45,794.62,795.59,797.52,800.89,805.11,809.30,811.94,812.93,811.78,808.79,804.24,799.72,799.48,801.03,803.00,804.95,806.82
762.63,758.74,756.25,753.58,751.61,750.58,749.97,749.83,751.19,754.59,757.92,761.43,766.93,771.41,775.29,778.79,781.88,784.39,786.85,789.52,792.56,796.20,799.73,802.85,804.94,805.19,805.05,803.59,800.95,797.03,791.74,787.97,784.98,782.35,779.44,772.50,768.23,765.48,762.29,760.20,760.50,762.78,766.27,769.24,773.23,777.25,780.58,782.39,783.04,781.88,780.50,780.26,781.98,785.48,788.83,791.37,793.13,794.49,794.23,793.00,791.55,790.03,787.52,784.75,782.21,780.34,779.37,778.67,778.04,777.42,776.42,776.31,777.04,778.42,779.80,782.23,784.86,787.41,789.88,791.49,793.61,795.92,797.80,799.47,800.19,800.47,800.67,801.16,801.48,801.37,800.95,800.50,800.28,798.44,795.35,791.00,784.66,781.26,780.19,780.17,779.07,777.17,775.69,774.90,774.81,774.73,774.71,774.78,775.17,776.49,777.91,779.22,780.36,781.16,781.36,781.53,781.78,782.05,782.22,781.76,781.02,780.13,778.99,777.63,776.23,775.20,775.01,774.97,774.97,776.11,778.85,782.22,786.01,789.36,792.13,794.55,797.39,800.20,802.83,805.05,806.19,806.39,806.28,806.14,806.06,806.04,806.06,806.08,805.96,805.63,804.22,802.20,799.95,797.88,795.91,793.98,792.08,790.32,789.15,789.11,789.62,790.48,792.45,794.62,796.76,798.73,800.20,801.27,802.22,802.66,802.04,801.21,800.40,799.33,797.78,795.99,794.16,792.32,790.42,788.37,786.13,783.92,781.84,779.66,776.24,770.32,763.69,757.87,754.93,754.77,755.52,756.48,757.56,758.75,759.00,758.72,758.20,757.60,756.96,756.26,755.49,754.57,753.69,754.11,756.23,760.24,764.59,767.26,767.33,765.16,763.31,763.50,764.84,766.46,767.63,768.51,769.70,770.64,771.24,772.88,776.39,780.73,784.55,785.70,785.96,785.10,783.75,782.40,780.91,781.42,784.20,788.25,790.09,790.22,789.49,789.63,792.85,796.81,799.51,800.94,801.17,800.74,802.58,805.95,809.78,812.42,812.98,811.44,808.17,803.55,799.68,799.41,800.89,803.06,805.17,807.28
757.05,755.39,756.13,756.00,755.09,753.80,752.39,751.94,755.25,758.54,761.52,764.85,769.58,773.39,776.89,780.18,783.15,785.85,788.37,790.90,793.65,796.89,800.34,803.28,805.09,805.07,804.51,802.71,799.74,795.58,790.58,786.77,783.45,780.17,776.73,773.51,771.11,768.37,764.33,760.83,760.31,761.63,764.06,767.03,771.21,775.28,778.82,781.65,783.92,784.14,783.55,783.27,784.20,787.08,790.19,792.85,794.78,795.42,794.21,792.25,790.62,789.10,786.58,783.83,781.47,780.08,779.63,779.35,778.88,778.02,777.02,776.59,777.08,778.54,780.10,782.65,785.42,788.06,790.38,791.81,793.87,796.37,798.63,799.78,799.91,799.86,800.12,801.04,802.09,802.30,801.87,801.43,800.76,799.06,796.58,793.17,787.88,783.41,781.10,780.48,779.45,777.42,775.77,774.89,774.87,774.85,774.84,774.86,775.20,776.64,778.36,780.06,781.57,782.58,782.85,783.01,783.24,783.42,783.02,782.38,781.66,780.88,779.99,778.93,777.71,776.65,776.16,775.92,775.39,775.89,777.88,780.17,783.12,786.50,789.95,793.02,796.37,799.67,802.73,805.22,806.54,806.85,806.76,806.57,806.44,806.32,806.26,806.18,805.94,805.35,803.65,801.52,799.41,797.48,795.55,793.67,791.86,790.17,789.26,789.72,790.68,791.61,793.36,795.38,797.39,799.25,800.74,801.84,802.76,803.04,802.01,801.00,800.12,799.15,797.90,796.31,794.66,792.86,790.92,788.93,787.29,785.52,783.58,781.32,778.34,773.43,767.17,760.54,755.76,754.76,755.27,756.32,757.65,759.00,759.46,759.42,759.10,758.54,757.80,756.95,756.02,755.04,754.06,754.18,756.10,760.31,765.00,768.17,768.61,766.58,764.66,763.96,764.92,766.77,768.43,769.83,771.69,773.55,775.10,776.68,778.51,781.67,785.69,788.62,789.30,788.82,788.11,787.66,787.29,786.36,786.33,787.94,790.89,792.99,792.80,792.22,794.36,797.18,800.11,802.50,803.68,803.35,804.26,806.81,810.33,812.96,812.81,810.56,806.90,802.54,800.06,799.35,800.32,802.69,805.05,807.37
755.41,756.05,758.14,759.04,758.49,756.53,754.74,754.84,758.96,762.13,764.71,767.46,771.20,774.60,777.92,781.14,784.16,787.06,789.74,792.32,794.94,797.84,800.82,803.31,804.83,804.73,803.92,802.09,798.79,794.03,789.56,785.86,782.76,779.97,777.25,776.17,774.72,771.84,767.43,765.07,764.43,764.63,765.12,765.47,769.19,773.34,777.11,780.57,783.69,785.35,786.09,786.42,787.09,789.52,792.31,794.85,796.69,796.34,794.24,791.68,789.68,788.08,785.83,783.46,781.51,780.72,780.57,780.40,779.88,778.74,777.59,776.84,777.09,778.59,780.26,782.83,785.58,788.14,790.26,791.52,793.22,795.49,797.84,798.55,798.72,799.07,799.90,801.32,802.72,803.05,802.54,801.83,800.80,799.04,796.76,793.85,789.64,785.57,782.92,781.59,780.30,778.53,776.73,775.47,775.23,775.33,775.21,775.13,775.45,776.89,778.80,780.80,782.63,783.90,784.27,784.46,784.57,784.42,783.74,783.03,782.34,781.63,780.88,780.08,779.22,778.39,777.70,777.04,776.00,775.87,777.12,778.64,780.63,783.45,787.21,791.89,795.83,799.54,802.92,805.56,806.84,807.21,807.16,806.93,806.70,806.48,806.34,806.17,805.76,804.66,802.60,800.39,798.42,796.58,794.71,793.00,791.42,790.01,789.44,790.24,791.55,792.82,794.52,796.41,798.26,799.98,801.48,802.68,803.19,802.88,801.65,800.34,799.31,798.40,797.46,796.44,795.06,793.41,791.63,789.97,788.86,787.49,785.65,783.24,780.58,776.65,771.14,764.31,757.75,755.28,755.45,756.80,758.29,760.13,761.06,761.25,760.77,759.67,758.67,757.65,756.59,755.51,754.47,754.34,756.20,760.84,765.73,769.09,769.66,767.70,765.78,764.48,765.15,767.08,769.03,771.10,773.44,775.72,777.81,780.02,781.64,784.03,787.23,790.11,791.09,791.14,790.98,791.02,791.29,790.03,788.75,788.87,791.90,795.30,796.31,796.04,797.04,798.68,801.41,804.19,805.96,805.88,806.32,808.22,811.24,813.80,812.75,809.84,805.97,802.08,801.24,800.04,800.09,802.08,804.68,807.25
756.94,759.37,761.04,761.56,760.77,758.13,756.55,757.96,761.93,765.14,767.42,769.35,772.00,775.09,778.32,781.56,784.75,787.82,790.68,793.43,796.14,798.84,801.12,803.01,804.23,804.17,803.28,801.68,798.17,792.68,788.80,785.50,783.22,781.83,780.70,779.93,778.62,775.79,771.68,772.01,771.61,770.58,768.56,764.49,767.35,771.69,775.75,779.51,782.72,785.58,787.83,789.29,790.40,792.74,795.18,797.29,798.68,797.33,794.52,791.45,788.97,787.19,785.38,783.60,782.25,782.03,781.99,781.65,780.84,779.47,778.11,777.05,777.09,778.59,780.28,782.78,785.38,787.74,789.67,790.84,792.09,793.85,795.98,796.49,797.24,798.50,800.25,802.12,803.40,803.56,802.86,801.72,800.50,798.50,795.98,793.06,789.66,787.10,785.01,783.15,781.42,780.14,778.32,776.58,775.92,776.09,775.80,775.57,775.94,777.30,779.26,781.42,783.50,785.08,785.58,785.79,785.70,785.13,784.45,783.75,783.06,782.36,781.67,781.02,780.60,780.16,779.34,778.14,776.65,775.98,776.60,777.75,778.90,780.73,784.37,791.17,795.67,799.66,803.29,805.99,807.06,807.44,807.44,807.17,806.81,806.49,806.25,805.99,805.41,803.68,801.29,799.03,797.17,795.37,793.57,792.06,790.83,789.88,789.68,790.60,792.11,793.82,795.64,797.44,799.17,800.78,802.29,803.65,803.47,802.25,800.90,799.12,797.92,797.05,796.38,796.18,795.27,793.95,792.51,791.33,790.63,789.55,787.76,785.17,782.57,779.40,774.83,768.40,760.52,756.24,756.07,757.97,759.75,762.30,763.79,764.11,763.18,761.12,759.62,758.38,757.20,755.99,754.88,754.49,756.28,761.29,766.18,769.74,770.47,768.52,766.61,765.03,765.56,767.49,769.54,772.30,774.86,777.08,779.31,782.62,785.23,787.40,789.27,790.72,791.80,792.34,792.54,792.64,792.91,792.31,791.51,791.48,793.87,797.58,799.88,800.67,800.84,801.63,803.89,806.49,808.26,808.35,808.68,810.08,812.46,814.72,812.74,809.28,805.45,802.30,803.07,801.55,800.45,801.41,804.11,806.92
758.01,760.74,762.33,762.68,761.27,758.63,757.48,759.46,763.62,767.31,770.05,772.03,773.68,775.77,778.37,781.34,784.56,787.61,790.29,793.00,795.87,798.53,800.64,802.16,803.05,803.05,802.38,801.24,798.35,793.45,789.62,787.55,786.46,785.77,784.96,784.25,782.98,780.79,777.84,776.75,775.24,773.16,769.81,764.17,766.92,771.47,775.74,779.74,782.72,785.54,788.21,790.75,793.60,796.52,798.52,799.54,799.90,798.63,795.70,792.20,789.25,787.40,785.64,784.27,783.55,783.49,783.40,782.67,781.41,779.97,778.53,777.24,777.06,778.52,780.13,782.30,784.57,786.72,788.59,790.05,791.32,792.84,794.85,796.31,797.83,799.73,801.92,803.70,804.25,803.66,802.42,801.10,799.68,797.33,794.25,790.93,788.63,786.72,784.92,783.25,781.89,780.75,779.42,778.05,777.09,776.82,776.34,776.21,776.81,778.09,779.76,781.76,784.01,786.17,786.76,786.78,786.48,785.85,785.21,784.52,783.83,783.13,782.45,781.90,781.65,781.23,780.04,778.61,777.00,776.16,776.58,777.68,778.63,779.78,782.95,790.78,795.52,799.54,803.16,805.85,806.96,807.39,807.42,807.14,806.71,806.30,805.77,805.26,804.69,802.92,800.62,798.44,796.59,794.71,792.88,791.35,790.26,789.84,789.82,790.82,792.37,794.02,795.81,797.59,799.32,801.02,802.78,804.04,803.49,801.70,799.54,796.81,795.58,794.93,794.34,794.30,794.31,793.81,792.90,792.13,791.51,790.51,788.61,785.50,782.33,778.94,774.85,769.48,762.20,757.26,757.13,760.06,763.41,766.27,767.54,767.44,766.02,763.63,761.05,759.14,757.84,756.55,755.27,754.60,755.65,759.39,763.89,768.88,770.80,769.13,767.23,765.62,766.09,767.99,770.10,773.26,776.07,778.58,781.29,785.17,787.88,789.54,790.53,791.41,792.42,793.21,793.79,794.21,794.49,794.72,794.98,795.67,797.77,799.92,801.73,803.02,803.69,804.80,806.99,809.08,810.16,810.35,810.90,812.03,813.60,814.79,812.39,808.71,805.29,803.59,805.16,804.23,802.40,801.47,803.49,806.17
759.00,761.68,763.41,763.79,761.93,759.60,758.74,760.55,764.78,768.88,772.09,774.37,775.88,777.28,779.21,781.59,784.32,787.17,789.64,792.13,794.74,797.30,799.46,800.95,801.78,801.94,801.72,800.94,798.58,794.56,791.75,790.88,790.56,790.10,789.15,788.39,787.04,785.07,782.63,780.20,777.71,774.77,770.53,764.17,766.41,770.68,774.99,779.34,782.34,784.83,787.65,791.27,795.50,798.85,800.64,801.05,800.71,799.66,796.71,792.88,789.53,787.60,786.17,785.31,785.05,785.00,784.63,783.54,782.04,780.57,779.10,777.66,777.15,778.16,779.72,781.62,783.64,785.65,787.57,789.41,791.07,792.80,794.83,796.93,799.04,801.31,803.52,804.74,804.62,803.48,801.89,800.43,799.02,796.18,792.61,789.33,787.84,786.43,784.99,783.59,782.39,781.24,780.16,779.10,778.04,777.42,776.80,776.73,777.48,778.64,780.10,782.20,784.81,787.33,787.88,787.65,787.15,786.54,785.92,785.26,784.59,783.91,783.24,782.84,782.62,781.98,780.31,778.77,777.15,776.38,776.89,778.04,779.10,780.27,783.26,790.65,795.26,799.15,802.56,805.03,806.14,806.77,806.95,806.67,806.02,805.43,804.88,804.44,803.97,802.25,800.24,798.35,796.64,794.85,793.10,791.62,790.57,790.20,790.07,791.09,792.67,794.27,795.90,797.60,799.33,801.17,803.25,804.11,803.09,800.73,797.62,794.25,793.08,792.57,791.98,792.31,792.87,792.85,792.34,791.94,791.46,790.13,787.76,784.27,780.66,776.98,772.71,767.51,761.46,758.36,759.63,763.54,767.58,769.92,770.73,770.28,768.60,766.12,762.85,760.22,758.42,756.99,755.58,754.69,755.11,757.68,761.79,767.79,771.04,770.21,768.02,766.31,766.63,768.37,770.54,773.86,776.99,779.99,783.26,787.33,789.66,790.80,791.37,791.93,792.63,793.26,793.83,794.35,794.77,795.55,796.65,798.13,800.05,801.09,802.27,803.69,805.11,806.83,808.99,810.77,811.66,812.23,813.01,813.98,814.84,814.66,811.98,808.20,805.35,805.34,807.34,807.09,805.07,802.71,803.24,805.20
759.98,762.52,764.53,765.22,763.29,761.57,760.75,761.63,765.61,769.87,773.39,776.15,778.41,779.68,781.05,782.59,784.33,786.78,789.11,791.19,793.19,795.51,797.77,799.47,800.53,800.96,801.39,800.88,798.83,795.77,795.16,795.26,795.11,794.39,793.03,792.09,790.47,788.13,785.27,782.46,779.47,775.88,771.01,764.41,765.59,769.08,773.16,777.86,781.11,783.23,786.17,790.91,795.83,799.29,801.18,801.70,801.16,800.24,797.26,793.23,789.62,787.66,786.93,786.70,786.65,786.54,785.62,784.30,782.82,781.35,779.88,778.36,777.40,777.59,779.02,780.78,782.67,784.66,786.77,789.00,791.37,793.73,795.97,798.14,800.54,802.89,804.69,804.92,804.35,803.10,801.51,800.08,798.94,795.57,791.65,788.85,787.65,786.74,785.72,784.50,783.09,781.77,780.61,779.56,778.62,777.86,777.16,777.08,777.83,778.86,780.25,782.83,786.09,788.58,788.91,788.45,787.81,787.19,786.57,785.95,785.32,784.68,784.06,783.86,783.53,782.48,780.30,778.72,777.19,776.61,777.42,778.71,780.14,782.06,785.24,790.70,794.84,798.49,801.51,803.50,804.53,805.42,805.85,805.60,804.58,803.74,803.51,803.59,803.30,801.70,800.14,798.71,797.31,795.81,794.33,793.04,791.96,791.09,790.59,791.50,793.12,794.74,796.13,797.65,799.36,801.39,803.79,803.89,802.19,799.19,795.19,791.54,790.31,789.77,789.30,790.37,790.92,790.89,790.60,790.49,790.10,787.98,784.81,781.26,777.51,773.62,768.62,762.80,758.61,759.80,763.81,768.47,771.85,772.84,773.03,772.40,770.70,768.30,764.96,761.69,759.02,757.34,755.81,754.80,754.87,756.81,760.62,766.86,771.28,771.91,769.11,767.16,767.14,768.55,770.76,773.99,777.54,781.19,784.94,788.80,790.42,791.20,791.75,792.12,792.33,792.39,792.47,792.75,793.45,794.37,795.89,797.97,799.75,800.60,801.45,802.77,804.91,807.24,809.42,811.23,812.61,813.91,814.90,815.79,816.10,814.41,811.55,807.84,805.72,807.42,809.50,809.78,808.12,805.21,803.65,804.24
761.13,763.42,765.46,766.80,766.32,765.56,764.72,764.40,766.66,770.44,774.38,777.84,780.22,781.64,782.92,784.25,785.72,787.54,789.73,791.99,794.24,796.40,797.79,798.59,799.27,800.36,801.25,801.10,799.88,798.27,798.90,799.57,799.33,798.10,796.21,794.49,792.37,789.78,786.81,783.86,780.78,776.76,771.21,764.50,765.65,768.86,772.17,775.52,778.29,780.29,783.95,790.27,795.81,799.44,801.56,802.33,801.65,800.47,797.29,793.20,789.81,788.62,788.33,788.27,788.17,787.64,786.51,785.14,783.70,782.18,780.67,779.07,778.08,778.06,778.16,779.64,781.61,783.76,786.22,788.79,791.52,794.29,796.89,799.23,801.72,803.77,804.93,804.94,804.05,803.03,802.25,801.91,801.37,798.35,794.20,790.49,788.75,787.80,786.75,785.41,783.95,782.58,781.28,780.08,779.07,778.30,777.60,777.48,778.14,779.03,780.46,783.64,787.58,789.87,789.80,789.17,788.51,787.89,787.28,786.65,786.04,785.45,785.03,785.04,784.43,782.93,780.64,778.91,777.37,776.77,777.53,779.08,781.01,783.38,786.38,790.31,794.14,797.73,800.49,801.92,802.72,803.29,803.54,803.34,802.48,801.66,801.66,802.17,802.45,801.48,800.35,799.14,797.81,796.41,795.35,794.48,793.64,792.66,791.84,792.42,793.79,795.31,796.64,798.07,799.83,802.12,804.74,803.61,800.91,797.40,793.00,788.21,785.16,784.18,785.29,787.16,787.42,787.44,787.56,787.21,785.28,782.22,779.07,776.28,772.50,767.80,763.53,760.84,761.24,763.79,768.37,773.13,775.54,775.86,775.23,774.01,772.22,769.95,766.75,763.36,760.29,758.12,756.19,755.00,755.06,757.09,761.16,766.90,771.78,773.71,770.61,768.37,767.68,768.31,770.15,773.29,777.45,781.52,784.95,788.21,789.97,790.82,791.21,791.43,791.42,791.23,791.05,791.11,791.59,792.31,793.71,795.72,797.19,798.25,799.59,801.40,803.71,806.11,808.57,810.65,812.24,814.17,815.74,816.56,816.20,813.90,811.10,808.03,806.84,809.32,811.12,811.08,809.88,807.96,806.05,805.07
762.06,764.36,766.47,768.28,769.30,769.39,768.62,767.43,767.79,770.87,774.88,778.59,780.80,782.21,783.56,785.14,786.96,788.53,790.75,793.29,795.86,797.95,798.69,798.77,799.08,800.43,801.63,802.02,801.71,801.26,802.32,803.13,802.71,801.02,798.48,795.87,793.21,790.36,787.29,784.33,781.21,776.87,770.90,764.53,765.91,769.17,772.28,775.06,777.63,779.85,783.88,790.53,796.21,799.83,802.09,803.03,801.99,800.35,796.97,793.21,790.85,790.58,790.59,790.45,789.95,788.73,787.35,785.88,784.33,782.69,781.16,780.07,779.65,779.60,778.22,778.90,780.73,783.15,785.90,788.66,791.58,794.59,797.52,800.05,802.55,804.30,804.96,804.94,804.12,803.49,803.38,803.77,803.68,801.20,797.22,792.94,790.49,789.11,787.81,786.34,784.87,783.33,781.79,780.40,779.35,778.63,777.95,777.80,778.34,779.09,780.39,783.98,788.54,790.83,790.85,790.14,789.35,788.64,788.01,787.39,786.79,786.28,786.13,786.30,785.50,783.75,781.43,779.54,777.98,777.18,777.46,778.87,780.90,783.31,786.08,789.38,793.02,796.40,798.76,799.62,800.10,800.30,800.46,800.55,800.16,799.58,800.01,801.04,801.73,801.35,800.57,799.51,798.23,797.05,796.33,795.76,795.12,794.21,793.32,793.50,794.49,795.90,797.21,798.56,800.47,802.99,805.29,803.15,799.74,795.99,791.50,785.54,780.93,779.51,781.54,783.43,783.12,783.23,783.90,783.38,780.60,777.08,773.86,771.18,767.38,762.86,760.41,761.26,765.12,768.83,773.34,777.39,778.75,778.52,777.28,775.59,773.61,771.27,768.24,764.95,761.79,759.31,757.26,755.62,755.23,757.30,761.89,767.24,772.23,775.05,772.34,769.75,768.33,768.27,769.84,772.01,776.16,780.57,784.07,786.84,788.78,789.79,790.12,790.20,789.74,788.86,788.11,788.05,788.61,789.47,790.88,792.68,793.98,795.39,797.34,799.66,802.04,804.30,807.00,809.51,811.53,813.88,815.99,816.85,816.09,813.51,810.74,808.57,808.32,810.85,812.40,812.11,811.25,810.21,808.54,806.62
762.61,765.37,767.74,769.58,771.57,772.16,771.61,770.24,769.04,771.21,774.57,777.72,779.49,780.52,782.09,784.43,787.37,789.45,791.98,794.71,797.37,799.56,800.40,800.52,800.65,801.48,802.83,803.96,804.50,804.48,804.96,805.33,804.71,802.81,799.48,796.13,792.90,789.66,786.37,783.52,780.25,775.68,769.82,764.57,766.23,769.93,773.99,778.17,781.25,784.17,787.78,792.48,797.51,800.78,802.98,803.83,802.04,799.77,796.31,793.54,793.39,793.94,794.10,793.60,792.25,790.02,788.20,786.43,784.61,782.82,781.40,781.74,782.62,782.53,779.85,778.98,780.25,782.99,785.86,788.62,791.52,794.61,797.74,800.45,802.92,804.50,804.97,804.98,804.79,804.68,804.71,804.78,804.76,802.80,799.57,795.89,792.81,790.54,788.78,787.30,785.77,783.85,781.93,780.36,779.40,778.73,778.11,777.95,778.39,778.98,779.85,783.47,788.46,791.26,792.19,791.57,790.44,789.47,788.80,788.17,787.59,787.20,787.37,787.64,786.90,785.19,782.87,780.84,779.28,778.05,777.33,777.84,779.19,781.05,783.65,787.62,791.22,794.06,795.73,795.98,795.99,796.08,796.55,797.31,797.74,797.66,798.90,800.62,801.27,801.22,800.65,799.71,798.59,797.85,797.26,796.71,796.13,795.47,794.86,794.67,795.17,796.49,797.75,799.07,801.24,803.91,805.00,802.41,798.90,795.30,791.10,784.27,779.27,777.50,778.74,779.25,778.06,778.30,779.64,779.29,777.46,774.41,770.73,766.78,762.93,760.50,761.10,764.67,769.00,774.57,778.75,781.01,781.27,780.52,779.16,777.32,774.95,772.20,769.31,766.31,763.39,761.03,759.42,756.90,755.25,756.96,762.24,767.69,772.51,775.54,774.33,771.36,769.20,768.78,770.29,770.21,773.24,777.86,782.30,784.88,786.76,787.88,788.35,788.33,786.93,784.58,782.71,782.71,784.01,785.66,787.43,789.14,790.51,792.42,794.80,797.42,799.93,801.93,804.73,807.84,810.75,813.20,815.65,816.78,816.08,813.41,810.58,809.50,810.07,811.80,813.35,813.23,812.45,811.50,810.39,808.68
763.84,766.75,769.27,771.42,773.87,774.81,774.44,773.04,771.39,771.47,773.17,775.59,777.30,778.74,780.72,783.45,786.82,789.67,792.36,795.04,797.65,799.82,800.71,800.93,801.08,801.80,803.41,804.68,805.38,805.58,805.91,806.16,805.75,804.27,801.27,798.52,794.32,789.54,785.32,781.72,778.13,773.74,768.69,765.03,767.68,771.88,776.18,780.58,784.33,787.93,791.72,795.78,799.69,802.40,803.86,803.80,801.56,798.89,796.86,796.04,796.76,797.71,797.98,797.25,795.37,792.67,789.58,787.72,787.10,787.17,787.16,787.08,786.15,783.72,780.20,779.02,780.22,782.96,785.70,788.51,791.61,794.91,798.16,800.87,803.16,804.58,804.98,805.00,804.97,804.97,805.00,805.00,805.00,803.31,800.52,797.30,794.45,791.95,789.81,787.94,786.06,783.77,781.62,780.02,779.29,778.69,778.27,778.26,778.69,779.16,779.76,783.25,788.27,791.37,793.12,793.25,792.38,791.00,789.80,789.02,788.46,788.21,788.62,788.91,788.38,787.01,784.92,782.90,781.22,779.66,778.30,777.75,778.15,779.33,781.35,784.62,788.24,790.52,791.11,790.04,789.12,790.57,792.62,794.40,795.75,796.85,798.59,800.24,800.64,800.59,800.18,799.59,798.95,798.40,797.84,797.23,796.61,796.02,795.64,795.54,796.00,797.25,798.53,800.17,802.55,804.91,804.84,801.86,798.20,794.56,790.56,783.96,779.15,776.36,775.22,774.35,773.15,773.19,774.06,774.01,773.25,771.34,768.40,764.64,761.05,760.27,762.68,767.65,772.79,777.90,781.35,783.08,783.23,782.38,781.02,778.95,776.01,772.75,769.79,767.05,764.54,762.47,760.65,758.01,756.22,757.52,762.33,767.73,772.52,775.94,776.88,774.46,771.32,769.27,769.85,771.40,773.94,777.16,780.54,782.63,783.81,784.48,784.79,784.62,783.16,781.31,780.10,780.35,781.12,782.19,783.75,785.64,787.16,789.33,791.87,794.59,797.35,800.23,803.48,806.89,810.15,812.81,815.43,816.93,816.58,813.66,810.69,809.99,810.98,812.70,814.26,814.18,813.42,812.49,811.48,810.00
765.49,768.55,771.27,773.79,776.43,777.54,777.26,775.82,774.05,772.32,772.20,773.55,775.24,777.18,779.61,782.58,786.10,789.60,792.30,794.81,797.28,799.31,800.12,800.31,800.53,801.48,803.43,804.84,805.63,805.96,806.29,806.54,806.39,805.40,802.94,800.87,795.91,789.82,784.72,780.33,776.29,772.02,767.80,765.59,769.11,773.73,778.13,782.52,786.84,791.01,795.09,798.90,801.77,803.98,804.74,803.82,801.36,798.85,798.47,799.39,800.54,801.74,802.15,801.29,799.04,795.98,791.65,789.99,790.85,792.48,792.91,791.59,788.45,783.77,780.01,779.00,780.23,782.84,785.50,788.40,791.68,795.16,798.50,801.16,803.33,804.63,804.98,805.00,805.00,805.00,805.00,805.00,805.00,803.61,801.27,798.50,795.96,793.33,790.80,788.42,786.08,783.46,781.20,779.69,779.16,778.62,778.42,778.59,779.06,779.55,780.27,783.60,788.33,791.47,793.75,794.78,794.55,793.14,791.54,790.50,789.83,789.67,790.44,790.93,790.60,789.37,787.23,785.21,783.44,781.63,779.77,778.27,777.75,778.12,779.31,781.48,784.55,786.13,785.90,784.10,782.80,785.97,789.70,792.42,794.43,796.30,798.11,799.39,799.56,799.44,799.21,799.03,798.90,798.58,798.12,797.57,797.00,796.51,796.32,796.41,796.95,798.11,799.49,801.53,804.03,805.94,804.67,801.45,797.69,793.96,790.08,784.36,779.90,776.05,772.60,770.71,769.59,769.22,769.33,769.37,769.06,767.99,766.01,763.04,760.18,761.32,765.57,771.56,776.55,780.41,783.10,784.72,785.06,784.21,782.63,780.19,776.79,773.13,770.08,767.52,765.35,763.49,761.35,758.81,757.15,758.03,762.17,767.41,772.27,776.25,778.99,777.58,774.11,770.72,769.84,772.35,774.20,775.89,778.00,779.61,780.09,780.36,780.65,780.66,779.76,779.06,779.07,780.00,780.62,781.26,782.51,784.32,785.68,787.57,789.76,792.30,795.54,799.28,802.85,806.30,809.66,812.54,815.32,817.24,817.44,814.59,811.61,810.92,811.95,813.72,815.24,815.12,814.34,813.37,812.27,810.96
767.73,771.15,774.30,777.10,779.65,780.61,780.17,778.60,776.71,774.73,773.15,772.62,774.18,776.27,779.02,782.22,785.67,789.25,791.71,793.94,796.17,797.81,798.21,798.03,798.26,800.00,802.41,804.43,805.65,806.04,806.47,806.74,806.66,805.88,803.77,801.54,796.69,790.70,785.36,780.76,776.04,771.43,767.58,766.08,769.67,774.42,779.11,783.75,788.32,792.78,796.95,800.52,802.96,804.96,805.59,804.59,802.25,801.25,801.96,803.42,804.76,806.17,806.82,806.01,803.54,799.99,795.13,794.24,796.25,797.12,794.58,791.30,787.12,782.19,779.39,778.81,779.98,782.40,785.33,788.32,791.62,795.10,798.44,801.15,803.40,804.72,804.99,805.00,805.00,805.00,805.00,805.00,805.00,804.16,802.57,800.31,797.66,794.69,791.66,788.69,785.88,783.01,780.87,779.57,779.09,778.56,778.54,778.87,779.44,780.26,781.97,785.23,789.10,791.78,793.91,795.76,796.75,796.32,795.03,793.54,792.42,792.24,793.73,794.93,794.66,792.83,789.75,787.66,785.90,783.96,781.75,779.71,778.51,777.88,777.88,778.91,779.90,780.42,780.35,779.83,779.98,784.67,789.43,792.53,794.49,795.61,796.57,797.30,797.43,797.31,797.41,797.59,797.75,797.92,797.92,797.76,797.54,797.38,797.27,797.52,798.11,799.14,800.78,803.09,805.59,806.97,804.39,801.27,797.63,793.74,789.86,785.87,781.79,777.24,772.77,770.91,769.34,768.32,767.78,767.23,765.70,764.27,762.84,761.19,760.01,764.11,771.16,778.18,780.27,782.53,784.71,786.43,787.01,786.06,783.62,780.50,777.05,773.39,770.25,767.73,765.64,763.63,761.34,758.91,757.28,757.82,761.61,766.45,771.58,776.38,779.47,779.65,777.70,774.64,771.65,770.46,770.62,771.74,773.50,774.80,775.07,775.45,776.29,777.36,778.01,778.69,780.09,782.64,785.04,786.65,787.79,788.57,788.93,789.39,790.05,791.84,796.03,799.77,803.05,806.18,809.33,812.37,815.35,817.82,818.90,816.99,814.47,813.36,813.68,815.09,816.39,816.15,815.29,814.22,812.85,811.56
770.01,773.44,776.78,779.99,782.66,783.64,783.25,781.63,779.16,776.92,775.02,773.76,773.98,775.85,778.75,782.04,785.33,788.65,791.01,792.90,794.40,795.05,795.14,795.36,796.28,798.50,800.94,803.45,805.24,805.94,806.42,806.72,806.51,805.48,803.19,800.66,795.50,789.41,784.37,779.89,775.35,771.08,767.60,766.11,769.71,774.53,779.37,784.21,788.97,793.68,797.89,801.12,803.23,805.09,806.25,806.35,805.11,804.73,805.75,807.12,807.89,808.69,809.08,808.44,806.30,802.37,797.51,797.00,799.24,799.46,796.00,790.85,785.41,780.91,779.25,778.85,779.48,781.17,784.13,787.70,791.34,794.80,797.93,800.65,803.11,804.62,804.98,805.00,805.00,805.00,805.00,805.00,805.00,804.61,803.44,801.19,798.38,795.00,791.48,788.00,784.65,781.85,780.20,779.37,778.95,778.55,778.65,779.02,779.61,780.60,782.88,786.06,789.39,791.93,794.07,796.16,797.80,798.45,797.91,796.85,795.89,795.68,797.13,798.05,797.89,796.27,793.03,790.63,788.43,786.20,783.94,781.93,780.30,779.18,778.73,779.26,779.64,779.58,779.20,778.76,779.19,784.22,789.03,791.81,793.14,793.92,794.58,795.07,795.16,795.10,795.41,795.95,796.52,796.85,797.21,797.67,798.12,798.24,798.23,798.60,799.34,800.52,802.33,804.53,806.41,806.92,804.29,801.62,798.57,795.23,791.88,788.77,784.14,779.35,775.59,773.57,771.48,770.32,769.92,769.10,766.76,764.32,762.36,761.50,762.67,768.92,776.13,781.54,783.00,784.57,786.48,788.20,788.78,787.54,784.39,780.64,776.94,773.23,770.12,767.66,765.63,763.64,761.49,759.27,757.55,757.48,760.82,765.63,770.87,775.90,779.50,780.54,779.78,778.00,775.75,773.53,771.98,771.30,771.77,773.51,775.18,776.69,778.05,779.11,780.18,780.93,782.20,784.86,787.99,790.30,792.00,793.29,794.27,794.50,794.83,796.14,799.35,802.41,804.75,806.98,809.65,812.87,816.20,818.89,820.29,819.41,817.73,816.56,816.33,817.15,817.68,817.14,816.22,815.17,813.84,812.55
772.66,775.92,779.39,782.89,785.68,786.72,786.43,784.84,781.87,779.34,777.36,775.73,774.40,775.62,778.39,781.63,784.66,787.62,789.97,791.51,792.11,791.77,791.75,792.62,794.39,796.90,799.31,802.23,804.61,805.75,806.23,806.55,806.11,804.66,802.07,798.83,793.39,787.56,783.18,779.15,774.97,771.08,767.85,766.00,769.50,774.31,779.10,783.87,788.81,793.82,798.16,801.23,803.11,804.84,806.58,807.94,808.10,808.06,808.98,809.98,810.08,810.18,810.20,809.76,808.13,803.95,799.53,799.21,801.18,800.79,797.26,790.70,784.38,780.74,779.97,779.49,779.28,779.89,782.50,786.77,790.86,794.36,797.26,800.01,802.66,804.41,804.97,805.00,805.01,805.01,805.00,805.00,805.00,804.87,803.85,801.38,798.19,794.29,790.16,786.17,782.85,780.52,779.50,779.13,778.84,778.61,778.76,779.12,779.73,780.91,783.49,786.51,789.45,791.93,794.14,796.26,798.28,799.84,800.07,799.66,799.09,798.89,799.95,800.36,800.29,799.16,796.28,793.60,790.91,788.51,786.56,784.93,783.07,781.54,780.72,780.93,781.06,780.56,779.68,778.91,779.17,783.54,787.79,790.18,790.97,791.68,792.30,792.72,792.80,792.82,793.33,794.23,795.21,795.62,796.29,797.34,798.43,798.90,799.11,799.71,800.70,802.09,803.98,805.98,807.06,806.60,804.30,802.08,799.68,797.07,794.34,791.71,786.86,782.34,779.56,777.27,774.59,773.11,772.61,771.43,768.67,765.37,762.94,762.92,766.13,773.72,780.28,783.85,785.51,786.69,788.24,789.78,790.20,788.68,785.00,780.78,776.84,773.03,769.93,767.50,765.53,763.65,761.78,759.83,757.98,757.15,759.97,764.75,770.01,775.05,779.14,780.80,781.04,780.64,779.85,777.81,775.29,773.05,772.04,773.77,777.01,779.82,781.63,782.61,783.92,784.54,785.35,787.48,790.63,793.26,795.48,797.46,799.42,800.00,800.58,801.73,803.67,805.97,807.33,808.63,810.75,813.97,817.43,820.11,821.60,821.64,820.77,819.69,819.07,819.25,818.96,818.14,817.19,816.18,814.95,813.65
776.53,779.45,783.07,786.32,789.00,790.05,789.79,788.28,785.71,782.77,780.14,777.88,775.91,775.39,777.35,780.24,782.77,785.41,787.90,789.11,788.81,788.19,788.62,790.18,792.45,795.01,797.67,800.89,803.74,805.43,805.87,806.09,805.34,803.53,800.80,795.64,790.63,786.47,783.27,780.44,776.13,771.95,768.56,766.00,769.12,773.66,777.93,781.70,786.97,792.38,797.24,800.92,802.80,804.33,805.99,807.74,809.10,809.56,809.98,810.34,810.41,810.49,810.42,810.14,808.87,804.79,801.63,801.39,802.46,801.59,798.32,791.78,786.11,783.91,783.03,781.88,780.42,779.39,780.69,785.39,790.00,793.70,796.57,799.40,802.12,804.08,804.95,805.01,805.05,805.04,805.00,805.00,805.00,804.62,803.24,800.30,796.14,791.44,786.22,781.65,780.41,779.55,779.09,778.92,778.93,778.83,778.91,779.21,779.95,781.56,784.00,786.68,789.30,791.69,793.84,796.05,798.23,799.98,800.47,800.45,800.30,800.29,800.74,801.00,800.88,800.18,798.59,795.88,793.09,791.18,790.38,789.60,787.87,785.64,783.80,783.52,782.88,781.70,780.34,779.27,779.22,781.03,783.80,786.53,787.73,788.78,789.62,790.16,790.29,790.35,791.17,792.44,793.74,794.31,795.30,796.52,797.78,798.85,799.73,800.94,802.40,803.95,805.60,807.57,808.08,806.70,804.47,802.29,800.17,797.96,795.48,793.03,790.25,787.23,784.16,781.55,778.09,775.07,772.67,770.46,768.08,765.19,763.71,765.45,768.83,775.97,782.49,786.55,788.53,789.13,789.81,790.59,790.68,789.09,785.30,781.05,777.21,773.19,769.88,767.37,765.45,763.83,762.30,760.72,758.78,757.05,759.11,763.58,768.69,773.70,778.08,780.35,781.36,781.58,781.09,780.22,779.19,777.65,775.69,775.00,778.42,781.76,783.93,785.87,788.14,789.63,790.68,791.97,793.99,796.03,797.70,799.18,801.34,802.73,804.12,805.82,807.94,809.99,811.13,812.14,813.76,816.31,818.95,821.19,822.73,823.13,822.54,821.71,821.03,820.65,820.02,819.19,818.26,817.22,815.99,814.69
781.78,784.31,787.48,790.50,793.11,794.28,794.21,792.86,790.29,786.86,783.57,780.59,777.82,776.01,776.65,778.55,780.65,782.98,785.14,785.66,784.59,784.23,785.62,787.88,790.52,793.35,796.69,800.42,803.51,805.24,805.60,805.29,803.94,801.68,798.75,793.92,789.77,786.46,783.60,780.90,777.53,773.55,769.36,766.43,768.89,772.76,776.52,780.14,785.60,791.00,796.10,800.40,802.14,803.66,805.28,807.01,808.67,809.77,810.23,810.42,810.59,810.73,810.60,810.31,809.32,806.18,804.17,803.86,804.00,802.52,799.80,794.49,790.03,788.36,786.48,784.20,781.59,779.45,779.94,784.41,789.31,793.33,796.15,798.95,801.70,803.83,804.94,805.01,805.07,805.06,805.00,804.96,804.68,803.75,801.62,797.80,792.84,787.32,782.64,779.72,779.44,779.25,779.14,779.15,779.30,779.22,779.11,779.27,780.01,781.68,783.98,786.47,788.90,791.11,793.35,795.71,798.05,799.97,800.59,800.86,801.01,801.16,801.36,801.53,801.31,800.75,799.70,797.39,795.41,794.14,793.43,792.22,790.16,787.80,785.77,784.83,783.64,782.13,780.58,779.41,779.29,780.72,783.39,786.43,787.93,788.82,789.52,790.11,790.53,790.62,791.34,792.41,793.42,793.70,794.52,795.66,797.06,798.78,800.39,802.18,804.02,805.73,807.30,808.76,808.66,806.63,803.60,801.24,798.92,796.66,794.72,793.14,791.63,788.77,784.29,780.68,776.51,773.20,770.90,769.01,767.00,765.21,764.95,767.40,771.25,777.85,784.19,788.60,790.22,790.56,790.94,791.33,791.09,789.57,785.93,781.71,777.62,773.14,769.82,767.49,765.77,764.23,762.79,761.32,759.48,757.58,758.26,761.77,766.50,771.57,776.09,779.48,781.28,781.97,782.06,781.76,781.30,780.29,778.46,776.51,779.00,782.05,784.50,787.05,789.76,792.01,793.91,795.64,797.40,798.79,799.95,801.22,803.30,805.04,806.76,808.72,811.14,813.45,815.05,816.19,817.20,818.74,820.52,822.33,823.83,824.34,824.03,823.50,822.88,822.15,821.33,820.41,819.39,818.27,817.06,815.77
787.40,789.64,792.16,794.90,797.26,798.46,798.60,797.53,795.00,791.16,787.20,783.44,779.86,777.19,776.38,777.00,778.66,780.58,782.16,782.11,780.78,780.99,783.34,786.14,788.99,792.23,796.41,800.65,803.78,805.15,805.34,804.23,802.06,799.19,796.09,792.64,789.57,786.83,784.18,781.22,779.15,775.64,770.56,767.20,768.80,771.90,775.28,779.15,784.53,789.58,794.66,799.39,801.17,802.77,804.35,805.88,807.40,809.07,809.97,810.38,810.70,810.95,810.80,810.43,809.67,807.85,806.75,806.28,805.60,803.62,801.54,797.96,794.78,792.87,789.65,786.10,782.52,779.72,779.80,783.70,788.70,793.06,795.84,798.59,801.35,803.62,804.93,805.01,805.07,805.06,804.97,804.78,804.06,802.48,799.42,794.45,788.86,783.09,779.89,779.38,779.39,779.41,779.51,779.69,779.87,779.67,779.33,779.33,779.99,781.52,783.62,785.91,788.15,790.20,792.62,795.18,797.72,799.85,800.57,801.02,801.38,801.67,801.88,802.02,801.74,801.12,800.23,798.60,797.72,796.94,795.60,793.25,790.75,788.60,786.79,785.23,783.71,782.10,780.56,779.43,779.34,781.33,784.66,788.25,789.96,790.56,791.02,791.69,792.57,792.83,793.32,793.91,794.29,794.01,794.35,795.19,796.60,798.85,801.10,803.33,805.43,807.32,808.83,809.60,808.75,805.98,801.83,799.10,796.40,793.89,792.43,791.97,791.27,788.19,782.36,777.57,772.79,769.81,768.50,767.50,765.93,765.51,766.49,769.13,773.55,779.54,785.51,790.00,791.00,791.35,791.78,792.06,791.50,790.09,786.75,782.53,777.94,772.87,769.69,767.67,766.19,764.67,763.22,761.73,760.10,758.45,757.62,759.82,763.91,768.96,773.61,778.31,780.92,781.97,782.72,782.73,782.39,781.75,780.50,778.21,779.04,781.28,784.03,786.93,789.76,792.62,795.49,798.18,800.13,801.04,801.92,803.29,805.24,807.06,808.88,810.96,813.65,816.34,818.51,819.87,820.37,820.97,822.02,823.41,824.75,825.24,825.18,824.94,824.46,823.63,822.76,821.73,820.58,819.36,818.18,816.91
791.43,794.04,796.41,798.60,799.82,800.37,800.48,800.07,798.74,794.95,790.26,785.57,781.67,778.81,777.09,776.63,777.60,778.72,779.82,780.46,780.73,781.57,783.94,786.43,789.11,792.84,797.55,801.87,804.61,805.23,804.90,802.80,799.46,795.67,792.60,789.70,787.66,786.37,785.33,783.10,781.33,778.26,773.35,768.45,768.86,771.65,775.26,779.08,783.38,787.75,792.30,796.74,799.62,801.24,802.62,804.09,805.68,807.33,809.00,810.25,810.71,811.12,811.02,810.70,810.18,809.31,808.54,807.85,806.89,805.13,803.38,800.99,798.19,795.02,790.95,786.53,782.48,779.67,779.82,783.12,787.99,792.51,795.36,798.23,801.02,803.41,804.93,805.06,805.09,805.06,804.82,804.09,802.90,800.94,797.06,790.73,784.81,781.11,779.55,779.52,779.83,780.03,780.22,780.49,780.72,780.09,779.56,779.44,779.99,781.43,783.10,784.74,786.50,788.75,791.32,794.17,797.06,799.55,800.46,800.87,801.22,801.66,802.13,802.51,802.27,801.66,800.98,800.18,799.67,798.41,795.84,792.44,790.08,788.18,786.46,784.81,783.29,781.80,780.46,779.51,779.30,780.53,784.50,789.84,791.70,792.62,793.36,794.36,795.87,796.93,797.49,797.70,797.48,796.65,796.29,796.42,797.31,799.57,801.83,804.04,806.23,808.27,809.50,809.89,807.79,803.27,798.71,795.22,792.35,789.85,787.94,787.95,788.22,786.57,782.16,776.96,771.82,768.67,767.35,766.52,765.85,766.44,768.23,771.33,776.00,781.11,786.19,790.25,791.12,791.83,792.50,792.75,791.99,790.60,787.52,783.16,777.80,772.20,769.29,767.56,766.19,764.82,763.46,762.09,760.74,759.38,757.78,758.65,761.58,766.05,771.04,776.81,780.16,781.50,782.39,783.03,783.29,782.94,781.80,780.17,778.53,779.64,783.05,786.05,789.05,792.11,795.18,798.00,800.01,801.20,802.56,804.45,806.67,808.58,810.64,813.00,815.67,818.15,819.82,820.88,821.55,822.24,823.12,824.09,824.96,825.45,825.45,825.36,825.17,824.75,824.13,823.12,821.91,820.63,819.42,818.26
793.26,796.49,799.05,800.66,801.38,801.69,801.77,801.52,800.60,797.44,792.80,787.71,783.62,780.56,778.20,777.03,777.69,778.94,779.63,780.49,781.79,783.28,785.43,787.73,790.52,794.60,799.29,803.02,805.06,805.06,803.90,800.74,796.30,791.54,787.95,785.27,784.41,784.44,784.24,782.97,781.90,779.64,775.29,769.29,769.04,771.63,775.16,778.59,782.06,786.06,790.26,794.29,797.80,799.62,801.24,803.15,805.19,807.21,809.01,810.29,810.82,811.26,811.28,811.04,810.65,810.23,809.73,809.01,807.71,805.32,803.39,801.55,799.06,795.47,791.27,786.50,782.31,779.74,780.32,783.21,787.39,791.39,794.19,797.40,800.60,803.27,804.92,805.09,805.10,805.06,804.79,803.95,802.61,800.79,797.24,791.18,784.92,781.16,779.60,779.58,780.03,780.59,781.08,781.45,781.42,780.32,779.65,779.50,779.88,780.78,781.77,782.94,784.58,787.07,789.65,792.56,795.65,798.44,799.79,800.38,800.81,801.33,802.06,802.74,802.78,802.35,801.75,801.14,800.55,798.65,794.99,791.14,789.02,787.45,785.91,784.28,782.82,781.49,780.35,779.54,779.27,779.89,783.65,789.37,791.81,793.34,794.71,796.28,798.14,799.50,800.10,800.19,799.83,798.94,798.19,797.74,798.15,800.42,802.68,804.92,807.13,809.09,809.85,810.00,806.91,801.08,796.87,792.80,789.10,785.68,782.86,782.58,783.36,783.25,780.87,775.55,770.78,767.97,766.94,766.91,766.92,767.47,769.28,773.03,777.98,782.35,786.43,789.78,790.77,791.60,792.50,793.07,792.61,791.21,788.19,783.84,778.27,772.06,769.26,767.76,766.51,765.19,763.88,762.57,761.34,760.14,758.45,758.14,760.00,764.03,769.13,775.08,779.00,780.92,781.77,782.64,783.40,783.66,783.10,781.86,779.41,779.40,782.01,785.07,788.16,791.28,794.29,796.90,798.78,800.07,801.57,803.68,806.47,809.01,811.40,813.80,816.31,818.44,819.80,820.74,821.51,822.23,823.05,823.86,824.61,825.18,825.31,825.35,825.38,825.29,824.94,824.25,823.31,822.17,820.98,819.99
793.35,797.28,800.21,801.36,802.20,802.69,802.79,802.31,801.10,798.84,794.86,789.91,785.90,782.75,779.88,778.11,778.52,780.57,781.10,781.81,783.43,785.43,787.28,789.62,792.80,797.10,801.34,803.99,805.09,804.54,802.34,798.26,793.06,787.57,783.12,780.24,780.10,780.83,780.72,780.40,780.42,779.28,775.77,769.54,769.29,771.69,774.79,777.66,780.63,784.55,788.60,792.28,795.90,798.13,800.37,803.00,805.68,808.27,809.73,810.44,810.94,811.37,811.54,811.43,811.07,810.73,810.42,809.70,807.88,804.18,801.69,799.85,797.63,794.47,790.81,786.21,782.17,779.90,780.97,783.56,786.71,789.78,792.57,796.31,800.11,803.16,804.92,805.09,805.11,805.07,804.88,804.31,803.08,801.73,799.30,794.73,788.09,782.64,779.89,779.54,780.00,780.93,781.87,782.39,781.94,780.42,779.67,779.57,779.88,780.16,780.46,781.40,783.14,785.70,787.97,790.66,793.67,796.62,798.53,799.55,800.23,800.91,801.87,802.89,803.25,803.01,802.36,801.44,800.41,797.80,793.38,789.69,787.89,786.65,785.37,783.84,782.43,781.23,780.25,779.57,779.32,779.56,782.36,787.19,790.50,792.75,794.89,797.10,799.14,800.48,801.14,801.38,801.26,800.68,799.77,798.92,798.95,801.21,803.55,805.89,808.09,809.75,809.98,809.88,806.11,799.51,796.09,791.82,787.06,782.29,778.31,776.80,777.42,778.55,778.23,773.25,769.59,767.63,767.21,768.29,768.78,768.60,769.72,773.84,779.17,783.00,786.10,788.61,789.87,790.78,791.96,793.11,793.36,791.90,788.83,784.70,779.43,772.77,769.73,768.21,767.06,765.75,764.45,763.15,761.92,760.79,759.41,758.19,759.11,762.71,767.70,773.16,777.41,780.00,780.80,781.69,782.84,783.86,784.24,783.27,781.36,780.38,781.14,784.12,787.17,790.24,793.04,795.24,796.88,798.15,799.59,801.72,805.17,808.61,811.38,813.66,815.84,817.56,818.84,819.82,820.57,821.23,822.03,822.90,823.76,824.47,824.77,824.97,825.15,825.29,825.25,825.07,824.62,823.79,822.72,821.90
792.71,796.94,800.05,801.35,802.45,803.46,803.83,803.19,801.82,799.76,796.32,792.26,789.48,786.96,783.43,780.05,778.68,781.03,782.63,783.80,785.06,786.82,788.40,791.12,794.94,799.32,803.10,804.70,804.68,803.18,799.99,796.12,791.62,786.76,782.10,777.69,775.01,773.83,773.73,773.74,774.84,774.78,772.44,768.58,769.38,771.46,773.78,776.52,779.34,783.19,787.35,791.22,794.49,797.56,800.47,803.25,805.95,808.36,809.68,810.30,810.71,811.24,811.70,811.82,811.54,811.08,810.56,809.14,806.27,801.60,798.44,796.09,794.03,791.94,789.42,785.86,782.32,779.92,780.39,782.36,785.00,787.99,791.41,795.75,799.73,802.93,804.90,805.09,805.14,805.12,805.01,804.70,803.78,802.47,800.51,796.94,789.88,784.18,780.84,779.66,779.83,780.40,781.65,782.64,782.15,780.42,779.74,780.00,780.97,782.18,782.88,783.83,785.21,786.79,787.81,789.54,791.77,794.19,796.40,798.18,799.73,801.14,802.46,803.67,803.73,802.97,801.98,800.98,799.10,795.76,791.43,788.78,787.49,786.48,785.31,783.84,782.52,781.37,780.44,779.86,779.69,779.60,781.09,784.37,788.23,790.81,793.17,795.60,797.97,800.10,801.25,801.97,802.36,801.76,800.75,799.69,799.41,801.40,803.87,806.44,808.62,809.87,809.98,809.12,804.92,798.38,794.90,791.62,787.67,783.20,778.48,773.40,772.39,773.25,773.57,770.58,768.94,768.32,768.43,769.33,770.38,769.95,769.76,772.11,778.01,781.76,784.20,786.00,787.56,789.63,791.64,793.38,794.29,792.65,789.88,786.26,781.57,775.79,771.17,768.59,767.42,766.17,764.95,763.70,762.50,761.41,760.23,758.83,758.85,761.22,766.03,771.06,774.90,777.38,778.70,780.37,781.85,783.18,784.26,784.49,783.02,781.60,781.34,783.35,786.09,788.98,791.49,793.26,794.88,796.55,798.54,801.14,804.66,808.23,811.19,813.48,815.10,816.46,817.56,818.44,819.18,819.94,820.74,821.55,822.35,823.04,823.48,823.88,824.34,824.85,825.11,825.21,825.09,824.68,823.94,823.07
791.93,796.00,799.18,801.00,802.35,803.69,804.55,804.41,803.02,801.11,798.30,795.18,793.10,790.92,787.22,782.70,779.22,780.98,783.01,784.54,785.74,787.28,788.81,791.95,796.25,800.59,804.04,804.90,804.01,801.50,796.88,792.99,789.14,785.20,781.38,776.04,771.93,769.77,769.68,769.67,770.66,770.86,769.68,768.39,770.39,772.43,773.89,775.50,778.08,781.26,785.14,789.58,793.41,797.20,800.49,803.21,805.55,807.53,808.77,809.61,810.40,811.10,811.77,812.14,812.00,811.31,810.46,808.29,804.52,799.23,795.00,792.27,790.38,788.87,787.23,784.63,781.91,779.92,780.03,781.79,784.90,788.44,791.87,795.96,799.63,802.75,804.89,805.09,805.17,805.16,805.08,804.91,804.14,802.81,801.00,797.84,790.60,785.04,781.49,779.76,779.70,779.96,781.27,782.73,782.83,780.74,779.89,780.35,781.88,783.96,785.38,786.68,787.94,788.96,789.21,790.17,791.81,793.91,796.10,798.14,800.10,801.93,803.47,804.35,803.88,802.62,801.27,799.81,797.17,793.75,790.38,788.83,787.88,786.87,785.61,784.11,782.76,781.56,780.64,780.15,780.18,780.00,780.40,782.06,785.61,788.38,790.86,793.38,796.11,798.96,800.73,801.93,802.76,802.83,801.92,800.80,800.33,801.78,804.19,806.87,808.99,809.90,809.96,808.17,803.58,797.34,793.50,789.90,786.12,782.40,778.81,773.05,770.73,770.31,770.17,768.92,769.00,769.30,769.43,769.65,771.27,771.69,771.39,772.11,777.07,780.00,781.97,783.87,786.30,789.25,791.78,793.85,795.13,793.33,790.80,787.57,783.37,778.51,772.72,769.17,767.82,766.62,765.49,764.35,763.20,762.10,761.01,759.67,758.93,759.75,763.40,767.89,771.58,774.18,775.87,778.25,780.30,782.04,783.49,784.54,784.35,783.55,782.97,783.90,785.70,787.85,789.89,791.64,793.68,796.13,798.72,801.51,804.92,808.19,810.87,812.88,814.10,815.09,815.98,816.77,817.49,818.33,819.16,819.96,820.75,821.49,822.02,822.39,822.81,823.51,824.39,824.99,825.25,825.14,824.68,823.76
791.13,794.67,797.83,800.34,801.85,803.28,804.77,805.81,804.72,803.15,801.09,798.75,796.55,794.19,790.76,785.78,780.23,780.55,782.08,783.72,785.26,786.70,788.54,792.05,796.57,800.75,804.03,804.55,803.14,799.78,793.49,789.15,785.53,782.42,780.25,775.06,771.33,769.66,769.62,769.38,769.11,768.75,768.58,769.54,772.66,774.90,775.49,774.93,776.96,778.85,781.91,787.08,792.50,796.81,800.18,802.71,804.40,805.85,807.03,808.35,809.98,810.95,811.74,812.33,812.42,811.46,810.26,807.52,803.21,797.70,791.99,789.13,787.60,786.19,785.00,783.02,781.14,779.94,780.13,782.32,786.73,791.23,793.92,796.87,799.81,802.66,804.87,805.09,805.18,805.17,805.08,804.89,804.07,802.72,800.82,797.49,790.46,785.20,781.72,779.84,779.67,779.78,780.90,782.72,784.05,781.52,780.22,780.52,782.28,784.85,787.14,789.04,790.59,791.67,791.94,792.63,794.06,796.18,798.01,799.71,801.46,803.26,804.75,804.76,803.61,801.99,800.34,798.06,795.09,792.45,790.76,790.02,789.04,787.75,786.23,784.63,783.10,781.77,780.82,780.45,780.81,780.84,780.53,780.67,783.01,785.75,788.24,790.74,793.80,797.06,799.52,801.21,802.39,803.84,803.37,802.41,801.86,802.61,804.66,807.25,809.27,809.93,809.94,807.18,802.24,796.39,792.09,786.84,782.15,779.19,778.43,775.31,772.38,770.11,768.73,768.59,769.80,770.42,770.01,769.27,771.29,773.46,774.50,774.50,777.10,778.51,780.14,782.81,786.57,789.82,792.41,794.51,795.77,793.89,791.43,788.38,784.50,780.33,774.15,770.01,768.31,767.19,766.16,765.13,764.05,762.91,761.83,760.67,759.36,758.54,760.03,763.67,767.43,770.40,772.30,775.19,778.04,780.30,781.78,783.14,785.06,785.91,785.74,785.79,786.21,787.13,788.54,790.60,793.50,796.98,800.04,802.60,805.68,808.34,810.33,811.78,812.87,813.47,814.11,814.80,815.50,816.33,817.22,818.11,818.96,819.80,820.39,820.50,820.58,821.31,823.09,824.50,825.21,825.23,824.93,824.01
790.57,793.99,796.96,799.28,800.64,802.03,803.75,805.59,806.53,806.08,804.67,802.62,800.05,796.88,792.72,786.98,780.53,780.10,781.15,782.47,783.81,785.16,788.00,791.87,796.14,800.13,803.51,803.89,802.50,799.55,793.78,789.01,784.87,781.32,778.69,774.55,771.44,769.96,770.16,770.42,770.43,770.15,770.27,772.80,776.48,778.25,777.96,776.67,777.11,778.00,780.01,784.16,790.89,795.64,799.08,801.55,802.90,804.14,805.42,807.00,808.94,810.29,811.33,812.27,812.84,811.99,810.75,808.17,804.28,799.10,791.95,789.43,789.38,789.53,788.83,786.42,783.07,780.15,780.28,783.56,788.10,792.16,794.60,797.22,799.85,802.50,804.69,805.06,805.25,805.25,805.11,804.83,803.80,802.44,800.50,797.13,790.97,785.98,782.38,780.23,779.80,779.78,780.60,782.51,784.91,783.27,781.31,780.50,781.49,784.30,787.15,789.52,791.27,792.29,793.43,794.96,796.74,798.58,800.07,801.51,803.06,804.66,805.80,804.71,802.85,800.88,799.00,796.74,795.76,795.12,794.17,792.65,790.35,788.38,786.81,785.20,783.64,782.18,781.22,781.18,781.92,782.60,782.14,781.23,782.54,784.15,785.79,787.85,790.86,793.92,797.21,799.89,801.72,803.59,804.43,804.27,803.78,804.16,805.63,807.82,809.55,809.96,809.93,806.75,801.66,796.09,792.20,787.94,782.50,778.17,777.45,774.02,771.49,769.79,768.79,769.04,770.89,771.43,770.42,769.34,770.26,772.11,774.33,776.85,779.97,781.51,782.57,784.23,787.74,790.70,793.18,795.17,796.00,794.04,791.60,788.55,784.69,780.63,774.97,770.91,769.01,768.21,767.27,766.26,765.17,764.02,762.93,761.89,760.60,759.27,759.05,760.51,762.41,764.63,767.60,771.15,774.26,776.48,777.95,780.30,783.19,785.15,786.09,786.76,787.54,788.20,789.04,790.73,794.23,797.88,800.76,802.77,804.73,806.80,808.76,810.40,811.40,811.75,812.14,812.63,813.17,813.87,814.72,815.65,816.55,817.16,817.75,817.84,818.20,819.72,821.82,823.77,824.92,825.14,824.96,824.02
790.04,793.24,795.87,797.87,799.20,800.72,802.63,804.99,807.43,808.24,807.48,805.46,802.32,798.04,792.87,786.82,780.98,780.54,781.67,782.98,784.06,784.94,787.92,791.74,795.75,799.58,802.74,802.94,801.62,799.22,794.54,789.83,785.46,781.55,778.26,774.82,771.92,770.49,771.19,771.90,772.32,772.32,772.75,776.01,779.63,781.03,780.46,779.10,778.47,778.44,779.24,781.99,788.97,793.94,797.50,800.01,801.32,802.42,803.81,805.61,807.79,809.62,810.97,812.26,813.20,812.55,811.30,808.87,805.28,800.42,793.67,792.18,793.35,794.44,793.73,790.23,785.31,780.90,780.53,784.45,788.90,792.52,794.95,797.46,799.95,802.45,804.56,805.08,805.32,805.30,805.08,804.64,803.43,802.03,800.00,796.57,791.31,786.86,783.42,781.04,780.01,779.83,780.55,782.52,785.52,785.35,783.25,781.60,781.64,783.67,786.50,789.01,790.80,791.71,793.25,795.61,798.17,800.38,801.92,803.30,804.72,806.02,806.46,804.50,802.11,799.95,798.27,796.97,797.60,798.20,797.52,795.23,791.63,788.97,787.32,785.71,784.12,782.51,781.62,782.09,783.18,784.32,784.24,783.38,784.08,784.91,785.83,787.11,789.09,791.16,794.50,797.93,800.70,802.85,804.63,805.37,805.41,805.87,806.91,808.53,809.79,809.98,809.94,807.25,802.62,797.37,793.89,790.37,785.00,780.30,779.14,774.85,771.87,770.05,769.12,769.55,772.05,772.75,771.61,771.13,771.86,772.57,774.24,777.84,781.69,784.44,785.88,786.78,789.39,791.90,794.30,796.04,795.98,793.93,791.47,788.36,784.38,780.33,775.71,772.47,770.82,769.95,768.64,767.44,766.35,765.25,764.29,763.27,762.02,760.57,759.35,759.04,759.19,760.32,763.44,767.24,770.24,772.26,773.78,776.93,780.66,783.46,785.18,786.44,787.59,788.46,789.33,790.81,794.40,797.54,800.04,801.90,803.06,804.65,806.59,808.43,809.52,809.79,810.02,810.28,810.61,811.22,812.11,813.13,814.03,814.32,814.81,815.45,816.60,818.65,820.88,822.99,824.39,824.87,824.72,823.89
789.54,792.24,794.36,796.12,797.76,799.65,801.87,804.37,806.88,808.78,808.66,806.45,802.52,796.93,790.76,785.25,781.93,782.41,784.53,786.46,787.39,787.15,788.68,791.79,795.70,799.40,801.78,801.64,800.25,798.11,794.62,790.79,786.96,783.26,779.77,776.15,772.76,771.23,772.75,773.64,774.13,774.54,775.51,778.34,781.18,782.64,782.74,781.90,781.47,780.62,780.14,781.48,786.87,791.68,795.39,798.06,799.69,800.73,802.22,804.27,806.75,809.11,810.86,812.40,813.50,813.00,811.67,809.13,805.39,800.69,797.22,797.59,799.15,799.64,798.09,792.90,787.13,782.54,781.00,784.58,788.93,792.59,795.23,797.74,800.21,802.60,804.55,805.17,805.36,805.27,804.95,804.25,802.91,801.43,799.22,795.66,791.13,787.64,784.81,782.35,780.28,779.91,780.90,783.00,785.92,787.59,786.26,784.58,783.79,783.57,785.49,787.62,789.18,789.95,790.90,793.67,797.45,801.15,803.35,804.96,806.38,807.29,806.60,804.25,801.63,799.53,798.72,799.52,800.29,800.49,799.69,797.19,792.83,789.59,787.70,786.07,784.39,782.63,781.94,783.13,784.48,785.64,786.59,787.36,788.08,789.08,789.80,790.00,789.63,789.77,791.87,795.27,799.14,801.69,803.57,805.07,806.34,807.44,808.45,809.38,809.96,810.00,809.98,808.98,805.76,800.96,797.56,793.46,789.44,786.55,785.13,780.12,775.05,771.24,769.39,769.84,773.16,774.50,774.11,775.48,777.84,776.90,775.44,776.75,780.64,785.71,789.09,790.32,791.55,793.61,795.93,797.17,795.71,793.49,791.01,787.75,783.56,779.66,776.66,775.11,774.36,772.77,770.31,768.66,767.57,766.61,765.95,764.79,763.46,762.13,760.91,759.92,759.19,759.14,760.70,763.98,766.46,768.20,769.89,773.27,777.92,781.27,783.06,784.38,785.30,786.78,788.52,790.31,793.23,795.10,797.19,799.62,800.79,802.07,803.77,805.62,807.02,807.48,807.67,807.72,807.77,808.41,809.48,810.64,811.50,811.56,811.92,813.85,816.34,818.28,820.45,822.22,823.58,824.37,824.12,823.61
789.88,792.30,794.26,796.05,797.87,799.85,802.06,804.47,806.81,808.33,807.85,805.35,801.11,795.61,790.42,786.29,784.12,784.98,787.45,789.80,790.73,788.95,789.37,792.01,795.80,799.29,800.90,800.24,798.39,795.87,792.88,789.82,786.52,783.14,780.10,776.86,773.45,771.83,773.64,775.41,776.26,776.87,777.91,780.34,782.93,784.80,785.81,786.04,786.49,786.43,786.15,786.03,786.60,789.68,792.85,795.27,797.22,799.49,801.72,804.05,806.61,809.01,810.89,812.66,813.96,813.29,811.80,809.35,805.99,802.21,800.87,801.71,802.76,802.46,799.90,794.46,789.24,785.24,782.68,785.01,788.89,792.61,795.39,797.98,800.44,802.82,804.77,805.36,805.46,805.27,804.74,803.56,802.03,800.00,797.40,794.10,790.38,787.41,784.79,782.40,780.57,780.38,781.82,784.23,786.91,788.97,788.75,787.79,786.79,785.74,785.88,786.82,788.06,789.12,790.00,792.96,797.08,801.15,803.76,806.00,807.77,808.49,807.05,804.64,802.15,800.34,800.06,801.19,801.91,801.81,800.71,798.50,794.02,790.31,787.90,786.15,784.38,782.66,782.22,783.84,785.51,786.86,788.26,789.82,791.32,792.75,793.84,794.21,793.62,793.88,794.64,795.07,795.70,799.47,801.92,803.76,805.47,807.29,808.75,809.62,810.00,810.00,809.99,809.70,807.92,804.46,800.25,796.26,792.64,789.78,787.59,782.10,776.15,771.61,769.52,770.01,772.99,775.33,776.73,778.63,781.00,779.67,777.30,777.34,781.10,786.95,791.32,793.36,794.79,796.60,797.79,797.51,794.97,792.48,789.89,786.69,782.97,780.39,779.06,778.60,778.22,776.42,773.25,770.72,769.09,768.24,767.55,766.43,765.13,763.79,762.53,761.05,759.79,759.13,759.76,762.06,764.04,765.68,767.46,770.35,774.51,778.25,780.93,782.30,783.11,784.54,786.16,787.59,789.98,791.66,793.82,796.45,797.74,799.01,800.76,802.77,804.42,805.17,805.11,804.80,804.67,805.02,806.10,807.14,808.15,809.75,811.44,814.09,816.91,818.88,820.42,821.80,823.03,823.82,823.41,822.94
790.71,792.90,794.82,796.70,798.59,800.52,802.57,804.77,806.90,808.05,807.38,804.78,800.27,795.19,791.09,788.17,786.82,787.91,790.48,792.95,793.69,790.49,790.08,792.29,795.81,798.96,800.02,798.95,796.64,793.67,790.92,788.41,785.59,782.61,780.10,777.25,774.00,772.37,774.18,776.87,778.36,779.27,780.30,782.38,784.84,787.03,788.76,789.98,791.28,792.25,792.54,791.47,788.02,788.62,790.56,792.63,794.97,798.42,801.34,803.87,806.40,808.73,810.66,812.61,814.19,813.75,812.14,809.87,807.24,804.81,804.82,805.50,805.65,804.39,801.17,796.26,791.79,788.04,784.51,785.55,788.91,792.64,795.52,798.23,800.71,803.10,805.05,805.57,805.51,805.08,804.20,802.59,800.71,798.04,795.08,792.18,789.26,786.69,784.24,782.08,780.97,781.12,782.97,785.64,788.14,790.28,791.12,790.93,789.92,788.60,787.16,786.88,787.73,789.10,790.18,793.21,797.26,801.20,804.04,806.82,808.86,809.48,807.89,805.69,803.56,802.13,802.09,802.78,803.05,802.54,801.17,799.25,794.90,790.91,788.05,786.18,784.30,782.75,782.60,784.47,786.38,787.97,789.76,791.90,794.18,796.01,797.38,798.03,797.80,798.44,798.25,796.24,793.82,797.06,800.03,802.31,804.32,806.66,808.63,809.64,810.00,810.00,810.00,810.00,809.21,806.77,801.66,797.59,793.63,789.94,786.73,781.92,776.31,771.78,769.63,770.06,772.41,775.48,778.53,781.01,783.37,782.00,779.36,778.78,782.59,788.38,793.05,795.78,797.74,799.22,799.28,797.68,794.33,791.42,788.81,786.01,783.24,782.13,782.27,782.65,782.45,780.37,776.62,773.44,771.41,770.53,769.50,768.20,766.75,765.24,763.70,761.80,760.26,759.37,759.45,760.81,762.26,763.70,765.35,767.61,770.94,774.62,777.86,779.48,780.46,781.72,782.96,784.00,786.06,788.03,790.45,793.07,794.32,795.70,797.67,799.98,801.95,802.93,802.62,801.97,801.59,801.62,802.80,804.16,805.84,808.99,811.89,814.94,817.74,819.68,820.62,821.62,822.63,823.24,822.68,822.15
792.13,794.07,796.02,797.97,799.73,801.48,803.25,805.08,807.04,808.82,809.00,806.89,801.84,797.04,793.00,790.36,789.93,791.30,793.72,795.73,795.72,791.67,790.90,792.62,795.47,798.02,799.08,797.98,795.48,792.29,789.66,787.22,784.74,782.29,780.06,777.30,774.36,772.84,774.33,777.56,780.16,781.81,782.91,784.80,786.98,789.07,790.95,792.55,794.17,795.68,796.48,795.70,792.30,789.61,789.16,790.86,793.78,797.51,800.54,803.03,805.44,807.71,809.70,811.75,813.74,814.73,813.13,811.14,809.69,809.24,809.45,809.40,808.27,805.69,802.81,799.41,795.21,790.35,785.89,786.15,789.18,792.80,795.62,798.50,801.11,803.46,805.26,805.80,805.42,804.39,802.94,801.15,798.61,795.37,792.26,789.83,787.67,785.46,783.34,781.74,781.61,782.27,784.27,786.96,789.59,791.97,793.50,793.78,792.81,791.63,789.63,788.60,788.92,790.45,792.06,794.98,798.48,801.85,804.68,807.50,809.39,810.01,809.49,807.90,806.42,805.47,805.17,804.78,803.78,802.50,801.03,799.08,795.05,791.15,788.16,786.24,784.26,783.06,783.27,785.18,787.05,788.89,791.26,794.09,796.66,798.63,799.66,800.07,800.20,800.46,800.27,799.11,796.90,794.92,797.91,801.22,803.67,806.06,808.37,809.58,810.00,810.00,810.00,810.00,809.09,806.34,800.69,795.58,790.18,784.71,780.26,778.78,775.57,772.02,769.76,769.90,771.72,774.64,778.29,782.34,785.67,784.33,781.47,781.09,785.57,790.31,794.17,797.03,799.29,800.14,799.78,797.96,794.21,790.66,788.27,786.57,785.44,785.34,786.47,787.50,787.35,784.46,780.16,777.21,775.45,774.17,772.30,770.17,768.11,766.09,763.73,761.50,760.05,759.39,759.48,760.24,761.13,762.01,763.04,764.83,767.43,770.08,772.54,774.91,776.68,777.90,778.78,779.76,781.95,784.64,787.41,789.74,790.55,792.12,794.50,797.33,799.90,800.84,800.45,799.56,798.74,798.52,800.20,803.07,806.56,810.09,813.01,816.00,818.65,820.27,821.04,821.78,822.40,822.60,821.97,821.31
792.25,794.61,797.09,799.14,801.44,803.57,805.38,806.87,808.24,809.64,809.91,808.18,803.33,798.63,795.03,793.15,793.47,794.42,796.81,798.62,798.15,793.89,792.84,793.91,795.98,798.07,798.77,797.64,795.45,792.70,789.96,787.29,784.69,782.26,780.11,777.47,775.01,773.35,773.56,777.19,780.40,782.76,784.59,786.84,789.11,791.43,793.61,795.38,797.09,798.62,799.66,799.49,796.81,792.64,791.17,792.88,795.79,798.31,800.39,802.36,804.53,806.69,808.77,810.99,813.36,815.30,814.62,813.29,812.23,811.82,811.48,810.77,809.16,806.41,803.48,800.07,795.39,789.93,785.92,786.88,790.00,793.46,796.34,799.10,801.67,803.92,805.51,805.78,804.94,803.43,801.53,799.25,796.17,792.79,789.89,787.88,786.08,784.30,782.95,782.27,782.40,783.22,785.25,787.84,790.35,793.19,795.49,796.69,796.58,795.65,793.59,792.04,791.53,792.23,793.85,796.72,799.89,802.63,805.14,807.74,809.51,810.21,810.07,809.18,807.94,806.67,805.59,804.55,803.19,801.73,800.07,797.63,794.14,790.78,788.03,786.02,783.94,783.32,784.10,785.99,787.89,790.10,792.82,795.85,798.45,799.92,800.63,800.98,801.21,801.28,800.96,800.17,798.43,795.01,797.25,800.57,803.41,805.99,808.51,809.68,810.00,810.00,810.00,810.00,809.52,807.49,802.06,797.29,792.29,786.95,781.78,778.38,774.25,770.97,769.73,769.90,771.56,774.55,778.61,783.41,787.54,787.55,785.45,784.25,787.64,791.52,795.07,798.02,799.95,800.57,800.05,798.20,794.68,791.83,790.24,788.97,787.84,788.04,789.17,790.08,789.96,787.69,783.86,780.87,778.93,777.56,775.01,771.63,768.52,765.94,763.34,761.06,759.82,759.46,759.82,761.28,762.78,763.88,764.46,765.04,765.93,767.03,768.48,770.57,772.30,773.76,775.17,776.88,779.26,782.08,784.77,786.88,787.98,789.70,792.07,794.77,797.27,798.67,798.42,797.44,796.51,796.49,798.86,802.17,805.69,809.01,811.89,814.91,817.85,820.10,820.94,821.58,821.96,821.93,821.34,820.69
791.71,794.68,797.86,800.24,803.18,805.83,807.80,808.95,809.73,810.52,810.58,809.03,804.57,799.90,797.05,796.27,797.30,797.82,800.05,801.45,800.36,796.24,795.23,795.75,797.08,798.81,799.06,797.94,796.00,793.45,790.42,787.53,784.81,782.34,780.24,777.89,776.03,774.27,773.03,776.40,779.95,782.95,785.54,788.22,790.83,793.63,796.30,798.21,799.90,801.30,802.47,802.85,800.74,796.14,794.38,796.14,798.94,800.32,801.32,802.48,804.12,806.16,808.19,810.45,813.07,815.62,815.92,815.11,813.96,812.99,812.06,810.80,808.93,806.26,803.12,798.93,793.78,788.58,785.73,787.71,790.98,794.25,797.20,799.85,802.35,804.47,805.81,805.69,804.35,802.44,800.13,797.25,793.75,790.45,787.87,786.21,784.87,783.65,783.11,783.17,783.28,784.05,785.99,788.40,790.76,794.05,797.09,799.31,800.34,799.98,798.35,796.64,795.29,794.65,795.53,798.21,801.22,803.60,805.87,808.11,809.67,810.34,810.23,809.77,808.54,806.79,804.95,803.48,802.06,800.53,798.63,795.78,792.83,790.12,787.73,785.65,783.60,783.63,784.99,786.87,788.82,791.42,794.39,797.41,799.76,800.66,801.12,801.50,801.78,801.66,801.16,800.53,799.23,795.74,797.25,800.33,803.44,806.22,808.81,809.83,810.00,810.00,810.00,810.00,809.99,808.88,804.15,799.84,795.57,790.96,785.52,779.13,773.21,769.84,769.74,770.27,772.12,775.24,779.48,784.65,789.22,790.66,789.50,787.36,789.18,792.42,795.91,798.92,800.38,800.84,800.27,798.59,795.78,794.21,793.52,792.37,790.62,790.58,791.30,791.74,791.48,790.04,787.03,784.06,781.83,780.26,777.02,772.50,768.43,765.35,762.66,760.59,759.68,759.77,760.76,763.19,765.46,766.88,767.13,766.68,766.06,765.78,766.11,767.28,768.57,770.24,772.32,774.76,777.27,779.99,782.42,784.35,785.85,787.51,789.68,792.12,794.38,796.29,796.31,795.35,794.37,794.70,797.65,801.05,804.18,807.17,810.03,813.13,816.42,819.42,820.58,821.22,821.48,821.29,820.75,819.90
790.42,793.84,797.73,801.15,804.38,807.43,809.57,810.44,811.00,811.54,811.19,809.29,805.01,800.38,798.85,799.74,801.67,802.35,803.94,803.94,801.44,797.90,797.79,798.35,799.21,800.76,800.68,799.60,797.20,793.38,789.70,786.93,784.61,782.50,780.58,779.02,777.99,776.48,774.33,775.41,778.92,782.40,785.12,787.88,791.16,794.98,798.58,800.85,802.38,803.67,804.89,805.30,802.52,798.97,797.75,799.32,802.40,804.44,805.07,805.01,805.28,807.20,808.73,810.54,812.99,815.53,816.09,814.90,812.96,811.50,810.73,809.20,806.89,803.91,800.46,794.55,789.79,787.18,786.28,788.76,791.86,794.90,797.89,800.76,803.28,805.24,806.23,805.58,803.81,801.58,798.89,795.40,791.79,788.84,786.50,784.96,784.87,784.69,784.50,784.35,784.25,784.71,786.27,788.44,790.86,794.29,797.82,800.87,803.08,804.18,804.14,803.13,801.26,798.64,797.03,798.81,802.02,805.02,807.62,809.40,810.38,810.59,810.13,809.13,807.55,805.65,803.73,802.16,800.56,798.73,796.54,793.97,791.39,789.14,787.17,785.18,783.51,784.13,785.90,787.78,789.84,792.77,795.97,798.81,800.28,801.03,801.54,802.00,802.35,801.90,801.26,800.59,799.33,796.13,797.81,800.90,803.98,806.86,809.18,809.96,810.00,810.00,810.00,810.00,810.00,809.31,806.13,801.05,796.59,792.62,787.84,780.61,773.70,769.85,770.09,771.72,774.43,777.67,781.58,786.69,790.70,792.39,791.70,789.37,789.98,793.08,796.76,799.82,800.99,801.15,800.59,799.54,798.39,798.38,798.36,797.05,794.40,793.11,793.12,792.88,791.97,790.43,788.27,785.85,783.46,780.92,776.84,771.97,767.73,764.44,761.46,760.11,759.93,760.87,763.27,766.18,768.46,769.73,769.92,769.69,769.37,768.75,767.89,767.18,767.57,769.11,771.27,773.68,776.05,778.47,780.63,782.41,783.89,784.77,786.58,789.07,791.29,793.25,793.77,793.03,791.77,792.47,795.49,799.01,802.29,805.26,808.27,811.47,814.79,817.91,819.90,820.81,821.04,820.78,820.21,818.29
790.74,794.09,797.79,801.29,804.56,807.63,809.86,810.96,811.87,812.17,811.43,809.36,805.49,801.89,801.67,803.64,806.01,806.73,807.52,806.56,803.36,799.89,800.48,801.49,802.28,803.19,802.75,801.21,798.40,794.37,790.50,787.52,785.00,782.93,781.75,781.05,780.26,778.51,775.59,774.60,777.69,781.37,784.24,787.02,790.25,794.67,799.24,802.22,804.60,806.40,807.66,807.80,805.25,801.75,800.16,801.40,805.30,807.76,808.45,808.02,807.36,808.43,810.32,812.41,814.59,816.74,816.37,814.30,811.66,809.58,808.30,806.52,804.11,801.24,798.60,793.40,789.21,787.20,787.19,789.73,792.67,795.55,798.43,801.37,803.92,805.77,806.45,805.38,803.41,801.13,798.35,794.52,790.75,787.85,786.12,785.78,786.32,786.47,786.36,786.06,785.61,785.50,786.68,788.64,790.94,794.44,798.09,801.56,804.61,806.83,807.83,807.52,805.68,801.88,799.00,800.09,803.13,806.32,809.06,810.31,810.57,810.12,809.16,807.88,806.19,804.29,802.40,800.61,798.69,796.61,794.34,792.00,789.94,788.17,786.48,784.68,783.88,784.95,786.79,788.67,790.85,793.88,797.07,799.68,800.73,801.42,801.96,802.47,802.84,802.22,801.43,800.65,799.39,796.53,798.45,801.60,804.64,807.52,809.43,810.00,810.01,810.03,810.01,810.00,809.87,808.70,804.43,799.88,796.01,792.30,787.38,779.57,773.14,769.85,770.23,772.17,775.01,778.25,782.37,788.27,792.12,794.23,794.08,791.58,791.08,793.96,797.58,800.40,801.53,801.69,801.23,800.53,800.07,800.33,800.22,799.06,796.87,795.35,794.59,793.63,792.30,790.74,789.00,786.67,783.99,780.81,775.74,770.93,766.97,763.77,760.96,760.86,761.94,763.79,766.46,768.62,770.21,771.26,771.73,771.76,771.61,770.89,769.54,767.86,767.42,768.55,770.49,772.60,774.74,776.87,778.78,780.36,781.49,781.88,783.30,785.63,788.11,790.43,791.65,791.26,789.78,790.74,793.79,797.34,800.78,803.98,807.14,810.34,813.56,816.64,819.00,820.00,820.15,819.64,818.50,815.97
791.66,794.69,797.85,800.97,804.13,807.01,809.30,810.91,812.39,812.56,811.52,809.36,806.08,804.06,804.99,807.46,809.78,810.41,810.40,808.79,805.42,802.05,803.20,804.81,805.72,805.78,804.67,802.39,799.23,795.42,791.63,788.37,785.66,783.81,783.55,783.44,782.30,779.93,776.52,774.02,776.58,780.22,783.22,786.02,788.89,793.57,798.92,802.77,806.41,808.94,810.26,810.09,808.17,804.24,802.07,803.20,807.82,810.43,811.39,811.07,809.90,810.05,812.50,815.07,816.95,818.46,816.99,814.09,810.89,808.28,806.35,804.52,802.35,799.92,798.32,794.80,790.90,788.04,788.15,790.57,793.41,796.20,798.96,801.85,804.41,806.12,806.47,805.06,803.06,800.82,798.01,793.98,790.06,787.40,786.64,787.85,788.66,788.73,788.44,787.90,787.07,786.35,787.15,788.91,791.04,794.53,798.12,801.75,805.37,808.42,810.05,810.33,808.82,804.62,801.11,801.69,804.43,807.55,810.22,810.83,810.31,809.19,807.76,806.35,804.69,802.88,801.08,799.04,796.81,794.53,792.28,790.14,788.61,787.21,785.72,784.25,784.49,785.87,787.65,789.50,791.68,794.64,797.67,800.09,800.98,801.65,802.27,802.87,803.27,802.58,801.65,800.72,799.44,796.97,799.08,802.25,805.25,808.08,809.58,810.01,810.03,810.08,810.02,810.00,809.30,806.81,801.00,797.51,794.47,790.81,785.50,777.62,772.25,769.90,770.47,772.50,775.15,778.36,782.81,789.65,793.63,796.20,796.53,793.93,792.32,794.96,798.36,800.83,802.03,802.31,801.95,801.37,801.03,800.88,800.32,799.33,798.02,796.73,795.36,793.92,792.44,790.96,789.37,786.86,783.83,780.23,774.13,769.62,766.12,763.24,761.19,762.44,764.81,767.35,769.56,770.51,771.25,772.06,772.91,773.26,773.25,772.56,771.07,768.83,767.76,768.36,769.81,771.44,773.32,775.17,776.88,778.25,778.98,779.20,780.27,782.29,784.98,787.64,789.45,789.48,788.10,789.47,792.60,796.21,799.83,803.31,806.66,809.78,812.78,815.63,817.84,818.74,818.79,818.06,816.22,813.42
791.61,794.45,797.42,800.42,803.25,805.91,808.36,810.50,812.28,812.82,811.75,809.47,807.03,806.73,808.20,810.12,811.36,811.69,811.05,809.18,806.35,804.21,805.87,807.81,808.76,808.07,805.11,802.02,798.53,794.44,790.89,787.78,786.15,785.91,786.14,785.43,782.80,779.38,776.36,774.02,776.22,779.57,782.55,785.34,788.14,792.58,797.93,802.62,807.06,809.95,811.42,811.41,809.91,805.52,803.89,806.09,809.98,812.28,813.35,813.36,812.57,813.01,815.00,817.28,819.05,819.59,818.72,816.12,812.76,810.22,808.49,807.35,806.15,804.54,802.71,799.69,794.57,789.22,788.66,791.02,793.98,796.88,799.69,802.46,804.92,806.30,806.10,804.43,802.57,800.20,797.04,792.85,788.96,787.90,788.82,790.68,791.72,791.58,790.57,789.17,788.14,787.16,787.56,788.99,791.09,794.50,798.02,801.65,805.41,808.93,810.66,811.07,810.10,806.99,802.87,803.16,805.83,808.72,810.98,810.62,809.33,807.86,806.34,804.83,803.25,801.63,799.94,797.81,795.56,793.23,790.95,789.14,787.64,786.24,784.96,784.23,785.04,786.63,788.42,790.13,791.81,794.42,797.31,799.69,800.48,801.26,802.14,803.05,803.68,802.98,801.90,800.73,799.38,797.60,799.55,802.52,805.47,808.24,809.63,810.04,810.08,810.08,810.02,810.00,807.21,801.91,798.08,795.12,792.12,788.50,783.58,777.23,772.32,770.24,771.51,774.37,777.20,780.37,784.70,791.24,795.51,798.32,798.86,796.32,793.50,795.88,799.12,801.24,802.48,802.77,802.34,801.61,801.03,800.50,799.49,798.15,796.61,795.16,794.03,793.07,792.13,790.95,789.20,786.33,783.02,779.16,772.25,768.11,765.04,762.69,762.83,764.96,767.51,769.71,770.98,771.47,771.94,772.64,773.59,774.46,774.80,774.32,772.69,769.55,768.52,768.55,769.09,770.08,771.65,773.32,774.92,776.24,776.96,777.54,778.59,780.15,782.20,784.45,786.01,786.49,786.44,789.10,792.54,796.45,800.41,803.80,807.52,810.52,812.97,815.06,816.09,816.46,816.53,816.04,814.05,811.39
791.79,794.59,797.51,800.45,803.17,805.74,808.25,810.67,812.72,813.59,812.66,810.55,808.99,809.62,811.07,812.30,812.62,812.19,811.11,809.02,806.53,806.07,808.07,809.81,810.42,809.15,804.92,801.04,797.10,792.92,790.07,788.29,787.93,788.54,788.88,787.78,784.37,780.15,776.71,774.37,776.24,779.32,782.23,784.96,787.69,791.88,797.20,802.66,807.73,810.93,812.57,812.69,811.29,807.54,805.88,807.44,811.16,813.49,814.80,815.38,815.50,816.29,817.52,818.88,820.00,820.09,819.73,817.91,815.14,812.68,811.18,810.40,809.63,808.27,805.81,802.42,796.86,790.77,789.16,791.30,794.52,797.78,800.73,803.44,805.78,806.61,805.55,803.74,801.92,798.46,794.08,790.76,788.62,789.47,791.84,794.23,795.17,794.59,792.89,790.67,789.03,787.92,788.11,789.27,791.26,794.51,797.96,801.56,805.37,809.15,811.07,811.58,810.86,808.49,804.27,804.64,807.35,809.89,811.63,810.93,809.51,808.05,806.42,804.58,802.66,800.75,798.84,796.54,794.29,792.07,789.97,788.43,786.95,785.53,784.53,784.76,785.90,787.47,789.12,790.70,792.10,794.40,796.93,799.04,799.90,800.84,801.95,803.12,803.98,803.44,802.31,801.03,799.63,798.10,799.75,802.50,805.44,808.21,809.62,810.05,810.10,810.09,810.00,809.07,805.11,799.16,796.40,793.63,790.01,785.55,780.56,776.54,772.72,770.75,771.84,775.27,778.68,782.51,787.13,792.77,797.15,800.03,800.48,797.72,794.63,796.69,799.63,801.60,802.95,802.84,802.07,801.13,800.31,799.39,798.10,796.55,794.87,793.31,792.29,791.65,791.10,790.13,788.13,785.21,781.68,777.29,770.89,767.21,764.42,762.47,763.82,766.35,768.80,770.75,771.94,772.48,772.85,773.33,774.09,775.20,775.94,776.05,775.27,773.29,772.61,771.43,770.31,770.23,770.96,771.95,773.08,774.24,775.10,775.97,777.06,778.40,779.98,781.55,783.04,784.41,786.10,789.53,793.78,797.94,801.64,804.69,807.92,810.45,812.38,813.77,814.17,814.32,814.40,814.11,812.52,810.05
792.28,795.13,798.05,800.99,803.82,806.41,808.95,811.46,813.61,814.67,814.02,812.36,811.60,812.46,813.47,814.00,813.61,812.22,810.79,808.61,806.50,807.78,809.88,811.04,810.96,809.18,804.31,799.75,795.49,791.69,790.11,790.40,791.12,791.67,791.65,790.24,786.54,781.76,777.37,774.93,776.57,779.42,782.19,784.83,787.45,791.42,796.72,802.81,808.30,811.81,813.68,813.91,812.50,810.04,807.81,807.47,811.49,814.14,815.76,816.98,818.19,819.26,819.70,819.91,820.10,820.17,820.10,819.26,817.58,815.28,813.93,813.09,812.19,810.60,807.43,803.18,797.80,792.35,789.74,791.67,795.24,798.95,802.02,804.67,806.76,806.89,804.90,803.03,801.07,796.04,790.21,788.58,789.20,791.93,795.32,798.08,798.73,797.61,795.32,792.38,789.79,788.58,788.73,789.82,791.73,794.80,798.14,801.69,805.48,809.29,811.48,812.06,811.35,809.31,805.39,806.11,808.87,810.93,812.17,811.63,810.54,809.30,807.59,805.28,802.75,800.25,797.90,795.35,793.01,790.95,789.21,787.85,786.44,785.07,784.41,785.61,786.91,788.31,789.76,791.22,792.57,794.58,796.62,798.29,799.33,800.46,801.76,803.11,804.19,803.93,802.85,801.52,800.10,798.50,799.78,802.29,805.20,808.01,809.56,810.05,810.10,810.10,809.98,807.85,803.62,798.56,795.99,793.15,788.64,782.97,777.71,776.26,773.71,771.57,771.75,775.43,779.58,784.39,789.53,794.04,798.38,801.33,801.57,798.37,795.70,797.39,799.94,801.90,803.42,802.67,801.37,800.12,799.01,797.76,796.30,794.71,793.04,791.43,790.37,789.85,789.55,788.64,786.42,783.62,779.94,774.97,770.00,766.80,764.19,762.55,764.26,766.80,768.98,770.82,772.56,773.54,773.95,774.19,774.59,775.59,776.68,777.57,778.24,778.72,778.63,776.19,773.28,771.96,771.45,771.37,771.77,772.65,773.64,774.63,775.71,776.92,778.30,779.30,780.96,783.46,786.82,790.58,795.67,799.89,802.84,805.31,807.45,809.35,810.83,811.62,811.92,812.14,812.28,812.13,811.16,808.91
793.19,795.97,798.83,801.88,804.96,807.75,810.51,813.11,814.64,815.38,815.13,814.32,813.96,814.35,814.70,814.57,813.59,811.90,810.01,808.41,807.88,809.75,811.51,811.90,810.88,808.29,803.35,798.81,795.29,793.47,794.51,796.16,796.62,795.78,794.28,791.67,787.22,781.88,777.17,775.51,777.36,779.97,782.37,784.98,787.48,791.18,796.30,802.55,807.84,811.83,814.19,814.61,813.73,811.73,808.75,807.00,810.97,814.01,815.86,817.20,818.59,819.70,820.02,820.08,820.12,820.19,820.22,819.92,819.15,817.79,816.23,814.61,812.96,811.00,807.77,803.13,797.79,792.81,790.52,792.97,796.94,800.73,803.49,805.86,806.99,806.41,804.31,802.33,799.68,794.38,789.15,789.32,791.73,795.25,798.67,801.02,801.51,800.21,797.62,794.13,790.53,788.89,789.19,790.82,793.38,796.35,799.51,802.85,806.38,809.85,812.09,812.65,811.78,809.76,806.32,807.38,809.96,811.33,812.38,812.14,811.32,810.17,808.54,806.01,803.22,800.42,797.66,794.77,791.99,789.83,788.42,787.15,785.93,784.91,784.64,786.05,787.42,788.84,790.29,791.74,793.12,794.80,796.39,797.74,798.96,800.21,801.61,803.10,804.35,804.38,803.30,801.87,800.38,798.99,799.88,801.98,804.63,807.38,809.38,810.05,810.12,810.15,810.06,808.68,804.97,800.02,797.66,794.50,789.95,784.64,780.14,779.85,776.90,773.53,772.46,775.93,780.07,784.95,790.09,794.34,798.56,802.19,802.78,798.94,796.72,797.92,800.06,802.12,803.90,802.77,800.80,798.84,797.16,795.75,794.30,792.78,791.19,789.47,788.40,788.00,787.78,786.78,784.58,781.66,777.94,773.37,769.44,766.59,764.24,762.95,764.68,766.83,768.75,770.57,772.55,774.25,775.10,775.42,775.50,775.89,776.89,778.06,779.45,781.34,782.09,780.58,778.08,775.94,774.39,773.16,772.77,773.29,773.95,774.58,775.04,775.77,777.43,779.09,781.49,784.46,787.94,791.97,796.34,799.73,801.90,803.30,804.73,806.33,807.58,807.99,808.29,808.86,809.34,809.33,808.24,806.28
793.92,796.74,799.66,802.88,806.17,809.20,812.04,814.42,815.45,815.96,815.97,815.66,815.45,815.38,815.25,814.66,813.27,811.47,809.56,808.83,809.78,811.93,812.99,812.41,810.54,807.50,802.62,798.46,796.08,796.21,798.70,800.77,800.61,798.45,795.62,792.22,787.39,781.89,777.19,776.00,778.05,780.54,782.63,785.16,787.50,790.93,795.84,802.15,807.18,811.32,814.07,814.94,814.59,813.14,810.20,807.70,810.08,813.24,815.46,817.01,818.38,819.41,819.81,819.88,819.88,820.13,820.30,820.27,820.00,819.25,817.42,815.26,813.12,810.83,807.40,802.49,797.96,794.69,793.55,795.28,798.65,802.13,804.61,806.80,807.13,805.97,803.78,801.58,797.89,792.94,789.57,792.10,795.13,798.56,801.74,803.89,804.22,802.72,799.98,796.20,791.65,789.25,789.61,791.78,794.88,797.94,800.96,804.11,807.38,810.48,812.77,813.32,812.29,810.14,807.28,808.39,810.65,811.68,812.68,812.63,811.90,810.72,809.20,806.58,803.73,800.87,797.85,794.41,791.26,789.05,787.86,786.77,785.76,784.97,784.87,786.28,787.65,789.04,790.43,791.82,793.17,794.66,796.14,797.52,798.82,800.16,801.67,803.27,804.66,804.80,803.67,802.13,800.66,799.65,800.74,802.70,804.86,806.85,808.88,809.82,810.09,810.15,810.10,809.50,806.93,802.76,799.59,795.70,791.29,787.07,784.06,782.56,778.69,774.83,773.52,776.88,781.08,785.87,790.87,795.27,799.42,803.61,804.73,800.74,798.18,798.53,800.17,802.32,804.38,803.09,800.89,798.69,796.61,794.28,792.32,790.60,788.99,787.34,786.16,785.66,785.62,785.26,783.18,780.13,776.42,772.30,769.09,766.60,764.47,763.34,765.13,767.09,768.94,770.86,773.04,775.08,776.29,776.78,776.75,776.75,777.32,778.31,779.96,782.76,784.90,784.41,782.15,779.27,777.01,775.19,774.35,774.55,775.00,775.42,775.44,775.61,776.92,778.91,781.64,784.74,788.08,791.84,795.32,797.91,799.52,800.40,801.26,802.19,802.82,802.87,803.41,804.55,805.72,806.46,806.20,805.30
794.41,797.39,800.52,803.94,807.31,810.55,813.29,815.16,815.91,816.39,816.46,816.21,815.96,815.59,815.19,814.38,812.81,811.05,809.71,809.99,811.99,814.09,814.22,812.58,809.98,806.90,802.24,798.81,797.82,799.62,802.10,803.58,802.52,799.34,795.64,791.99,787.22,781.94,777.50,776.27,778.46,780.98,782.91,785.35,787.46,790.65,795.40,801.70,806.50,810.42,813.38,814.96,815.02,814.33,812.28,809.68,809.08,811.94,814.63,816.53,817.82,818.66,819.23,819.44,819.47,820.03,820.38,820.39,820.14,819.48,817.39,815.07,812.79,810.27,806.43,801.53,798.64,798.22,798.71,798.47,800.22,803.00,805.32,807.50,807.28,805.65,803.31,800.74,795.83,791.87,791.36,796.47,799.09,801.77,804.57,806.74,806.89,805.11,802.29,798.44,793.09,789.70,789.96,792.55,795.95,799.25,802.23,805.21,808.24,811.03,813.39,814.03,812.94,810.53,808.33,809.23,811.08,812.15,813.19,813.13,812.28,810.98,809.50,806.93,804.21,801.47,798.34,794.19,790.86,788.70,787.63,786.80,785.98,785.23,785.04,786.33,787.63,788.90,790.14,791.38,792.63,794.13,795.86,797.60,798.91,800.34,801.95,803.66,805.16,805.24,804.01,802.42,801.08,800.56,802.43,804.60,806.13,806.74,808.26,809.43,810.04,810.10,810.11,809.96,808.93,806.29,801.28,796.36,792.35,789.76,788.48,783.75,778.74,775.32,774.87,778.34,782.81,787.60,792.50,797.29,801.37,805.72,807.36,803.88,800.28,799.45,800.48,802.65,804.84,803.60,801.64,799.76,797.59,793.77,790.81,788.58,786.80,785.32,783.83,782.97,783.08,784.07,782.25,779.16,775.48,771.66,768.89,766.76,764.82,763.76,765.65,767.64,769.64,771.77,774.15,776.11,777.50,778.23,778.31,778.21,778.11,778.55,780.09,783.50,787.39,787.66,785.20,781.65,778.95,777.12,776.17,776.11,776.54,777.01,776.90,776.55,776.86,778.46,780.91,783.83,786.96,789.90,792.56,794.55,795.89,796.87,797.29,797.29,797.12,797.18,798.34,800.25,802.36,804.33,805.75,806.46
795.00,798.19,801.45,804.81,808.04,811.18,813.73,815.31,815.98,816.33,816.30,816.03,815.74,815.34,814.69,813.76,812.53,811.38,811.07,812.03,813.85,814.75,814.44,812.36,809.24,806.01,802.29,799.85,800.39,804.03,806.23,806.03,803.53,799.59,795.63,791.71,786.73,781.51,777.41,775.67,777.92,780.75,782.97,785.47,787.38,790.56,795.40,801.58,805.92,809.64,812.79,814.90,815.23,814.96,813.77,811.63,809.23,810.89,813.41,815.48,816.59,817.23,818.22,819.13,819.77,820.26,820.53,820.42,819.85,818.54,816.31,813.90,811.54,808.96,805.18,801.75,800.67,801.68,802.51,801.40,801.83,803.62,805.88,808.09,807.38,805.27,802.64,799.68,794.26,792.55,795.15,800.15,802.61,805.28,807.67,808.90,808.86,806.82,803.72,799.55,793.70,789.95,790.18,792.89,796.35,799.68,802.63,805.42,808.14,810.75,813.32,814.50,813.86,811.32,809.56,810.41,812.09,813.25,814.24,813.65,812.41,810.98,809.35,806.98,804.43,801.71,798.50,794.05,790.81,788.98,788.27,787.45,786.60,785.72,785.30,786.21,787.31,788.44,789.55,790.60,791.71,793.44,795.49,797.51,799.10,800.70,802.42,804.20,805.69,805.88,804.84,803.51,802.44,802.09,804.66,807.13,808.47,808.63,809.23,809.73,810.03,810.10,810.15,810.10,809.73,807.77,801.58,796.39,794.18,793.29,790.75,784.80,779.18,776.04,776.60,780.43,785.47,791.12,796.69,801.08,804.98,808.05,809.23,807.40,803.71,801.87,802.21,804.07,805.25,804.01,802.35,800.86,799.25,795.94,792.59,789.78,787.60,785.43,783.14,781.39,780.81,782.12,781.43,778.70,774.81,770.80,768.49,766.62,765.13,764.62,766.36,768.22,770.31,772.65,775.15,777.21,778.64,779.56,779.94,779.59,779.18,779.34,780.94,785.35,789.62,790.44,788.44,784.72,781.25,779.06,777.89,777.60,777.96,778.56,778.69,778.45,778.26,778.26,779.65,781.91,784.50,786.67,788.54,790.28,791.81,792.72,792.95,793.20,794.44,797.40,800.30,803.13,805.62,807.46,808.39,808.95
795.68,798.91,802.09,805.31,808.38,811.36,813.79,815.27,815.88,816.06,815.94,815.63,815.25,814.78,814.15,813.42,812.72,812.32,812.73,813.78,814.95,814.97,814.59,812.57,809.55,806.70,803.82,802.53,804.06,808.04,809.46,807.71,803.98,799.37,795.23,791.16,786.25,781.35,777.67,775.58,777.39,780.36,783.25,786.02,788.20,791.73,796.61,801.88,805.60,809.05,812.29,814.77,815.31,815.32,814.77,813.19,810.07,810.33,812.26,814.30,815.48,816.43,817.92,819.31,820.25,820.63,820.68,820.30,819.37,817.58,815.12,812.42,809.79,807.22,804.12,802.59,803.11,804.96,806.04,804.46,803.60,804.28,806.44,808.51,807.39,804.91,801.99,798.61,793.98,794.36,798.77,803.06,805.68,808.10,809.81,810.25,810.03,807.88,804.59,800.13,794.02,790.13,790.32,793.04,796.45,799.71,802.46,805.01,807.48,809.85,812.47,814.43,814.84,812.76,811.33,811.97,813.42,814.58,815.12,814.02,812.47,810.90,809.08,806.85,804.43,801.86,798.86,794.56,791.68,790.05,789.24,788.28,787.33,786.35,785.68,786.03,786.87,787.87,788.86,789.78,790.78,792.72,795.03,797.34,799.33,800.98,802.66,804.37,805.86,806.44,805.85,804.90,804.08,803.76,806.49,808.91,810.03,810.07,810.08,810.08,810.11,810.18,810.22,810.16,810.08,808.38,801.56,797.28,796.76,796.75,792.90,786.33,780.17,777.04,778.41,783.15,789.06,795.14,800.61,804.41,807.88,809.77,810.42,809.79,806.92,804.77,804.46,805.52,805.56,804.41,803.03,801.78,800.59,798.31,795.04,791.87,789.20,786.30,783.33,780.63,779.05,779.94,779.95,777.36,773.44,769.85,767.96,766.35,765.35,765.43,767.04,768.75,770.94,773.50,776.13,778.39,779.96,781.12,781.86,781.76,781.30,781.26,782.67,787.17,791.34,793.11,792.14,788.43,784.60,782.15,780.78,780.31,780.64,781.54,782.05,781.99,781.27,779.63,779.39,780.36,782.13,784.03,785.49,786.79,787.85,788.34,789.10,790.56,793.56,798.62,802.63,806.06,808.64,810.11,810.53,810.84
