851.18,851.87,852.55,852.86,852.26,851.39,850.53,849.48,847.35,845.08,844.10,844.55,845.93,847.20,848.00,848.31,848.18,848.35,849.66,851.10,852.27,853.33,854.61,856.17,857.98,859.84,860.42,860.52,860.42,860.13,859.70,858.82,858.63,859.23,860.02,860.38,859.91,858.69,856.74,854.57,852.53,850.77,849.42,848.69,848.82,849.46,850.19,850.61,851.00,851.10,850.96,850.68,850.50,850.51,850.58,850.63,850.53,850.26,849.24,847.09,843.69,840.78,840.04,840.28,841.54,845.26,848.82,850.48,850.71,850.75,850.68,850.05,848.92,847.43,846.23,846.03,846.14,846.11,845.55,844.32,842.90,841.60,840.69,840.31,839.83,838.92,837.34,835.00,834.74,834.86,834.75,834.28,833.55,833.37,833.48,833.58,833.48,833.53,833.70,833.91,834.08,834.25,834.52,834.85,835.11,835.01,834.95,834.81,834.49,834.03,833.62,833.29,833.11,833.25,833.72,834.48,835.10,835.30,835.28,835.02,834.56,834.15,834.37,834.88,835.16,835.26,835.38,835.63,835.71,835.33,834.25,832.47,830.76,829.25,828.02,827.30,827.74,828.67,829.44,829.72,829.95,830.03,830.08,830.13,830.16,830.08,829.85,829.28,828.15,826.94,825.75,824.41,822.78,820.94,819.44,819.55,820.64,820.99,821.08,821.14,821.23,821.41,822.06,822.80,823.56,824.33,825.05,825.53,825.70,825.66,825.53,825.49,825.54,825.56,825.52,825.58,825.80,826.05,826.20,826.08,825.74,825.13,824.36,823.48,822.45,821.65,821.00,820.42,819.74,819.11,819.09,819.46,819.75,819.91,820.12,820.33,820.46,820.50,820.45,820.41,820.08,818.71,816.65,814.71,813.31,812.70,812.37,812.06,811.34,810.19,809.04,807.66,808.33,809.96,810.43,810.81,811.18,811.26,810.93,810.56,810.20,808.89,806.77,804.85,803.61,802.46,801.43,800.71,800.17,799.60,799.01,798.43,797.89,797.47,797.17,797.06,797.20,797.29,797.37,797.47,797.59,797.67,797.82,797.95,798.06,798.03,797.78,797.39,796.96,796.58,796.17,795.78,795.42,795.12,794.94,794.90
852.28,853.08,853.61,853.37,852.30,851.07,849.95,848.80,846.94,845.46,844.33,843.74,844.27,845.01,846.08,847.57,849.42,850.62,851.84,853.10,854.26,855.04,855.88,857.04,858.42,859.78,860.41,860.57,860.45,860.11,859.58,858.69,858.58,859.30,860.07,860.34,860.05,859.13,857.41,855.37,853.03,851.00,849.73,849.62,849.90,850.36,850.82,851.15,851.52,851.58,851.40,851.11,850.88,850.84,850.81,850.70,850.42,850.09,848.45,845.83,842.86,840.69,840.44,841.32,843.15,846.28,849.55,851.12,851.30,851.11,850.85,850.27,849.23,847.87,847.19,847.16,847.13,846.69,845.47,844.16,842.79,841.47,840.39,839.79,838.73,837.75,837.03,836.25,835.95,835.58,834.97,834.12,833.19,833.45,834.07,834.33,834.28,834.13,833.82,833.39,833.08,833.19,833.48,833.82,833.99,833.23,832.80,832.49,832.10,831.63,831.63,831.65,831.66,831.85,832.42,833.11,833.78,834.30,834.40,834.28,833.76,833.17,833.50,834.52,835.07,835.24,835.40,835.57,835.52,834.78,833.19,831.25,829.40,827.78,826.51,825.88,826.27,827.52,828.91,829.87,830.00,830.10,830.16,830.13,830.06,829.93,829.45,828.65,827.61,826.46,825.26,823.87,822.21,820.37,819.39,819.64,820.60,821.24,821.47,821.55,821.59,821.67,822.30,823.00,823.73,824.49,825.17,825.56,825.70,825.67,825.61,825.64,825.72,825.76,825.76,825.78,825.92,826.12,826.25,826.08,825.74,825.09,824.22,823.16,822.03,820.89,820.17,819.85,819.32,818.57,818.28,818.40,818.69,818.96,819.35,819.83,820.32,820.46,820.48,820.44,820.10,818.83,817.04,815.26,813.39,811.39,810.14,809.48,808.88,808.17,807.40,806.50,807.72,809.79,810.30,810.64,810.95,811.05,810.85,810.54,810.23,809.12,807.13,804.72,803.21,802.08,801.09,800.28,799.77,799.29,798.78,798.24,797.73,797.44,797.43,797.58,797.72,797.81,797.88,797.97,798.05,798.13,798.27,798.38,798.39,798.17,797.76,797.35,796.96,796.56,796.11,795.72,795.33,795.01,794.92,794.90
852.96,854.04,854.55,853.81,852.69,851.47,850.38,849.35,847.91,846.71,845.50,844.46,844.31,845.45,847.09,848.88,850.64,851.92,853.16,854.34,855.33,855.97,856.75,857.60,858.51,859.45,860.05,860.36,860.36,859.99,859.38,858.55,858.58,859.39,860.08,860.18,859.84,859.02,857.58,855.95,853.92,852.15,851.07,850.83,851.00,851.25,851.51,851.81,852.07,851.94,851.64,851.35,851.12,850.96,850.79,850.56,850.20,849.37,847.38,845.13,843.63,842.61,842.49,843.10,844.57,847.22,849.65,850.95,851.28,851.08,850.83,850.26,849.40,848.45,848.16,848.09,847.80,847.11,845.94,844.65,843.31,842.10,841.17,840.24,839.13,838.14,837.40,836.72,836.09,835.44,834.71,833.82,833.20,833.81,834.59,834.76,834.74,834.66,834.47,834.19,833.87,833.64,833.56,833.51,833.18,831.89,831.19,830.85,830.63,830.41,830.45,830.50,830.52,830.61,830.88,831.27,831.79,832.36,832.55,832.54,832.17,831.70,831.92,832.75,833.49,833.99,834.30,834.48,834.31,833.43,831.75,829.85,828.02,826.42,825.22,824.78,825.50,827.19,828.92,829.90,830.00,829.99,829.82,829.56,829.42,829.20,828.69,827.90,826.89,825.83,824.73,823.44,821.87,820.22,819.42,819.66,820.50,821.12,821.49,821.51,821.49,821.74,822.31,822.99,823.67,824.38,825.13,825.48,825.61,825.63,825.61,825.64,825.70,825.78,825.87,825.96,826.10,826.23,826.26,826.09,825.74,825.00,824.04,822.96,821.88,820.75,819.73,818.91,818.33,817.61,817.19,817.06,817.05,817.24,817.64,818.33,819.30,820.06,820.33,820.35,820.13,819.41,817.93,816.28,814.43,812.31,810.64,809.81,808.88,807.52,806.15,806.08,807.69,809.67,810.25,810.57,810.71,810.72,810.59,810.37,810.15,808.83,806.39,803.77,802.49,801.43,800.51,799.91,799.43,799.00,798.52,798.04,797.81,797.80,797.92,798.11,798.28,798.34,798.38,798.45,798.56,798.64,798.74,798.72,798.53,798.16,797.71,797.27,796.84,796.41,795.99,795.60,795.23,794.95,794.91,794.93
853.40,854.74,855.35,854.41,853.35,852.28,851.31,850.41,849.32,848.20,846.91,845.57,844.78,846.09,848.02,849.81,851.13,852.25,853.59,854.83,855.77,856.35,857.03,857.61,858.12,858.71,859.31,859.75,859.82,859.40,858.83,858.37,858.64,859.45,859.95,859.86,859.42,858.67,857.57,856.30,854.75,853.45,852.62,852.16,852.16,852.20,852.23,852.34,852.34,852.01,851.60,851.32,851.13,850.90,850.65,850.39,849.97,848.53,846.76,845.47,845.24,845.11,844.93,845.07,845.96,848.10,849.78,850.75,851.12,850.99,850.77,850.27,849.66,849.15,849.04,848.85,848.32,847.46,846.45,845.25,843.95,842.78,841.88,840.66,839.48,838.43,837.51,836.62,835.75,834.98,834.24,833.44,833.28,834.11,834.90,834.99,835.00,835.01,835.03,835.00,834.80,834.40,834.08,833.76,833.13,831.64,830.66,830.15,829.98,829.88,829.84,829.81,829.79,829.77,829.70,829.77,830.07,830.53,830.72,830.72,830.48,830.15,830.23,830.66,831.35,832.08,832.59,832.81,832.61,831.76,830.21,828.43,826.67,825.15,824.11,824.09,825.21,827.18,828.98,829.79,829.88,829.73,829.33,828.81,828.56,828.27,827.81,827.13,826.18,825.15,824.15,822.99,821.59,820.19,819.49,819.70,820.42,820.97,821.48,821.41,821.27,821.58,822.10,822.74,823.38,824.00,824.73,825.14,825.37,825.48,825.49,825.49,825.61,825.77,825.95,826.13,826.28,826.33,826.28,826.10,825.67,824.87,823.88,822.88,821.92,820.88,819.65,818.35,817.47,816.63,815.96,815.40,814.95,814.99,815.57,816.61,818.03,819.40,820.05,820.23,820.10,819.65,818.19,816.58,814.89,813.07,811.43,810.57,809.33,807.32,805.28,805.77,807.54,809.33,810.02,810.33,810.34,810.20,809.98,809.71,809.29,807.66,804.97,802.40,801.50,800.69,799.95,799.58,799.14,798.73,798.32,798.01,798.06,798.27,798.47,798.65,798.85,798.88,798.89,798.94,799.05,799.11,799.15,798.98,798.59,798.11,797.65,797.18,796.72,796.27,795.86,795.46,795.12,794.93,795.02,795.15
853.58,855.02,855.89,855.39,854.39,853.54,852.73,851.86,850.89,849.73,848.32,846.70,845.26,845.74,847.27,848.92,850.13,851.07,852.58,854.16,855.41,855.98,856.34,856.64,856.92,857.28,857.96,858.45,858.44,857.93,857.65,858.07,858.77,859.40,859.52,859.25,858.70,858.06,857.39,856.27,855.23,854.50,854.06,853.56,853.43,853.26,852.97,852.53,851.98,851.48,851.09,850.83,850.77,850.58,850.41,850.25,849.80,847.75,847.22,847.61,847.73,847.78,847.34,847.04,847.41,848.92,850.27,850.91,851.02,850.97,850.77,850.44,850.18,850.04,849.78,849.40,848.70,847.74,846.79,845.75,844.49,843.14,841.84,840.48,838.99,837.70,836.71,835.75,834.97,834.30,833.63,832.99,833.30,834.13,834.81,834.98,835.00,835.05,835.12,835.16,835.12,834.99,834.90,834.78,834.40,833.43,832.09,831.06,830.55,830.16,829.97,829.87,829.80,829.70,829.40,829.23,829.25,829.43,829.41,829.25,828.98,828.71,828.65,828.61,828.85,829.41,830.22,830.51,830.44,829.85,828.66,827.04,825.39,824.01,823.31,824.07,825.56,827.39,828.85,829.43,829.55,829.29,828.71,827.98,827.50,827.22,826.87,826.35,825.55,824.46,823.47,822.44,821.31,820.20,819.64,819.79,820.38,820.98,821.57,821.43,821.07,821.04,821.51,822.11,822.67,823.16,823.69,824.29,824.78,825.08,825.14,825.16,825.46,825.79,826.03,826.30,826.43,826.44,826.35,826.13,825.50,824.67,823.82,823.00,822.19,821.23,820.09,818.75,817.17,815.88,814.58,813.26,812.20,812.07,813.25,814.95,816.71,818.39,819.60,820.11,819.90,818.94,816.91,815.15,813.67,812.34,811.36,810.66,809.42,807.35,805.01,805.31,806.84,808.47,809.34,809.71,809.69,809.36,808.75,808.10,806.87,804.99,802.70,800.64,800.14,799.88,799.60,799.32,798.94,798.50,798.26,798.29,798.49,798.76,799.01,799.22,799.37,799.45,799.47,799.48,799.50,799.51,799.41,799.09,798.58,798.06,797.58,797.12,796.65,796.19,795.74,795.29,795.00,794.99,795.36,795.71
853.80,855.29,856.39,856.51,855.73,854.94,854.16,853.28,852.27,850.99,849.49,847.82,846.14,845.49,846.32,847.73,848.92,849.88,851.37,852.93,854.21,854.80,855.19,855.47,855.69,855.94,856.46,856.93,857.12,857.04,857.24,857.88,858.39,858.55,858.38,858.09,857.61,857.10,856.66,855.93,855.21,854.71,854.37,853.97,853.69,853.42,853.01,852.33,851.58,850.96,850.55,850.36,850.34,850.25,849.93,849.37,848.68,848.43,848.82,849.32,849.46,849.51,849.08,848.86,849.19,850.00,850.71,851.04,851.09,851.02,850.78,850.57,850.44,850.37,850.18,849.94,849.27,848.22,847.11,845.79,844.41,843.02,841.63,840.21,838.51,837.05,835.99,835.04,834.32,833.69,833.22,833.16,833.15,833.84,834.62,834.97,835.00,835.06,835.14,835.20,835.20,835.16,835.15,835.11,834.95,834.53,833.82,833.14,832.58,831.96,831.21,830.71,830.46,830.21,829.65,829.24,829.00,828.87,828.68,828.39,828.05,827.69,827.41,827.10,826.93,826.95,827.17,827.44,827.57,827.41,826.81,825.60,824.12,823.03,822.82,824.11,825.71,827.26,828.38,828.84,829.08,828.78,828.11,827.25,826.58,826.13,825.80,825.38,824.67,823.67,822.71,821.77,820.84,820.05,819.77,820.24,821.01,821.21,821.53,821.47,821.13,820.78,820.95,821.32,821.69,822.00,822.36,822.83,823.24,823.56,823.88,824.43,825.13,825.72,826.08,826.39,826.52,826.49,826.35,826.08,825.19,824.21,823.30,822.50,821.80,821.02,819.91,818.35,816.39,814.79,813.26,811.77,810.61,810.52,811.92,813.75,815.45,817.13,818.49,819.29,819.22,817.64,815.51,813.50,811.84,810.68,809.89,809.16,808.01,806.33,804.58,804.70,805.83,807.10,807.75,807.94,807.70,807.09,806.13,805.07,803.51,802.09,800.92,799.91,799.64,799.47,799.28,799.06,798.73,798.50,798.48,798.67,798.96,799.24,799.51,799.74,799.85,799.89,799.90,799.89,799.84,799.76,799.50,799.07,798.54,798.03,797.53,797.05,796.59,796.13,795.66,795.26,795.09,795.24,795.65,796.07
853.89,855.45,856.83,857.60,857.13,856.39,855.58,854.66,853.51,852.09,850.52,848.84,847.08,845.46,845.53,846.55,847.68,848.70,850.06,851.45,852.60,853.20,853.65,853.95,854.18,854.42,854.91,855.51,856.03,856.43,857.02,857.59,857.71,857.42,857.04,856.73,856.31,855.88,855.55,855.09,854.58,854.22,854.03,853.83,853.58,853.27,852.79,852.02,851.20,850.53,850.01,849.73,849.70,849.65,849.19,848.42,847.99,849.48,850.36,850.59,850.66,850.67,850.39,850.36,850.71,850.93,851.10,851.21,851.26,851.16,850.91,850.76,850.68,850.59,850.49,850.38,849.77,848.63,847.30,845.67,844.16,842.76,841.36,839.88,838.06,836.46,835.33,834.41,833.77,833.27,833.11,833.56,833.06,833.45,834.22,834.75,834.90,835.02,835.13,835.19,835.20,835.21,835.22,835.23,835.23,835.23,835.22,835.04,834.59,833.90,832.75,831.88,831.36,830.86,830.02,829.44,829.05,828.75,828.49,828.15,827.75,827.29,826.82,826.35,825.76,825.05,824.34,824.22,824.39,824.60,824.54,823.79,822.67,822.11,822.51,824.14,825.71,826.93,827.73,828.12,828.52,828.31,827.64,826.74,825.91,825.32,824.94,824.55,823.91,823.08,822.19,821.33,820.57,820.14,820.04,820.57,821.27,821.14,821.29,821.43,821.23,820.60,820.30,820.33,820.45,820.59,820.80,821.17,821.50,821.93,822.75,823.92,824.91,825.65,826.12,826.44,826.55,826.50,826.31,825.91,824.77,823.65,822.67,821.82,821.18,820.40,819.13,817.30,815.20,813.45,811.91,810.55,809.53,809.55,810.92,812.62,814.13,815.80,817.22,818.28,818.43,816.49,814.46,812.29,810.43,809.34,808.71,808.03,807.09,805.87,804.67,804.31,804.72,805.45,805.91,805.89,805.38,804.51,803.33,802.06,800.59,799.80,799.69,799.60,799.46,799.26,799.06,798.88,798.61,798.62,798.79,799.06,799.42,799.69,799.97,800.20,800.29,800.31,800.30,800.25,800.13,799.94,799.53,799.01,798.49,798.01,797.49,797.00,796.54,796.08,795.64,795.32,795.27,795.54,795.93,796.37
853.53,855.34,857.13,858.43,858.43,857.81,856.99,855.97,854.54,852.98,851.30,849.55,847.77,845.98,845.39,845.73,846.60,847.54,848.66,849.73,850.59,851.07,851.34,851.56,851.85,852.34,853.32,854.58,855.59,856.15,856.75,856.84,856.63,856.25,855.79,855.26,854.69,854.20,853.82,853.05,852.53,852.46,852.76,853.00,853.24,853.05,852.48,851.71,850.97,850.32,849.49,848.55,848.46,848.22,847.88,847.99,849.49,850.28,850.66,850.87,850.99,851.00,850.98,851.01,851.10,851.22,851.36,851.50,851.58,851.50,851.38,851.25,851.11,850.97,850.83,850.59,849.90,848.69,847.10,845.46,843.94,842.51,841.09,839.52,837.67,836.01,834.76,833.90,833.38,833.34,833.68,834.06,833.33,833.06,833.32,833.92,834.48,834.86,835.06,835.13,835.19,835.26,835.32,835.36,835.36,835.36,835.36,835.29,835.13,834.88,834.17,833.30,832.36,831.30,830.21,829.63,829.44,829.47,829.41,829.20,828.87,828.43,827.92,827.44,826.33,824.66,822.77,821.28,820.95,821.12,821.31,820.94,820.67,821.20,822.46,824.11,825.47,826.30,826.82,827.24,827.79,828.03,827.64,826.74,825.90,825.31,824.80,824.31,823.75,823.19,822.46,821.69,821.11,821.06,820.73,820.22,819.79,819.93,820.54,821.15,821.22,820.41,819.38,818.88,818.69,818.68,818.78,819.45,820.06,821.00,822.89,824.48,825.27,825.71,826.07,826.42,826.51,826.44,826.18,825.54,824.14,823.07,822.16,821.19,820.52,819.10,817.15,815.00,813.20,811.64,810.40,809.46,808.90,809.06,810.04,811.27,812.59,814.51,816.07,817.31,817.79,816.35,814.58,812.67,810.96,809.87,809.69,809.54,809.12,808.20,806.45,804.70,803.60,803.41,804.17,804.11,803.39,802.38,801.28,800.43,799.88,799.67,799.68,799.60,799.45,799.29,799.13,798.95,798.72,798.86,799.14,799.44,799.76,800.06,800.33,800.54,800.67,800.74,800.72,800.60,800.38,800.04,799.55,799.01,798.48,797.96,797.48,797.00,796.54,796.10,795.75,795.52,795.53,795.81,796.24,796.65
853.50,855.52,857.52,859.10,859.33,859.04,858.30,857.03,855.37,853.54,851.61,849.68,847.96,846.36,845.64,845.64,846.19,847.20,848.06,848.80,849.40,849.73,849.97,850.21,850.52,851.21,853.02,854.55,855.61,856.26,856.88,856.81,856.40,855.78,854.83,853.58,852.55,851.92,851.66,851.09,850.86,851.06,851.61,852.07,852.55,852.67,852.35,851.65,851.02,850.45,849.76,848.92,848.38,847.99,848.03,848.71,850.12,850.56,850.82,851.08,851.31,851.36,851.43,851.47,851.49,851.56,851.61,851.67,851.69,851.64,851.60,851.48,851.34,851.22,851.05,850.53,849.63,848.38,846.80,845.24,843.74,842.27,840.76,839.00,837.00,835.33,834.24,833.53,833.46,833.79,834.26,834.53,833.96,833.40,833.11,833.21,833.78,834.25,834.64,834.96,835.13,835.23,835.33,835.41,835.45,835.48,835.49,835.46,835.38,835.27,834.84,834.19,833.34,832.25,831.22,830.61,830.40,830.50,830.50,830.24,829.90,829.52,829.02,828.21,826.92,825.29,823.43,821.36,820.29,819.99,820.15,820.07,819.53,820.12,821.72,823.38,824.71,825.46,825.95,826.47,827.07,827.59,827.53,826.87,826.13,825.60,825.17,824.77,824.36,823.87,823.15,822.34,821.72,821.75,821.12,820.31,819.69,819.62,819.38,819.36,819.22,818.57,817.60,817.48,817.92,818.59,819.06,819.74,820.35,821.41,823.49,824.81,825.40,825.72,825.99,826.25,826.17,825.97,825.56,824.54,823.10,822.01,820.99,819.71,818.34,816.48,814.36,812.34,811.15,810.25,809.73,809.40,809.01,808.65,808.90,809.71,811.11,813.10,814.94,816.31,816.97,816.42,815.20,813.81,812.50,811.50,811.14,810.82,810.28,809.27,807.36,805.15,803.45,802.58,802.67,802.52,801.83,800.98,800.27,799.84,799.74,799.83,799.92,799.75,799.63,799.48,799.32,799.12,798.89,799.07,799.38,799.69,800.00,800.34,800.64,800.88,801.06,801.15,801.00,800.74,800.45,800.07,799.56,799.01,798.48,797.94,797.44,796.96,796.52,796.15,795.89,795.72,795.77,796.11,796.56,796.96
853.65,855.85,857.94,859.59,859.93,859.94,859.31,857.75,855.85,853.72,851.54,849.50,847.88,846.73,846.19,846.01,846.16,847.24,848.01,848.60,849.06,849.27,849.62,849.91,850.23,851.07,853.47,854.99,855.90,856.62,857.30,857.30,856.84,855.94,854.39,852.38,850.86,850.01,849.80,849.53,849.58,849.99,850.67,851.21,851.78,852.18,852.22,851.70,851.20,850.71,850.28,849.79,848.76,848.24,848.65,849.68,850.35,850.70,851.01,851.37,851.69,851.82,851.89,851.92,851.91,851.92,851.82,851.71,851.64,851.63,851.57,851.41,851.25,851.13,850.92,850.14,849.05,847.76,846.29,844.85,843.44,842.00,840.39,838.38,836.23,834.62,833.79,833.34,833.80,834.37,834.78,834.94,834.66,834.06,833.34,832.80,833.12,833.52,834.05,834.62,834.90,835.09,835.25,835.39,835.48,835.56,835.60,835.58,835.51,835.41,835.15,834.78,834.25,833.44,832.66,832.01,831.67,831.69,831.62,831.24,830.86,830.53,830.08,828.99,827.82,826.68,825.37,823.14,821.37,820.49,820.46,820.30,819.03,819.07,820.46,822.07,823.41,824.28,824.99,825.78,826.41,827.08,827.31,826.99,826.40,825.98,825.67,825.40,825.12,824.65,823.93,823.09,822.36,822.25,821.40,820.66,820.22,819.82,818.62,817.77,817.16,816.50,815.75,816.32,817.70,819.31,820.23,820.81,821.36,822.35,824.13,824.97,825.37,825.61,825.78,825.81,825.48,825.10,824.49,823.12,821.67,820.44,819.19,817.57,815.46,813.47,811.59,810.07,809.62,809.54,809.82,810.05,809.63,808.59,807.97,808.27,809.69,811.60,813.63,815.14,816.04,816.35,815.64,814.70,813.74,812.84,812.18,811.45,810.52,809.25,807.39,805.30,803.59,802.29,801.45,801.16,800.62,800.09,799.83,799.74,799.83,800.10,800.30,800.02,799.88,799.73,799.53,799.31,799.08,799.26,799.56,799.86,800.21,800.61,800.96,801.24,801.44,801.48,801.17,800.78,800.44,800.05,799.55,799.00,798.47,797.92,797.39,796.92,796.53,796.26,796.08,795.93,796.03,796.43,796.88,797.28
853.90,856.17,858.27,859.75,859.99,860.00,859.33,857.61,855.34,853.01,850.88,849.03,847.64,847.29,847.19,846.90,846.50,847.41,848.67,849.76,850.45,850.77,851.45,851.87,852.20,853.04,854.59,855.67,856.51,857.32,858.12,858.59,858.34,857.28,855.45,853.39,851.67,850.44,849.78,849.35,849.16,849.51,850.30,850.79,851.24,851.57,851.74,851.67,851.39,850.93,850.47,849.99,849.00,848.26,848.62,849.78,850.55,851.11,851.61,852.04,852.35,852.55,852.65,852.64,852.50,852.22,851.83,851.50,851.33,851.28,850.98,850.61,850.28,850.01,849.62,848.93,847.92,846.63,845.18,843.91,842.78,841.57,839.95,837.63,835.56,834.13,833.52,833.64,834.33,834.82,835.03,835.12,835.05,834.65,834.02,833.33,833.04,833.07,833.42,833.91,834.15,834.68,835.03,835.22,835.36,835.49,835.61,835.67,835.62,835.49,835.31,835.16,835.01,834.75,834.39,833.70,833.13,832.94,832.55,832.05,831.67,831.38,830.98,830.39,829.81,829.26,828.48,826.39,824.39,823.26,822.83,821.37,819.51,818.38,818.38,819.77,821.00,822.18,823.60,825.23,825.95,826.63,826.92,826.78,826.54,826.23,825.85,825.50,825.25,824.90,824.39,823.72,822.98,822.51,821.86,821.29,820.87,820.53,819.99,819.34,818.14,816.21,815.06,815.91,817.93,820.13,820.90,821.60,822.26,823.10,824.23,824.89,825.11,825.18,825.12,824.62,823.97,823.33,822.54,821.11,819.43,817.75,816.05,814.24,812.45,811.09,810.20,809.85,810.12,810.67,811.33,811.64,810.97,809.73,808.27,807.63,808.38,809.98,811.62,813.40,814.98,815.46,814.68,813.44,812.23,811.37,810.86,810.08,808.83,807.19,805.58,804.28,803.17,802.05,800.85,800.34,800.05,799.87,799.80,799.78,799.90,800.32,800.74,800.46,800.24,799.96,799.67,799.45,799.27,799.41,799.67,799.97,800.44,800.99,801.40,801.69,801.86,801.60,801.22,800.81,800.38,799.99,799.49,798.94,798.40,797.87,797.38,796.98,796.68,796.50,796.34,796.22,796.35,796.74,797.15,797.59
854.30,856.47,858.49,859.81,860.00,859.94,859.04,856.93,854.33,851.93,850.05,848.79,848.34,848.63,848.66,848.16,847.26,847.26,848.49,849.88,851.02,852.04,853.08,853.67,854.03,854.64,855.52,856.32,857.09,857.92,858.76,859.38,859.35,858.44,856.41,854.51,852.90,851.58,850.57,849.78,849.12,848.97,849.47,850.25,850.70,850.98,851.19,851.31,851.21,850.91,850.53,850.01,849.08,848.24,848.55,849.75,850.54,851.17,851.75,852.23,852.52,852.73,852.84,852.84,852.63,851.99,851.30,850.48,849.70,849.32,848.97,848.73,848.58,848.46,848.27,847.68,846.63,845.21,843.70,842.33,841.37,840.39,838.82,836.57,834.87,833.89,833.69,834.14,834.72,835.05,835.17,835.26,835.25,835.05,834.62,833.96,833.31,832.68,832.55,832.82,832.94,833.55,834.02,834.34,834.66,835.11,835.48,835.66,835.63,835.48,835.33,835.26,835.27,835.28,835.19,834.76,834.27,833.91,833.38,832.87,832.48,832.19,831.81,831.42,831.03,830.63,830.10,828.63,826.46,824.53,823.00,820.86,819.45,818.60,818.30,818.68,818.77,819.88,821.84,824.11,825.40,826.12,826.37,826.30,826.23,825.99,825.64,825.30,825.09,824.85,824.55,824.14,823.57,822.99,822.41,821.92,821.52,821.21,820.94,820.39,819.10,816.86,814.96,815.36,817.57,820.32,821.02,821.66,822.27,822.87,823.50,824.06,824.03,823.84,823.58,822.79,821.80,820.66,819.46,818.38,817.37,815.39,813.23,811.76,810.73,810.07,809.97,810.45,811.23,812.15,813.03,813.30,812.25,810.88,809.18,807.82,807.31,807.81,809.03,810.93,812.94,813.74,812.98,811.59,810.10,808.83,808.11,807.47,806.57,805.35,804.11,803.20,802.38,801.47,800.41,799.99,799.87,799.83,799.81,799.85,800.04,800.58,801.14,800.95,800.65,800.23,799.83,799.58,799.45,799.57,799.79,800.09,800.65,801.26,801.77,802.08,802.04,801.61,801.17,800.74,800.28,799.89,799.38,798.84,798.31,797.80,797.41,797.10,796.87,796.71,796.56,796.48,796.63,797.02,797.41,797.83
854.93,856.88,858.68,859.85,860.00,859.73,858.48,855.92,853.11,850.80,849.36,848.92,849.70,850.47,850.38,849.57,848.27,847.11,847.86,849.27,850.86,852.76,854.21,855.03,855.47,855.81,856.30,856.94,857.67,858.45,859.25,859.77,859.90,859.28,857.18,855.53,854.18,852.96,851.74,850.56,849.39,848.56,848.43,849.46,849.99,850.33,850.59,850.75,850.77,850.71,850.43,849.83,848.91,848.11,848.36,849.46,850.26,850.81,851.38,851.87,852.16,852.32,852.40,852.40,852.12,851.12,850.17,848.78,847.26,846.39,846.14,846.23,846.42,846.65,846.87,846.44,845.33,843.73,842.10,840.47,839.49,838.61,837.10,835.15,834.02,833.69,834.08,834.68,835.02,835.19,835.28,835.38,835.35,835.30,835.10,834.56,833.67,832.31,831.55,831.48,831.48,831.97,832.50,833.01,833.60,834.44,835.16,835.56,835.55,835.39,835.16,835.08,835.16,835.27,835.35,835.29,835.05,834.60,834.04,833.50,833.06,832.70,832.31,831.93,831.49,831.03,830.56,829.84,827.39,824.41,821.67,819.60,819.28,819.56,819.63,818.70,817.24,817.80,819.82,822.46,824.58,825.46,825.69,825.63,825.55,825.30,825.05,824.86,824.75,824.59,824.48,824.31,824.03,823.54,823.00,822.53,822.15,821.80,821.46,820.88,819.80,817.90,815.27,814.76,816.70,819.81,820.64,821.20,821.63,821.97,822.26,822.72,822.43,821.90,821.35,820.39,819.33,817.92,816.48,815.93,815.86,813.76,811.40,810.61,810.56,810.52,810.83,811.63,812.72,813.83,814.77,814.90,813.47,812.00,810.42,808.61,806.75,805.70,806.39,808.12,810.16,811.36,810.73,809.39,807.73,805.95,804.85,804.46,804.19,803.73,802.92,802.18,801.46,800.75,800.13,799.96,799.94,799.90,799.83,799.89,800.22,800.85,801.49,801.51,801.15,800.60,800.06,799.75,799.64,799.73,799.94,800.29,800.89,801.50,802.10,802.43,802.07,801.54,801.05,800.59,800.14,799.75,799.25,798.71,798.20,797.77,797.51,797.27,797.07,796.92,796.76,796.72,796.89,797.27,797.66,798.04
856.25,857.78,859.12,859.95,860.01,859.11,857.36,854.87,852.26,850.39,849.68,850.07,851.36,852.40,851.99,850.69,849.20,847.88,847.77,848.57,850.07,851.98,854.00,855.23,855.89,856.48,856.96,857.59,858.29,859.00,859.68,859.98,860.00,859.43,857.57,856.11,854.96,853.84,852.58,851.43,850.26,848.98,847.88,847.88,848.57,849.33,849.93,850.22,850.36,850.37,849.99,849.06,847.96,847.51,847.60,848.17,849.18,849.58,850.01,850.45,850.72,850.79,850.82,850.59,849.94,848.88,847.80,846.39,844.87,843.81,843.70,843.88,844.15,844.54,845.10,845.14,844.28,842.67,840.94,839.07,837.61,836.29,834.70,832.93,832.47,833.00,834.13,834.99,835.35,835.49,835.54,835.54,835.51,835.47,835.32,834.83,833.52,831.84,830.63,830.08,830.03,830.40,831.03,831.77,832.53,833.35,834.49,835.28,835.41,835.19,834.51,834.38,834.75,835.13,835.34,835.35,835.18,834.81,834.13,833.25,832.49,831.94,831.51,831.16,830.89,830.69,830.38,829.53,826.22,822.65,820.28,819.74,820.40,821.23,821.43,820.06,818.18,817.13,817.66,820.10,822.76,824.26,824.88,824.84,824.41,823.84,823.81,824.10,824.27,824.16,824.06,823.99,823.89,823.73,823.50,823.18,822.75,822.17,821.59,820.93,819.95,818.28,815.84,814.46,815.29,817.84,819.48,820.28,820.67,820.87,820.99,821.16,820.72,819.77,818.42,817.06,817.18,817.36,817.20,816.86,816.16,814.50,813.04,812.98,813.81,813.96,813.67,813.50,814.48,815.77,816.48,816.22,814.70,813.18,811.62,809.91,807.88,805.52,805.15,805.74,806.82,808.19,808.01,806.93,805.53,804.16,803.15,802.84,802.60,802.18,801.72,801.31,800.94,800.58,800.24,800.13,800.18,800.13,799.89,799.92,800.35,801.00,801.69,802.14,801.92,801.33,800.62,800.02,799.84,799.88,800.20,800.76,801.37,801.95,802.51,802.73,802.10,801.40,800.83,800.36,799.96,799.62,799.12,798.58,798.11,797.86,797.67,797.49,797.32,797.17,797.01,796.97,797.13,797.47,797.85,798.20
857.77,858.84,859.58,860.05,860.03,859.01,857.23,854.87,852.43,851.20,851.43,852.63,853.79,854.38,853.41,851.67,849.96,848.59,847.83,848.12,849.46,851.18,853.36,854.91,855.86,856.62,857.25,857.95,858.67,859.36,859.94,860.02,859.84,859.29,857.93,856.65,855.62,854.59,853.35,852.15,851.00,849.68,848.25,847.23,847.12,847.69,848.50,849.01,849.23,849.21,848.56,847.04,845.30,845.12,845.53,846.11,846.74,846.90,847.13,847.40,847.48,847.07,846.74,846.35,845.82,845.20,844.46,843.48,842.40,841.54,841.62,842.00,842.45,842.96,843.50,843.72,843.23,842.02,840.35,838.30,836.35,834.51,832.75,831.23,831.20,832.30,834.01,835.10,835.57,835.79,835.89,835.83,835.76,835.63,835.45,835.08,833.95,832.25,830.63,829.47,829.10,829.12,829.74,830.63,831.44,832.17,833.37,834.30,834.58,834.32,833.41,833.45,834.31,835.04,835.31,835.32,835.05,834.42,833.53,832.44,831.51,830.87,830.44,830.11,829.96,829.91,829.67,828.40,824.82,821.43,819.83,820.44,821.74,822.78,822.90,821.32,819.47,817.49,816.56,817.67,820.02,821.79,822.67,822.74,822.36,822.09,822.43,823.10,823.58,823.58,823.51,823.45,823.42,823.40,823.39,823.33,823.06,822.39,821.70,821.00,820.15,818.89,816.90,815.01,814.54,815.75,817.71,818.74,819.18,819.33,819.36,819.25,818.62,817.95,817.45,816.90,817.52,818.23,818.57,818.33,817.46,816.39,815.80,816.19,817.12,817.30,816.83,816.15,816.36,817.68,818.14,817.48,815.92,814.33,812.75,811.15,809.33,806.85,805.45,804.89,805.11,806.08,806.14,805.54,804.69,803.85,803.14,802.62,802.12,801.63,801.34,801.12,800.96,800.85,800.78,800.80,800.87,800.79,800.55,800.48,800.84,801.42,802.10,802.73,802.77,802.31,801.62,800.96,800.70,800.64,800.90,801.48,802.06,802.62,802.91,802.78,802.04,801.29,800.63,800.12,799.77,799.48,799.01,798.55,798.21,798.05,797.89,797.72,797.55,797.39,797.24,797.22,797.38,797.70,798.08,798.40
859.23,859.85,859.99,860.15,860.05,859.43,858.07,855.88,853.50,853.09,854.36,856.20,856.73,856.34,854.69,852.54,850.56,849.09,847.99,847.98,849.12,850.56,852.52,854.25,855.53,856.33,857.21,858.01,858.77,859.49,860.00,859.86,859.44,858.88,858.12,857.07,856.14,855.19,854.02,852.70,851.56,850.51,849.34,847.61,845.98,845.74,846.48,847.17,847.41,847.25,846.23,844.05,841.55,841.49,842.50,843.49,843.30,843.22,843.21,843.23,843.01,841.95,841.12,840.70,840.67,840.81,840.74,840.46,840.03,839.68,839.93,840.57,841.28,841.83,842.07,842.19,842.09,841.55,840.13,838.04,835.72,833.42,831.45,830.22,830.35,831.66,833.69,835.02,835.65,836.01,836.22,836.21,836.04,835.78,835.55,835.35,834.92,833.44,831.49,829.64,828.70,828.16,828.62,829.54,830.29,830.93,831.84,832.64,833.02,832.75,831.99,832.45,833.89,835.06,835.31,835.27,834.79,833.66,832.46,831.24,830.28,829.63,829.22,828.89,828.76,828.75,828.47,826.84,823.82,821.34,820.58,821.71,823.25,824.18,824.04,822.38,820.78,818.68,816.67,815.69,816.86,818.37,819.30,819.56,819.65,820.29,821.12,822.00,822.76,822.92,822.86,822.77,822.70,822.64,822.74,822.98,823.08,822.52,821.85,821.16,820.50,819.75,818.35,816.39,814.67,814.02,815.53,816.63,817.20,817.42,817.40,817.17,816.48,816.73,818.35,819.46,819.84,819.97,819.99,819.80,819.30,818.89,818.90,819.45,819.79,819.91,819.73,819.15,818.27,819.41,819.62,818.63,817.08,815.42,813.79,812.26,810.82,809.21,807.10,805.74,805.35,805.54,805.60,805.58,805.38,804.92,804.48,803.52,802.62,802.02,801.74,801.56,801.46,801.50,801.72,801.93,801.96,801.91,801.79,801.60,801.72,802.14,802.73,803.26,803.62,803.44,802.97,802.49,802.18,801.99,802.05,802.41,802.92,803.38,803.23,802.61,801.91,801.21,800.48,799.91,799.61,799.35,798.95,798.64,798.46,798.30,798.14,797.95,797.75,797.60,797.44,797.46,797.63,797.96,798.34,798.66
859.54,860.03,860.09,860.18,860.14,859.85,858.95,857.12,854.65,855.42,857.22,858.70,858.79,857.91,855.91,853.44,851.14,849.49,848.36,848.22,849.08,850.26,851.98,853.73,855.18,856.06,856.97,857.83,858.61,859.25,859.54,859.13,858.54,857.94,857.32,856.70,856.03,855.23,854.24,853.12,852.09,851.11,850.02,848.48,846.64,845.42,845.01,845.35,845.22,844.83,843.66,841.62,840.31,840.25,840.72,841.17,840.99,840.85,840.80,840.76,840.57,840.01,839.59,839.37,839.36,839.44,839.35,839.16,838.93,838.72,838.97,839.50,839.98,840.26,840.48,840.62,840.57,840.22,839.30,837.71,835.54,833.19,831.15,830.00,829.94,830.95,832.82,834.60,835.41,835.82,836.09,836.20,836.11,835.92,835.75,835.62,835.34,834.34,832.41,830.09,828.71,827.64,827.61,828.21,828.90,829.45,830.07,830.53,830.69,830.61,830.73,831.81,833.62,835.26,835.50,835.37,834.92,833.86,832.05,830.30,829.01,828.22,827.73,827.35,827.19,827.10,826.89,826.32,825.19,824.08,823.62,824.49,825.64,825.95,825.22,823.63,822.07,820.33,818.41,816.55,815.66,815.88,816.42,817.00,817.78,819.48,820.66,821.42,822.16,822.46,822.25,822.00,821.92,821.87,822.05,822.40,822.73,822.68,822.09,821.45,820.90,820.37,819.64,818.24,816.28,814.30,813.63,814.41,815.06,815.35,815.54,815.90,816.40,817.57,819.36,820.14,820.40,820.48,820.50,820.43,820.21,820.07,820.13,820.40,820.55,820.64,820.57,820.25,819.75,820.30,820.23,819.32,817.81,816.22,814.64,813.18,811.89,810.63,809.44,808.69,808.38,808.37,808.39,808.35,807.98,807.00,805.55,804.40,803.50,802.79,802.24,802.01,802.07,802.40,802.92,803.20,803.32,803.41,803.44,803.10,802.93,803.07,803.48,803.95,804.27,804.35,804.29,804.13,803.93,803.57,803.41,803.55,803.76,803.65,803.17,802.47,801.78,801.13,800.43,799.88,799.58,799.34,799.08,798.88,798.71,798.51,798.35,798.18,798.00,797.85,797.69,797.71,797.89,798.22,798.60,798.92
859.57,860.03,860.09,860.17,860.21,860.13,859.61,858.23,855.85,857.25,859.06,860.00,859.90,859.10,857.03,854.32,851.67,849.78,848.67,848.48,849.12,850.12,851.70,853.46,854.96,855.84,856.64,857.40,858.09,858.64,858.83,858.25,857.55,856.93,856.32,855.80,855.15,854.37,853.51,852.72,851.93,851.13,850.24,848.94,847.25,845.52,844.23,843.92,843.42,842.88,841.85,840.35,839.90,839.77,839.76,839.76,839.66,839.51,839.44,839.39,839.28,839.15,839.04,838.93,838.83,838.75,838.64,838.50,838.31,838.08,838.10,838.31,838.45,838.41,838.30,838.19,838.08,837.96,837.68,836.88,835.29,833.17,831.00,829.93,829.73,830.29,831.63,833.38,834.33,834.89,835.27,835.50,835.60,835.60,835.62,835.64,835.38,834.33,832.36,830.02,828.57,827.28,826.75,826.87,827.49,828.03,828.44,828.64,828.61,828.63,829.68,831.33,833.28,835.13,835.55,835.45,834.99,833.82,831.46,829.33,827.91,827.24,826.99,826.76,826.64,826.59,826.56,826.89,827.15,827.09,826.85,827.30,827.88,827.56,826.37,824.81,823.25,821.82,820.24,818.31,816.35,815.12,814.72,815.14,816.41,818.98,820.46,821.10,821.74,822.04,821.72,821.35,821.19,821.12,821.39,821.81,822.27,822.57,822.26,821.80,821.32,820.85,820.43,819.36,817.51,815.13,813.08,813.02,813.32,813.56,813.91,814.65,816.03,817.78,819.48,820.19,820.52,820.69,820.80,820.83,820.79,820.77,820.80,820.88,820.95,821.01,820.97,820.81,820.68,820.77,820.49,819.71,818.39,816.98,815.48,814.08,812.86,811.72,811.27,811.03,810.82,810.67,810.50,810.26,809.51,807.85,805.84,804.73,803.97,803.25,802.61,802.46,802.71,803.23,803.92,804.40,804.64,804.86,805.03,804.72,804.46,804.38,804.52,804.94,805.09,805.33,805.54,805.54,805.35,804.91,804.56,804.38,804.25,803.73,803.08,802.40,801.71,801.08,800.48,799.99,799.70,799.48,799.32,799.15,798.96,798.76,798.60,798.43,798.26,798.10,797.93,797.94,798.13,798.44,798.78,799.10
859.42,859.94,859.99,860.10,860.24,860.23,859.95,859.08,857.12,858.30,859.57,860.00,859.99,859.86,858.01,855.12,852.10,849.96,848.87,848.66,849.18,850.10,851.71,853.49,854.96,855.70,856.21,856.69,857.18,857.63,857.90,857.30,856.58,855.96,855.31,854.41,853.45,852.50,851.69,851.31,850.85,850.42,849.90,848.69,847.28,845.70,844.17,843.09,842.39,841.84,841.22,840.53,840.04,839.76,839.60,839.52,839.38,839.23,839.14,839.10,839.07,838.99,838.86,838.68,838.47,838.28,838.34,838.32,838.11,837.73,837.28,837.01,836.77,836.33,835.44,834.72,834.49,834.73,835.14,835.29,834.67,833.09,830.77,829.86,829.64,829.75,830.23,831.29,832.29,833.07,833.60,833.90,834.27,834.57,834.88,835.14,834.84,833.11,831.02,829.19,828.10,827.00,826.05,825.63,826.12,826.75,827.05,827.12,827.03,826.99,828.83,830.90,832.76,834.44,835.28,835.39,834.78,833.20,830.50,828.29,827.13,827.00,827.37,827.52,827.59,827.69,827.92,828.55,829.21,829.57,829.58,829.64,829.58,828.81,827.43,825.84,824.30,822.99,821.78,820.49,818.90,816.45,814.60,814.15,815.48,818.62,820.37,820.97,821.47,821.62,821.31,820.85,820.48,820.40,820.76,821.26,821.75,822.11,822.27,822.11,821.73,821.20,820.61,819.45,817.97,816.23,814.24,812.84,812.25,812.24,812.60,813.26,814.80,816.63,818.35,819.72,820.40,820.77,821.00,821.13,821.14,821.14,821.17,821.24,821.31,821.34,821.27,821.11,820.97,820.88,820.48,819.77,818.81,817.65,816.28,814.93,813.73,812.62,812.22,811.99,811.72,811.40,810.90,810.27,809.04,806.86,805.17,804.38,803.80,803.21,802.80,802.92,803.34,803.88,804.53,805.42,805.84,806.15,806.48,806.43,806.35,806.15,806.03,806.35,806.25,806.48,806.74,806.59,806.24,805.83,805.32,804.74,804.25,803.66,803.04,802.39,801.71,801.11,800.64,800.28,800.00,799.82,799.65,799.45,799.24,799.08,798.91,798.71,798.51,798.34,798.13,798.14,798.33,798.62,798.87,799.17
858.28,859.14,859.52,859.86,860.16,860.25,860.14,859.63,858.38,859.13,859.85,860.01,860.05,860.02,858.44,855.64,852.30,850.01,848.97,848.84,849.41,850.36,852.04,853.86,855.27,855.74,855.74,855.86,856.16,856.62,856.97,856.39,855.64,854.98,854.26,853.08,851.84,850.80,850.17,849.98,849.63,849.25,848.78,847.73,846.44,845.04,843.85,843.31,843.06,842.68,842.21,841.64,840.81,840.10,839.71,839.59,839.48,839.41,839.39,839.42,839.45,839.38,839.25,839.04,838.76,838.52,838.78,838.95,838.84,838.37,837.61,836.96,836.15,834.87,832.91,831.92,831.64,831.78,832.02,832.17,831.98,831.30,830.19,829.64,829.47,829.46,829.61,830.11,830.61,831.02,831.31,831.49,831.73,832.10,832.47,832.59,832.17,831.01,829.63,828.35,827.38,826.35,825.42,824.86,824.97,825.36,825.49,825.48,825.46,825.57,827.48,829.63,831.52,833.04,834.08,834.31,833.64,831.89,829.38,827.65,827.33,828.09,828.65,828.91,829.00,829.08,829.25,829.55,829.94,830.19,830.20,830.11,829.94,829.28,828.18,826.85,825.41,824.13,822.92,821.69,820.41,818.61,816.30,814.29,814.70,817.45,819.56,820.67,821.10,821.14,820.87,820.32,819.66,819.50,820.09,820.71,821.17,821.51,821.83,821.97,821.87,821.45,820.82,820.01,819.10,817.85,815.68,813.76,812.41,811.64,811.46,811.89,813.29,815.00,816.61,818.06,819.37,820.39,821.06,821.28,821.31,821.31,821.33,821.36,821.39,821.40,821.33,821.17,821.00,820.61,819.99,819.20,818.29,817.32,816.28,815.25,814.29,813.37,812.70,812.12,811.60,811.14,810.55,809.18,807.36,805.62,804.58,803.97,803.45,803.05,803.12,803.42,803.80,804.19,804.65,805.73,806.68,807.39,807.82,808.11,808.35,808.43,808.41,808.53,808.32,808.14,807.84,807.22,806.57,805.99,805.38,804.75,804.15,803.54,802.92,802.31,801.74,801.35,801.10,800.89,800.66,800.42,800.14,799.83,799.54,799.35,799.15,798.92,798.70,798.51,798.32,798.37,798.55,798.81,799.04,799.30
857.17,858.31,859.08,859.73,860.11,860.27,860.25,860.00,859.41,859.75,860.03,860.06,860.08,860.03,858.57,855.84,852.37,850.04,849.09,849.04,849.70,850.90,852.66,854.52,855.93,856.21,855.84,855.62,855.65,855.90,856.09,855.35,854.50,853.84,853.24,852.08,850.80,849.73,849.13,848.79,848.38,847.95,847.43,846.57,845.59,844.69,844.12,844.22,844.38,844.15,843.67,842.99,841.83,840.75,840.13,839.96,839.92,839.90,839.98,840.12,840.25,840.14,839.94,839.59,839.15,838.91,839.39,839.80,839.79,839.14,838.22,837.25,835.89,833.80,831.17,830.16,829.89,829.87,829.86,829.86,829.86,829.82,829.70,829.45,829.33,829.30,829.31,829.38,829.41,829.45,829.51,829.58,829.67,830.00,830.28,830.22,829.76,829.16,828.43,827.55,826.61,825.73,825.02,824.52,824.23,824.08,824.00,823.95,823.94,824.12,825.86,827.93,829.80,831.26,832.39,832.72,832.07,830.33,828.17,827.38,827.97,829.25,829.73,829.97,830.04,830.06,830.12,830.14,830.25,830.29,830.16,829.78,829.48,828.94,828.12,827.09,825.89,824.78,823.69,822.56,821.48,820.39,818.08,815.07,814.19,816.09,818.37,820.02,820.55,820.55,820.20,819.46,818.51,818.27,818.99,819.84,820.51,820.90,821.27,821.60,821.75,821.56,821.07,820.61,820.12,819.22,817.12,814.96,813.06,811.56,810.71,810.74,811.78,813.23,814.80,816.36,818.26,819.92,821.03,821.31,821.37,821.37,821.36,821.35,821.34,821.33,821.27,821.11,820.82,820.22,819.37,818.41,817.45,816.58,815.80,815.04,814.29,813.55,812.69,811.85,811.06,810.24,809.28,807.54,805.71,804.61,804.07,803.59,803.20,803.09,803.50,803.90,804.30,804.63,804.89,806.05,807.47,808.53,809.00,809.46,809.87,810.15,810.28,810.25,809.94,809.35,808.50,807.47,806.54,805.78,805.13,804.56,803.98,803.40,802.86,802.37,802.01,801.87,801.79,801.68,801.49,801.17,800.73,800.23,799.77,799.52,799.29,799.04,798.80,798.59,798.51,798.61,798.80,799.03,799.24,799.45
856.60,857.77,858.86,859.85,860.15,860.30,860.32,860.16,859.99,860.04,860.12,860.16,860.10,860.01,858.36,855.54,852.30,850.09,849.27,849.28,850.05,851.87,853.69,855.60,857.12,857.43,857.02,856.54,856.13,855.78,855.34,854.08,852.99,852.40,852.30,851.68,850.78,849.80,848.81,847.87,847.21,846.66,846.11,845.44,845.21,845.32,845.62,845.94,846.17,845.92,845.30,844.34,843.02,841.80,841.05,840.80,840.85,840.80,840.94,841.28,841.62,841.36,840.95,840.26,839.44,839.24,840.01,840.69,840.72,839.73,838.84,837.66,835.84,833.26,830.85,830.06,829.87,829.80,829.75,829.73,829.73,829.68,829.54,829.37,829.32,829.31,829.27,829.11,828.98,828.93,828.94,828.96,829.08,829.21,829.28,829.16,828.77,828.21,827.58,826.84,825.91,825.37,825.08,824.80,824.20,823.11,822.78,822.69,822.54,822.47,823.96,825.77,827.51,829.10,830.20,830.61,830.13,828.63,826.91,827.62,828.95,829.92,830.03,830.13,830.17,830.17,830.18,830.25,830.33,830.27,829.84,828.81,828.09,827.41,826.67,825.86,825.12,824.50,823.89,823.17,822.13,821.05,819.15,816.44,814.12,814.76,816.77,818.78,819.68,819.73,819.10,818.00,816.77,816.46,817.09,818.35,819.69,820.31,820.69,821.01,821.27,821.40,821.38,821.08,820.62,819.88,818.39,816.21,814.06,812.16,810.68,810.04,810.39,811.47,813.14,815.12,817.42,819.48,820.88,821.18,821.28,821.27,821.23,821.22,821.16,821.14,821.09,820.90,820.35,819.72,818.73,817.53,816.45,815.56,814.80,814.09,813.39,812.74,811.99,811.16,810.14,808.56,806.65,805.42,804.68,804.16,803.69,803.33,803.28,803.57,803.97,804.36,804.94,805.46,805.63,806.72,808.29,809.49,809.92,810.21,810.42,810.63,810.79,810.75,810.31,809.48,808.40,807.21,806.09,805.24,804.64,804.21,803.73,803.25,802.92,802.76,802.75,802.80,802.75,802.65,802.45,802.07,801.42,800.60,799.83,799.53,799.29,799.01,798.74,798.57,798.71,798.87,799.05,799.27,799.44,799.61
857.88,858.85,859.43,860.00,860.21,860.37,860.40,860.30,860.22,860.20,860.20,860.17,860.01,859.48,857.92,855.37,852.21,850.20,849.49,849.55,850.46,852.76,855.11,857.25,858.64,858.53,858.16,857.65,857.06,856.34,855.31,853.10,851.49,850.94,851.01,850.82,850.31,849.55,848.58,847.55,847.07,846.83,846.61,846.27,846.26,846.66,847.24,847.67,847.86,847.58,846.83,845.61,844.22,843.26,842.81,842.75,842.85,842.77,842.74,842.86,843.06,842.74,841.99,840.89,839.74,839.44,840.32,841.36,841.70,840.55,839.45,838.20,836.63,834.55,832.08,830.55,829.91,829.85,829.81,829.76,829.70,829.65,829.65,829.58,829.59,829.60,829.53,829.38,829.23,829.10,828.97,828.81,828.67,828.61,828.53,828.37,828.01,827.66,827.26,826.79,826.30,826.16,826.12,825.85,824.99,823.52,822.44,821.71,821.27,821.03,821.94,823.52,825.32,826.86,827.92,828.44,828.11,826.87,826.19,827.47,829.03,830.04,830.14,830.18,830.15,830.04,829.94,830.09,830.23,830.19,829.68,828.10,826.79,825.82,825.03,824.24,823.55,823.08,822.67,822.12,821.16,820.10,818.43,816.15,814.04,814.00,815.26,816.82,817.74,817.75,817.08,816.12,815.18,814.81,815.21,816.31,817.74,818.93,819.66,820.23,820.67,820.88,821.00,820.98,820.78,820.33,819.38,817.48,815.48,813.52,811.55,810.09,809.83,810.41,811.74,813.79,816.24,818.57,820.29,820.74,821.04,821.14,821.13,821.09,821.01,820.96,820.91,820.60,819.52,818.74,817.94,817.00,815.88,814.79,813.81,812.97,812.28,811.63,811.10,810.16,808.65,806.67,805.31,804.61,804.22,803.86,803.49,803.40,803.62,804.03,804.44,805.06,805.93,806.70,806.98,807.74,809.06,810.14,810.53,810.77,810.94,811.12,811.25,811.12,810.58,809.68,808.58,807.34,806.15,805.24,804.68,804.38,803.97,803.68,803.53,803.49,803.54,803.68,803.73,803.64,803.32,802.68,801.80,800.79,799.89,799.58,799.30,799.00,798.76,798.70,798.90,799.10,799.32,799.54,799.78,800.02
859.25,860.01,860.06,860.14,860.29,860.43,860.49,860.41,860.33,860.31,860.25,860.13,859.81,858.73,857.24,855.07,852.12,850.37,849.73,850.02,851.41,854.25,856.82,858.83,859.87,859.44,859.16,858.60,857.80,856.72,855.22,852.35,850.39,849.77,849.82,849.88,849.67,849.15,848.36,847.55,847.42,847.57,847.75,847.76,847.82,848.22,848.83,849.30,849.46,849.11,848.22,846.81,845.37,844.86,844.85,845.04,845.15,845.03,844.80,844.62,844.50,843.98,842.81,841.33,839.95,839.62,840.60,842.01,842.74,841.51,840.25,839.09,837.91,836.37,833.72,831.68,830.77,830.70,830.47,830.00,829.73,829.78,830.19,830.65,830.91,830.90,830.61,830.25,829.94,829.61,829.24,828.90,828.52,828.29,828.14,827.96,827.70,827.61,827.44,827.21,827.16,827.33,827.42,827.12,826.06,824.44,822.67,821.23,820.35,820.00,820.32,821.49,823.13,824.58,825.58,826.22,826.09,825.19,825.62,827.09,828.65,829.78,830.13,830.19,830.07,829.77,829.38,829.58,829.85,829.94,829.44,827.56,825.76,824.40,823.39,822.50,821.80,821.40,821.06,820.52,819.61,818.56,817.11,815.35,813.89,813.38,813.91,814.91,815.64,815.60,815.01,814.32,813.75,813.28,813.49,814.30,815.60,817.21,818.28,819.09,819.70,820.06,820.37,820.64,820.75,820.59,820.09,818.69,816.98,815.05,812.80,810.57,809.66,809.69,810.55,812.44,814.86,817.29,819.23,820.00,820.73,821.03,821.06,820.99,820.91,820.81,820.66,820.14,818.63,817.58,816.89,816.23,815.28,814.19,813.01,811.97,811.16,810.42,809.94,808.83,807.04,805.13,804.56,804.26,803.95,803.65,803.44,803.62,803.99,804.44,804.95,805.88,807.06,808.07,808.48,808.88,809.83,810.69,811.06,811.30,811.47,811.64,811.70,811.42,810.78,809.90,808.84,807.63,806.45,805.54,805.02,804.80,804.48,804.34,804.30,804.29,804.32,804.49,804.60,804.51,804.09,803.11,801.99,800.85,799.91,799.60,799.30,799.00,798.80,798.85,799.08,799.31,799.55,799.82,800.19,800.56
859.35,860.08,860.19,860.28,860.42,860.53,860.55,860.47,860.39,860.33,860.23,860.00,859.40,857.76,856.11,854.25,852.03,850.62,850.02,851.04,853.88,857.49,859.08,859.74,859.97,859.88,859.81,858.92,857.59,856.05,854.28,852.06,850.38,849.48,849.15,849.11,848.95,848.60,848.13,847.96,848.27,848.73,849.16,849.45,849.51,849.78,850.23,850.68,850.92,850.39,849.32,847.89,846.39,846.53,847.03,847.36,847.42,847.25,846.91,846.48,845.92,844.67,842.99,841.24,839.89,839.84,841.08,842.83,843.85,842.70,841.62,840.79,839.80,838.14,835.26,834.12,833.89,833.74,832.65,830.67,829.82,830.24,831.77,833.90,834.94,834.86,833.78,832.32,831.39,830.53,829.73,829.30,828.91,828.68,828.53,828.42,828.52,828.63,828.60,828.45,828.45,828.53,828.65,828.38,827.24,825.61,823.76,821.88,820.34,819.96,819.89,820.16,820.90,822.26,823.20,823.97,824.14,823.81,825.03,826.38,827.69,828.92,829.94,830.18,829.95,829.26,828.22,828.30,828.85,829.21,828.86,827.28,825.39,823.53,821.90,820.79,820.14,819.88,819.54,818.78,817.75,816.68,815.57,814.49,813.55,812.69,812.94,813.71,814.01,813.92,813.58,813.13,812.61,812.02,812.19,812.84,813.83,815.20,816.30,817.08,817.83,818.75,819.59,820.11,820.44,820.56,820.26,819.68,818.35,816.48,814.32,811.68,809.95,809.28,809.75,811.11,813.18,815.34,817.25,818.65,820.27,820.93,821.01,820.98,820.85,820.71,820.26,819.34,817.86,816.34,815.22,814.54,814.20,813.84,812.77,811.44,810.18,809.20,808.12,806.86,805.59,804.76,804.36,804.10,803.80,803.52,803.66,803.95,804.27,804.71,805.56,806.88,808.31,809.45,809.87,810.11,810.61,811.18,811.63,811.83,812.03,812.22,812.21,811.66,810.93,810.10,809.12,807.98,807.04,806.26,805.75,805.49,805.29,805.14,805.04,805.02,805.08,805.13,805.14,805.05,804.59,803.25,801.89,800.68,799.79,799.53,799.23,798.96,798.82,798.92,799.19,799.44,799.70,800.06,800.67,801.29
859.47,860.09,860.24,860.35,860.50,860.60,860.60,860.48,860.37,860.29,860.17,859.81,858.78,857.26,856.10,855.07,854.01,853.60,853.93,855.13,857.09,859.15,859.85,860.00,860.00,860.00,860.00,858.78,857.02,855.17,853.28,851.38,850.05,849.30,848.87,848.67,848.47,848.27,848.19,848.42,848.97,849.68,850.39,850.81,850.94,851.18,851.55,851.90,851.78,850.95,849.68,848.35,847.71,848.13,848.90,849.50,849.39,849.12,848.64,848.04,847.20,845.39,843.21,841.21,839.96,840.40,842.12,843.95,844.85,843.82,842.87,841.95,840.84,839.27,837.18,837.12,837.37,836.90,835.04,831.87,830.75,832.01,835.07,837.15,837.95,837.69,836.44,834.51,833.25,832.07,830.91,830.06,829.48,829.19,829.03,828.98,829.25,829.58,829.68,829.59,829.59,829.63,829.72,829.41,828.15,826.28,824.24,822.25,820.70,820.32,820.14,820.00,820.05,820.62,821.25,821.88,822.39,822.89,824.21,825.46,826.74,828.11,829.50,830.00,829.60,828.53,827.19,827.13,827.60,827.97,827.81,826.75,825.16,823.32,821.48,819.97,818.79,818.21,817.70,816.88,816.06,815.25,814.49,813.74,813.00,812.25,812.20,812.50,812.58,812.43,812.21,811.87,811.39,810.88,810.93,811.25,811.86,813.02,814.15,814.62,815.26,816.69,817.90,818.86,819.69,820.29,820.25,820.03,819.13,817.58,815.49,812.95,810.66,809.23,809.14,810.53,812.83,815.24,817.40,818.99,820.38,820.95,821.03,820.99,820.87,820.56,819.78,818.48,816.84,815.14,813.78,812.87,812.54,812.42,811.84,810.98,809.91,808.41,806.93,805.76,804.96,804.54,804.25,803.98,803.74,803.61,803.87,804.15,804.44,804.88,805.83,807.29,808.85,810.13,810.75,811.03,811.38,811.79,812.18,812.39,812.58,812.68,812.53,811.87,811.15,810.38,809.54,808.58,807.71,807.03,806.56,806.28,806.08,805.92,805.75,805.64,805.69,805.58,805.40,805.15,804.56,803.10,801.62,800.47,799.75,799.47,799.20,798.95,798.85,799.02,799.32,799.57,799.88,800.37,801.09,801.82
859.64,860.11,860.26,860.41,860.56,860.66,860.64,860.49,860.35,860.24,860.12,859.68,858.43,857.40,856.92,856.73,856.72,857.21,858.38,859.37,859.86,859.97,860.00,860.00,860.00,859.98,859.86,858.38,856.36,854.34,852.40,850.68,849.64,849.16,848.71,848.44,848.25,848.22,848.45,848.86,849.58,850.54,851.54,852.05,852.28,852.53,852.84,852.98,852.27,851.09,849.73,848.68,849.23,849.77,850.62,851.44,851.12,850.74,850.16,849.43,848.36,846.09,843.50,841.33,840.27,841.28,843.45,845.18,845.80,844.88,843.97,842.85,841.53,840.15,839.09,839.85,840.33,839.63,837.34,833.20,832.25,834.51,838.44,839.80,840.05,839.66,838.58,836.68,835.38,834.04,832.58,831.25,830.33,829.85,829.63,829.64,830.03,830.53,830.76,830.69,830.66,830.64,830.59,830.12,828.71,826.62,824.43,822.53,821.28,820.96,820.80,820.49,820.05,819.73,819.87,820.20,820.87,822.02,823.20,824.36,825.49,826.70,828.22,829.09,828.77,827.58,826.17,825.95,826.21,826.49,826.52,826.05,824.87,823.28,821.49,819.59,817.70,816.64,815.94,815.19,814.64,814.15,813.64,813.10,812.53,812.08,811.81,811.70,811.67,811.47,811.29,810.95,810.40,810.02,809.94,809.95,810.17,811.08,812.06,812.19,812.60,814.23,815.69,817.12,818.46,819.48,819.73,819.77,819.31,818.23,816.37,814.19,811.57,809.45,808.74,810.27,812.98,815.86,818.36,819.89,820.72,821.04,821.10,821.03,820.94,820.50,819.54,818.04,816.27,814.50,812.85,811.53,810.88,810.70,810.50,810.20,809.55,807.65,806.04,805.11,804.70,804.41,804.17,803.90,803.72,803.77,804.02,804.28,804.54,804.99,805.95,807.47,809.09,810.49,811.33,811.78,812.11,812.43,812.73,812.96,813.13,813.11,812.81,812.11,811.40,810.71,810.00,809.25,808.43,807.82,807.39,807.10,806.87,806.67,806.41,806.19,806.14,805.85,805.46,804.97,804.22,802.79,801.26,800.22,799.71,799.41,799.17,798.95,798.89,799.13,799.43,799.68,800.07,800.68,801.45,802.23
860.02,860.21,860.33,860.48,860.63,860.69,860.66,860.55,860.40,860.26,860.12,859.84,859.26,859.18,859.15,859.11,859.12,859.27,859.65,859.95,860.07,860.07,860.03,860.00,860.00,859.90,859.24,857.70,855.85,853.97,852.01,850.43,849.50,849.02,848.56,848.51,848.64,848.80,848.95,849.28,850.13,851.33,852.61,853.31,853.66,853.95,854.11,853.73,852.22,850.76,849.69,849.50,851.06,851.59,852.23,852.92,852.46,852.00,851.44,850.63,849.27,846.74,843.92,841.84,841.25,842.81,845.03,846.44,846.72,845.82,844.77,843.54,842.24,841.06,840.37,840.77,841.04,840.64,839.03,834.29,834.60,837.75,839.75,840.37,840.35,840.07,839.55,838.59,837.87,836.62,834.97,833.46,831.89,830.91,830.46,830.50,831.07,831.63,831.86,831.75,831.59,831.51,831.02,830.02,828.42,826.46,824.42,822.87,822.12,822.01,821.96,821.69,821.16,820.50,819.92,819.70,819.90,820.61,821.78,822.95,823.26,823.12,824.29,825.87,826.58,826.19,824.96,824.59,824.68,824.89,825.07,825.07,824.15,822.90,821.45,819.55,817.06,815.64,814.89,814.37,813.99,813.50,813.03,812.69,812.62,812.47,812.38,812.34,812.31,812.10,811.92,811.36,810.39,809.98,809.85,809.79,809.83,810.13,810.46,810.47,810.57,811.29,812.93,814.67,816.09,817.07,817.69,818.17,818.19,817.76,816.79,815.11,812.57,810.12,808.85,810.19,813.10,816.39,819.19,820.46,821.05,821.23,821.24,821.21,821.08,820.84,820.28,819.23,817.66,815.70,813.41,811.28,810.02,809.44,808.66,808.15,807.87,806.42,805.32,804.74,804.52,804.33,804.11,803.90,803.80,803.88,804.05,804.28,804.55,805.00,806.02,807.67,809.29,810.63,811.53,812.27,812.70,813.04,813.37,813.55,813.71,813.61,813.17,812.43,811.73,811.03,810.39,809.83,809.17,808.60,808.17,807.88,807.63,807.32,806.97,806.60,806.19,805.72,805.14,804.43,803.52,802.29,800.81,799.90,799.59,799.34,799.11,798.95,798.95,799.20,799.50,799.75,800.21,800.94,801.77,802.55
860.37,860.45,860.53,860.63,860.75,860.76,860.70,860.58,860.46,860.31,860.16,859.99,859.81,859.99,860.08,860.07,860.04,860.04,860.07,860.09,860.06,860.06,860.02,860.00,859.91,859.49,858.49,856.91,855.14,853.38,851.53,850.18,849.36,848.89,848.61,848.79,849.09,849.38,849.66,850.03,851.01,852.35,853.73,854.61,855.06,855.34,855.20,854.00,852.09,850.53,849.80,850.43,852.79,853.49,853.91,854.28,853.75,853.25,852.44,851.30,849.66,846.98,844.08,842.52,842.95,844.82,846.74,847.69,847.62,846.72,845.71,844.48,843.29,842.36,841.81,841.88,841.71,841.02,839.61,835.53,836.43,839.49,840.36,840.70,840.61,840.40,840.13,839.75,839.37,838.32,836.77,835.20,833.50,832.38,831.84,831.88,832.29,832.81,832.94,832.62,832.10,831.52,830.56,829.21,827.49,825.65,824.33,823.52,823.20,823.18,823.15,822.86,822.25,821.35,820.44,819.80,819.49,819.68,820.50,821.28,821.25,820.77,821.52,823.02,824.33,824.67,823.58,823.31,823.38,823.57,823.78,823.91,823.30,822.31,820.95,818.96,816.34,814.95,814.32,813.89,813.63,813.38,813.16,813.08,813.27,813.27,813.29,813.37,813.42,813.29,813.11,812.44,811.25,810.42,809.99,809.82,809.78,809.76,809.77,809.71,809.66,809.93,811.06,812.55,813.64,814.23,814.82,815.38,815.72,815.90,815.88,814.94,812.89,810.58,809.01,809.88,812.75,816.18,819.16,820.59,821.28,821.50,821.56,821.55,821.39,821.20,820.83,820.15,819.05,817.32,815.09,812.87,811.30,810.20,808.89,807.78,806.97,805.71,804.97,804.62,804.46,804.31,804.11,803.96,803.91,804.00,804.18,804.38,804.61,805.05,806.08,807.73,809.34,810.67,811.57,812.53,813.18,813.63,813.97,814.14,814.22,814.02,813.53,812.79,812.06,811.38,810.78,810.31,809.76,809.24,808.67,808.08,807.60,807.16,806.84,806.51,806.03,805.50,804.76,803.87,802.86,801.74,800.48,799.74,799.50,799.28,799.04,798.97,799.06,799.30,799.58,799.87,800.39,801.20,802.02,802.82
860.70,860.76,860.81,860.83,860.88,860.85,860.74,860.61,860.52,860.38,860.22,860.11,860.09,860.15,860.17,860.14,860.09,860.06,860.03,859.97,859.88,859.84,859.82,859.77,859.52,858.74,857.64,856.06,854.31,852.58,850.94,849.87,849.20,848.84,848.83,849.19,849.59,850.03,850.59,851.10,852.19,853.55,854.92,855.97,856.46,856.69,856.22,854.23,852.16,850.70,850.38,851.70,854.53,855.39,855.59,855.57,854.99,854.30,853.07,851.49,849.61,846.91,844.11,843.31,844.95,846.99,848.38,848.83,848.48,847.58,846.72,845.56,844.48,843.74,843.13,842.88,842.21,840.97,839.37,836.83,837.89,840.20,840.63,840.95,840.90,840.72,840.51,840.38,840.15,839.37,838.12,836.67,835.14,834.07,833.55,833.56,833.61,833.89,833.75,833.07,832.14,830.94,829.55,828.03,826.42,824.82,824.44,824.45,824.42,824.36,824.16,823.73,823.02,822.01,821.06,820.19,819.49,819.16,819.44,819.67,819.61,819.41,819.74,820.72,822.21,823.02,822.15,822.10,822.22,822.40,822.59,822.65,822.34,821.50,820.08,817.91,815.59,814.51,814.06,813.68,813.53,813.62,813.78,814.01,814.43,814.61,814.77,814.97,815.13,815.09,814.90,814.22,812.90,811.50,810.65,810.26,810.10,809.86,809.70,809.54,809.45,809.53,809.88,810.79,811.36,811.47,811.76,812.17,812.67,813.35,814.13,813.94,812.63,810.77,809.13,809.37,811.94,815.25,818.32,820.22,821.26,821.73,821.93,821.96,821.76,821.53,821.21,820.76,820.10,818.71,816.82,814.82,813.09,811.53,809.93,808.28,806.65,805.39,804.86,804.63,804.46,804.31,804.15,804.05,804.04,804.15,804.36,804.52,804.75,805.18,806.18,807.71,809.28,810.63,811.56,812.67,813.56,814.19,814.53,814.67,814.65,814.38,813.86,813.15,812.40,811.73,811.17,810.69,810.21,809.71,808.94,807.90,807.04,806.52,806.29,806.13,805.75,805.22,804.37,803.34,802.25,801.17,800.23,799.68,799.46,799.22,799.00,799.01,799.18,799.41,799.65,800.00,800.61,801.44,802.22,803.05
861.06,861.03,861.01,861.00,860.98,860.91,860.81,860.67,860.58,860.44,860.32,860.23,860.18,860.14,860.10,860.05,860.01,859.86,859.65,859.42,859.18,858.92,858.83,858.54,858.04,857.36,856.58,855.20,853.44,851.58,850.19,849.38,849.05,849.07,849.33,849.67,850.31,851.11,851.92,852.72,853.78,855.03,856.34,857.43,857.87,857.97,857.41,855.46,853.35,852.39,852.69,854.25,856.58,857.14,857.10,856.83,855.99,854.45,852.75,850.98,848.95,846.44,844.28,844.22,846.46,848.74,849.51,849.59,849.23,848.36,847.56,846.52,845.44,844.47,843.50,842.68,841.74,840.39,838.35,838.04,839.16,840.46,840.88,841.21,841.16,841.00,840.82,840.63,840.37,839.85,839.11,838.21,836.85,835.78,835.25,835.24,834.90,834.27,833.34,832.24,831.22,829.91,828.35,826.96,826.20,825.64,825.62,825.73,825.71,825.36,824.40,823.40,822.52,821.78,821.14,820.50,819.81,819.17,818.98,819.02,818.97,818.87,819.12,819.72,820.53,821.06,820.88,821.02,821.11,821.21,821.36,821.37,821.11,820.29,818.72,816.30,814.96,814.35,814.06,813.91,813.96,814.21,814.62,815.27,816.50,817.35,817.94,818.31,818.41,818.41,818.23,817.45,815.91,814.26,813.15,812.27,811.44,810.61,810.00,809.67,809.43,809.20,809.37,809.67,809.86,809.86,809.91,810.12,810.43,811.04,812.09,812.16,811.55,810.36,808.88,808.52,810.26,813.05,816.11,818.64,820.39,821.53,822.16,822.23,822.03,821.76,821.43,820.89,819.80,818.09,815.95,813.67,811.64,810.20,809.08,808.01,806.78,805.39,804.89,804.66,804.46,804.31,804.15,804.12,804.19,804.32,804.50,804.66,805.00,805.63,806.49,807.72,809.11,810.46,811.64,812.80,813.88,814.65,814.98,815.04,814.99,814.71,814.17,813.43,812.71,812.09,811.54,811.01,810.45,809.79,808.80,807.47,806.29,805.77,805.64,805.62,805.40,804.86,803.98,802.92,801.78,800.67,800.04,799.68,799.45,799.22,799.04,799.07,799.25,799.48,799.72,800.14,800.80,801.63,802.41,803.21
861.28,861.19,861.12,861.06,860.98,860.91,860.80,860.65,860.55,860.42,860.33,860.25,860.17,860.09,859.73,859.37,859.27,859.05,858.78,858.47,858.11,857.69,857.48,857.05,856.43,855.79,855.17,853.81,852.14,850.57,849.56,849.17,849.23,849.61,850.23,850.84,851.67,852.67,853.73,854.68,855.66,856.73,857.94,859.28,859.41,859.22,858.63,857.09,855.35,854.97,855.68,857.08,858.46,858.69,858.42,857.77,856.33,854.18,852.23,850.43,848.45,846.12,844.73,845.24,847.52,849.59,850.02,849.95,849.60,848.75,847.97,846.91,845.67,844.37,843.03,841.87,840.71,839.48,838.36,839.13,840.06,840.72,841.13,841.43,841.31,841.07,840.86,840.62,840.40,840.06,839.62,838.97,837.86,836.81,836.08,835.68,834.97,833.89,832.64,831.38,830.25,828.97,827.88,827.19,827.09,827.03,827.05,826.86,826.32,825.43,824.04,822.74,821.74,821.12,820.67,820.19,819.68,819.23,818.97,818.93,818.86,818.71,818.59,818.75,819.09,819.42,819.61,819.81,819.84,819.85,819.83,819.59,819.14,818.26,816.89,815.15,814.61,814.35,814.20,814.22,814.42,815.50,816.55,817.41,818.57,819.40,819.97,820.31,820.38,820.42,820.27,819.67,818.47,817.07,815.75,814.43,813.09,811.83,810.82,810.09,809.55,809.21,809.16,809.11,809.01,808.89,808.77,808.74,808.94,809.49,810.38,810.60,810.39,809.62,808.38,807.70,808.76,810.83,813.43,816.24,818.44,820.67,822.20,822.35,822.18,821.89,821.17,819.93,818.44,816.66,814.46,812.09,810.04,808.73,807.94,807.25,806.40,805.27,804.88,804.69,804.50,804.35,804.19,804.18,804.29,804.45,804.60,804.75,805.15,805.84,806.64,807.73,809.05,810.47,811.79,813.05,814.19,814.96,815.21,815.20,815.14,814.88,814.40,813.69,812.99,812.39,811.83,811.23,810.62,809.80,808.62,807.11,805.70,805.11,805.03,805.10,804.95,804.38,803.52,802.50,801.40,800.32,799.88,799.65,799.42,799.22,799.08,799.15,799.34,799.55,799.78,800.28,800.98,801.80,802.57,803.37
861.30,861.20,861.11,860.99,860.91,860.84,860.72,860.58,860.43,860.33,860.25,860.17,860.05,859.90,859.04,858.17,857.97,857.75,857.52,857.22,856.81,856.32,855.94,855.44,854.81,854.11,853.46,852.05,850.61,849.67,849.14,849.30,849.75,850.42,851.45,852.53,853.49,854.54,855.83,856.84,857.71,858.55,859.59,861.25,860.98,860.46,859.95,859.01,857.91,858.00,858.81,859.76,860.04,859.94,859.47,858.39,856.13,853.65,851.63,849.91,848.13,845.96,845.41,846.35,848.25,849.72,850.07,850.01,849.65,848.82,848.03,846.85,845.36,843.71,842.09,840.87,839.62,838.72,839.31,840.07,840.64,841.06,841.42,841.62,841.33,840.94,840.64,840.42,840.30,840.09,839.67,838.96,838.07,837.05,836.02,835.03,834.00,832.92,831.81,830.64,829.45,828.38,828.22,828.55,828.77,828.61,828.37,827.63,826.25,824.73,823.24,821.91,820.85,820.27,819.99,819.66,819.45,819.48,819.40,819.32,819.19,818.89,818.19,817.86,817.89,818.10,818.28,818.44,818.42,818.30,818.05,817.47,816.75,815.86,814.99,814.58,814.60,814.59,814.53,814.58,815.11,817.31,819.14,819.96,820.38,820.65,820.86,821.02,821.11,821.17,821.08,820.84,820.38,819.52,818.07,816.44,814.83,813.34,812.03,810.79,809.88,809.54,809.27,809.03,808.79,808.53,808.30,808.02,808.15,808.59,809.05,809.35,809.26,808.68,807.69,806.97,807.57,808.87,810.72,813.31,815.66,819.12,821.89,822.27,822.12,821.71,820.32,818.09,816.34,814.71,812.66,810.45,808.62,807.42,806.73,806.18,805.59,805.03,804.84,804.72,804.55,804.40,804.26,804.25,804.35,804.50,804.66,804.81,805.18,805.83,806.63,807.72,809.08,810.55,811.95,813.34,814.47,815.13,815.27,815.22,815.14,814.91,814.48,813.83,813.14,812.55,811.99,811.34,810.72,809.76,808.45,806.86,805.35,804.59,804.44,804.54,804.38,803.78,802.97,802.06,801.06,800.12,799.78,799.58,799.37,799.21,799.13,799.24,799.44,799.61,799.84,800.41,801.15,801.93,802.72,803.55
860.95,860.89,860.86,860.81,860.78,860.71,860.61,860.45,860.30,860.21,860.13,859.98,859.57,858.94,857.75,856.75,856.57,856.38,856.20,855.95,855.60,855.18,854.49,853.88,853.27,852.47,851.61,850.65,849.83,849.38,849.37,849.88,850.65,851.60,852.73,853.84,854.94,856.13,857.46,858.74,859.58,860.07,860.57,861.87,861.92,861.91,861.84,861.13,860.41,860.21,860.40,860.79,860.82,860.39,859.78,858.62,855.93,853.31,851.16,849.40,847.82,845.84,846.17,847.55,849.08,849.91,850.13,850.05,849.67,848.88,848.10,846.83,845.25,843.59,842.10,841.10,840.43,840.10,840.31,840.74,841.17,841.55,841.84,841.64,841.18,840.70,840.28,840.06,840.03,839.89,839.37,838.17,837.10,836.06,835.03,834.00,832.97,831.93,830.94,830.05,829.44,829.28,829.62,830.07,830.07,829.41,828.44,827.15,825.57,823.96,822.42,821.11,820.22,820.07,820.50,820.80,820.93,820.89,820.45,820.19,819.95,819.55,818.81,818.03,817.34,816.88,816.84,816.97,816.85,816.52,816.09,815.78,815.40,815.01,814.73,814.80,815.33,815.69,815.50,815.14,817.13,818.99,820.22,820.84,821.15,821.37,821.54,821.70,821.86,821.90,821.84,821.61,821.17,820.43,819.21,817.72,816.13,814.61,813.22,811.86,810.79,810.27,809.95,809.65,809.41,809.19,808.94,808.48,808.09,807.93,808.10,808.31,808.27,807.79,806.94,806.55,806.92,807.93,809.33,810.86,812.78,816.52,820.19,821.74,821.41,820.05,818.21,816.20,814.42,812.66,810.83,808.99,807.34,806.18,805.63,805.34,805.12,804.88,804.81,804.72,804.56,804.42,804.35,804.35,804.40,804.52,804.66,804.82,805.14,805.73,806.57,807.66,808.93,810.31,811.81,813.35,814.47,815.12,815.28,815.27,815.16,814.78,814.13,813.37,812.62,812.13,811.75,811.27,810.63,809.61,808.32,806.86,805.46,804.44,803.91,803.74,803.59,803.02,802.23,801.38,800.57,799.96,799.71,799.54,799.35,799.17,799.16,799.28,799.47,799.67,799.86,800.50,801.31,802.13,802.96,803.80
860.55,860.52,860.53,860.55,860.58,860.56,860.49,860.35,860.19,859.78,859.23,858.63,858.07,857.20,856.16,855.39,855.20,855.02,854.86,854.64,854.36,854.02,853.19,852.44,851.81,851.09,850.32,849.79,849.49,849.46,849.87,850.58,851.54,852.66,853.84,854.98,856.16,857.39,858.66,859.91,860.65,861.07,861.39,861.99,862.49,863.00,863.17,862.53,862.01,861.58,861.33,861.28,861.07,860.50,859.75,858.44,855.55,852.82,850.63,848.93,847.58,846.21,847.03,848.50,849.69,850.06,850.14,849.98,849.59,848.90,848.16,846.92,845.45,844.01,842.82,842.13,841.79,841.61,841.29,841.44,841.74,842.03,842.13,841.66,841.13,840.59,840.11,839.76,839.51,839.16,838.50,837.26,836.36,835.55,834.72,833.85,832.94,832.05,831.21,830.55,830.37,830.78,831.10,831.09,830.58,829.50,828.04,826.45,824.83,823.22,821.86,820.88,820.38,820.65,821.67,822.54,823.03,822.97,822.28,821.85,821.39,820.67,819.51,818.38,817.20,816.26,815.91,815.83,815.65,815.34,814.98,814.88,814.78,814.82,815.13,815.89,816.90,817.43,816.88,815.83,818.63,820.03,820.74,821.26,821.66,821.92,822.13,822.34,822.54,822.59,822.52,822.29,821.81,821.06,820.02,818.72,817.28,815.84,814.37,812.99,811.92,811.34,811.06,810.75,810.49,810.26,809.93,809.25,808.46,807.83,807.62,807.57,807.46,807.06,806.42,806.23,806.46,807.25,808.28,809.04,810.37,813.69,817.49,819.85,819.53,817.62,815.54,813.79,812.26,810.65,809.09,807.57,806.18,805.33,804.98,804.87,804.86,804.79,804.75,804.68,804.57,804.45,804.45,804.46,804.48,804.54,804.67,804.80,805.05,805.61,806.84,808.15,809.32,810.48,811.83,813.21,814.20,814.80,815.05,815.10,814.90,814.32,813.46,812.62,811.83,811.41,811.17,810.88,810.30,809.30,808.08,806.76,805.49,804.38,803.62,803.16,802.84,802.28,801.57,800.84,800.20,799.84,799.65,799.49,799.33,799.17,799.22,799.36,799.53,799.73,799.91,800.55,801.36,802.20,803.04,803.90
860.02,860.00,860.03,860.15,860.29,860.37,860.37,860.25,859.99,858.90,857.37,855.94,855.43,854.72,854.38,854.23,853.98,853.77,853.58,853.36,853.09,852.79,852.05,851.21,850.50,850.09,849.77,849.55,849.55,849.89,850.54,851.35,852.34,853.48,854.67,855.85,856.99,858.12,859.24,860.13,860.76,861.48,862.07,861.72,862.68,863.51,863.63,862.87,862.37,861.93,861.61,861.35,860.80,860.30,859.45,857.84,854.92,852.08,850.02,848.55,847.50,847.16,848.00,849.15,850.03,850.15,850.00,849.69,849.28,848.76,848.09,847.04,845.91,844.91,844.12,843.70,843.28,842.75,842.21,842.18,842.36,842.45,842.24,841.74,841.21,840.71,840.21,839.64,838.85,838.05,837.29,836.60,836.35,836.03,835.56,834.93,834.21,833.54,832.89,832.36,832.23,832.57,832.27,831.39,830.16,828.87,827.35,825.73,824.14,822.66,821.77,821.41,821.50,822.09,823.38,824.63,825.47,825.60,824.91,824.25,823.40,822.07,820.05,818.70,817.46,816.38,815.73,815.24,815.13,815.09,815.00,814.88,814.84,815.13,816.03,817.81,819.17,819.61,818.53,816.61,819.11,820.26,820.86,821.47,822.04,822.35,822.63,822.90,823.09,823.14,823.03,822.81,822.41,821.66,820.70,819.56,818.33,817.11,815.54,814.18,813.21,812.72,812.56,812.26,811.92,811.60,811.12,810.18,809.20,808.34,807.70,807.27,806.96,806.64,806.29,806.07,806.17,806.67,807.37,807.88,808.60,810.87,813.89,816.33,816.32,814.55,812.49,810.83,809.85,808.72,807.47,806.23,805.21,804.96,804.86,804.81,804.79,804.72,804.66,804.62,804.59,804.52,804.56,804.59,804.59,804.61,804.68,804.77,804.92,805.55,807.55,809.25,810.36,811.17,812.09,812.97,813.62,814.13,814.51,814.66,814.32,813.55,812.54,811.68,810.88,810.44,810.24,810.08,809.67,808.74,807.62,806.44,805.26,804.33,803.57,802.90,802.22,801.66,801.09,800.52,800.02,799.76,799.59,799.43,799.29,799.22,799.33,799.48,799.64,799.81,800.04,800.57,801.30,802.13,802.92,803.82
858.15,858.18,858.38,859.00,859.87,860.18,860.19,859.92,858.88,857.05,855.02,853.37,852.83,852.48,852.82,853.33,853.48,853.44,853.07,852.56,852.03,851.56,850.97,850.41,849.97,849.75,849.67,849.68,849.92,850.51,851.33,852.21,853.10,853.97,854.79,855.54,856.22,856.99,857.95,858.87,860.17,861.42,862.03,861.24,862.02,863.02,863.25,861.93,860.90,860.51,860.40,860.30,860.00,859.78,858.90,857.01,853.99,851.21,849.46,848.49,848.11,848.36,849.07,849.82,850.27,850.05,849.19,848.51,848.07,847.58,846.96,846.41,845.92,845.38,844.45,843.77,843.31,843.01,842.86,842.71,842.66,842.58,842.32,841.89,841.48,841.04,840.58,840.10,839.56,838.94,838.38,838.15,838.24,838.07,837.60,836.89,836.24,835.62,835.00,834.32,833.49,832.85,831.87,830.65,829.42,828.08,826.56,824.99,823.65,823.26,823.00,822.91,823.10,823.78,825.13,826.53,827.67,828.15,827.35,825.77,823.82,821.71,819.75,818.61,817.68,816.90,816.37,815.91,816.12,816.30,816.03,815.45,815.25,815.95,817.39,819.09,819.95,820.12,819.12,817.31,818.54,819.75,820.65,821.38,822.11,822.66,823.04,823.27,823.26,822.93,822.58,822.37,822.32,822.12,821.36,820.45,819.54,818.61,817.34,815.88,814.67,814.09,813.96,813.71,813.38,813.00,812.44,811.38,810.17,809.10,808.45,807.96,807.64,807.38,807.09,806.72,806.29,806.13,806.27,806.60,807.28,808.78,810.67,812.26,812.37,811.25,809.90,808.76,807.96,806.90,806.01,805.37,804.95,804.86,804.78,804.74,804.74,804.71,804.67,804.66,804.65,804.63,804.69,804.72,804.72,804.73,804.75,804.82,805.11,806.02,808.27,809.83,810.91,811.77,812.49,812.65,812.95,813.34,813.71,814.03,813.89,813.20,812.13,811.09,810.09,809.47,809.15,808.96,808.43,807.51,806.50,805.57,804.79,804.02,803.30,802.60,801.89,801.33,800.82,800.34,799.94,799.74,799.58,799.42,799.29,799.28,799.40,799.56,799.71,799.89,800.20,800.64,801.23,801.97,802.84,803.75
855.75,855.88,856.14,856.94,858.19,858.85,859.16,858.97,857.25,854.90,852.55,850.67,850.03,850.25,851.31,852.41,852.90,853.11,852.82,852.23,851.48,850.87,850.51,850.23,849.95,849.69,849.72,849.95,850.44,851.23,852.12,852.94,853.51,853.86,854.14,854.42,854.75,855.25,856.10,857.48,859.48,861.03,861.49,860.74,861.37,862.44,862.69,860.88,859.43,858.86,858.78,858.87,858.88,858.96,858.19,856.27,853.30,850.70,849.33,848.88,849.00,849.48,850.01,850.41,850.52,850.05,848.70,847.52,846.69,846.06,845.44,845.23,845.21,844.99,843.89,842.95,842.54,842.63,842.91,842.81,842.62,842.42,842.16,841.84,841.56,841.28,840.94,840.60,840.33,839.96,839.63,839.64,839.81,839.70,839.23,838.40,837.53,836.66,835.81,834.82,833.44,832.13,830.88,829.71,828.62,827.32,825.94,824.72,824.00,824.45,824.64,824.68,824.83,825.53,826.93,828.24,829.29,829.78,828.87,826.64,823.96,821.43,819.76,818.80,818.13,817.59,817.15,816.89,817.51,817.93,817.57,816.69,816.27,817.12,818.74,819.92,820.30,820.24,819.44,817.93,817.79,819.09,820.38,821.25,822.11,822.88,823.37,823.50,823.17,822.52,821.96,821.72,821.89,822.15,821.79,821.25,820.69,819.98,819.12,817.84,816.69,816.13,815.88,815.59,815.21,814.70,814.00,812.86,811.55,810.36,809.57,808.93,808.61,808.39,808.12,807.60,806.62,805.80,805.38,805.56,806.13,806.93,807.84,808.66,808.89,808.41,807.71,807.02,806.39,805.56,805.06,804.89,804.87,804.82,804.76,804.72,804.72,804.72,804.72,804.72,804.72,804.73,804.79,804.88,804.98,805.06,805.13,805.47,806.08,807.16,809.06,810.40,811.51,812.39,812.71,812.31,812.36,812.66,812.99,813.40,813.48,812.94,811.89,810.77,809.66,808.80,808.19,807.75,807.07,806.22,805.39,804.72,804.25,803.63,802.97,802.30,801.63,801.05,800.56,800.15,799.87,799.71,799.55,799.40,799.30,799.34,799.47,799.62,799.78,799.99,800.37,800.76,801.24,801.87,802.70,803.60
852.96,853.20,853.21,853.45,854.31,855.49,856.63,857.02,855.07,852.65,850.04,847.73,846.88,847.92,849.82,851.39,851.93,852.42,852.72,852.49,851.75,851.11,851.08,850.90,850.45,849.87,849.86,850.34,851.10,852.04,852.88,853.40,853.33,852.85,852.49,852.39,852.68,853.15,853.97,856.35,858.76,860.13,860.28,860.25,860.99,861.97,862.10,860.12,858.64,857.52,857.02,857.22,857.42,857.77,857.35,855.80,853.19,850.91,849.98,849.91,850.11,850.38,850.66,850.86,850.82,850.27,849.03,847.23,845.44,844.40,843.71,843.41,843.41,843.33,842.13,841.13,840.94,841.47,842.06,842.24,842.13,841.88,841.60,841.40,841.27,841.22,841.18,840.94,840.65,840.41,840.24,840.16,840.05,839.95,839.62,838.76,837.25,835.74,834.24,832.77,831.37,830.31,829.56,828.83,827.81,826.72,825.71,825.31,825.68,826.20,826.48,826.53,826.62,827.30,828.78,829.66,830.01,829.89,828.88,826.72,824.23,821.98,820.60,819.60,818.94,818.40,817.88,817.95,818.93,819.66,819.53,818.79,818.15,818.67,819.83,820.23,820.49,820.36,819.70,818.41,817.18,818.52,820.14,821.20,822.12,823.02,823.59,823.58,822.79,822.07,821.39,821.05,821.17,821.46,821.75,821.83,821.62,821.03,820.60,820.04,819.54,819.24,818.67,818.16,817.60,816.88,815.89,814.73,813.59,812.43,811.14,810.10,809.69,809.50,809.20,808.52,807.16,805.84,805.00,805.02,805.12,805.26,805.59,806.15,806.56,806.47,806.08,805.56,805.22,805.02,804.93,804.88,804.82,804.80,804.79,804.79,804.79,804.79,804.79,804.79,804.79,804.80,804.89,805.17,805.54,805.88,806.10,807.14,808.29,809.20,809.97,811.15,812.37,813.08,812.61,811.97,811.94,812.21,812.52,812.84,813.06,812.69,811.79,810.77,809.81,808.70,807.55,806.56,805.76,805.12,804.58,804.14,803.73,803.19,802.63,802.03,801.36,800.74,800.24,799.92,799.79,799.64,799.49,799.37,799.32,799.39,799.54,799.68,799.87,800.13,800.56,800.96,801.40,801.90,802.50,803.30
849.91,849.42,848.08,847.14,848.21,850.57,853.02,854.41,853.19,850.68,847.52,844.57,843.59,845.25,848.29,850.76,851.43,852.13,852.62,852.71,852.33,851.60,851.21,850.78,850.29,849.95,850.22,850.88,851.75,852.66,853.18,853.08,852.56,851.86,851.28,850.67,850.08,850.21,851.76,853.95,855.47,856.38,857.01,858.16,859.04,859.88,860.21,859.10,857.68,856.26,855.50,855.70,855.94,856.38,856.56,855.99,854.06,852.28,851.44,851.20,851.12,851.17,851.33,851.32,851.00,850.38,849.24,847.32,845.09,843.36,842.15,841.68,841.63,841.48,839.87,838.60,839.03,840.64,841.28,841.58,841.52,841.25,840.92,840.75,840.72,840.77,840.84,840.70,840.55,840.43,840.27,839.94,839.34,839.34,839.31,838.49,836.42,834.39,832.59,831.08,830.00,829.15,828.53,827.95,827.21,826.61,826.35,826.59,827.27,827.88,828.29,828.24,828.16,828.85,829.73,830.14,830.14,829.73,828.73,826.93,824.85,822.87,821.44,820.18,819.20,818.63,818.66,819.05,819.73,820.23,820.26,819.82,819.46,819.71,820.28,820.53,820.59,820.37,819.65,818.39,817.54,818.90,820.40,821.35,822.27,823.16,823.61,823.45,822.54,821.70,820.88,820.38,820.35,820.53,820.90,821.25,821.45,821.41,821.36,821.02,820.66,820.42,819.96,819.62,819.27,818.83,818.25,817.67,816.63,815.31,814.06,813.14,812.37,811.54,810.58,809.49,807.85,806.21,805.03,804.92,804.90,804.90,804.99,805.24,805.45,805.45,805.29,805.06,804.92,804.90,804.90,804.88,804.81,804.80,804.83,804.86,804.86,804.86,804.86,804.86,804.86,804.93,805.63,806.76,807.94,808.76,808.92,809.70,810.53,811.08,811.40,812.21,813.04,813.32,812.50,811.67,811.54,811.75,812.06,812.37,812.58,812.40,811.77,810.84,810.08,809.03,807.74,806.38,805.29,804.56,804.01,803.55,803.16,802.68,802.15,801.61,801.03,800.41,800.02,799.82,799.72,799.57,799.45,799.38,799.38,799.50,799.61,799.75,799.96,800.31,800.84,801.32,801.75,802.14,802.56,803.10
846.59,845.41,843.09,841.22,842.85,846.15,849.50,851.56,850.71,847.85,844.30,841.29,840.73,843.18,847.21,850.40,851.17,851.96,852.51,852.78,852.64,851.82,851.18,850.58,850.14,850.16,850.62,851.35,852.25,853.09,853.14,852.47,851.62,850.70,849.55,848.14,846.58,846.38,848.72,850.65,851.33,852.08,853.56,855.67,856.70,857.48,858.06,857.83,856.53,854.96,854.07,854.20,854.43,854.81,855.43,855.77,854.73,853.61,852.89,852.44,852.10,851.91,851.87,851.62,851.06,850.42,849.32,847.38,844.94,842.61,840.61,839.48,839.05,838.77,837.04,835.71,836.74,839.32,840.23,840.71,840.73,840.36,839.71,839.32,839.48,839.80,840.05,840.09,840.17,840.23,840.08,839.40,838.29,838.37,838.72,838.15,835.69,833.23,831.26,829.92,829.25,828.63,828.07,827.52,827.05,826.90,827.30,827.95,828.69,829.34,829.80,829.67,829.46,830.06,830.28,830.29,830.02,829.35,828.36,826.96,825.37,823.73,822.20,820.71,819.35,818.63,819.13,819.84,820.22,820.46,820.62,820.46,820.42,820.47,820.59,820.80,820.65,820.32,819.48,818.17,818.27,819.59,820.81,821.61,822.50,823.35,823.65,823.32,822.38,821.47,820.57,819.92,819.67,819.61,819.86,820.32,820.87,821.33,821.54,821.37,821.09,820.92,820.67,820.53,820.39,820.23,820.10,820.05,819.22,817.95,816.91,816.07,814.95,813.54,811.95,810.44,808.60,806.82,805.48,805.17,805.11,805.10,805.04,804.94,804.91,804.90,804.90,804.90,804.90,804.90,804.90,804.88,804.82,804.81,804.87,804.97,805.20,805.66,805.84,805.87,805.83,805.88,806.98,808.81,810.70,811.91,812.00,812.32,812.67,812.88,812.98,813.38,813.62,813.36,812.35,811.40,811.16,811.31,811.61,811.89,812.07,812.04,811.72,810.96,810.37,809.44,808.13,806.53,805.15,804.29,803.65,803.11,802.64,802.16,801.63,801.12,800.65,800.14,799.88,799.76,799.66,799.53,799.45,799.42,799.47,799.60,799.71,799.87,800.13,800.58,801.16,801.70,802.12,802.43,802.75,803.09
842.81,841.63,840.04,838.33,840.96,844.13,846.97,848.55,846.47,842.58,839.36,837.85,839.09,842.88,847.31,850.46,851.20,851.81,852.31,852.44,852.05,851.17,851.04,850.74,850.44,850.73,850.96,851.50,852.35,853.14,852.52,851.65,850.64,849.10,846.20,843.37,841.17,840.94,843.63,845.95,846.88,848.44,851.11,853.34,854.49,855.46,856.21,856.09,854.98,853.54,852.64,852.65,852.86,852.93,853.38,854.06,854.17,854.00,853.73,853.43,853.08,852.58,852.03,851.49,850.94,850.33,849.08,847.09,844.69,842.18,838.96,836.09,834.40,834.04,833.15,832.42,833.69,836.53,838.46,839.37,839.56,838.88,837.20,836.06,836.72,837.78,838.54,838.94,839.38,839.78,839.74,838.58,837.06,837.11,837.91,838.06,835.57,832.86,830.87,829.82,829.53,829.23,828.78,828.23,827.79,827.82,828.34,829.03,829.70,830.20,830.51,830.47,830.32,830.53,830.50,830.25,829.65,828.60,827.53,826.44,825.38,824.25,822.77,821.25,819.59,818.47,818.77,819.85,820.38,820.68,820.91,820.89,820.88,820.92,821.00,821.00,820.65,820.26,819.22,817.76,819.24,820.40,821.26,822.04,822.84,823.63,823.81,823.37,822.39,821.52,820.70,820.01,819.46,818.92,818.91,819.34,819.99,820.54,820.81,820.92,821.01,821.12,821.02,820.84,820.63,820.43,820.33,820.22,819.92,819.40,818.57,817.41,816.14,814.73,813.12,811.29,809.38,807.81,806.68,806.01,805.90,805.81,805.54,805.09,804.93,804.90,804.90,804.90,804.90,804.90,804.90,804.90,804.88,804.88,804.89,805.22,806.27,808.35,809.17,809.31,809.12,808.85,809.44,811.15,813.07,814.26,814.38,814.45,814.52,814.56,814.57,814.56,814.08,813.22,812.16,811.16,810.83,810.90,811.15,811.39,811.51,811.57,811.52,811.20,810.65,809.77,808.49,806.77,805.25,804.35,803.67,802.99,802.30,801.68,801.12,800.61,800.17,799.97,799.86,799.74,799.61,799.52,799.49,799.52,799.59,799.68,799.81,800.09,800.49,801.02,801.56,802.01,802.38,802.70,803.07,803.50
839.95,838.37,836.99,836.17,839.50,842.61,844.43,844.21,840.92,836.94,835.27,836.28,839.25,843.61,847.76,850.51,851.23,851.85,851.98,851.91,851.76,851.50,851.28,850.92,850.66,850.94,851.46,851.75,852.24,852.88,852.26,851.27,849.62,847.06,843.32,840.03,837.50,836.47,837.72,840.10,842.08,844.45,847.52,850.63,852.38,853.57,854.34,854.27,853.33,852.10,851.25,851.12,851.38,851.41,851.55,851.87,852.25,852.56,852.63,852.60,852.53,852.21,851.79,851.30,850.76,850.15,848.62,846.49,844.08,841.42,837.26,833.41,830.82,829.88,829.37,829.08,830.46,833.19,835.23,836.11,836.22,835.37,833.40,832.21,833.34,835.05,836.37,836.92,837.54,838.07,838.12,837.12,835.74,835.88,836.83,837.43,835.82,833.60,831.84,830.86,830.57,830.21,829.66,829.06,828.61,828.50,829.00,829.70,830.36,830.87,830.95,830.81,830.63,830.53,830.26,829.65,828.73,827.54,826.42,825.36,824.38,823.42,822.34,821.06,818.93,817.15,817.47,819.43,820.32,820.72,821.05,821.21,821.24,821.28,821.28,821.03,820.57,819.97,819.03,818.16,819.81,820.91,821.74,822.53,823.31,824.05,824.19,823.74,822.82,821.96,821.19,820.51,819.88,819.25,818.82,818.61,818.75,819.48,819.97,820.33,820.61,820.82,820.93,820.84,820.67,820.54,820.45,820.31,820.18,819.94,819.33,818.14,816.87,815.52,813.97,811.97,810.08,808.70,807.76,807.01,806.66,806.35,805.92,805.34,804.98,804.90,804.90,804.90,804.90,804.90,804.90,804.90,804.90,804.90,804.90,805.72,807.76,810.04,811.05,811.29,811.12,810.90,811.38,812.84,814.35,815.04,815.21,815.21,815.17,815.13,815.04,814.75,814.00,812.98,812.00,811.00,810.57,810.51,810.64,810.79,810.88,810.94,810.95,810.81,810.49,809.73,808.56,807.02,805.58,804.62,803.82,803.01,802.20,801.46,800.80,800.27,799.98,799.88,799.80,799.70,799.59,799.51,799.50,799.56,799.66,799.75,799.86,800.26,800.85,801.45,801.96,802.38,802.76,803.15,803.57,803.97
837.50,835.41,834.01,834.11,837.76,840.64,841.26,839.02,834.97,831.80,832.32,835.95,840.24,844.75,848.36,850.62,851.32,851.91,851.74,851.55,851.69,852.03,851.52,851.09,850.91,851.04,851.97,852.10,852.18,852.58,852.22,851.18,849.09,845.92,841.88,838.50,835.61,833.34,832.43,834.35,837.19,840.18,843.37,847.27,849.83,851.51,852.47,852.41,851.60,850.54,849.70,849.36,849.64,849.69,849.50,849.32,849.58,850.21,850.71,851.10,851.45,851.44,851.32,851.02,850.50,849.79,847.98,845.73,843.33,840.52,835.47,831.12,828.05,826.43,825.80,825.59,826.84,829.25,831.14,831.88,831.88,831.00,829.17,828.29,829.88,832.12,833.92,834.62,835.35,835.88,836.00,835.36,834.34,834.58,835.58,836.53,836.17,834.75,833.34,832.36,831.93,831.38,830.69,830.00,829.51,829.15,829.54,830.22,830.87,831.29,831.10,830.81,830.54,830.21,829.76,828.85,827.67,826.43,825.23,824.10,823.04,822.09,821.28,820.02,817.43,815.22,815.82,818.71,820.08,820.68,821.13,821.45,821.54,821.56,821.44,820.97,820.45,819.61,818.86,818.82,820.23,821.32,822.21,823.06,823.82,824.47,824.60,824.20,823.39,822.56,821.83,821.19,820.58,819.94,819.16,818.26,817.69,818.32,819.00,819.54,819.95,820.29,820.62,820.66,820.59,820.53,820.45,820.33,820.23,820.05,819.58,818.47,817.25,816.01,814.57,812.52,810.66,809.41,808.63,807.92,807.35,806.82,806.25,805.66,805.15,804.98,804.93,804.90,804.90,804.90,804.90,804.90,804.92,805.10,805.41,806.81,809.48,811.43,812.44,812.75,812.65,812.57,813.05,814.14,815.08,815.27,815.46,815.43,815.33,815.21,814.97,814.45,813.58,812.59,811.72,810.77,810.27,810.06,810.03,810.10,810.14,810.16,810.15,810.09,810.03,809.43,808.40,807.11,805.86,804.87,803.95,803.06,802.20,801.36,800.60,800.05,799.91,799.83,799.75,799.67,799.59,799.53,799.51,799.59,799.72,799.81,799.92,800.44,801.19,801.87,802.38,802.81,803.23,803.71,804.17,804.54
835.31,832.88,831.28,831.48,834.53,836.58,835.98,832.52,829.17,828.87,832.20,837.55,841.81,845.98,849.07,850.96,851.62,851.83,851.91,851.95,851.99,852.04,851.30,851.18,851.36,851.14,852.33,852.65,852.56,852.55,852.52,851.59,850.30,848.35,844.70,841.38,837.60,833.56,830.25,830.27,832.41,835.38,838.70,842.17,845.70,848.73,850.64,850.53,849.67,848.57,847.53,846.81,846.92,846.83,846.49,846.08,846.02,846.97,848.29,849.54,850.38,850.57,850.56,850.41,849.97,848.96,847.04,844.83,842.51,839.58,833.41,829.26,826.66,824.70,822.82,821.72,822.16,823.94,825.87,826.69,826.75,826.12,824.95,824.88,826.87,829.35,831.40,832.40,833.16,833.66,833.81,833.44,832.75,833.07,834.06,835.32,836.42,835.98,834.98,834.01,833.48,832.80,832.01,831.21,830.54,829.97,830.17,830.76,831.30,831.06,830.57,830.13,829.77,829.38,828.88,828.01,826.85,825.50,824.16,822.88,821.72,820.61,819.24,816.92,814.11,812.51,814.13,817.52,819.54,820.57,821.09,821.56,821.76,821.65,821.31,820.79,820.30,819.28,818.68,819.36,820.67,821.74,822.69,823.57,824.31,824.73,824.82,824.59,823.96,823.19,822.55,821.98,821.41,820.73,819.96,818.90,817.75,817.16,817.70,818.26,818.84,819.57,820.13,820.29,820.30,820.29,820.27,820.18,820.10,819.88,819.25,818.20,817.09,815.96,814.69,812.87,810.98,809.65,808.90,808.36,807.77,807.21,806.66,806.13,805.69,805.32,805.04,804.90,804.90,804.90,804.90,804.90,805.04,805.99,807.66,809.59,811.48,813.05,813.95,814.24,814.15,814.11,814.48,814.93,815.31,815.50,815.57,815.43,815.23,814.97,814.44,813.66,812.75,811.82,810.98,810.20,809.72,809.38,809.15,809.19,809.08,809.01,809.02,809.06,809.10,808.67,807.81,806.65,805.67,804.79,803.92,803.06,802.20,801.36,800.56,799.99,799.90,799.82,799.75,799.67,799.60,799.58,799.58,799.63,799.73,799.88,800.12,800.70,801.49,802.27,802.88,803.36,803.83,804.36,804.88,805.38
833.06,830.40,828.35,828.07,829.99,831.11,830.11,826.95,824.63,827.09,832.62,838.98,843.22,847.14,849.69,851.06,851.46,851.50,851.63,851.81,851.96,851.88,851.30,851.48,851.78,851.20,852.16,852.39,852.29,852.34,852.57,852.05,851.46,850.31,846.98,843.44,839.38,834.60,829.64,827.92,829.17,831.61,834.48,837.62,841.15,844.72,847.59,848.59,847.99,846.74,845.40,844.36,844.06,843.72,843.33,842.90,842.55,843.44,845.22,847.07,848.26,848.76,848.87,848.87,848.71,847.93,846.04,843.81,841.42,838.37,833.04,829.83,827.95,826.17,823.31,820.76,819.58,819.70,820.20,820.64,820.38,819.81,819.66,820.81,822.90,824.87,826.44,828.22,829.88,830.97,831.49,831.56,831.27,831.53,832.48,834.10,835.85,835.96,835.31,834.52,834.03,833.50,832.99,832.40,831.65,830.99,831.05,831.37,831.49,830.82,829.89,829.12,828.57,828.17,827.77,827.09,826.06,824.66,823.28,821.92,820.25,818.22,816.03,813.50,811.32,810.71,813.05,816.73,819.23,820.61,821.20,821.72,821.88,821.68,821.26,820.76,820.26,819.19,818.72,819.77,820.97,822.04,823.08,824.08,824.93,825.30,825.33,825.09,824.59,823.93,823.35,822.80,822.20,821.47,820.69,819.63,818.33,817.06,816.65,816.82,817.39,818.30,819.11,819.54,819.76,819.85,819.81,819.66,819.45,819.07,818.35,817.40,816.44,815.52,814.49,812.88,811.22,809.99,809.23,808.70,807.91,807.26,806.73,806.24,805.84,805.35,805.01,804.90,804.91,804.99,805.12,805.33,805.83,807.54,809.86,811.93,813.35,814.31,814.85,815.03,814.98,814.98,815.21,815.41,815.56,815.65,815.55,815.34,815.01,814.50,813.68,813.04,812.40,811.61,810.58,809.80,809.20,808.65,808.20,808.13,807.87,807.66,807.62,807.76,807.88,807.75,807.24,806.30,805.43,804.59,803.74,802.89,802.03,801.22,800.46,799.94,799.89,799.82,799.75,799.67,799.61,799.64,799.64,799.68,799.77,799.92,800.34,801.04,801.91,802.79,803.50,803.94,804.49,805.26,806.05,806.67
830.34,827.62,825.13,824.11,824.66,824.90,824.08,822.33,821.82,826.63,833.55,840.23,844.41,848.09,850.12,850.93,851.00,851.02,851.13,851.41,851.75,851.67,851.46,851.82,852.07,851.27,851.76,851.74,851.65,851.92,852.28,852.18,851.99,851.16,848.21,844.56,840.70,835.82,829.74,826.55,827.09,828.97,831.29,834.19,837.28,840.88,844.54,847.03,846.69,845.18,843.51,842.13,841.17,840.49,840.03,839.59,839.00,839.73,841.77,844.04,845.53,846.37,846.58,846.74,846.93,846.63,845.04,842.88,840.38,837.36,833.82,831.77,830.54,829.07,825.75,821.89,819.04,817.32,816.05,815.67,814.52,813.49,814.06,816.20,818.17,819.49,820.55,823.08,825.72,827.51,828.53,829.15,829.35,829.87,831.05,832.99,834.95,835.21,834.75,834.15,833.77,833.50,833.38,833.12,832.45,831.83,831.83,831.84,831.46,830.58,829.26,828.07,827.22,826.78,826.50,826.08,825.25,823.91,822.53,821.07,818.67,815.40,812.41,810.15,809.15,809.77,812.56,816.33,819.10,820.73,821.42,821.95,821.94,821.64,821.20,820.72,820.22,819.23,818.92,820.11,821.22,822.31,823.44,824.58,825.62,826.07,826.01,825.68,825.23,824.70,824.17,823.61,822.96,822.18,821.35,820.37,819.18,817.63,816.07,815.58,815.90,816.76,817.75,818.44,818.90,819.12,819.06,818.81,818.44,817.90,817.14,816.31,815.51,814.80,814.04,812.75,811.45,810.39,809.57,808.86,807.76,807.00,806.48,806.06,805.69,805.19,804.91,804.93,805.11,805.48,805.93,806.45,807.31,809.52,811.90,813.80,814.88,815.23,815.38,815.43,815.43,815.44,815.57,815.72,815.81,815.74,815.46,815.19,814.76,814.08,813.18,812.88,812.63,812.01,810.71,809.77,808.95,808.15,807.45,807.10,806.64,806.29,806.19,806.39,806.56,806.74,806.63,805.93,805.11,804.28,803.43,802.59,801.75,800.96,800.31,799.90,799.89,799.82,799.75,799.67,799.63,799.69,799.71,799.74,799.83,799.99,800.61,801.46,802.41,803.37,804.18,804.63,805.33,806.46,807.53,808.20
825.78,823.54,821.26,819.54,818.86,818.55,818.52,819.48,823.39,829.38,835.68,841.25,845.02,848.30,849.92,850.39,850.34,850.43,850.73,851.16,851.54,851.46,851.68,851.86,851.80,851.43,851.47,851.20,850.97,851.02,851.13,850.90,850.14,848.76,846.58,843.93,840.87,836.21,829.52,825.58,826.35,828.72,831.31,834.04,837.06,840.57,844.28,847.19,846.45,844.56,842.48,840.43,838.46,837.17,836.27,835.51,834.83,835.85,838.13,840.68,842.60,843.60,843.94,844.22,844.58,844.65,844.22,842.55,840.11,837.81,835.59,834.04,832.63,830.89,828.61,825.19,822.22,820.24,819.06,817.11,813.55,810.27,809.58,810.92,812.47,814.19,816.21,818.35,820.24,821.78,823.10,824.34,825.33,827.69,830.31,832.39,834.51,834.22,833.35,832.71,832.38,832.14,832.05,831.98,831.76,831.56,831.56,831.49,831.13,830.36,829.03,827.52,826.17,825.41,825.09,824.84,824.29,823.24,821.91,820.11,816.92,812.75,809.51,807.70,808.26,810.36,813.16,816.58,819.24,820.92,821.75,822.35,822.01,821.42,820.83,820.33,819.94,819.30,819.26,820.39,821.58,822.73,823.90,825.13,826.31,826.87,826.85,826.44,825.85,825.35,824.91,824.37,823.66,822.84,821.95,821.04,820.03,818.68,816.87,815.54,814.98,815.33,816.09,816.79,817.31,817.59,817.56,817.40,817.08,816.59,815.92,815.19,814.43,813.78,813.30,812.66,811.80,810.83,809.74,808.47,807.06,806.17,805.69,805.40,805.17,804.99,804.90,805.12,806.12,807.48,808.70,809.56,810.15,811.78,813.55,814.80,815.30,815.54,815.70,815.76,815.76,815.77,815.85,815.99,815.99,815.71,815.40,814.98,814.62,814.39,814.24,814.27,814.21,813.71,812.36,810.89,809.71,808.68,807.65,806.53,805.66,805.22,805.15,805.29,805.53,805.74,805.71,805.24,804.53,803.75,802.96,802.15,801.31,800.52,800.07,799.90,799.89,799.82,799.75,799.69,799.69,799.75,799.77,799.81,799.93,800.23,801.04,802.00,802.97,803.91,804.85,805.68,806.83,808.29,809.27,809.74
820.61,818.63,816.63,814.76,813.79,814.99,817.60,821.64,828.05,833.82,838.66,842.56,845.21,847.30,848.27,848.54,848.65,849.48,850.28,850.96,851.40,851.43,851.64,851.61,851.49,851.58,851.24,850.65,849.98,849.37,849.09,848.01,846.63,845.06,843.06,840.37,837.26,832.83,826.87,824.17,826.48,829.93,832.97,835.95,838.92,842.19,845.57,848.13,847.11,845.14,842.96,840.65,838.21,835.89,833.85,832.20,831.31,831.97,833.61,835.66,837.75,839.62,840.75,841.61,842.32,842.61,842.59,841.63,839.98,838.16,836.27,834.57,832.78,830.78,829.07,826.56,824.31,822.74,821.71,819.46,815.35,810.88,807.97,807.13,808.23,810.20,812.35,813.81,815.09,816.97,819.19,821.19,823.92,827.53,830.71,832.54,833.72,832.91,831.80,831.10,830.78,830.51,830.43,830.50,830.63,830.75,830.80,830.75,830.54,830.06,828.72,827.03,825.34,824.09,823.68,823.51,823.23,822.55,821.23,818.62,814.72,810.21,807.01,806.87,808.80,811.55,814.32,817.39,819.67,821.23,822.16,822.71,822.03,821.13,820.38,819.92,819.69,819.58,820.06,821.34,822.26,823.26,824.43,825.75,827.07,827.72,827.65,827.14,826.45,825.95,825.53,825.00,824.30,823.46,822.57,821.68,820.77,819.69,818.13,816.41,815.03,814.47,814.56,815.11,815.64,815.95,815.97,815.77,815.44,815.00,814.45,813.89,813.29,812.76,812.35,812.05,811.53,810.77,809.68,808.05,806.40,805.52,805.16,805.05,805.08,805.50,805.86,806.32,807.78,809.29,810.66,811.76,812.50,813.63,814.67,815.35,815.58,815.80,815.98,816.05,816.05,816.06,816.12,816.15,816.04,815.69,815.40,815.01,814.76,814.75,814.89,815.02,815.03,814.71,813.72,812.18,810.84,809.65,808.38,806.72,805.36,804.65,804.49,804.52,804.72,804.86,804.84,804.53,803.98,803.30,802.56,801.77,800.93,800.24,799.94,799.89,799.86,799.81,799.75,799.71,799.75,799.79,799.82,799.86,800.02,800.57,801.52,802.52,803.48,804.46,805.56,806.76,808.17,809.63,810.52,810.93
815.13,813.16,811.50,810.22,809.99,813.96,820.08,826.98,833.85,838.41,841.48,843.57,844.76,845.25,845.49,845.66,846.13,848.08,849.71,850.77,851.30,851.49,851.37,851.15,851.17,851.61,850.94,849.92,848.58,847.11,846.37,843.93,841.73,840.04,837.78,834.34,830.67,826.64,822.72,822.59,827.05,831.78,835.29,838.73,841.73,844.79,847.70,849.43,848.39,846.57,844.49,842.20,839.67,836.39,833.08,830.33,828.88,828.53,828.88,829.88,831.83,834.70,836.75,838.32,839.53,840.13,840.09,839.98,839.55,838.05,835.89,833.70,831.46,829.24,827.57,826.00,824.80,823.95,823.00,821.48,818.26,813.55,808.11,804.62,805.31,807.27,809.00,809.98,811.41,814.17,817.50,820.25,824.96,828.97,831.76,833.03,832.58,831.33,830.16,829.37,829.03,828.71,828.64,828.82,829.18,829.51,829.65,829.70,829.70,829.58,828.27,826.51,824.62,822.86,822.26,822.10,822.05,821.74,820.23,816.59,812.12,807.77,805.02,807.21,810.22,813.00,815.75,818.53,820.31,821.59,822.58,823.03,822.16,821.01,820.10,819.72,819.75,820.32,821.49,823.00,823.38,824.00,825.05,826.44,827.91,828.60,828.42,827.77,827.04,826.53,826.06,825.52,824.85,824.02,823.18,822.30,821.41,820.58,819.56,817.84,815.90,814.27,813.44,813.60,813.96,814.19,814.20,813.90,813.55,813.17,812.75,812.42,812.10,811.70,811.26,811.01,810.74,810.27,809.37,807.65,805.86,805.09,804.93,805.02,805.60,806.75,807.64,808.33,809.79,810.75,811.82,813.04,814.18,814.96,815.36,815.61,815.84,816.07,816.23,816.29,816.29,816.30,816.35,816.25,816.01,815.71,815.47,815.21,815.08,815.08,815.10,815.16,815.14,815.01,814.61,813.37,812.06,810.79,809.40,807.50,805.62,804.50,804.13,804.03,804.06,804.09,804.04,803.84,803.45,802.89,802.22,801.44,800.62,800.10,799.90,799.88,799.82,799.80,799.75,799.74,799.79,799.80,799.86,799.91,800.14,800.98,802.01,803.00,803.97,805.02,806.28,807.77,809.22,810.46,811.32,811.83
809.72,807.64,806.60,807.65,809.92,815.01,821.81,829.10,834.58,837.93,840.10,841.53,842.21,842.33,842.40,842.59,843.31,845.75,848.63,850.49,851.06,851.27,851.00,850.67,850.66,851.07,850.09,848.31,846.32,844.52,843.15,839.46,835.39,832.00,829.80,826.60,823.25,820.85,820.51,822.05,826.94,831.79,835.42,838.97,842.39,845.87,848.83,850.05,849.58,847.96,845.70,843.01,840.26,838.01,835.60,832.72,829.38,827.32,826.54,826.85,828.15,829.44,830.54,831.70,833.20,835.25,836.34,837.04,837.29,836.53,834.82,832.69,830.21,827.54,825.54,823.99,822.79,821.93,821.32,820.38,817.46,812.48,806.12,802.47,802.99,804.87,806.97,809.57,814.04,817.78,820.62,823.60,827.56,830.34,831.96,832.37,831.27,829.68,828.32,827.43,826.95,826.50,826.43,826.71,827.22,827.82,828.04,828.17,828.37,828.45,827.44,825.77,823.79,821.86,820.78,820.60,820.73,820.31,817.77,813.63,809.17,805.51,804.51,807.52,810.88,813.88,816.78,819.36,820.78,821.78,822.68,823.31,823.11,822.15,820.95,820.49,821.23,822.69,824.36,825.69,825.58,825.42,825.95,827.26,828.88,829.41,829.12,828.40,827.62,827.07,826.48,825.87,825.22,824.48,823.69,822.88,822.05,821.22,820.38,819.03,817.30,815.44,813.88,812.89,812.30,811.96,811.76,811.41,811.18,811.04,810.88,810.72,810.61,810.42,810.15,809.91,809.64,809.25,808.55,807.12,805.55,804.95,804.90,805.31,807.59,809.08,809.93,810.49,811.20,811.79,812.73,813.87,814.81,815.36,815.68,815.93,816.16,816.38,816.47,816.50,816.50,816.50,816.47,816.35,816.12,815.83,815.59,815.35,815.23,815.23,815.23,815.21,815.15,815.01,814.61,813.62,812.51,811.40,810.18,808.44,806.09,804.60,804.06,803.65,803.43,803.34,803.27,803.12,802.76,802.32,801.78,801.11,800.32,799.99,799.90,799.88,799.81,799.80,799.78,799.78,799.80,799.85,799.89,800.03,800.47,801.46,802.49,803.49,804.51,805.65,806.94,808.37,809.70,810.82,811.81,812.56
805.24,803.35,803.25,806.04,809.69,814.93,821.17,827.48,831.48,833.81,835.32,836.31,836.68,836.68,836.74,837.17,838.61,842.16,846.06,848.82,850.09,850.52,850.17,849.53,849.07,849.03,847.91,845.86,843.44,841.00,838.76,834.73,829.76,825.10,822.57,820.14,819.12,819.97,822.64,824.07,827.40,831.11,834.51,838.00,841.61,845.77,849.37,850.43,850.36,849.20,847.16,844.48,841.98,840.61,838.81,835.60,830.31,827.15,825.54,824.87,824.83,824.82,825.17,826.03,827.68,830.49,832.50,833.84,834.57,834.45,833.26,831.30,828.75,825.83,823.43,821.40,819.69,818.47,818.04,817.37,814.55,809.55,803.44,801.31,802.63,805.03,807.80,811.57,817.03,820.72,823.04,826.09,829.16,831.01,831.84,831.74,830.51,828.72,826.97,825.58,824.80,824.18,824.13,824.52,825.17,826.01,826.26,826.39,826.64,826.81,826.43,824.99,822.86,820.77,819.16,818.69,818.38,817.19,814.34,809.69,805.47,803.05,803.87,807.74,811.35,814.36,817.27,819.74,821.00,821.84,822.68,823.46,823.87,823.51,822.61,821.93,822.76,824.69,826.81,828.21,828.00,827.26,827.08,827.88,829.52,829.88,829.47,828.75,827.97,827.34,826.70,826.07,825.45,824.74,823.98,823.21,822.42,821.60,820.82,819.86,818.53,816.70,814.83,813.23,811.93,810.96,810.34,809.99,809.84,809.79,809.74,809.69,809.68,809.66,809.60,809.44,809.21,808.61,807.67,806.55,805.33,804.90,805.18,806.33,809.29,810.79,811.63,812.25,812.60,812.95,813.63,814.50,815.19,815.61,815.96,816.24,816.46,816.67,816.72,816.71,816.69,816.68,816.57,816.43,816.23,815.95,815.69,815.49,815.38,815.36,815.33,815.22,815.13,814.92,814.37,813.53,812.62,811.68,810.62,809.11,806.57,804.83,804.10,803.52,803.13,802.88,802.68,802.45,802.08,801.70,801.26,800.73,800.09,799.92,799.90,799.88,799.84,799.83,799.83,799.83,799.84,799.89,799.90,800.19,800.87,801.94,802.98,803.99,805.06,806.28,807.59,808.94,810.17,811.25,812.32,813.22
802.01,800.57,801.49,804.97,808.45,812.98,817.79,822.07,824.90,826.50,827.50,828.12,828.27,828.19,828.32,829.19,831.69,836.84,841.52,845.34,848.01,848.90,848.59,847.49,846.23,845.37,844.19,842.28,839.55,836.11,833.01,829.73,825.19,820.12,816.86,815.91,819.04,824.30,828.93,828.90,829.17,830.69,833.42,836.47,839.76,844.70,849.42,850.67,850.73,850.20,848.89,846.78,845.05,843.90,842.00,838.20,831.45,827.94,825.86,823.97,821.93,821.23,821.28,822.06,823.74,826.29,828.75,830.53,831.61,831.92,831.18,829.38,826.88,823.98,821.22,818.30,815.68,813.85,813.42,812.73,809.92,805.30,800.56,801.21,804.23,807.74,811.29,815.30,819.16,821.77,823.86,826.82,829.37,830.86,831.50,831.36,830.39,828.58,826.27,823.99,822.67,821.83,821.79,822.30,823.10,824.16,824.37,824.39,824.54,824.77,825.26,824.21,821.91,819.63,817.50,816.38,815.01,812.53,810.16,805.05,801.31,800.62,803.00,807.95,811.76,814.53,817.26,819.68,820.93,821.79,822.63,823.48,824.25,824.77,824.75,823.91,824.12,826.04,828.48,830.22,830.34,829.33,828.38,828.31,829.83,829.96,829.45,828.74,828.03,827.28,826.66,826.11,825.52,824.78,824.03,823.26,822.48,821.71,820.94,820.32,819.39,817.80,816.06,814.53,813.01,811.49,810.28,809.93,809.79,809.64,809.51,809.50,809.51,809.59,809.74,809.70,809.51,808.37,806.75,805.97,805.17,804.96,805.83,808.06,810.35,811.62,812.58,813.46,814.03,814.24,814.57,815.04,815.52,815.92,816.28,816.56,816.72,816.93,816.98,816.93,816.87,816.84,816.66,816.49,816.31,816.06,815.78,815.63,815.54,815.46,815.38,815.19,815.04,814.76,814.02,813.24,812.45,811.62,810.68,809.37,806.98,805.13,804.17,803.63,803.17,802.73,802.31,801.90,801.50,801.12,800.73,800.33,799.98,799.91,799.90,799.90,799.89,799.89,799.89,799.89,799.90,799.90,799.93,800.40,801.32,802.40,803.47,804.51,805.63,806.92,808.23,809.56,810.79,811.89,812.95,813.83
