488.75,488.80,488.81,488.78,488.73,488.72,488.72,488.72,488.72,488.68,488.66,488.66,488.65,488.63,488.64,488.66,488.66,488.66,488.69,488.70,488.70,488.70,488.74,488.76,488.76,488.76,488.79,488.80,488.80,488.81,488.85,488.89,488.94,489.01,489.06,489.09,489.15,489.22,489.27,489.34,489.38,489.44,489.50,489.55,489.59,489.60,489.62,489.69,489.75,489.81,489.87,489.97,490.39,491.43,492.61,493.75,494.79,495.37,495.71,496.01,496.37,496.56,496.60,496.61,496.62,496.63,496.98,497.51,498.12,498.69,499.24,499.99,500.94,502.03,503.01,503.95,504.88,505.80,506.67,507.04,507.28,507.51,507.76,508.06,508.71,509.58,510.63,511.80,512.97,514.17,515.44,516.90,518.68,520.21,521.54,522.77,523.97,525.06,526.05,526.97,527.94,529.40,531.43,534.01,537.26,541.05,547.41,554.53,560.39,562.11,563.71,565.51,567.42,569.32,571.25,573.14,575.36,578.12,580.77,582.49,582.95,582.18,580.62,578.73,576.75,574.94,573.53,572.03,569.73,567.86,567.84,571.48,575.48,580.16,585.59,591.57,597.02,601.63,605.83,609.89,613.66,617.32,622.56,628.73,632.46,634.94,637.49,640.83,645.40,649.86,652.95,655.39,657.85,661.14,664.63,669.65,676.20,683.34,687.97,690.24,691.01,690.61,689.07,684.94,680.33,676.36,673.67,672.18,671.15,670.49,670.34,670.23,670.17,670.16,670.18,670.16,670.94,672.38,674.22,676.28,679.41,683.42,687.76,692.05,696.22,701.41,708.35,716.87,725.62,735.61,742.97,747.74,750.80,752.40,753.97,755.65,757.36,759.11,760.42,761.52,762.54,763.56,763.88,764.87,766.89,770.66,777.74,784.03,789.82,795.28,799.78,802.00,803.66,805.22,806.19,804.90,803.23,801.47,799.57,797.55,795.33,794.80,796.01,797.79,799.68,802.06,803.60,802.64,799.41,793.97,789.12,785.67,782.28,779.41,777.42,776.34,776.31,777.06,777.25,775.59,771.44,766.41,762.15,759.15,757.39,756.49,755.25,753.50,751.57,749.25,744.40,741.76,740.60,740.21,739.92,739.80
488.55,488.63,488.66,488.60,488.59,488.59,488.59,488.59,488.59,488.59,488.58,488.58,488.58,488.52,488.55,488.59,488.59,488.59,488.64,488.68,488.69,488.69,488.69,488.70,488.70,488.72,488.77,488.79,488.79,488.79,488.81,488.86,488.94,488.99,489.01,489.07,489.14,489.19,489.22,489.28,489.36,489.43,489.49,489.51,489.56,489.59,489.62,489.68,489.70,489.76,489.84,489.90,489.98,490.89,492.05,493.21,494.35,495.05,495.48,495.81,496.14,496.24,496.25,496.21,496.18,496.27,496.61,497.13,497.74,498.34,498.90,499.51,500.26,501.18,502.10,503.02,503.94,504.86,505.72,506.12,506.38,506.61,506.85,507.17,507.89,508.77,509.70,510.76,511.81,512.92,514.24,515.96,517.66,519.29,520.74,521.90,522.84,523.67,524.56,525.57,526.75,528.49,530.99,534.06,537.64,541.91,548.14,554.89,560.52,562.57,564.50,566.49,568.44,570.30,572.45,574.48,576.52,578.63,580.40,581.15,580.96,579.94,578.26,576.41,574.44,572.53,570.89,569.50,567.27,566.37,568.16,572.15,576.09,580.36,585.35,591.56,598.36,603.27,607.13,610.90,614.76,618.53,623.85,629.79,632.36,633.81,635.78,638.68,642.64,647.34,650.54,652.92,655.23,658.41,661.82,666.65,672.95,679.80,683.55,685.25,685.56,684.46,681.93,678.05,673.61,669.51,667.39,666.27,665.55,665.09,664.98,665.01,665.02,665.00,665.02,665.27,666.81,669.23,672.41,676.56,681.12,685.94,690.76,695.42,700.12,707.44,716.07,725.00,733.46,744.52,751.70,755.16,757.06,759.00,761.91,765.25,768.14,769.00,769.56,770.18,770.73,770.86,770.53,769.64,769.34,771.37,777.18,783.33,789.51,795.44,799.96,802.13,803.79,805.17,805.57,804.35,802.83,801.13,799.16,796.93,794.42,793.90,795.29,796.90,798.49,800.50,802.31,802.69,800.27,795.46,790.63,786.70,783.44,780.05,776.58,773.49,771.59,770.62,769.69,767.85,764.56,760.52,758.31,756.77,755.49,754.71,754.36,754.29,753.63,751.33,747.47,742.57,738.10,735.03,734.11,733.42
488.36,488.44,488.49,488.46,488.46,488.46,488.46,488.46,488.46,488.46,488.46,488.46,488.46,488.44,488.48,488.53,488.53,488.53,488.54,488.58,488.63,488.63,488.63,488.66,488.70,488.70,488.72,488.73,488.73,488.74,488.79,488.86,488.91,488.95,489.00,489.07,489.11,489.15,489.21,489.28,489.36,489.41,489.44,489.49,489.52,489.56,489.61,489.63,489.69,489.75,489.83,489.89,489.94,490.76,491.90,493.05,494.00,494.76,495.25,495.59,495.82,495.82,495.77,495.73,495.74,495.88,496.22,496.74,497.34,497.90,498.50,499.11,499.79,500.57,501.44,502.31,503.18,504.04,504.82,505.21,505.47,505.70,505.96,506.36,507.14,507.98,508.76,509.63,510.49,511.70,513.21,514.87,516.48,518.09,519.52,520.57,521.32,522.03,523.05,524.48,526.31,528.38,531.01,534.12,537.81,542.57,549.35,555.84,560.46,562.44,564.37,566.36,568.25,569.81,571.26,572.90,574.85,577.02,578.59,579.07,578.70,577.62,575.91,573.99,571.97,569.86,567.70,565.88,564.62,565.60,569.24,573.03,576.64,580.61,585.12,590.58,598.18,603.86,608.08,611.90,616.21,619.97,624.58,629.32,630.88,631.55,632.65,634.56,637.47,640.91,644.56,648.35,652.11,655.31,658.83,663.70,669.65,675.45,678.80,680.11,679.96,678.33,674.98,671.23,667.42,664.11,662.42,661.34,660.75,660.49,660.46,660.48,660.48,660.38,660.31,660.92,663.71,668.05,673.16,678.23,683.62,689.15,694.47,699.65,706.17,714.16,722.84,731.71,740.25,748.45,754.75,759.26,762.45,765.58,769.46,773.72,777.44,778.49,778.72,778.75,778.33,776.59,774.85,774.76,775.72,777.14,779.29,784.27,790.18,795.82,800.08,802.21,803.81,804.96,804.88,803.64,802.18,800.24,797.62,794.91,792.94,792.89,794.38,795.89,797.43,799.09,800.92,802.33,800.81,796.84,792.22,787.98,784.95,782.10,778.73,774.73,770.46,768.12,765.16,762.43,760.70,759.26,758.61,758.15,757.65,757.06,756.83,756.73,756.12,754.23,751.15,746.95,742.21,737.36,732.94,728.94
488.20,488.28,488.33,488.33,488.33,488.33,488.33,488.33,488.33,488.35,488.37,488.37,488.37,488.37,488.42,488.47,488.47,488.47,488.47,488.50,488.56,488.56,488.56,488.61,488.66,488.66,488.66,488.66,488.68,488.71,488.75,488.83,488.88,488.92,489.00,489.05,489.08,489.13,489.20,489.25,489.32,489.38,489.41,489.46,489.49,489.53,489.57,489.61,489.68,489.75,489.83,489.91,489.99,490.71,491.60,492.46,493.23,494.05,494.75,495.25,495.45,495.38,495.28,495.26,495.35,495.49,495.83,496.35,496.95,497.52,498.13,498.75,499.39,500.09,500.87,501.71,502.55,503.35,504.03,504.38,504.61,504.83,505.09,505.54,506.30,507.11,507.84,508.61,509.38,510.49,511.90,513.47,515.01,516.52,517.85,518.86,519.57,520.58,522.11,524.15,526.49,528.82,531.47,534.47,538.12,543.64,550.37,556.35,560.43,562.32,564.18,565.90,567.40,568.57,569.59,570.78,572.26,573.97,575.35,575.94,575.81,575.01,573.65,571.76,569.55,567.14,564.65,562.60,562.81,565.46,569.95,573.51,576.88,580.64,584.88,589.90,597.60,603.93,608.96,613.35,617.91,621.46,624.79,627.56,628.05,628.23,628.99,630.60,633.22,636.19,639.85,644.04,648.39,651.92,655.79,660.55,665.99,671.20,674.28,675.31,674.62,672.05,667.90,664.07,660.60,657.84,656.78,656.24,656.22,656.44,656.58,656.60,656.44,656.15,656.13,657.68,662.10,668.06,674.61,680.91,687.00,692.87,698.43,704.09,712.09,719.97,728.43,737.22,744.37,750.55,757.10,763.26,767.53,771.36,775.94,780.68,784.49,785.38,785.49,785.38,784.69,782.26,779.07,779.31,781.43,783.12,782.94,786.01,790.73,795.80,799.87,801.98,803.66,804.72,804.10,802.80,801.21,798.83,795.50,792.59,791.45,791.91,793.36,794.86,796.37,797.87,799.58,801.29,801.07,798.66,795.15,791.31,788.21,785.61,782.40,778.32,773.54,770.26,766.80,764.40,763.94,764.00,763.96,763.81,763.48,762.80,762.27,761.51,760.27,758.26,755.63,751.94,747.41,741.99,735.56,729.58
488.07,488.14,488.19,488.20,488.20,488.20,488.20,488.20,488.21,488.27,488.30,488.30,488.30,488.30,488.35,488.40,488.40,488.40,488.40,488.44,488.50,488.50,488.50,488.55,488.60,488.60,488.60,488.61,488.63,488.69,488.71,488.77,488.85,488.92,488.98,489.00,489.05,489.13,489.19,489.21,489.27,489.34,489.39,489.41,489.47,489.50,489.53,489.60,489.68,489.75,489.83,489.91,490.06,490.61,491.09,491.46,492.08,492.95,493.94,494.73,494.97,494.85,494.71,494.74,494.93,495.06,495.43,495.96,496.58,497.20,497.81,498.44,499.05,499.68,500.38,501.19,502.00,502.73,503.31,503.61,503.80,503.98,504.24,504.69,505.40,506.17,506.94,507.71,508.49,509.34,510.39,511.82,513.32,514.65,515.84,516.88,517.77,519.37,521.65,524.39,527.09,529.63,532.27,535.06,538.58,544.95,551.08,556.38,560.38,562.19,563.88,565.14,566.01,566.80,567.69,568.51,569.28,570.11,571.22,572.12,572.47,572.22,571.44,569.67,567.25,564.54,561.90,560.08,561.96,565.82,570.26,573.60,576.85,580.50,584.64,589.63,596.90,603.80,609.85,615.01,619.53,622.61,624.32,624.72,624.07,624.05,625.06,627.06,630.10,633.40,636.71,640.34,644.39,648.42,652.75,657.30,662.14,667.15,670.01,670.79,669.45,665.70,660.88,656.84,653.46,651.04,650.63,650.90,651.64,652.41,652.77,652.93,652.62,652.19,652.49,655.43,661.82,669.08,676.53,684.40,691.10,696.93,702.40,708.42,717.40,724.71,732.84,741.40,746.20,751.82,759.56,767.35,772.23,776.31,781.32,786.07,789.22,789.61,789.75,789.85,789.49,787.48,783.23,783.20,785.94,788.47,787.61,788.48,791.31,795.49,799.37,801.52,803.38,804.44,803.31,801.87,799.92,796.94,793.02,790.28,790.06,790.95,792.26,793.80,795.28,796.79,798.28,799.68,800.87,800.47,798.75,795.91,792.52,789.74,786.57,783.03,779.58,776.00,773.45,772.36,772.75,773.08,772.89,772.42,771.75,770.81,769.72,768.01,765.76,763.16,760.53,756.76,752.38,747.26,740.47,733.96
487.94,487.99,488.02,488.06,488.07,488.07,488.07,488.08,488.13,488.20,488.24,488.24,488.24,488.24,488.28,488.33,488.33,488.33,488.33,488.38,488.43,488.44,488.44,488.48,488.53,488.53,488.53,488.57,488.61,488.64,488.69,488.76,488.84,488.91,488.94,488.98,489.05,489.11,489.14,489.19,489.26,489.31,489.35,489.40,489.47,489.50,489.52,489.60,489.68,489.75,489.81,489.85,489.96,490.17,490.34,490.46,490.80,491.71,492.80,493.68,493.99,493.75,493.67,493.75,493.97,494.31,494.97,495.63,496.25,496.88,497.49,498.10,498.71,499.28,499.88,500.63,501.40,502.06,502.51,502.78,502.96,503.11,503.31,503.82,504.55,505.31,506.09,506.86,507.63,508.45,509.33,510.33,511.54,512.72,513.81,514.94,516.48,518.54,521.10,524.08,527.25,530.22,532.93,535.62,539.02,545.35,551.06,556.08,560.05,561.63,562.70,563.47,564.11,564.86,565.63,566.35,567.02,567.68,568.51,569.24,569.63,569.63,569.11,567.49,565.31,562.69,560.04,559.66,562.28,566.21,570.36,573.57,576.75,580.37,584.54,589.66,596.79,604.47,611.06,615.56,619.53,621.43,621.90,621.17,619.49,619.59,621.30,624.03,627.40,631.12,634.32,637.68,641.55,645.64,649.92,654.43,659.06,663.36,665.75,665.93,663.97,659.80,655.00,651.10,648.22,646.38,645.63,645.59,645.86,646.16,646.45,647.43,647.72,648.16,649.78,653.90,662.39,671.04,679.23,688.31,695.43,700.70,705.54,711.68,720.96,728.36,735.66,742.88,747.74,754.75,762.91,770.45,775.55,780.40,785.39,789.18,790.86,791.11,791.26,791.25,790.86,789.45,786.04,786.25,789.00,791.86,791.94,792.15,793.28,795.56,798.86,801.13,803.07,804.05,802.74,801.17,798.19,794.44,790.78,788.74,788.95,789.91,791.11,792.64,794.17,795.61,796.88,797.92,798.99,799.68,799.29,797.40,794.09,790.90,787.49,784.63,783.48,781.51,779.84,779.15,779.54,779.49,779.21,778.65,777.90,777.12,775.74,773.53,770.88,767.98,764.08,759.28,754.14,748.63,742.08,735.07
487.79,487.82,487.87,487.93,487.94,487.94,487.94,487.96,488.03,488.10,488.14,488.14,488.14,488.16,488.21,488.25,488.27,488.27,488.27,488.30,488.37,488.37,488.37,488.40,488.45,488.47,488.49,488.54,488.58,488.62,488.69,488.75,488.81,488.88,488.90,488.97,489.04,489.08,489.11,489.18,489.24,489.28,489.31,489.39,489.47,489.50,489.52,489.60,489.65,489.73,489.78,489.81,489.86,489.89,489.90,489.91,490.03,490.69,491.68,492.54,492.82,492.54,492.50,492.68,493.04,493.67,494.57,495.34,495.95,496.55,497.15,497.74,498.31,498.85,499.38,500.04,500.73,501.33,501.68,501.91,502.08,502.20,502.38,502.96,503.70,504.48,505.25,506.02,506.79,507.59,508.38,509.11,510.00,510.94,511.87,512.97,514.85,517.30,520.33,523.84,527.49,530.73,533.48,536.05,539.13,544.44,549.39,553.97,557.90,559.96,560.89,561.47,562.05,562.81,563.52,564.21,564.88,565.51,566.20,566.73,567.10,567.21,566.82,565.39,563.43,560.86,558.16,559.55,562.68,566.40,570.18,573.34,576.57,580.32,584.70,590.00,596.97,604.54,610.86,614.68,617.51,617.93,616.93,615.20,613.70,615.07,617.83,621.14,624.75,628.67,632.00,635.33,639.01,642.81,647.02,651.48,655.86,659.38,661.14,660.66,658.25,654.08,649.62,646.04,643.60,642.15,641.16,640.69,640.59,640.64,640.96,642.57,643.97,645.77,648.79,654.07,664.06,673.87,682.95,693.02,699.90,704.13,708.28,714.73,724.10,731.37,737.79,743.83,749.09,757.19,765.31,772.30,777.70,783.17,787.86,790.78,791.61,792.06,792.30,792.19,791.68,790.59,788.32,788.76,791.44,794.84,795.90,795.98,796.11,796.93,799.12,801.08,802.88,803.73,802.39,800.74,796.85,792.51,789.23,787.59,787.78,788.66,789.86,791.50,793.08,794.15,794.94,795.76,796.77,798.11,798.65,797.55,794.42,791.29,788.44,786.62,786.81,786.22,785.31,784.80,784.87,784.38,783.59,782.68,781.79,780.95,779.52,776.73,773.36,769.92,764.82,759.28,753.61,747.79,741.60,734.66
487.62,487.67,487.74,487.80,487.80,487.81,487.81,487.83,487.90,487.98,488.02,488.02,488.03,488.08,488.11,488.14,488.20,488.21,488.21,488.25,488.30,488.31,488.31,488.31,488.34,488.41,488.48,488.50,488.54,488.61,488.68,488.71,488.75,488.83,488.90,488.97,489.00,489.04,489.11,489.18,489.21,489.25,489.31,489.38,489.47,489.50,489.51,489.58,489.61,489.67,489.73,489.79,489.81,489.86,489.89,489.90,489.92,490.02,490.69,491.41,491.57,491.33,491.31,491.62,492.28,493.21,494.25,495.05,495.66,496.21,496.75,497.29,497.84,498.36,498.84,499.38,499.98,500.53,500.84,501.02,501.14,501.25,501.48,502.11,502.86,503.63,504.40,505.17,505.94,506.72,507.48,508.17,508.77,509.41,510.09,511.00,512.71,515.49,519.32,523.77,527.89,531.16,533.87,536.29,538.80,542.18,545.98,549.86,553.62,556.86,558.34,559.15,559.82,560.60,561.32,562.03,562.72,563.37,564.05,564.52,564.84,564.96,564.63,563.39,561.52,558.86,556.15,559.29,562.83,566.25,569.67,572.89,576.30,580.37,585.12,590.60,597.34,603.64,608.77,612.08,613.26,612.02,609.39,606.75,606.81,610.67,614.75,618.41,622.09,625.92,629.57,633.14,636.63,639.83,643.92,648.18,652.11,654.97,656.00,654.93,652.33,648.57,644.63,641.52,639.37,638.06,637.13,636.39,636.29,636.63,637.27,639.17,642.10,645.58,649.85,656.31,666.95,677.57,687.66,698.37,704.38,707.35,710.83,717.69,727.05,733.90,739.56,744.86,750.36,758.62,766.27,772.78,778.60,784.38,788.53,790.96,791.90,792.85,793.31,793.21,792.58,791.48,790.24,790.84,793.51,797.59,799.25,799.52,799.48,799.63,800.28,801.47,802.87,803.55,802.30,800.65,796.21,791.58,788.59,786.87,786.53,787.15,788.47,790.31,791.95,792.34,792.39,793.16,794.52,796.19,797.24,796.78,793.89,791.47,790.10,789.61,789.75,789.78,789.44,788.97,788.43,787.46,785.66,784.13,783.02,781.78,780.46,776.90,772.34,768.02,762.24,756.70,751.15,745.44,739.78,733.74
487.46,487.53,487.59,487.62,487.63,487.65,487.70,487.75,487.83,487.91,487.94,487.94,487.95,488.01,488.05,488.07,488.13,488.14,488.14,488.18,488.24,488.25,488.25,488.27,488.32,488.39,488.43,488.47,488.53,488.60,488.64,488.68,488.74,488.82,488.89,488.93,488.97,489.03,489.10,489.14,489.17,489.24,489.30,489.34,489.41,489.44,489.47,489.54,489.59,489.62,489.68,489.74,489.75,489.80,489.84,489.84,489.85,489.88,490.16,490.47,490.53,490.43,490.45,490.87,491.71,492.70,493.69,494.52,495.17,495.67,496.16,496.66,497.15,497.63,498.06,498.57,499.15,499.69,499.95,500.12,500.23,500.35,500.62,501.26,502.01,502.79,503.55,504.29,505.05,505.82,506.58,507.29,507.74,508.19,508.78,509.59,510.77,513.99,518.42,523.39,527.99,531.27,533.83,536.06,538.21,540.65,543.84,546.99,549.78,552.40,554.39,555.76,556.76,557.71,558.60,559.47,560.35,561.21,561.87,562.32,562.62,562.74,562.38,561.14,559.04,556.56,555.01,558.45,562.11,565.51,568.91,572.49,576.16,580.38,585.21,590.73,597.18,602.34,605.97,607.89,607.95,605.81,603.22,601.43,602.22,607.45,612.42,616.33,619.75,623.32,627.10,630.89,634.40,637.25,640.27,643.37,646.42,649.05,649.88,649.02,646.88,643.57,639.64,637.23,635.56,634.26,633.46,632.76,632.90,633.96,636.02,638.73,642.56,646.98,652.22,659.87,670.42,681.26,691.59,701.20,708.05,711.69,714.71,719.97,729.52,737.38,743.07,747.34,752.44,759.33,766.26,772.80,778.90,784.49,788.57,791.03,792.05,793.07,793.93,794.21,793.90,793.21,792.57,793.66,796.16,799.14,800.27,800.50,800.54,800.68,801.14,801.94,802.84,803.33,802.61,800.98,796.81,792.30,789.09,787.35,785.78,785.62,786.87,788.66,790.13,790.23,790.11,791.03,792.76,794.72,796.33,796.70,794.27,792.43,791.53,791.29,791.26,791.27,790.88,790.03,788.43,785.56,783.25,781.88,781.03,779.61,777.29,773.24,768.24,763.12,758.36,754.61,750.98,747.11,743.20,739.21
487.32,487.40,487.46,487.46,487.47,487.53,487.60,487.66,487.74,487.82,487.86,487.88,487.88,487.95,487.98,488.00,488.07,488.07,488.07,488.12,488.18,488.18,488.19,488.25,488.32,488.37,488.39,488.46,488.52,488.57,488.60,488.66,488.74,488.81,488.87,488.89,488.95,489.02,489.07,489.10,489.14,489.22,489.27,489.28,489.35,489.39,489.42,489.48,489.55,489.57,489.61,489.67,489.68,489.74,489.78,489.78,489.80,489.86,489.89,489.90,489.90,489.90,489.95,490.34,491.16,492.13,493.04,493.87,494.56,495.07,495.51,495.94,496.38,496.83,497.25,497.74,498.31,498.82,499.07,499.24,499.34,499.49,499.82,500.49,501.22,501.96,502.68,503.40,504.16,504.92,505.67,506.37,506.78,507.36,508.07,508.86,509.80,513.14,517.73,522.84,527.73,531.05,533.47,535.49,537.36,539.28,541.89,544.39,546.41,548.32,550.42,552.16,553.50,554.59,555.59,556.63,557.71,558.77,559.49,559.96,560.12,559.96,559.40,557.80,555.63,553.91,554.19,557.65,561.29,564.71,568.12,571.98,576.05,580.48,585.27,590.41,596.14,600.12,602.43,603.20,602.68,600.56,598.56,597.73,599.27,604.86,610.21,614.37,617.54,620.79,624.49,628.36,632.01,634.77,636.91,638.97,641.14,643.29,643.95,643.31,641.50,638.46,634.87,633.09,631.83,630.67,630.08,629.50,630.12,632.15,635.57,639.20,643.67,648.77,654.95,663.83,674.13,684.50,694.28,702.77,710.01,714.28,717.11,721.11,730.83,739.96,746.64,751.12,755.73,760.78,766.60,772.87,779.01,784.36,788.42,790.95,792.03,793.04,794.16,794.85,795.00,794.89,794.90,796.29,798.33,800.04,800.64,800.88,801.06,801.33,801.81,802.31,802.69,802.88,802.67,801.39,798.05,794.00,790.39,788.13,785.35,784.27,785.13,786.77,787.97,788.08,788.14,789.30,791.30,793.37,795.30,796.39,794.92,793.63,792.89,792.52,792.18,791.87,791.24,789.81,787.03,782.78,780.18,778.78,777.82,776.10,772.82,768.48,763.80,759.49,756.63,754.95,753.39,751.43,748.94,746.42
487.19,487.27,487.32,487.33,487.39,487.47,487.51,487.54,487.61,487.69,487.76,487.81,487.82,487.88,487.91,487.94,488.00,488.01,488.01,488.05,488.11,488.12,488.17,488.25,488.30,488.32,488.38,488.45,488.50,488.53,488.59,488.66,488.74,488.80,488.82,488.88,488.95,489.00,489.02,489.08,489.11,489.15,489.21,489.22,489.28,489.35,489.40,489.42,489.49,489.51,489.55,489.61,489.62,489.68,489.72,489.73,489.79,489.81,489.86,489.90,489.90,489.90,489.91,490.09,490.60,491.49,492.31,493.09,493.83,494.46,494.83,495.16,495.55,496.01,496.45,496.92,497.44,497.93,498.22,498.40,498.50,498.68,499.11,499.83,500.50,501.14,501.81,502.56,503.33,504.06,504.75,505.39,505.95,507.11,508.30,509.17,510.48,513.35,517.36,522.12,526.95,530.34,532.68,534.50,536.17,537.90,539.80,541.78,543.73,545.45,547.01,548.63,550.19,551.30,552.27,553.41,554.67,555.89,556.79,557.34,557.10,556.19,555.13,552.66,550.86,550.88,553.59,557.15,560.70,564.06,567.41,571.35,575.97,580.76,585.38,589.51,593.72,596.44,597.89,598.30,597.96,597.12,596.03,595.63,598.24,602.87,607.91,612.32,615.42,618.37,621.64,625.34,629.22,632.25,634.30,635.93,637.37,638.48,638.75,638.00,636.06,632.98,630.51,629.10,628.08,627.30,627.03,626.65,628.15,631.34,635.56,640.10,644.98,650.60,657.80,667.88,677.89,686.85,695.02,703.05,709.29,713.30,716.31,720.48,730.22,740.47,749.48,756.44,760.64,763.73,767.88,773.18,779.02,784.23,788.19,790.68,791.76,792.76,793.87,794.79,795.47,796.05,796.95,798.17,799.39,800.25,800.76,801.18,801.56,801.91,802.24,802.47,802.33,802.06,802.05,801.72,799.87,796.68,792.56,788.89,785.25,783.25,783.21,784.62,785.51,785.94,786.59,788.11,790.19,792.04,793.88,795.42,795.61,794.86,794.12,793.45,792.57,791.70,790.75,788.60,784.66,780.53,777.83,775.76,773.82,771.53,767.84,763.54,760.28,759.47,759.32,759.46,759.45,758.78,756.60,753.95
487.12,487.17,487.21,487.25,487.28,487.35,487.41,487.46,487.53,487.61,487.67,487.71,487.75,487.82,487.84,487.88,487.94,487.94,487.94,487.99,488.06,488.10,488.17,488.22,488.26,488.31,488.38,488.43,488.47,488.51,488.59,488.63,488.69,488.76,488.80,488.87,488.92,488.96,489.00,489.04,489.08,489.12,489.15,489.19,489.23,489.30,489.34,489.36,489.43,489.48,489.51,489.55,489.59,489.63,489.64,489.67,489.74,489.75,489.80,489.84,489.84,489.84,489.88,489.97,490.22,490.84,491.56,492.31,493.06,493.73,494.23,494.59,494.91,495.26,495.64,496.08,496.59,497.08,497.42,497.57,497.71,497.98,498.50,499.27,499.97,500.61,501.25,501.93,502.62,503.27,504.02,505.13,506.24,507.70,509.12,510.29,511.77,514.24,517.56,521.51,525.69,529.01,531.39,533.21,534.78,536.28,537.86,539.43,540.91,542.25,543.53,544.92,546.29,547.33,548.42,550.08,551.84,553.21,554.13,554.50,553.92,552.29,549.82,547.16,547.35,549.83,553.42,557.08,560.76,564.34,567.90,571.90,576.69,581.08,584.84,588.05,590.81,592.46,593.33,593.65,593.70,593.45,593.10,593.47,596.42,600.32,605.10,609.82,613.31,616.07,618.82,621.96,625.50,628.77,631.35,633.12,634.19,634.58,634.05,632.75,630.78,628.37,626.73,625.54,624.59,623.91,623.77,624.84,627.56,631.47,636.05,640.96,646.26,652.47,660.23,669.96,679.11,686.99,694.27,702.17,708.33,712.10,714.96,719.20,728.87,739.41,749.54,757.85,761.80,764.66,768.14,772.75,778.48,783.38,787.28,789.98,791.32,792.09,792.76,793.26,793.71,794.47,795.77,797.52,799.18,800.21,800.70,801.09,801.43,801.74,802.02,802.07,801.68,801.13,800.92,800.94,800.41,797.83,792.81,788.30,784.18,781.74,781.24,782.34,783.24,783.90,784.93,786.90,789.16,791.03,792.78,794.25,794.57,794.15,793.49,792.74,791.85,790.93,789.55,787.26,783.82,780.01,777.06,774.45,771.90,769.20,765.72,763.22,762.20,762.91,764.27,765.25,765.77,765.43,763.16,759.15
487.07,487.11,487.14,487.19,487.20,487.25,487.32,487.39,487.47,487.53,487.57,487.60,487.68,487.75,487.78,487.81,487.88,487.88,487.89,487.94,488.01,488.08,488.15,488.19,488.22,488.30,488.37,488.39,488.43,488.51,488.57,488.59,488.64,488.72,488.78,488.86,488.89,488.93,488.98,489.00,489.05,489.09,489.11,489.17,489.19,489.24,489.29,489.31,489.36,489.44,489.49,489.50,489.57,489.58,489.59,489.62,489.67,489.69,489.74,489.78,489.78,489.80,489.85,489.89,489.97,490.29,490.83,491.53,492.28,492.97,493.60,494.04,494.35,494.60,494.90,495.31,495.78,496.25,496.61,496.75,496.93,497.29,497.89,498.65,499.33,500.01,500.72,501.36,502.00,502.74,503.79,505.43,507.06,508.64,510.13,511.56,513.19,515.36,518.03,521.13,524.47,527.54,529.92,531.75,533.23,534.56,535.93,537.19,538.25,539.28,540.35,541.44,542.47,543.33,544.43,546.32,548.27,549.62,550.37,550.44,549.58,547.60,544.49,542.72,545.26,549.96,553.94,557.69,561.42,565.17,568.93,572.82,577.36,581.10,583.97,586.41,588.10,589.09,589.65,589.93,590.19,590.22,590.40,591.35,594.13,597.52,602.02,606.85,610.87,613.71,616.08,618.59,621.51,624.67,627.55,629.50,630.48,630.46,629.34,627.73,625.96,624.26,623.13,622.13,621.32,620.78,620.85,623.40,627.34,631.88,636.63,641.74,647.47,654.18,662.12,670.93,679.12,686.10,692.68,700.43,706.46,709.92,712.65,717.16,726.41,737.04,747.78,756.99,761.33,764.35,767.47,771.67,777.60,782.37,786.14,788.91,790.48,791.01,791.23,791.24,791.31,792.08,793.71,796.02,798.30,799.85,800.48,800.82,801.09,801.35,801.63,801.59,801.08,800.33,799.75,799.90,800.43,798.41,792.74,787.69,783.38,780.61,779.54,780.06,781.16,782.01,783.25,785.59,787.92,789.95,791.70,792.92,793.02,792.80,792.23,791.51,790.81,790.05,788.25,785.85,783.06,779.76,776.70,773.75,770.86,768.05,765.45,764.92,765.71,766.92,768.82,770.04,770.66,770.38,768.16,762.99
487.10,487.14,487.19,487.20,487.20,487.25,487.31,487.33,487.40,487.43,487.47,487.53,487.62,487.69,487.72,487.75,487.81,487.81,487.87,487.94,488.00,488.02,488.08,488.16,488.22,488.29,488.31,488.36,488.43,488.50,488.52,488.57,488.64,488.70,488.73,488.79,488.86,488.90,488.93,488.99,489.01,489.05,489.10,489.12,489.18,489.21,489.24,489.30,489.31,489.37,489.41,489.43,489.50,489.51,489.55,489.60,489.62,489.68,489.71,489.72,489.73,489.78,489.81,489.85,489.91,489.99,490.20,490.75,491.50,492.19,492.82,493.40,493.83,494.08,494.38,494.71,495.05,495.42,495.77,495.96,496.15,496.56,497.26,497.81,498.27,499.02,500.06,500.77,501.50,502.86,504.73,506.68,508.41,509.83,511.17,512.65,514.55,516.59,518.83,521.25,523.73,526.19,528.33,530.08,531.43,532.75,533.94,535.03,536.07,537.17,538.02,538.70,539.26,539.77,540.52,541.55,542.63,543.48,543.67,543.32,542.31,540.87,539.89,541.29,545.97,551.69,555.98,559.76,563.16,566.72,570.49,573.79,577.28,580.29,582.72,584.67,586.28,587.55,588.32,588.43,588.28,588.33,588.64,589.40,591.16,594.53,598.62,603.06,607.60,611.13,613.50,615.50,617.54,619.72,621.75,623.56,624.89,625.07,624.15,623.24,622.21,620.82,619.55,618.77,618.38,618.35,618.93,622.14,627.03,632.30,636.99,642.32,648.55,655.46,662.87,670.51,677.88,684.13,690.03,697.23,702.42,705.35,708.30,713.59,721.70,732.37,743.40,753.13,759.39,762.28,765.08,769.49,776.24,781.48,784.86,787.20,788.73,789.20,789.21,789.00,788.88,789.63,791.80,794.24,796.68,798.88,799.98,800.39,800.66,800.96,801.25,801.34,800.86,799.90,798.87,799.08,800.08,798.61,793.30,788.04,784.01,780.84,778.57,777.89,779.40,780.42,781.59,783.93,786.09,788.49,790.39,791.37,791.42,791.22,790.74,790.17,789.77,789.31,787.22,784.33,781.38,778.91,776.17,773.32,770.56,768.35,767.92,768.49,769.28,769.85,770.61,771.23,771.55,771.34,769.89,765.04
487.10,487.15,487.20,487.20,487.24,487.28,487.31,487.35,487.39,487.43,487.47,487.51,487.55,487.63,487.68,487.72,487.75,487.79,487.86,487.92,487.96,488.00,488.07,488.12,488.18,488.25,488.29,488.36,488.42,488.46,488.50,488.56,488.62,488.66,488.70,488.77,488.83,488.87,488.91,488.94,488.98,489.02,489.06,489.10,489.13,489.18,489.21,489.25,489.29,489.33,489.37,489.41,489.45,489.48,489.52,489.56,489.60,489.64,489.68,489.70,489.71,489.74,489.78,489.82,489.85,489.86,489.95,490.26,490.76,491.42,492.04,492.69,493.23,493.59,493.87,494.17,494.48,494.79,495.09,495.23,495.42,495.81,496.43,496.88,497.19,497.89,499.05,500.07,501.45,503.33,505.52,507.64,509.49,510.86,512.05,513.42,515.30,517.12,518.91,520.81,522.99,525.04,526.85,528.43,529.80,530.86,531.85,532.87,533.97,535.10,535.94,536.52,536.91,537.26,537.80,538.40,538.96,539.36,539.22,538.82,538.62,539.00,540.63,544.31,549.03,553.71,557.51,561.04,563.91,566.77,569.75,572.35,575.34,578.25,580.83,582.85,584.50,586.02,586.91,586.78,586.53,586.59,587.02,587.90,589.42,592.33,595.82,599.59,603.57,607.31,609.99,612.11,613.91,615.38,616.68,617.83,618.66,618.77,618.28,617.80,617.29,616.61,615.61,615.39,615.69,616.45,618.14,621.75,626.90,632.36,637.00,642.38,648.86,655.69,662.50,669.41,676.01,681.75,687.04,692.81,697.05,699.93,703.14,708.44,716.30,727.28,738.57,748.49,755.53,759.11,762.27,766.76,773.59,779.85,783.22,785.06,786.14,786.51,786.65,786.65,786.93,788.46,790.84,793.31,795.64,797.63,798.80,799.55,800.10,800.52,800.82,801.04,800.63,799.53,798.02,798.27,799.51,798.92,794.97,789.78,785.96,782.72,779.81,777.63,777.14,777.67,778.95,780.97,783.34,786.00,788.09,789.11,788.96,788.59,788.17,787.78,787.50,787.20,785.97,783.42,779.82,777.63,775.65,773.63,771.67,770.20,770.27,770.98,771.68,771.99,772.27,772.52,772.49,771.97,770.71,766.67
487.10,487.15,487.20,487.21,487.28,487.30,487.33,487.39,487.41,487.46,487.50,487.50,487.52,487.58,487.65,487.70,487.71,487.78,487.85,487.89,487.92,487.99,488.06,488.09,488.13,488.20,488.28,488.35,488.39,488.42,488.49,488.55,488.59,488.62,488.69,488.76,488.79,488.82,488.88,488.90,488.95,488.99,489.01,489.07,489.10,489.14,489.19,489.21,489.27,489.29,489.33,489.38,489.40,489.46,489.49,489.52,489.57,489.58,489.63,489.69,489.69,489.70,489.75,489.78,489.79,489.80,489.86,489.94,490.17,490.75,491.36,492.03,492.65,493.10,493.37,493.66,493.97,494.25,494.47,494.59,494.77,495.09,495.56,495.92,496.14,496.72,497.87,499.26,501.26,503.57,505.97,508.28,510.28,511.64,512.75,513.98,515.69,517.26,518.69,520.19,522.20,523.97,525.51,526.96,528.28,529.07,529.88,530.85,531.97,533.08,533.96,534.53,534.87,535.11,535.52,535.87,536.13,536.24,535.98,536.05,537.08,539.42,543.33,548.21,552.11,555.28,558.41,561.41,563.69,565.81,568.01,570.06,572.77,575.80,578.74,581.11,582.88,584.57,585.46,585.07,584.83,584.91,585.51,586.63,588.19,590.59,593.53,596.64,599.73,603.19,605.95,608.22,610.03,611.09,611.86,612.30,612.44,612.37,612.23,612.00,611.93,612.11,611.76,612.26,613.37,615.11,617.91,621.75,626.82,632.14,636.74,642.06,648.66,655.33,661.52,667.92,673.94,679.20,683.84,688.13,691.50,694.51,698.08,703.32,711.02,721.83,733.14,743.42,751.24,755.78,759.48,764.11,770.97,777.85,781.17,782.58,783.20,783.47,783.94,784.46,785.39,787.75,790.19,792.60,794.69,796.20,797.33,798.36,799.19,799.78,800.21,800.64,800.37,799.19,797.27,797.23,798.39,798.52,796.12,791.59,787.98,784.73,781.45,778.00,774.95,774.63,775.92,777.67,780.33,783.16,785.38,786.47,786.15,785.46,785.08,784.93,784.69,784.38,784.35,782.79,779.15,777.05,775.76,774.62,773.48,772.61,772.57,773.09,773.64,773.81,773.68,773.57,773.16,772.30,771.02,767.93
487.10,487.15,487.20,487.21,487.28,487.30,487.33,487.39,487.41,487.47,487.50,487.51,487.57,487.60,487.65,487.70,487.71,487.78,487.81,487.85,487.92,487.99,488.01,488.06,488.12,488.20,488.28,488.31,488.35,488.41,488.49,488.51,488.55,488.62,488.69,488.72,488.76,488.81,488.83,488.88,488.92,488.95,489.00,489.02,489.07,489.11,489.14,489.19,489.22,489.26,489.31,489.33,489.39,489.42,489.46,489.50,489.52,489.53,489.57,489.63,489.63,489.69,489.72,489.73,489.74,489.79,489.81,489.87,490.03,490.44,491.02,491.69,492.24,492.55,492.89,493.21,493.49,493.72,493.89,494.09,494.31,494.54,494.78,494.99,495.16,495.61,496.58,498.17,500.05,502.55,505.45,508.25,510.36,511.80,513.00,514.24,515.60,516.97,518.31,519.68,521.25,522.93,524.59,525.99,526.90,527.63,528.43,529.32,530.25,531.22,531.99,532.50,532.78,532.97,533.24,533.49,533.76,533.97,534.02,535.86,538.40,541.57,546.04,549.56,552.35,554.98,557.80,559.69,561.34,563.33,565.72,567.88,570.45,573.50,576.77,579.73,581.76,583.32,583.95,583.34,583.08,583.28,584.18,585.65,587.24,589.43,592.20,595.07,597.50,599.57,601.27,603.03,604.89,606.19,606.96,607.24,607.13,606.72,606.39,606.20,606.53,607.63,608.71,610.00,612.10,615.03,618.21,622.03,626.65,631.50,636.02,641.12,647.76,654.24,659.86,665.99,671.93,676.62,680.34,684.07,687.04,690.12,694.28,700.24,707.06,715.69,726.22,737.86,747.93,753.29,757.28,762.39,770.11,775.56,778.22,779.49,780.09,780.34,781.38,782.87,784.70,787.04,789.44,791.54,793.27,794.60,795.66,796.55,797.34,798.11,799.02,799.97,800.01,798.91,796.75,795.39,795.60,795.55,794.08,791.81,788.58,785.14,781.72,778.11,773.62,772.06,772.81,774.84,777.59,780.43,782.55,783.46,783.13,781.88,781.56,781.83,781.55,780.90,781.74,782.37,781.40,779.33,778.09,777.02,775.91,775.00,774.83,775.16,775.57,775.52,774.38,773.66,772.93,771.95,770.77,768.42
487.10,487.15,487.20,487.21,487.28,487.30,487.33,487.39,487.41,487.47,487.50,487.52,487.59,487.60,487.65,487.70,487.71,487.78,487.80,487.84,487.90,487.95,487.99,488.05,488.11,488.16,488.24,488.28,488.33,488.40,488.45,488.49,488.54,488.61,488.65,488.69,488.73,488.77,488.81,488.85,488.88,488.92,488.96,488.96,489.02,489.08,489.11,489.15,489.19,489.23,489.27,489.31,489.35,489.39,489.43,489.46,489.46,489.49,489.53,489.57,489.61,489.65,489.68,489.70,489.72,489.78,489.80,489.85,489.98,490.29,490.84,491.32,491.69,491.97,492.35,492.70,492.99,493.21,493.39,493.59,493.81,494.01,494.13,494.29,494.49,494.89,495.75,497.47,499.28,501.81,504.85,507.75,510.03,511.56,512.81,514.08,515.34,516.62,517.88,519.13,520.43,522.03,523.56,524.79,525.59,526.38,527.24,528.10,528.88,529.52,530.07,530.50,530.78,530.95,531.17,531.43,532.04,533.24,534.59,537.31,540.38,543.65,547.59,550.21,552.27,554.34,556.62,558.31,560.05,562.20,564.76,567.14,569.66,572.62,575.89,578.99,581.03,582.23,582.50,581.80,581.32,581.75,582.96,584.69,586.52,588.58,591.00,593.45,595.37,596.53,597.58,598.70,599.93,601.13,601.90,602.10,601.81,601.29,601.34,601.82,602.81,604.40,606.05,607.95,610.66,614.21,617.97,622.05,626.28,630.55,634.88,639.51,645.87,652.16,657.61,663.44,669.56,674.09,677.25,680.52,683.72,687.32,691.94,697.93,703.66,710.35,719.19,730.19,741.57,749.78,755.49,760.93,767.99,772.49,774.70,775.85,776.58,777.42,779.54,781.83,783.97,786.15,788.29,790.18,791.73,792.89,793.76,794.48,795.22,796.15,797.55,799.12,799.71,799.00,796.92,795.13,794.41,793.67,792.25,790.59,787.68,784.30,780.81,777.18,772.88,770.44,770.16,771.96,774.50,777.08,778.99,779.86,779.65,778.42,777.93,778.14,778.24,777.58,778.53,780.12,781.30,781.38,780.45,779.29,778.22,777.38,777.09,776.70,776.12,775.26,773.66,772.71,771.93,770.88,769.14,766.70
487.11,487.15,487.20,487.22,487.28,487.31,487.34,487.40,487.42,487.47,487.50,487.52,487.59,487.60,487.65,487.70,487.71,487.78,487.80,487.84,487.89,487.91,487.97,488.04,488.09,488.12,488.19,488.25,488.32,488.38,488.41,488.46,488.54,488.59,488.61,488.67,488.69,488.73,488.79,488.80,488.86,488.89,488.90,488.91,488.97,489.03,489.09,489.11,489.17,489.20,489.23,489.29,489.30,489.35,489.39,489.40,489.41,489.47,489.50,489.53,489.58,489.60,489.65,489.69,489.71,489.77,489.80,489.85,489.96,490.20,490.65,490.87,491.06,491.38,491.77,492.16,492.47,492.70,492.92,493.09,493.29,493.47,493.60,493.81,494.11,494.56,495.41,497.17,498.98,501.43,504.33,507.10,509.56,511.16,512.41,513.70,515.00,516.25,517.45,518.59,519.72,521.20,522.46,523.48,524.35,525.26,526.18,527.02,527.64,527.91,528.26,528.68,529.07,529.33,529.61,530.02,531.23,533.68,536.51,539.46,542.39,545.34,548.32,550.43,552.17,553.84,555.62,557.55,559.70,562.11,564.77,567.36,569.87,572.68,575.73,578.56,580.30,581.00,580.92,580.18,579.47,580.25,581.81,583.73,585.81,587.77,589.75,591.65,593.12,593.74,594.38,594.86,595.22,596.09,596.76,596.90,596.61,596.33,597.11,598.46,600.10,601.88,603.59,605.96,609.08,612.94,617.32,621.77,625.71,629.46,633.54,637.69,643.46,649.49,655.01,660.47,666.66,671.34,674.51,677.52,681.16,685.37,690.29,695.85,700.55,705.70,712.62,721.95,733.62,744.90,752.80,758.69,764.62,768.52,770.62,771.87,772.91,774.65,777.96,780.90,783.08,785.01,786.70,788.25,789.64,790.77,791.58,792.22,792.98,794.14,796.02,798.13,799.30,799.13,797.47,795.80,794.34,792.83,791.07,789.20,786.65,783.54,780.06,776.43,772.95,769.86,768.23,769.14,771.07,773.18,774.82,775.70,775.72,774.81,774.09,774.00,774.63,774.35,775.12,776.92,779.56,782.35,782.10,781.06,780.16,779.44,778.94,777.61,775.74,773.86,772.11,770.99,770.08,768.81,766.28,763.50
487.15,487.19,487.22,487.27,487.29,487.34,487.38,487.41,487.46,487.49,487.50,487.52,487.59,487.60,487.65,487.70,487.71,487.78,487.80,487.84,487.89,487.91,487.97,488.01,488.05,488.10,488.18,488.22,488.26,488.33,488.39,488.46,488.51,488.54,488.60,488.62,488.66,488.71,488.74,488.79,488.82,488.86,488.90,488.90,488.92,488.98,489.03,489.04,489.11,489.17,489.21,489.23,489.23,489.29,489.32,489.34,489.39,489.42,489.46,489.51,489.54,489.59,489.62,489.66,489.70,489.73,489.77,489.85,489.92,490.00,490.14,490.24,490.43,490.80,491.19,491.61,491.95,492.18,492.40,492.57,492.74,492.94,493.24,493.79,494.30,494.95,495.98,497.60,499.48,501.75,504.27,506.80,509.36,511.01,512.21,513.38,514.63,515.87,517.04,518.12,519.16,520.32,521.37,522.33,523.29,524.22,525.14,525.86,526.22,526.34,526.86,527.58,528.35,529.09,529.67,530.78,532.71,535.58,538.56,540.99,543.30,545.69,548.18,550.24,552.40,554.61,556.60,558.51,560.70,563.10,565.65,568.22,570.75,573.47,576.12,577.97,578.76,578.94,578.58,577.75,577.35,578.74,580.72,582.72,584.65,586.49,588.07,589.37,590.31,590.69,590.89,591.00,591.11,591.42,591.65,591.75,592.00,592.99,594.58,596.18,597.80,599.48,601.15,603.83,607.37,611.63,616.33,620.86,624.74,628.36,632.27,636.44,641.13,646.45,652.18,657.14,662.32,667.53,672.26,675.68,679.29,683.52,688.24,693.13,697.34,701.98,708.09,716.13,726.10,736.69,745.41,752.61,758.98,762.52,765.42,767.70,769.39,772.00,775.80,779.17,781.63,783.22,784.09,784.62,785.52,787.22,788.69,789.65,790.80,792.49,794.79,796.92,798.24,798.64,798.00,796.63,795.16,793.59,791.90,790.33,788.49,785.90,782.55,778.78,775.20,771.46,768.28,766.73,767.05,768.48,769.76,770.46,770.83,770.24,769.56,769.34,770.01,770.98,772.19,773.99,776.62,779.58,780.86,781.13,780.84,780.23,779.10,777.07,774.62,772.27,770.30,768.31,766.28,764.09,761.33,759.15
487.17,487.20,487.22,487.29,487.30,487.36,487.40,487.42,487.49,487.50,487.51,487.55,487.60,487.63,487.67,487.70,487.71,487.78,487.80,487.84,487.89,487.91,487.97,488.00,488.02,488.10,488.15,488.19,488.23,488.30,488.36,488.43,488.48,488.51,488.56,488.59,488.63,488.67,488.71,488.75,488.79,488.82,488.86,488.87,488.89,488.93,488.97,489.00,489.05,489.12,489.16,489.17,489.19,489.24,489.28,489.31,489.36,489.39,489.43,489.47,489.50,489.55,489.59,489.62,489.67,489.70,489.77,489.83,489.87,489.90,489.90,489.94,490.06,490.33,490.71,491.13,491.45,491.66,491.89,492.05,492.30,492.65,493.18,493.94,494.68,495.57,496.76,498.23,500.14,502.31,504.61,506.95,509.27,510.81,511.94,513.03,514.16,515.39,516.60,517.73,518.74,519.77,520.68,521.53,522.39,523.24,524.10,524.85,525.40,525.86,526.65,527.64,528.74,529.89,530.76,532.22,534.48,537.44,540.18,542.32,544.30,546.33,548.49,550.73,553.25,555.78,557.97,560.02,562.34,564.76,567.16,569.50,571.98,574.09,575.52,575.91,575.70,575.32,574.96,574.81,575.37,577.21,579.38,581.43,583.24,584.84,586.03,586.87,587.37,587.41,587.31,587.26,587.37,587.71,587.93,588.34,589.16,590.75,592.61,594.36,596.02,597.70,599.37,601.99,605.65,610.19,615.06,619.79,623.79,627.42,631.27,635.20,639.02,643.68,649.30,654.16,658.78,664.23,669.92,674.02,677.48,681.21,685.44,690.04,693.99,698.61,704.34,711.41,719.93,729.11,737.74,745.66,752.44,755.94,759.69,763.22,766.11,769.42,773.25,776.58,778.96,780.06,780.52,780.59,781.46,783.95,786.08,787.66,789.34,791.42,793.92,795.88,797.18,797.96,798.13,797.29,796.02,794.57,793.05,791.70,790.33,788.25,785.26,781.35,777.39,772.85,768.64,765.98,764.85,764.79,764.84,764.74,764.86,764.51,764.18,764.15,764.73,766.05,767.73,770.15,773.45,776.55,778.69,779.72,779.81,779.23,777.83,775.76,773.32,770.71,767.89,765.31,762.83,760.27,757.44,755.25
487.17,487.20,487.22,487.29,487.30,487.36,487.40,487.42,487.49,487.50,487.54,487.59,487.61,487.67,487.70,487.70,487.72,487.78,487.81,487.84,487.90,487.91,487.97,488.00,488.02,488.09,488.11,488.16,488.23,488.29,488.31,488.37,488.44,488.50,488.51,488.57,488.60,488.63,488.69,488.71,488.75,488.80,488.81,488.81,488.87,488.90,488.93,488.99,489.00,489.06,489.10,489.12,489.18,489.20,489.24,489.29,489.31,489.37,489.40,489.43,489.49,489.50,489.56,489.60,489.62,489.69,489.76,489.80,489.82,489.88,489.89,489.90,489.92,490.00,490.33,490.70,490.97,491.14,491.37,491.55,491.93,492.53,493.31,494.16,495.13,496.27,497.60,498.97,500.82,502.93,505.15,507.31,509.16,510.48,511.57,512.62,513.60,514.83,516.13,517.37,518.41,519.50,520.36,521.05,521.72,522.44,523.23,524.13,525.17,526.25,527.32,528.50,529.85,531.37,532.50,534.04,536.28,539.13,541.46,543.52,545.46,547.35,549.33,551.86,554.59,557.20,559.50,561.82,564.36,566.83,569.02,570.96,573.12,574.15,573.91,572.74,571.66,570.82,570.69,571.73,573.57,575.69,577.85,579.90,581.62,582.87,583.70,584.20,584.36,584.03,583.75,583.71,584.04,584.87,585.53,586.49,587.81,589.38,591.13,592.94,594.74,596.50,598.23,600.53,604.05,608.71,613.63,618.69,622.91,626.66,630.51,634.01,637.25,641.32,646.54,651.60,656.15,661.59,667.61,672.51,675.80,678.79,682.49,687.23,691.02,695.78,701.35,707.78,715.42,723.26,731.20,738.91,745.48,749.21,753.79,758.58,762.84,766.65,770.18,773.14,775.20,775.84,776.28,776.77,778.31,781.50,784.11,786.40,788.60,790.86,793.32,794.98,796.15,797.10,797.84,797.70,796.73,795.42,794.06,792.80,791.63,789.96,787.37,783.40,779.05,773.78,769.17,766.75,764.69,762.85,761.21,759.86,759.08,758.64,758.57,758.75,759.14,760.10,762.16,765.53,769.96,773.54,775.93,777.13,777.31,776.68,775.38,773.66,771.55,768.78,764.85,761.97,759.54,757.03,754.06,751.46
487.17,487.20,487.22,487.29,487.30,487.36,487.40,487.42,487.49,487.50,487.54,487.60,487.61,487.67,487.70,487.72,487.76,487.79,487.84,487.88,487.90,487.91,487.97,488.00,488.02,488.09,488.10,488.15,488.21,488.24,488.29,488.36,488.41,488.45,488.50,488.53,488.56,488.61,488.64,488.69,488.72,488.76,488.80,488.80,488.82,488.86,488.91,488.94,488.99,489.02,489.06,489.10,489.13,489.18,489.21,489.25,489.30,489.33,489.37,489.41,489.44,489.49,489.56,489.60,489.62,489.69,489.72,489.76,489.81,489.83,489.83,489.87,489.90,489.92,490.05,490.26,490.45,490.63,490.86,491.11,491.55,492.24,493.21,494.22,495.41,496.78,498.27,499.67,501.34,503.23,505.20,507.07,508.57,509.82,510.93,511.91,512.95,514.20,515.51,516.80,518.01,519.24,520.17,520.89,521.58,522.41,523.32,524.34,525.49,526.69,527.83,529.01,530.48,532.56,534.21,535.88,537.99,540.59,542.73,544.75,546.68,548.61,550.80,553.41,556.17,558.76,561.04,563.67,566.38,568.73,570.49,571.84,572.50,572.21,571.14,569.69,568.48,567.81,568.15,569.88,571.97,574.17,576.33,578.30,579.73,580.61,581.12,581.38,581.35,580.98,580.67,580.75,581.49,582.94,584.33,585.75,587.23,588.79,590.45,592.21,594.02,595.84,597.66,599.78,603.10,607.65,612.47,617.73,622.22,626.16,629.99,633.23,636.34,639.99,644.54,649.64,654.50,660.09,666.22,671.57,674.86,677.76,681.80,687.36,690.78,694.91,700.06,706.43,714.37,722.99,730.27,735.67,739.15,743.24,748.73,754.19,758.74,762.57,765.68,768.41,770.55,771.32,771.90,775.16,779.12,781.73,784.17,786.51,788.72,790.79,792.75,794.02,794.98,795.92,796.97,797.55,796.83,795.44,793.87,792.51,791.22,789.31,786.59,783.03,779.03,774.12,770.19,768.85,767.58,765.89,763.79,761.34,758.80,756.84,755.20,754.16,754.42,755.32,757.29,760.50,765.10,770.19,772.66,773.59,773.58,772.85,771.72,770.02,767.69,764.58,760.81,757.66,754.89,751.95,748.03,745.84
487.18,487.21,487.25,487.29,487.33,487.37,487.41,487.44,487.49,487.50,487.54,487.60,487.61,487.67,487.70,487.73,487.80,487.80,487.86,487.90,487.90,487.93,487.98,488.01,488.05,488.09,488.10,488.15,488.20,488.22,488.28,488.34,488.38,488.41,488.47,488.49,488.54,488.58,488.61,488.65,488.69,488.73,488.77,488.80,488.80,488.83,488.88,488.91,488.95,488.99,489.02,489.07,489.10,489.14,489.18,489.21,489.26,489.29,489.35,489.40,489.41,489.48,489.54,489.58,489.61,489.66,489.69,489.75,489.80,489.80,489.80,489.85,489.90,489.90,489.91,489.99,490.09,490.23,490.44,490.74,491.16,491.85,492.93,493.96,495.26,496.83,498.55,500.11,501.67,503.28,504.93,506.47,507.75,508.99,510.13,511.15,512.28,513.59,514.94,516.28,517.64,518.98,520.00,520.83,521.64,522.58,523.59,524.67,525.84,527.05,528.20,529.38,530.98,533.53,535.75,537.63,539.62,541.94,543.97,545.97,547.94,550.02,552.47,555.13,557.77,560.20,562.33,564.89,567.56,569.61,570.71,571.23,570.76,569.65,568.18,566.68,565.47,565.14,566.02,568.25,570.61,572.82,574.86,576.62,577.87,578.58,578.95,579.09,578.99,578.66,578.46,578.84,580.06,581.92,583.46,584.96,586.55,588.29,590.05,591.89,593.76,595.63,597.52,599.70,603.03,607.49,612.14,617.39,622.04,626.12,629.89,632.96,635.99,639.38,643.48,648.54,654.05,660.10,666.34,671.75,675.17,678.73,683.50,689.38,692.80,696.39,701.16,707.67,716.36,725.91,733.17,737.59,739.64,743.43,747.92,752.15,755.66,758.81,761.40,763.98,766.50,768.45,770.30,775.26,780.29,782.38,784.35,786.35,788.31,790.13,791.68,792.74,793.72,794.81,796.14,797.31,796.70,795.19,793.46,791.94,790.12,787.66,784.69,781.56,778.02,774.54,772.22,771.93,771.48,770.25,768.30,765.72,762.67,759.42,755.76,752.54,751.30,751.39,752.93,755.87,760.33,765.75,768.69,769.78,769.67,768.87,767.70,765.77,763.02,759.43,755.68,751.56,748.01,744.99,741.17,739.21
487.20,487.24,487.29,487.31,487.37,487.39,487.43,487.49,487.50,487.50,487.54,487.60,487.62,487.67,487.70,487.73,487.80,487.80,487.86,487.90,487.92,487.98,488.00,488.04,488.09,488.10,488.11,488.16,488.20,488.22,488.28,488.31,488.35,488.40,488.42,488.47,488.50,488.54,488.60,488.61,488.66,488.70,488.73,488.79,488.80,488.81,488.83,488.89,488.91,488.96,489.00,489.03,489.09,489.11,489.15,489.20,489.22,489.27,489.35,489.39,489.41,489.48,489.51,489.54,489.60,489.61,489.67,489.74,489.80,489.80,489.80,489.85,489.89,489.90,489.90,489.91,489.93,489.98,490.14,490.42,490.77,491.39,492.42,493.39,494.66,496.32,498.31,500.19,501.70,503.06,504.34,505.57,506.80,508.04,509.24,510.38,511.61,513.00,514.42,515.83,517.29,518.71,519.87,520.86,521.84,522.83,523.88,524.99,526.15,527.31,528.41,529.67,531.46,534.34,537.10,539.24,541.18,543.24,545.26,547.22,549.28,551.58,554.21,556.89,559.33,561.45,563.31,565.39,567.68,569.22,569.50,569.01,568.05,566.74,565.20,563.73,562.54,562.62,564.00,566.59,569.36,571.61,573.41,574.88,576.09,576.86,577.26,577.41,577.37,577.10,577.18,578.00,579.66,581.59,582.65,583.88,585.59,587.75,589.88,592.00,594.05,595.95,597.88,600.38,603.94,608.38,612.79,617.81,622.48,626.66,630.31,633.29,636.22,639.52,643.50,648.46,654.84,661.59,667.98,673.08,676.78,681.62,687.36,693.05,697.14,700.54,704.96,711.54,721.10,731.24,739.15,744.47,747.51,750.49,752.23,753.50,754.90,756.64,758.56,760.86,763.75,767.50,771.53,776.57,780.87,782.80,784.10,785.47,787.00,788.62,790.02,791.16,792.43,793.88,795.46,797.01,796.42,794.83,793.09,791.38,788.73,785.54,782.25,779.44,776.52,775.32,775.36,775.81,775.85,775.06,773.75,772.07,770.01,766.09,760.49,754.57,750.42,748.78,749.36,751.82,755.94,760.21,763.96,765.80,765.76,764.89,763.32,760.87,757.58,753.48,749.39,743.78,739.20,736.47,733.91,731.87
487.20,487.25,487.30,487.31,487.38,487.40,487.43,487.50,487.50,487.54,487.58,487.61,487.66,487.69,487.70,487.73,487.80,487.80,487.86,487.90,487.92,487.99,488.00,488.05,488.10,488.11,488.14,488.18,488.20,488.22,488.28,488.30,488.34,488.40,488.41,488.47,488.50,488.53,488.60,488.60,488.66,488.70,488.72,488.78,488.80,488.83,488.87,488.90,488.94,488.98,489.02,489.06,489.09,489.10,489.14,489.20,489.20,489.27,489.32,489.36,489.40,489.48,489.50,489.54,489.60,489.61,489.67,489.72,489.75,489.79,489.80,489.82,489.86,489.90,489.90,489.90,489.90,489.91,489.99,490.14,490.38,490.84,491.63,492.62,493.81,495.32,497.21,499.36,500.98,502.32,503.55,504.76,506.04,507.25,508.45,509.66,510.90,512.32,513.77,515.23,516.81,518.54,519.95,521.09,522.13,523.14,524.17,525.26,526.41,527.52,528.61,529.97,532.11,535.64,538.45,540.72,542.84,544.96,546.98,548.96,551.02,553.24,555.67,558.29,560.49,562.38,564.16,565.71,566.85,567.44,567.36,566.55,565.25,563.74,562.23,561.01,560.08,560.22,561.61,564.30,567.30,569.87,571.87,573.34,574.50,575.24,575.58,575.69,575.71,575.56,576.09,577.15,578.60,580.13,581.08,582.39,584.40,587.28,590.23,593.08,595.49,597.29,599.10,601.91,605.69,610.10,614.29,618.90,623.72,628.17,631.59,634.48,637.38,640.76,644.90,649.71,656.17,663.12,669.57,674.40,678.81,684.16,690.35,697.09,703.70,708.03,711.66,716.52,725.53,735.15,743.41,749.90,754.54,758.64,760.74,761.89,762.62,762.77,763.41,764.09,764.95,766.88,770.41,775.03,779.09,781.12,781.92,783.08,784.54,786.23,788.17,790.00,791.69,793.29,794.91,796.49,796.10,794.73,793.14,791.52,788.76,785.19,781.43,778.57,777.49,777.89,778.75,779.23,779.30,778.80,778.02,777.07,775.72,772.14,766.92,760.81,754.79,751.02,748.30,748.37,751.95,754.79,758.82,761.34,761.68,760.38,757.63,754.07,750.24,746.31,741.90,737.17,733.00,729.79,727.33,725.39
487.20,487.25,487.30,487.31,487.38,487.40,487.43,487.50,487.50,487.56,487.60,487.62,487.69,487.70,487.71,487.75,487.80,487.82,487.87,487.90,487.92,487.99,488.00,488.05,488.10,488.11,488.18,488.20,488.21,488.24,488.29,488.31,488.36,488.40,488.41,488.47,488.50,488.53,488.60,488.60,488.66,488.70,488.72,488.78,488.80,488.85,488.90,488.91,488.98,489.00,489.03,489.10,489.10,489.12,489.16,489.20,489.20,489.27,489.30,489.33,489.40,489.46,489.49,489.52,489.57,489.60,489.67,489.70,489.72,489.79,489.80,489.80,489.83,489.89,489.90,489.90,489.90,489.90,489.91,489.95,490.08,490.33,490.83,491.75,492.95,494.40,496.17,498.40,500.15,501.56,502.81,504.06,505.32,506.52,507.71,508.94,510.17,511.56,513.04,514.61,516.41,518.37,520.02,521.33,522.40,523.39,524.38,525.46,526.63,527.72,528.79,530.47,533.17,537.17,540.01,542.39,544.65,546.88,548.88,550.85,552.88,554.98,557.17,559.47,561.29,562.79,564.14,565.11,565.35,565.30,565.03,564.13,562.67,561.13,559.73,558.75,558.00,558.19,559.48,561.92,564.54,567.12,569.60,571.71,572.91,573.62,573.90,573.98,574.07,574.09,574.88,576.02,577.23,578.39,579.50,581.17,583.63,587.11,590.71,594.22,597.12,599.07,600.89,603.81,607.57,611.81,615.95,620.63,625.61,630.10,633.17,635.94,638.75,642.10,646.25,650.95,657.11,664.13,670.91,675.77,680.94,686.83,693.70,701.79,710.20,715.78,719.42,723.01,730.31,738.59,746.67,753.93,759.78,765.04,767.99,769.62,770.38,770.04,769.85,769.24,768.38,768.31,770.28,773.61,776.81,778.66,779.51,780.92,782.68,784.72,787.17,789.48,791.34,792.92,794.50,796.07,796.00,794.96,793.51,791.93,789.43,785.88,781.88,779.01,779.05,780.41,781.67,781.97,782.00,781.65,781.18,780.59,779.45,776.33,771.85,765.96,758.53,753.77,748.87,746.39,747.76,748.92,752.59,755.80,757.17,755.90,752.18,747.84,743.63,739.66,735.11,731.16,727.36,723.74,721.12,719.29
487.20,487.25,487.30,487.31,487.38,487.40,487.43,487.50,487.50,487.56,487.60,487.62,487.69,487.70,487.74,487.79,487.81,487.87,487.89,487.90,487.92,487.99,488.00,488.05,488.10,488.11,488.18,488.20,488.23,488.28,488.30,488.35,488.39,488.40,488.41,488.47,488.50,488.53,488.60,488.60,488.66,488.70,488.72,488.78,488.80,488.85,488.90,488.91,488.98,489.00,489.03,489.10,489.10,489.15,489.19,489.20,489.21,489.27,489.30,489.33,489.39,489.41,489.47,489.50,489.53,489.59,489.67,489.70,489.72,489.79,489.80,489.80,489.83,489.89,489.90,489.90,489.90,489.90,489.90,489.91,489.93,489.98,490.14,490.80,492.14,493.76,495.53,497.57,499.43,500.96,502.24,503.47,504.66,505.82,507.02,508.23,509.41,510.74,512.23,513.95,516.08,518.12,519.95,521.47,522.53,523.49,524.42,525.52,526.79,527.90,528.93,531.26,534.83,538.90,541.94,544.42,546.74,549.00,550.91,552.76,554.69,556.71,558.68,560.29,561.55,562.41,562.77,563.07,563.15,563.05,562.71,561.85,560.50,559.14,557.96,557.10,556.38,556.69,557.88,559.61,561.01,563.02,566.20,569.77,571.24,571.95,572.22,572.33,572.49,572.74,573.46,574.46,575.60,576.64,578.23,580.55,583.60,587.42,591.26,595.16,598.62,601.19,603.25,605.93,609.28,613.19,617.53,623.09,628.23,632.28,634.93,637.52,640.12,643.17,647.04,651.71,657.23,664.33,671.86,677.22,683.09,689.83,697.90,707.40,715.87,722.81,727.84,731.44,735.77,741.80,748.94,756.14,762.37,768.16,771.62,773.75,775.21,776.15,776.01,775.16,773.95,772.94,772.64,773.54,774.85,775.98,777.59,779.79,782.27,784.92,787.60,789.80,791.42,792.77,794.27,795.85,796.23,795.62,794.24,792.54,790.64,787.60,783.82,781.12,780.77,782.29,783.78,783.82,783.82,783.42,782.88,782.10,780.51,777.64,773.69,767.90,759.63,755.78,751.33,746.82,743.62,742.75,745.02,748.71,751.89,751.41,747.43,743.05,738.74,734.23,729.81,725.73,721.78,718.08,715.23,713.44
487.24,487.28,487.31,487.36,487.39,487.43,487.47,487.50,487.50,487.56,487.60,487.62,487.69,487.70,487.75,487.80,487.81,487.88,487.90,487.92,487.96,488.00,488.03,488.07,488.10,488.11,488.18,488.20,488.23,488.30,488.31,488.36,488.40,488.41,488.45,488.49,488.53,488.56,488.61,488.64,488.68,488.70,488.72,488.78,488.80,488.85,488.90,488.91,488.98,489.00,489.03,489.10,489.11,489.16,489.20,489.21,489.25,489.29,489.33,489.37,489.40,489.40,489.46,489.52,489.56,489.60,489.67,489.70,489.72,489.79,489.80,489.80,489.83,489.89,489.90,489.90,489.90,489.90,489.90,489.90,489.90,489.90,489.95,490.23,491.37,492.98,494.88,496.88,498.83,500.46,501.80,503.00,504.20,505.40,506.58,507.71,508.75,509.83,511.13,512.76,514.82,516.84,518.91,520.68,521.74,522.69,523.58,524.81,526.43,527.92,529.05,531.75,536.02,540.91,544.74,547.32,549.33,551.19,553.10,554.35,555.46,556.66,558.00,559.08,560.00,560.65,560.79,560.87,560.92,560.80,560.39,559.60,558.60,557.47,556.34,555.39,554.69,554.97,556.03,557.51,558.42,559.82,562.45,566.05,569.11,570.18,570.65,570.97,571.18,571.48,572.18,573.11,574.27,575.93,577.86,580.38,583.71,588.07,592.33,596.51,600.05,602.50,604.68,607.08,610.20,614.14,618.78,624.92,629.90,633.51,636.21,638.77,641.35,644.15,647.49,651.87,657.17,664.44,672.60,678.95,685.30,692.95,702.06,712.42,722.05,729.53,734.90,738.52,741.63,745.99,751.58,757.66,763.40,768.88,772.59,775.39,777.74,779.39,779.84,779.50,778.74,778.02,777.33,777.30,777.62,778.02,778.92,780.71,783.10,785.88,788.58,790.31,791.57,792.77,794.19,795.57,795.94,795.65,794.88,793.51,791.75,789.11,785.82,783.07,783.09,784.68,785.99,785.80,785.65,784.54,783.11,781.63,779.88,776.99,773.46,768.83,762.61,759.77,756.33,752.18,747.94,744.37,741.54,741.73,743.87,743.68,740.28,736.26,732.29,728.38,724.44,720.45,716.50,712.63,708.78,706.29
487.27,487.30,487.32,487.39,487.40,487.46,487.50,487.50,487.52,487.57,487.61,487.64,487.69,487.70,487.75,487.80,487.81,487.88,487.90,487.94,488.00,488.00,488.07,488.10,488.11,488.13,488.18,488.21,488.25,488.30,488.31,488.36,488.40,488.42,488.49,488.50,488.55,488.60,488.61,488.68,488.70,488.71,488.73,488.79,488.81,488.86,488.90,488.93,488.98,489.01,489.04,489.10,489.12,489.17,489.20,489.22,489.29,489.30,489.35,489.40,489.40,489.42,489.47,489.54,489.60,489.61,489.67,489.70,489.72,489.79,489.80,489.80,489.82,489.88,489.88,489.88,489.88,489.88,489.88,489.88,489.89,489.90,489.90,489.90,490.68,492.18,494.23,496.25,498.27,500.02,501.45,502.63,503.84,505.04,506.18,507.22,508.13,508.98,510.02,511.41,513.21,515.20,517.43,519.43,520.62,521.62,522.54,523.89,525.81,527.65,529.03,532.11,536.99,542.73,547.28,549.90,551.45,552.63,554.10,554.68,555.06,555.60,556.42,557.00,557.59,558.05,558.17,558.25,558.43,558.42,558.04,557.30,556.55,555.66,554.65,553.67,552.98,553.20,554.16,555.55,556.52,557.74,559.86,563.10,567.02,568.34,568.99,569.52,569.85,570.21,570.89,571.82,573.18,575.45,577.65,580.43,584.12,588.98,593.51,597.74,601.14,603.37,605.55,607.70,610.72,614.85,619.85,626.21,631.17,634.70,637.54,640.10,642.64,645.20,648.10,652.37,657.80,665.22,673.68,680.95,687.82,696.29,706.08,716.63,727.31,735.01,740.49,744.36,747.41,750.66,754.50,758.92,763.91,768.95,772.94,776.38,779.40,781.42,782.57,782.95,782.85,782.66,782.08,781.69,781.41,781.14,781.20,782.33,784.38,787.05,789.53,790.81,791.80,792.89,794.16,795.19,795.41,795.31,795.07,794.21,792.71,790.41,787.53,785.00,785.50,787.06,788.08,787.65,787.04,785.09,782.77,780.59,778.70,776.13,773.33,770.17,766.54,764.62,762.02,758.58,754.25,748.61,741.49,737.26,736.13,735.08,732.24,728.81,725.42,722.27,718.81,714.48,710.21,706.17,701.68,698.84
487.27,487.30,487.32,487.39,487.40,487.46,487.50,487.51,487.57,487.59,487.64,487.69,487.70,487.70,487.75,487.80,487.81,487.88,487.90,487.94,488.00,488.00,488.07,488.10,488.12,488.18,488.20,488.25,488.29,488.30,488.31,488.36,488.40,488.42,488.49,488.50,488.55,488.60,488.61,488.68,488.70,488.73,488.78,488.80,488.86,488.89,488.92,488.98,489.00,489.04,489.09,489.11,489.17,489.19,489.20,489.22,489.29,489.30,489.35,489.40,489.41,489.47,489.49,489.54,489.60,489.61,489.67,489.70,489.72,489.79,489.80,489.80,489.81,489.81,489.81,489.81,489.81,489.81,489.81,489.81,489.86,489.90,489.90,489.90,490.20,491.41,493.59,495.67,497.74,499.61,501.20,502.42,503.59,504.68,505.71,506.69,507.50,508.29,509.08,510.02,511.42,513.37,515.56,517.65,519.29,520.48,521.54,522.98,524.91,526.83,528.71,532.36,537.74,543.87,548.74,551.18,552.13,552.29,552.24,552.23,552.58,553.33,554.10,554.23,554.30,554.39,554.46,554.75,555.32,555.72,555.63,554.89,554.02,553.35,552.75,551.95,551.25,551.49,552.40,553.80,555.66,557.68,560.20,563.06,565.34,566.38,567.05,567.67,568.28,568.86,569.44,570.55,572.45,574.86,577.28,580.66,585.12,590.25,594.63,598.44,601.51,603.66,605.66,607.73,610.82,615.24,620.73,626.66,632.06,636.41,639.33,641.82,644.15,646.48,649.31,654.00,660.16,667.59,675.67,683.42,691.00,700.09,709.76,719.32,730.15,737.80,743.47,748.15,752.75,755.88,757.82,760.02,764.21,769.00,773.52,777.44,780.47,782.44,784.20,785.33,785.84,785.99,785.54,785.15,784.63,783.82,783.58,784.28,785.92,788.22,790.10,791.22,792.16,793.14,794.13,794.64,794.63,794.45,794.28,794.03,793.39,791.36,788.52,786.99,787.78,789.10,789.81,789.13,787.35,784.75,782.03,779.50,777.34,776.08,774.75,773.12,771.43,770.22,767.73,764.24,759.83,754.01,746.81,738.58,730.80,726.51,723.60,721.05,718.52,715.81,712.59,706.86,701.40,697.28,693.46,691.51
487.27,487.30,487.32,487.39,487.40,487.46,487.50,487.51,487.59,487.60,487.64,487.70,487.70,487.74,487.77,487.81,487.85,487.89,487.90,487.94,488.00,488.00,488.07,488.10,488.12,488.19,488.20,488.25,488.30,488.31,488.34,488.38,488.42,488.46,488.49,488.50,488.55,488.60,488.61,488.68,488.70,488.74,488.80,488.81,488.87,488.90,488.92,488.99,489.00,489.05,489.10,489.12,489.19,489.20,489.22,489.26,489.29,489.34,489.38,489.40,489.41,489.48,489.50,489.54,489.60,489.61,489.67,489.70,489.72,489.79,489.80,489.80,489.80,489.80,489.80,489.80,489.80,489.80,489.80,489.80,489.85,489.90,489.90,489.90,490.16,491.26,493.24,495.13,497.23,499.24,500.92,502.08,503.21,504.22,505.16,506.04,506.85,507.63,508.37,509.12,510.16,511.84,513.92,516.00,517.67,518.99,520.27,521.85,523.92,526.40,529.00,532.97,538.32,544.35,549.07,551.06,551.39,550.67,548.82,548.24,548.86,550.15,551.07,551.14,550.86,550.59,550.66,551.30,552.20,552.95,553.19,552.60,551.55,550.86,550.49,549.97,549.62,550.37,551.77,553.47,555.55,557.71,559.96,562.11,563.63,564.60,565.37,566.09,566.78,567.44,568.40,569.96,572.23,574.80,577.41,581.22,586.09,591.06,595.11,598.69,601.81,604.30,606.39,608.29,611.46,616.18,621.45,626.73,632.28,637.38,640.89,643.56,645.97,648.85,652.73,657.90,663.69,670.43,678.09,686.39,694.18,702.97,712.12,721.21,731.72,739.37,745.45,751.06,757.07,760.57,762.56,764.39,767.34,770.77,775.13,779.03,781.62,783.60,785.53,787.11,788.14,788.39,788.21,787.89,787.27,786.31,785.90,786.30,787.54,789.37,790.74,791.69,792.59,793.47,794.14,794.14,793.70,793.18,792.76,792.55,792.81,792.31,791.02,789.93,790.08,790.46,790.44,789.45,787.22,784.56,782.18,780.27,778.75,778.25,777.46,776.02,774.00,772.03,769.13,765.50,761.14,755.60,748.38,739.28,729.33,721.14,715.87,712.60,710.03,707.21,704.14,699.57,695.18,691.70,688.74,686.50
487.27,487.30,487.32,487.39,487.40,487.46,487.50,487.51,487.59,487.60,487.64,487.70,487.71,487.77,487.80,487.83,487.89,487.90,487.91,487.95,488.00,488.02,488.07,488.11,488.13,488.19,488.20,488.25,488.30,488.31,488.38,488.40,488.44,488.50,488.50,488.51,488.56,488.60,488.63,488.68,488.71,488.75,488.80,488.82,488.87,488.90,488.92,488.99,489.00,489.05,489.10,489.12,489.19,489.20,489.24,489.30,489.31,489.37,489.40,489.40,489.43,489.48,489.51,489.55,489.60,489.62,489.67,489.71,489.73,489.79,489.80,489.80,489.80,489.80,489.80,489.80,489.80,489.80,489.80,489.80,489.84,489.89,489.90,489.90,490.27,491.33,493.03,494.65,496.72,498.82,500.60,501.68,502.74,503.70,504.57,505.35,506.18,506.97,507.70,508.40,509.19,510.52,512.40,514.37,516.00,517.48,518.99,520.75,523.05,526.23,529.58,533.73,538.71,544.15,548.36,549.82,549.56,548.05,544.87,543.88,544.63,546.23,547.26,547.60,547.23,546.72,546.78,547.58,548.67,549.71,550.35,550.07,549.05,548.36,548.12,548.07,548.34,549.69,551.58,553.56,555.58,557.56,559.34,560.81,561.91,562.88,563.77,564.63,565.48,566.34,567.77,569.78,572.30,574.96,577.69,581.85,587.05,591.71,595.39,598.85,602.19,605.19,607.49,609.49,612.85,617.65,622.24,626.68,632.21,637.87,642.02,644.94,647.52,651.08,656.16,661.72,667.00,673.04,680.34,689.15,697.01,705.25,713.81,722.68,732.75,740.42,747.06,753.63,760.49,764.46,767.10,769.21,771.15,773.34,777.14,780.62,782.75,784.76,786.71,788.49,789.81,790.09,790.13,789.90,789.35,788.52,788.08,788.27,789.14,790.46,791.42,792.24,793.00,793.66,794.03,793.69,792.90,792.04,791.28,790.73,791.46,792.40,792.88,792.31,791.89,791.36,790.61,789.42,787.21,784.90,783.13,782.00,781.17,780.85,779.91,778.00,774.95,771.79,768.28,764.50,760.32,755.23,747.85,738.86,728.50,717.02,709.01,704.67,701.88,698.90,695.98,693.11,690.25,687.55,685.27,682.29
487.27,487.30,487.32,487.39,487.40,487.46,487.50,487.51,487.59,487.60,487.64,487.70,487.71,487.77,487.80,487.83,487.89,487.90,487.95,487.99,488.01,488.07,488.10,488.14,488.19,488.20,488.20,488.25,488.30,488.31,488.38,488.40,488.44,488.50,488.50,488.56,488.59,488.62,488.68,488.70,488.75,488.79,488.81,488.87,488.89,488.90,488.92,488.99,489.00,489.05,489.10,489.12,489.19,489.20,489.24,489.30,489.31,489.37,489.40,489.42,489.48,489.50,489.54,489.59,489.61,489.67,489.69,489.74,489.78,489.80,489.80,489.80,489.80,489.80,489.80,489.80,489.80,489.80,489.80,489.80,489.81,489.84,489.89,489.90,490.38,491.43,492.92,494.29,496.16,498.26,500.15,501.22,502.19,503.09,503.92,504.69,505.48,506.25,506.99,507.71,508.55,509.56,510.98,512.67,514.47,516.23,518.00,520.01,522.64,526.45,530.46,534.58,538.70,542.48,545.48,546.43,545.72,543.61,540.89,539.93,540.09,540.85,541.74,542.93,543.12,542.76,542.67,542.86,543.82,545.08,546.23,546.68,546.43,545.95,545.77,546.68,548.02,549.77,551.65,553.47,555.25,556.80,558.19,559.39,560.21,561.17,562.15,563.28,564.78,566.32,568.05,570.20,572.77,575.31,577.89,582.37,588.00,592.37,595.75,599.24,602.94,606.53,609.12,612.19,616.08,620.27,623.40,626.75,631.89,637.64,642.03,645.07,647.86,651.78,657.28,662.85,668.33,674.36,681.55,690.69,698.64,706.53,714.77,723.65,733.38,741.18,748.62,756.03,762.11,766.32,769.52,772.06,774.08,776.68,779.32,781.69,783.73,785.74,787.68,789.20,790.16,790.45,790.49,790.36,790.17,790.00,789.85,790.05,790.61,791.40,792.12,792.93,793.24,793.28,793.46,793.34,792.63,791.71,790.71,789.26,788.88,789.69,791.10,791.82,792.10,791.47,790.45,789.48,788.02,786.78,785.73,784.82,783.92,782.45,780.18,777.11,773.16,768.89,764.76,760.92,757.20,752.55,744.55,735.50,725.58,713.50,704.04,699.17,696.56,693.88,691.13,688.97,686.80,684.45,682.15,678.28
487.27,487.32,487.36,487.40,487.44,487.47,487.51,487.55,487.59,487.63,487.67,487.70,487.71,487.77,487.80,487.83,487.89,487.90,487.96,488.00,488.01,488.09,488.10,488.15,488.20,488.20,488.24,488.27,488.30,488.31,488.38,488.40,488.44,488.50,488.50,488.57,488.60,488.63,488.69,488.70,488.76,488.80,488.81,488.88,488.90,488.92,488.96,489.00,489.03,489.07,489.11,489.15,489.19,489.23,489.26,489.31,489.35,489.38,489.40,489.43,489.49,489.50,489.56,489.60,489.62,489.69,489.70,489.75,489.80,489.80,489.80,489.80,489.80,489.80,489.80,489.80,489.80,489.80,489.80,489.80,489.80,489.83,489.89,489.90,490.29,491.20,492.55,493.85,495.49,497.45,499.38,500.67,501.60,502.43,503.22,504.00,504.77,505.54,506.30,507.06,507.95,508.93,510.28,511.99,513.98,515.96,517.85,520.10,523.15,527.37,531.26,534.90,538.06,540.08,541.40,541.78,541.20,539.65,537.95,537.33,537.46,538.07,538.90,539.97,540.24,540.04,539.98,540.06,540.67,541.57,542.53,543.20,543.63,543.98,544.60,546.06,547.76,549.53,551.25,552.82,554.35,555.71,556.95,558.05,558.94,560.04,561.42,563.14,565.18,566.87,568.64,570.73,573.15,575.56,578.03,582.60,588.38,592.52,595.75,599.15,603.29,608.03,611.22,614.73,618.40,621.81,624.38,627.17,631.68,637.04,641.63,644.81,647.80,651.89,657.48,663.13,668.65,674.70,682.05,691.71,699.96,707.65,715.61,724.40,733.91,741.86,749.61,757.16,762.75,766.85,770.23,773.11,775.51,778.27,780.44,782.32,784.19,786.19,788.11,789.49,790.27,790.57,790.73,790.78,790.85,790.98,791.11,791.30,791.56,791.88,792.20,792.62,792.62,792.47,792.69,792.92,792.26,791.08,789.56,787.63,787.35,788.59,790.50,791.58,792.11,791.61,790.71,789.98,789.16,788.57,787.79,786.42,784.15,781.59,778.57,774.97,770.47,765.05,760.64,756.97,753.32,748.21,740.19,731.82,723.33,713.30,704.79,699.19,695.29,691.85,688.67,686.08,683.63,681.01,677.85,673.24
487.27,487.35,487.40,487.41,487.48,487.50,487.53,487.59,487.61,487.66,487.70,487.70,487.72,487.77,487.81,487.84,487.89,487.90,487.96,488.00,488.01,488.09,488.10,488.15,488.20,488.21,488.27,488.30,488.30,488.33,488.39,488.41,488.45,488.50,488.52,488.57,488.61,488.64,488.69,488.70,488.76,488.80,488.81,488.88,488.90,488.94,489.00,489.01,489.08,489.10,489.13,489.19,489.20,489.26,489.30,489.32,489.38,489.40,489.41,489.44,489.49,489.50,489.56,489.60,489.62,489.69,489.71,489.75,489.80,489.81,489.81,489.81,489.81,489.81,489.81,489.81,489.81,489.81,489.80,489.80,489.80,489.83,489.89,489.90,490.12,490.80,491.99,493.30,494.73,496.48,498.37,499.95,500.93,501.73,502.50,503.29,504.06,504.84,505.63,506.46,507.46,508.55,510.07,511.96,514.13,516.27,518.26,520.80,524.33,528.66,532.04,534.88,536.93,537.32,537.08,536.94,536.69,536.09,535.49,535.38,535.80,536.60,537.42,537.98,538.13,538.09,538.14,538.34,538.60,538.98,539.52,540.21,541.16,542.45,543.99,545.72,547.41,549.05,550.57,551.90,553.22,554.55,555.78,556.91,558.03,559.29,561.17,563.57,566.10,567.77,569.50,571.45,573.61,575.88,578.23,582.75,588.48,592.42,595.58,598.79,603.24,609.12,612.97,616.66,619.91,622.62,625.08,627.63,631.49,636.29,641.05,644.36,647.51,651.64,657.16,662.93,668.48,674.55,682.04,692.11,700.77,708.50,716.29,724.94,734.33,742.40,750.18,757.54,762.78,766.66,770.03,773.13,775.94,778.75,780.84,782.57,784.26,786.21,788.09,789.45,790.24,790.55,790.84,791.07,791.27,791.49,791.77,791.87,791.87,791.81,791.75,791.71,791.55,791.47,791.85,792.40,791.65,790.01,787.85,785.79,786.30,788.27,790.49,791.42,791.94,791.69,791.10,790.62,790.25,790.02,789.16,787.00,782.90,779.32,775.85,772.00,767.19,761.26,757.13,753.85,750.15,744.75,737.46,730.20,723.21,715.70,708.92,702.69,697.04,692.24,688.32,684.77,681.48,678.10,673.60,668.25
487.29,487.35,487.40,487.41,487.48,487.50,487.53,487.60,487.61,487.67,487.70,487.71,487.76,487.79,487.84,487.88,487.90,487.90,487.96,488.00,488.01,488.09,488.10,488.15,488.20,488.21,488.28,488.30,488.33,488.37,488.40,488.45,488.49,488.51,488.56,488.60,488.64,488.68,488.70,488.70,488.76,488.80,488.81,488.88,488.90,488.94,489.00,489.01,489.08,489.10,489.13,489.19,489.20,489.26,489.30,489.32,489.39,489.40,489.44,489.48,489.50,489.50,489.56,489.60,489.62,489.69,489.75,489.78,489.81,489.87,489.88,489.88,489.88,489.88,489.88,489.88,489.88,489.86,489.81,489.80,489.80,489.83,489.89,489.90,489.96,490.34,491.19,492.48,493.77,495.32,497.03,498.69,500.02,500.95,501.75,502.57,503.35,504.16,505.02,506.00,507.33,508.68,510.47,512.61,514.89,516.98,519.26,522.38,526.38,530.07,532.89,534.51,535.01,534.58,534.08,533.76,533.43,533.01,532.89,533.42,534.25,535.17,535.98,536.47,536.67,536.79,536.97,537.14,537.40,537.78,538.38,539.27,540.32,541.72,543.38,545.04,546.63,548.20,549.70,551.05,552.32,553.66,555.05,556.44,557.70,558.99,561.09,563.88,566.92,568.89,570.80,572.72,574.63,576.61,578.78,583.14,588.67,592.38,595.41,598.31,602.41,608.23,612.52,616.61,620.05,622.69,624.98,627.52,631.16,635.70,640.47,643.84,647.04,651.10,656.46,662.37,668.20,674.24,681.35,690.98,700.18,708.49,716.55,725.10,734.43,742.46,750.17,757.37,762.25,766.09,769.45,772.52,775.33,778.21,780.39,782.14,783.76,785.58,787.39,788.98,790.11,790.37,790.62,790.82,790.96,791.00,790.95,790.82,790.67,790.53,790.36,790.30,790.31,790.50,791.09,791.60,790.37,787.93,785.07,783.48,785.00,787.77,790.32,791.07,791.44,791.42,791.21,790.94,790.64,790.36,789.06,785.94,780.67,776.26,772.30,768.13,763.23,759.38,757.10,754.64,751.13,747.89,743.17,737.25,730.21,722.00,715.38,709.30,703.05,696.59,691.81,687.25,682.80,678.08,671.92,665.49
487.30,487.35,487.40,487.41,487.48,487.50,487.53,487.60,487.61,487.67,487.70,487.72,487.79,487.80,487.85,487.90,487.91,487.93,487.97,488.01,488.05,488.10,488.13,488.17,488.20,488.21,488.28,488.30,488.33,488.39,488.41,488.46,488.50,488.52,488.59,488.60,488.65,488.70,488.70,488.73,488.77,488.81,488.85,488.90,488.93,488.97,489.01,489.04,489.09,489.10,489.13,489.19,489.20,489.26,489.30,489.32,489.39,489.40,489.45,489.50,489.50,489.53,489.57,489.61,489.65,489.70,489.77,489.81,489.85,489.89,489.90,489.90,489.91,489.94,489.94,489.91,489.90,489.88,489.81,489.80,489.80,489.82,489.86,489.89,489.90,490.06,490.50,491.41,492.63,494.07,495.67,497.32,498.84,500.02,500.97,501.78,502.55,503.32,504.50,506.05,507.54,508.99,511.06,513.50,515.86,518.01,520.80,524.38,528.33,530.95,532.56,533.08,532.74,531.94,531.36,530.98,530.66,530.47,530.80,531.68,532.70,533.68,534.58,535.05,535.34,535.56,535.78,536.00,536.30,536.81,537.59,538.61,539.66,541.00,542.60,544.21,545.76,547.31,548.83,550.29,551.65,553.08,554.58,556.10,557.52,558.90,561.20,564.32,567.75,570.13,572.32,574.38,576.25,578.01,580.18,584.08,588.81,592.11,594.99,597.72,601.40,606.57,611.03,615.40,619.20,622.22,624.69,627.35,630.93,635.27,639.86,643.32,646.59,650.57,655.71,661.69,667.71,673.63,680.30,689.53,699.34,708.04,716.28,724.90,734.11,742.25,749.81,756.63,761.59,765.46,768.85,771.90,774.55,777.07,779.16,781.02,782.80,784.58,786.38,788.10,789.47,789.92,790.23,790.42,790.46,790.23,789.51,788.63,787.73,786.88,786.22,786.81,787.86,789.11,790.41,790.94,788.57,785.06,782.11,781.36,783.37,786.33,789.06,790.41,790.81,790.88,790.85,790.74,790.53,790.26,788.67,785.08,779.79,775.27,771.33,767.59,763.89,761.67,760.30,758.42,755.53,752.96,749.32,744.50,738.41,730.80,723.36,716.24,708.96,701.38,695.37,689.45,684.13,679.12,672.56,666.01
487.30,487.35,487.40,487.42,487.48,487.50,487.54,487.60,487.61,487.67,487.70,487.72,487.79,487.80,487.85,487.90,487.91,487.98,488.00,488.04,488.09,488.11,488.16,488.20,488.20,488.22,488.28,488.31,488.34,488.39,488.41,488.46,488.50,488.52,488.59,488.60,488.65,488.70,488.71,488.77,488.80,488.84,488.89,488.91,488.97,489.00,489.02,489.09,489.10,489.11,489.14,489.20,489.21,489.26,489.30,489.33,489.39,489.41,489.45,489.50,489.51,489.58,489.60,489.64,489.69,489.70,489.77,489.84,489.89,489.90,489.91,489.91,489.94,489.99,489.99,489.94,489.90,489.88,489.82,489.80,489.80,489.80,489.81,489.88,489.90,489.91,490.00,490.33,491.39,492.78,494.31,495.94,497.51,498.96,500.13,500.91,501.66,502.38,504.03,506.37,507.99,509.48,511.86,514.62,517.04,519.34,522.63,526.32,529.58,530.91,531.02,530.68,530.12,529.30,528.78,528.45,528.28,528.42,529.17,530.18,531.21,532.22,533.21,533.69,534.00,534.27,534.53,534.86,535.29,535.98,536.97,538.03,539.05,540.26,541.70,543.31,544.87,546.42,548.01,549.62,551.17,552.71,554.25,555.81,557.39,558.89,561.41,564.82,568.53,571.33,573.84,576.15,578.18,579.88,582.12,585.31,588.87,591.63,594.35,597.05,600.29,604.49,608.96,613.52,617.76,621.43,624.29,627.14,630.72,634.89,639.20,642.78,646.15,650.05,655.00,660.98,667.04,672.79,679.09,687.98,698.32,707.30,715.63,724.37,733.41,741.74,749.13,755.51,760.85,764.78,768.19,771.19,773.52,775.43,777.36,779.44,781.58,783.38,785.20,786.96,788.41,789.09,789.49,789.66,789.60,789.05,787.62,785.80,783.82,781.98,781.04,782.62,785.08,787.67,789.87,790.43,786.63,782.01,779.35,779.45,781.44,784.09,786.82,789.10,789.70,789.82,789.85,789.83,789.80,789.66,788.11,784.67,780.20,776.23,772.82,770.02,768.11,766.80,765.52,763.96,761.81,758.68,754.86,750.81,746.37,740.50,731.98,723.17,714.58,706.26,698.79,691.28,685.23,680.56,674.48,668.44
487.30,487.35,487.41,487.46,487.49,487.54,487.58,487.61,487.66,487.69,487.70,487.72,487.79,487.80,487.85,487.90,487.91,487.98,488.00,488.04,488.10,488.11,488.17,488.20,488.22,488.26,488.29,488.34,488.38,488.40,488.41,488.46,488.50,488.52,488.59,488.60,488.65,488.70,488.71,488.78,488.80,488.84,488.89,488.91,488.97,489.00,489.02,489.09,489.10,489.14,489.18,489.20,489.25,489.29,489.33,489.37,489.40,489.45,489.48,489.50,489.51,489.58,489.60,489.64,489.69,489.70,489.77,489.85,489.90,489.91,489.95,489.97,489.98,490.00,490.00,489.94,489.90,489.89,489.87,489.82,489.80,489.80,489.81,489.88,489.90,489.90,489.92,490.01,490.39,491.45,493.04,494.80,496.42,497.86,499.03,499.86,500.51,501.53,503.62,506.39,508.47,510.45,513.15,516.15,518.79,521.11,524.15,526.67,527.93,528.12,527.57,527.15,526.86,526.32,526.26,526.27,526.53,527.22,528.11,529.11,530.10,531.05,531.91,532.26,532.48,532.71,533.04,533.68,534.56,535.54,536.55,537.58,538.59,539.63,540.85,542.46,544.02,545.63,547.33,549.09,550.75,552.36,553.92,555.48,557.05,558.67,561.46,565.18,569.12,572.08,574.71,577.26,579.67,581.72,583.80,586.19,588.69,590.96,593.59,596.25,599.07,602.41,606.96,611.75,616.50,620.83,623.89,626.86,630.29,634.21,638.45,642.13,645.56,649.53,654.53,660.31,666.15,671.92,678.25,686.66,696.87,706.19,714.82,723.42,732.20,740.51,747.88,754.27,760.04,763.96,767.15,769.81,771.63,773.28,775.34,777.86,780.53,782.33,784.07,785.79,787.12,787.29,787.43,787.55,787.36,786.51,785.26,783.27,780.84,779.01,780.15,782.39,785.00,787.62,789.75,790.18,785.69,780.62,778.00,777.71,779.11,781.17,783.42,785.43,786.46,786.96,787.16,787.22,787.52,787.78,787.31,785.52,782.05,779.42,777.25,775.33,773.56,771.87,770.33,768.70,766.46,762.72,758.13,754.12,750.77,746.76,739.01,729.86,720.40,711.16,702.49,693.43,686.13,680.95,675.21,669.34
487.32,487.36,487.42,487.49,487.50,487.56,487.60,487.62,487.69,487.70,487.71,487.75,487.79,487.82,487.86,487.91,487.94,487.99,488.00,488.04,488.10,488.11,488.17,488.20,488.22,488.29,488.30,488.36,488.40,488.40,488.43,488.48,488.51,488.55,488.60,488.62,488.66,488.71,488.74,488.79,488.82,488.86,488.90,488.91,488.97,489.00,489.02,489.09,489.10,489.15,489.20,489.22,489.28,489.30,489.34,489.40,489.41,489.47,489.50,489.51,489.54,489.59,489.62,489.66,489.70,489.73,489.78,489.85,489.91,489.94,489.99,490.00,490.00,490.00,490.00,489.96,489.92,489.90,489.89,489.85,489.82,489.80,489.81,489.85,489.89,489.90,489.90,489.90,489.90,490.50,491.77,493.60,495.32,496.75,497.92,498.82,499.48,500.58,502.89,506.10,508.88,511.51,514.51,517.60,520.26,522.29,524.31,525.25,524.79,524.16,523.48,523.34,523.56,523.63,524.12,524.60,525.26,526.24,527.19,528.14,529.02,529.83,530.59,530.79,530.97,531.29,531.89,532.82,533.98,535.15,536.21,537.19,538.17,539.11,540.17,541.67,543.25,544.95,546.75,548.57,550.28,551.88,553.46,555.07,556.72,558.46,561.36,565.23,569.41,572.40,575.08,577.66,580.12,582.27,584.20,586.19,588.25,590.28,592.85,595.40,597.88,600.74,605.25,610.30,615.51,620.29,623.48,626.49,629.77,633.50,637.71,641.52,645.15,649.27,654.30,659.94,665.23,670.82,677.15,684.96,694.77,704.47,713.56,722.06,730.58,739.02,746.41,752.68,758.64,762.58,765.27,767.26,768.88,770.93,773.53,776.53,779.57,781.54,783.18,784.58,785.46,785.21,785.15,785.19,784.88,783.83,782.69,780.34,778.32,777.93,780.40,782.82,785.23,787.57,789.46,789.86,785.68,780.78,777.79,776.51,776.49,777.50,779.14,780.79,782.27,783.22,783.77,784.13,784.78,785.47,785.99,785.80,783.85,782.14,780.75,779.41,777.84,776.15,774.35,772.37,769.84,765.83,760.46,756.18,753.31,750.19,743.45,734.55,725.00,715.74,706.60,696.67,688.23,681.90,675.72,669.12
487.36,487.39,487.42,487.49,487.50,487.56,487.60,487.62,487.69,487.70,487.74,487.79,487.81,487.86,487.89,487.93,487.99,488.00,488.00,488.04,488.10,488.11,488.17,488.20,488.23,488.29,488.30,488.36,488.40,488.41,488.48,488.50,488.54,488.59,488.61,488.66,488.69,488.73,488.79,488.80,488.85,488.89,488.90,488.91,488.97,489.00,489.03,489.09,489.11,489.16,489.20,489.22,489.28,489.30,489.34,489.40,489.41,489.47,489.50,489.53,489.59,489.60,489.65,489.69,489.72,489.78,489.80,489.85,489.92,489.98,490.00,490.00,490.00,490.00,490.00,489.99,489.95,489.90,489.90,489.89,489.85,489.80,489.80,489.81,489.86,489.89,489.90,489.90,489.90,489.98,490.58,492.35,494.18,495.68,496.90,497.89,498.68,499.60,501.98,505.71,509.32,512.57,515.75,518.73,521.12,522.56,522.96,522.27,520.75,519.68,519.29,519.68,520.54,521.43,522.42,523.42,524.40,525.34,526.32,527.19,527.90,528.52,529.22,529.30,529.57,530.19,531.18,532.36,533.57,534.77,535.91,536.86,537.80,538.70,539.66,540.95,542.58,544.37,546.20,548.02,549.73,551.28,552.89,554.63,556.45,558.28,561.13,564.98,569.35,572.29,574.92,577.34,579.50,581.48,583.33,585.37,587.54,589.62,592.15,594.52,596.83,599.61,603.94,609.24,614.76,619.72,622.95,625.95,629.16,632.78,636.95,641.01,644.95,649.27,654.30,659.90,664.40,669.53,675.67,682.77,691.98,702.10,711.79,720.24,728.54,737.15,744.52,750.45,756.25,760.12,762.13,763.42,765.41,768.59,772.05,775.49,778.66,780.94,782.48,783.31,783.48,783.01,782.82,782.69,782.17,780.92,779.63,777.01,776.36,778.51,781.13,783.29,785.33,787.32,788.91,789.36,786.29,782.11,778.55,776.00,774.00,773.51,774.36,775.61,777.35,778.75,779.83,780.78,781.78,782.87,784.08,785.12,785.07,783.87,782.68,781.63,780.47,779.28,777.25,774.77,771.95,768.05,762.07,757.38,754.41,751.16,745.31,737.12,728.23,719.83,710.97,700.95,691.65,683.77,676.30,668.04
487.37,487.40,487.42,487.49,487.50,487.56,487.60,487.62,487.69,487.70,487.74,487.80,487.81,487.87,487.90,487.93,488.00,488.00,488.04,488.08,488.11,488.16,488.19,488.23,488.27,488.30,488.30,488.36,488.40,488.42,488.49,488.50,488.54,488.60,488.61,488.67,488.70,488.73,488.80,488.80,488.86,488.90,488.91,488.95,488.99,489.03,489.07,489.10,489.15,489.18,489.22,489.26,489.29,489.30,489.34,489.40,489.41,489.47,489.50,489.53,489.59,489.60,489.66,489.70,489.72,489.79,489.84,489.88,489.92,489.99,490.00,490.00,490.00,490.00,490.00,490.00,489.96,489.90,489.90,489.90,489.85,489.80,489.80,489.80,489.82,489.86,489.90,489.90,489.90,489.90,490.17,491.28,493.10,494.81,496.29,497.52,498.51,499.40,502.14,506.52,510.37,513.39,516.13,518.55,520.24,520.76,520.31,519.34,518.10,517.02,517.19,518.03,519.14,520.25,521.37,522.50,523.55,524.47,525.33,526.03,526.63,527.21,527.82,527.87,528.64,529.90,531.11,532.38,533.46,534.45,535.45,536.42,537.40,538.30,539.20,540.32,541.97,543.73,545.49,547.23,548.94,550.68,552.50,554.38,556.24,558.10,560.85,564.52,568.68,571.66,574.06,576.24,578.34,580.37,582.39,584.53,586.75,588.94,591.41,593.89,596.43,599.37,603.54,608.72,614.03,618.69,621.59,624.62,628.02,631.80,636.02,640.52,644.74,649.19,654.30,659.89,664.26,668.63,673.63,679.94,688.62,699.20,709.44,717.70,725.75,733.70,740.59,746.19,750.98,753.68,755.66,758.07,762.03,767.20,771.16,774.56,777.75,780.04,781.44,781.92,781.68,781.09,780.40,779.70,778.29,775.73,773.91,773.99,776.02,779.27,781.45,783.24,785.14,786.95,788.14,788.37,785.62,782.18,779.42,776.71,774.09,772.21,771.18,771.01,771.97,773.57,775.40,777.18,778.70,780.05,781.49,782.99,784.01,783.99,783.22,782.07,780.85,779.62,777.42,774.91,772.36,768.96,763.16,758.32,755.02,751.50,745.96,738.62,730.60,722.71,714.38,704.94,695.80,687.25,677.91,667.56
487.38,487.40,487.42,487.49,487.50,487.56,487.61,487.64,487.69,487.70,487.74,487.80,487.81,487.87,487.90,487.93,488.00,488.00,488.06,488.10,488.12,488.19,488.20,488.25,488.30,488.30,488.32,488.37,488.41,488.44,488.49,488.52,488.56,488.60,488.61,488.67,488.70,488.73,488.80,488.80,488.86,488.90,488.92,488.99,489.00,489.04,489.10,489.11,489.18,489.20,489.23,489.30,489.30,489.32,489.36,489.40,489.43,489.48,489.51,489.55,489.60,489.62,489.67,489.71,489.74,489.79,489.87,489.90,489.92,489.99,490.00,490.00,490.00,490.00,490.00,490.00,489.96,489.90,489.90,489.90,489.86,489.82,489.80,489.80,489.80,489.84,489.89,489.90,489.90,489.90,490.00,490.52,492.27,494.18,495.94,497.48,498.88,500.24,503.16,507.43,511.01,513.52,515.44,516.92,517.79,517.66,516.92,516.13,515.50,515.10,515.85,517.00,518.22,519.37,520.50,521.63,522.67,523.52,524.25,524.83,525.37,525.91,526.47,526.85,528.11,529.77,531.06,532.23,533.13,533.96,534.86,535.86,536.86,537.81,538.74,539.76,541.35,543.06,544.80,546.56,548.30,550.19,552.16,554.14,556.04,557.92,560.52,563.88,567.75,570.86,573.16,575.24,577.39,579.59,581.81,584.08,586.35,588.62,591.12,593.79,596.60,599.68,603.63,608.47,613.25,617.32,620.11,623.28,626.86,630.80,635.16,640.01,644.42,649.03,654.27,659.79,663.93,667.56,671.49,677.02,685.01,695.87,706.52,714.53,722.10,729.36,735.74,740.86,744.38,746.47,749.19,753.17,758.77,765.73,770.41,773.75,776.47,778.46,779.68,779.91,779.36,778.47,777.33,776.04,774.11,771.47,770.38,772.50,776.10,779.73,781.58,783.18,784.89,786.44,787.28,787.43,785.15,782.42,780.30,777.73,774.94,772.35,770.17,768.75,768.20,769.28,771.36,773.70,775.64,777.28,778.96,780.77,782.44,783.45,783.04,781.62,779.93,778.27,776.00,773.65,771.38,768.42,763.38,758.78,755.13,751.34,745.87,739.23,732.06,724.63,716.80,708.01,699.30,690.61,680.48,669.59
487.40,487.40,487.43,487.49,487.50,487.56,487.63,487.69,487.70,487.70,487.74,487.80,487.81,487.87,487.90,487.93,488.00,488.00,488.06,488.10,488.12,488.19,488.20,488.25,488.30,488.31,488.37,488.39,488.43,488.49,488.50,488.55,488.59,488.60,488.61,488.67,488.70,488.73,488.80,488.80,488.86,488.90,488.92,488.99,489.00,489.05,489.10,489.11,489.18,489.20,489.23,489.30,489.30,489.35,489.39,489.42,489.48,489.50,489.54,489.59,489.61,489.67,489.69,489.73,489.78,489.80,489.87,489.90,489.93,489.99,490.00,490.00,490.00,490.00,490.00,490.00,489.96,489.90,489.90,489.90,489.89,489.87,489.81,489.80,489.80,489.84,489.89,489.90,489.90,489.90,489.91,490.18,491.81,493.84,495.82,497.67,499.74,502.11,504.91,507.98,510.78,512.64,513.42,513.64,513.67,513.38,512.95,512.61,512.68,513.72,515.01,516.29,517.51,518.65,519.69,520.76,521.73,522.47,523.06,523.61,524.14,524.67,525.23,526.38,527.96,529.59,530.83,531.66,532.40,533.21,534.15,535.15,536.15,537.19,538.23,539.29,540.72,542.42,544.25,546.14,547.99,549.90,551.87,553.87,555.85,557.78,560.14,563.09,566.67,570.02,572.47,574.68,577.02,579.48,581.92,584.32,586.64,588.91,591.50,594.40,597.41,600.53,604.16,608.44,612.38,615.69,618.77,622.18,625.84,629.82,634.39,639.44,643.99,648.77,654.17,659.45,663.05,666.05,669.35,674.12,681.10,691.90,702.79,710.58,717.32,724.04,729.97,734.38,736.63,739.26,743.71,749.43,755.74,763.83,769.59,773.02,774.63,775.96,776.92,777.01,776.22,774.79,773.39,771.65,770.00,769.31,770.76,773.14,776.33,779.74,781.58,783.21,784.63,785.75,786.38,786.71,785.29,783.21,781.16,778.84,776.16,773.79,771.77,769.68,766.92,766.54,768.05,770.46,772.72,774.73,776.75,778.84,780.82,782.44,782.19,780.36,777.76,775.28,773.08,771.01,768.87,766.15,762.47,758.52,754.59,750.56,744.97,738.81,732.34,725.43,717.99,709.79,701.54,693.24,683.98,674.77
487.40,487.43,487.47,487.50,487.54,487.58,487.63,487.69,487.70,487.74,487.77,487.81,487.86,487.89,487.93,487.97,488.00,488.00,488.06,488.10,488.12,488.19,488.20,488.25,488.30,488.31,488.38,488.40,488.43,488.50,488.50,488.56,488.60,488.61,488.66,488.69,488.73,488.77,488.81,488.85,488.88,488.92,488.96,489.00,489.04,489.08,489.10,489.11,489.18,489.20,489.23,489.30,489.31,489.36,489.40,489.42,489.49,489.50,489.55,489.60,489.61,489.68,489.70,489.74,489.80,489.81,489.87,489.93,489.96,490.00,490.00,490.00,490.00,490.00,490.00,490.00,489.98,489.95,489.91,489.90,489.90,489.89,489.86,489.81,489.80,489.84,489.89,489.90,489.90,489.90,489.90,490.11,491.68,493.58,495.44,497.21,499.18,501.52,504.16,506.86,509.13,510.62,510.98,510.74,510.48,510.37,510.23,510.43,511.26,512.70,514.21,515.60,516.84,517.94,518.96,519.93,520.78,521.44,521.99,522.53,523.08,523.63,524.29,525.61,527.21,528.77,529.98,530.85,531.68,532.55,533.49,534.49,535.49,536.56,537.69,538.87,540.32,542.19,544.19,546.11,548.01,549.94,551.91,553.90,555.87,557.81,560.14,562.98,566.36,569.67,572.50,575.20,578.01,581.05,583.68,586.03,588.19,590.21,592.51,595.25,598.23,601.38,604.77,608.34,611.78,615.03,618.26,621.62,625.00,628.62,632.99,638.74,643.71,648.52,653.48,657.87,661.13,663.95,666.83,670.51,675.94,685.95,697.10,705.74,710.98,716.86,721.99,725.61,728.17,732.44,739.11,746.66,753.38,761.47,767.72,771.31,772.28,772.97,773.61,773.66,772.94,771.40,770.17,768.75,768.06,769.21,771.52,774.05,776.88,779.71,781.47,782.93,784.03,784.85,785.49,785.99,785.05,783.44,781.71,779.86,777.52,775.19,772.98,770.49,766.55,764.75,765.24,767.61,770.56,772.91,775.12,777.49,780.05,781.65,781.18,778.81,775.08,772.26,770.05,768.14,766.26,763.76,760.53,756.87,752.89,748.46,742.92,737.22,731.32,724.89,718.17,710.59,702.56,694.24,685.59,676.88
487.40,487.45,487.50,487.51,487.58,487.60,487.63,487.69,487.70,487.76,487.80,487.82,487.89,487.90,487.95,488.00,488.00,488.02,488.07,488.11,488.14,488.19,488.21,488.26,488.31,488.33,488.38,488.40,488.43,488.50,488.50,488.56,488.60,488.62,488.69,488.70,488.75,488.80,488.81,488.88,488.90,488.94,489.00,489.00,489.07,489.10,489.11,489.13,489.18,489.21,489.25,489.30,489.32,489.37,489.41,489.44,489.49,489.50,489.55,489.60,489.61,489.68,489.70,489.74,489.80,489.81,489.87,489.94,490.00,490.00,490.00,490.00,490.00,490.00,490.00,490.00,490.00,489.98,489.91,489.90,489.90,489.90,489.89,489.82,489.80,489.84,489.89,489.90,489.90,489.90,489.93,490.19,491.55,493.25,494.98,496.63,498.36,500.36,502.71,505.17,507.03,508.25,508.48,508.14,507.82,507.99,508.28,509.04,510.39,511.90,513.48,514.92,516.17,517.19,518.19,519.08,519.87,520.53,521.08,521.58,522.07,522.61,523.43,524.76,526.29,527.76,528.96,529.99,530.94,531.88,532.84,533.84,534.90,536.04,537.25,538.52,539.99,541.98,544.13,546.13,548.12,550.07,552.04,554.04,556.00,557.95,560.44,563.40,566.65,570.02,573.28,576.47,579.73,583.25,586.03,588.23,590.07,591.82,593.81,596.25,599.01,601.98,605.11,608.11,611.22,614.47,617.72,620.94,624.11,627.40,631.46,637.69,643.08,647.90,652.36,655.90,658.89,661.55,664.06,666.77,670.73,679.11,689.91,699.93,704.24,709.36,713.85,717.20,720.88,726.69,734.87,743.54,750.57,758.33,764.76,768.51,769.22,769.47,769.57,769.57,769.24,768.16,767.35,766.67,767.06,769.33,771.69,774.32,777.04,779.56,781.22,782.40,783.22,783.87,784.57,785.22,784.63,783.40,782.00,780.60,778.61,776.33,773.90,771.15,766.42,763.30,762.64,764.75,768.31,771.15,773.69,776.34,779.30,780.85,780.14,777.26,772.65,769.82,767.67,765.74,763.78,761.40,758.43,755.03,751.12,746.35,740.90,735.51,729.94,723.85,717.79,710.95,703.16,694.61,686.21,677.49
487.40,487.45,487.50,487.51,487.58,487.60,487.63,487.69,487.70,487.76,487.80,487.82,487.89,487.90,487.95,488.00,488.01,488.07,488.09,488.13,488.19,488.20,488.26,488.29,488.32,488.38,488.40,488.40,488.43,488.50,488.50,488.56,488.60,488.62,488.69,488.70,488.75,488.80,488.81,488.88,488.90,488.94,489.00,489.00,489.07,489.10,489.12,489.18,489.20,489.24,489.29,489.31,489.37,489.39,489.43,489.49,489.50,489.50,489.55,489.60,489.61,489.68,489.70,489.74,489.80,489.81,489.87,489.94,490.00,490.00,490.00,490.00,490.00,490.00,490.00,490.00,490.00,489.98,489.91,489.90,489.90,489.90,489.89,489.82,489.80,489.84,489.89,489.90,489.90,489.90,490.01,490.46,491.26,492.74,494.48,496.15,497.74,499.31,501.17,503.18,504.79,505.75,506.07,506.00,505.85,506.26,507.31,508.59,509.93,511.34,512.81,514.24,515.48,516.37,517.30,518.18,519.04,519.86,520.42,520.81,521.12,521.57,522.61,523.89,525.32,526.72,527.95,529.15,530.19,531.19,532.19,533.21,534.43,535.70,537.00,538.30,539.64,541.60,543.82,546.02,548.21,550.20,552.18,554.20,556.25,558.26,561.17,564.57,567.84,571.60,575.23,578.72,582.20,585.87,588.70,590.58,591.93,593.48,595.31,597.44,599.70,602.04,604.83,607.65,610.58,613.61,616.61,619.77,622.98,626.24,629.97,635.97,641.60,646.53,650.67,653.83,656.54,658.85,660.93,663.09,666.05,671.53,680.66,692.57,697.49,702.23,706.61,710.78,716.40,722.95,730.88,739.16,746.44,753.79,760.04,763.91,764.93,765.12,764.31,764.19,764.82,765.18,765.03,765.55,766.88,768.85,770.49,773.11,776.23,779.16,780.72,781.50,782.14,782.85,783.60,784.29,783.99,783.08,781.91,780.80,779.07,776.90,774.46,771.57,766.33,762.11,760.22,761.66,765.49,769.14,772.36,775.28,778.10,779.89,779.12,775.87,771.04,768.64,766.68,764.40,761.70,759.25,756.57,753.54,749.90,744.99,739.61,734.19,728.55,722.51,716.81,710.95,703.55,694.52,685.80,676.65
487.44,487.48,487.51,487.55,487.59,487.63,487.67,487.70,487.70,487.76,487.80,487.82,487.89,487.90,487.95,488.00,488.01,488.08,488.10,488.14,488.19,488.20,488.27,488.30,488.32,488.39,488.40,488.43,488.47,488.50,488.54,488.58,488.62,488.66,488.70,488.74,488.77,488.80,488.81,488.88,488.90,488.94,489.00,489.00,489.07,489.10,489.12,489.19,489.20,489.25,489.30,489.31,489.38,489.40,489.44,489.50,489.50,489.54,489.57,489.61,489.65,489.69,489.70,489.74,489.80,489.81,489.87,489.92,489.96,490.00,490.00,490.00,490.00,490.00,490.00,490.00,490.00,489.99,489.96,489.92,489.90,489.90,489.89,489.82,489.80,489.84,489.89,489.90,489.90,489.92,490.12,490.75,491.47,492.57,494.00,495.64,497.23,498.50,499.83,501.22,502.35,503.18,503.62,504.00,504.71,505.69,507.04,508.49,509.90,511.25,512.54,513.75,514.82,515.68,516.56,517.45,518.31,519.05,519.50,519.80,520.08,520.56,521.75,523.11,524.36,525.55,526.83,528.10,529.29,530.47,531.66,532.84,534.12,535.43,536.74,538.06,539.37,541.36,543.70,546.10,548.50,550.75,552.84,554.82,556.83,558.94,562.50,566.61,569.99,573.82,577.54,581.07,584.38,587.63,589.84,591.28,592.38,593.72,595.27,597.13,599.21,601.42,603.65,606.15,608.72,611.23,613.73,617.31,621.02,624.55,628.07,632.90,639.11,644.58,648.30,651.46,653.67,655.31,656.76,658.60,661.71,666.16,673.44,684.07,691.76,697.35,702.26,707.28,713.08,719.28,726.46,734.25,741.87,748.64,754.18,757.71,758.87,759.09,759.84,761.34,763.17,764.46,765.31,766.37,767.60,768.90,770.57,773.06,775.52,777.51,778.94,780.09,781.02,781.83,782.59,783.06,782.94,782.47,781.79,780.97,779.52,777.45,774.94,772.08,767.34,762.14,758.74,759.27,762.47,766.35,769.95,773.02,775.67,777.50,777.10,774.57,770.65,768.39,766.34,764.21,761.93,759.28,757.28,754.89,751.69,747.35,740.84,734.72,728.68,722.11,716.73,711.05,703.82,694.91,685.82,676.13
487.47,487.50,487.52,487.59,487.60,487.65,487.70,487.70,487.72,487.77,487.81,487.83,487.89,487.91,487.96,488.00,488.01,488.08,488.10,488.14,488.19,488.20,488.27,488.30,488.32,488.39,488.40,488.46,488.50,488.51,488.59,488.60,488.64,488.70,488.70,488.77,488.80,488.80,488.81,488.88,488.90,488.94,489.00,489.00,489.07,489.10,489.12,489.19,489.20,489.25,489.30,489.31,489.38,489.40,489.44,489.50,489.50,489.57,489.60,489.63,489.69,489.70,489.70,489.74,489.80,489.81,489.87,489.90,489.92,489.98,490.00,490.00,490.00,490.00,490.00,490.00,490.00,490.00,490.00,489.93,489.90,489.90,489.89,489.83,489.81,489.84,489.89,489.90,489.90,489.94,490.21,491.00,491.79,492.59,493.65,495.16,496.67,497.70,498.60,499.46,500.18,500.96,501.62,502.51,504.04,505.52,506.99,508.47,509.92,511.20,512.31,513.29,514.17,515.02,515.87,516.77,517.58,518.15,518.46,518.70,519.02,519.63,520.88,522.21,523.25,524.25,525.57,526.92,528.28,529.69,531.10,532.42,533.73,535.06,536.39,537.73,539.07,541.10,543.56,546.20,548.87,551.43,553.70,555.69,557.65,559.93,563.90,568.44,572.03,575.89,579.61,582.91,585.70,588.23,589.63,590.65,591.67,592.89,594.23,595.91,597.90,600.04,601.76,603.81,605.87,607.81,609.98,614.10,618.37,622.23,625.74,629.55,636.06,641.91,645.34,648.05,649.53,650.73,652.00,653.60,656.98,661.43,667.57,676.31,686.46,693.24,698.92,704.58,709.99,715.54,721.89,729.08,736.78,743.08,747.88,751.09,752.57,753.34,756.53,759.97,762.79,764.84,766.64,768.20,769.35,770.13,771.99,774.25,775.83,776.58,777.51,778.60,779.63,780.58,781.44,781.72,781.76,781.70,781.48,780.90,779.71,777.74,775.21,772.46,768.46,762.65,757.85,757.15,759.52,763.36,767.09,770.17,772.68,774.56,774.81,773.52,771.10,769.05,767.08,765.43,763.96,761.40,759.73,757.54,754.50,750.74,743.70,736.73,729.91,722.84,717.25,711.13,703.85,695.32,686.12,676.28
487.47,487.50,487.52,487.59,487.60,487.65,487.70,487.71,487.77,487.79,487.83,487.88,487.90,487.96,487.99,488.00,488.01,488.08,488.10,488.14,488.19,488.20,488.27,488.30,488.32,488.39,488.40,488.46,488.50,488.51,488.59,488.60,488.64,488.70,488.70,488.77,488.80,488.80,488.81,488.88,488.90,488.94,489.00,489.00,489.07,489.10,489.12,489.19,489.20,489.25,489.30,489.31,489.38,489.40,489.44,489.50,489.50,489.57,489.60,489.63,489.69,489.70,489.70,489.74,489.80,489.81,489.87,489.90,489.90,489.93,489.98,490.00,490.00,490.00,490.00,490.00,490.00,490.00,490.00,489.93,489.90,489.90,489.90,489.88,489.83,489.84,489.89,489.90,489.90,489.91,490.17,491.06,491.96,492.81,493.72,494.74,495.84,496.67,497.45,498.24,499.01,499.88,501.04,502.43,503.98,505.51,506.99,508.38,509.64,510.77,511.82,512.71,513.53,514.38,515.23,516.09,516.76,517.12,517.32,517.54,518.06,518.92,519.97,520.85,521.70,522.70,524.04,525.51,527.11,528.74,530.31,531.64,532.96,534.34,535.77,537.22,538.65,540.65,543.16,546.14,549.33,552.17,554.72,556.97,558.92,561.56,564.92,568.75,572.84,576.95,580.53,583.11,584.61,586.05,586.74,587.54,588.68,590.11,591.65,593.36,595.19,597.01,598.55,599.84,601.12,602.69,605.27,609.85,614.38,618.52,622.54,626.62,632.24,637.64,641.21,641.78,641.98,643.74,646.39,647.81,650.75,656.53,663.88,671.95,681.46,689.29,695.86,701.51,706.53,711.55,717.26,723.66,730.51,736.81,741.34,744.68,747.31,750.05,756.02,760.81,763.71,766.35,768.71,771.28,773.36,774.47,776.26,778.12,779.14,779.09,778.41,777.34,777.49,778.65,779.91,780.33,780.58,780.70,780.60,780.16,779.13,777.31,774.93,772.37,768.90,763.39,757.89,755.23,756.97,760.51,763.93,766.68,769.16,771.40,772.68,773.14,772.95,771.57,770.52,769.88,769.29,767.84,765.00,761.44,757.57,753.69,749.12,741.53,733.12,726.14,718.68,711.02,703.26,695.30,686.79,678.29
487.47,487.50,487.52,487.59,487.60,487.65,487.70,487.72,487.78,487.80,487.84,487.90,487.91,487.97,488.00,488.01,488.05,488.09,488.10,488.14,488.19,488.20,488.27,488.30,488.32,488.39,488.40,488.46,488.50,488.51,488.59,488.60,488.64,488.70,488.70,488.77,488.80,488.81,488.85,488.89,488.90,488.94,489.00,489.00,489.07,489.10,489.12,489.19,489.20,489.25,489.30,489.31,489.38,489.40,489.44,489.50,489.50,489.57,489.60,489.62,489.65,489.69,489.70,489.74,489.80,489.80,489.83,489.88,489.90,489.91,489.98,490.00,490.00,490.00,490.00,490.00,490.00,490.00,490.00,489.96,489.92,489.90,489.90,489.90,489.87,489.85,489.86,489.89,489.90,489.90,490.10,490.84,491.71,492.57,493.42,494.30,495.28,496.04,496.88,497.87,498.85,499.81,501.07,502.53,504.00,505.48,506.81,508.05,509.20,510.28,511.24,512.10,512.92,513.77,514.59,515.26,515.74,515.99,516.16,516.43,517.03,517.91,518.75,519.30,520.18,521.43,522.98,524.61,526.33,528.00,529.53,530.87,532.24,533.67,535.14,536.64,538.12,539.99,542.50,545.79,549.20,552.18,554.98,557.63,559.98,562.58,565.19,568.02,571.46,575.44,578.89,581.25,582.38,583.19,583.61,584.19,585.14,586.58,588.29,590.13,591.92,593.52,594.93,596.05,597.17,598.67,601.26,605.74,610.64,615.30,619.37,623.29,627.85,632.40,635.73,635.59,636.01,638.27,641.59,644.22,647.93,654.30,661.75,669.13,677.55,685.21,691.69,697.15,702.35,707.37,712.96,719.17,725.80,732.31,737.99,742.92,747.18,751.16,757.28,762.01,764.99,767.98,771.70,774.99,777.14,777.87,778.92,780.02,780.57,780.36,779.64,778.54,777.97,777.99,778.34,778.45,778.81,779.11,779.06,778.68,777.71,776.23,774.39,772.25,769.09,763.73,757.98,754.17,753.64,756.58,760.28,763.52,766.14,769.09,772.25,774.93,775.91,774.95,773.92,773.18,772.57,771.28,768.63,764.47,759.50,755.33,751.39,743.91,735.24,727.99,719.85,710.97,702.65,695.45,689.00,683.30
487.47,487.51,487.53,487.60,487.61,487.66,487.70,487.73,487.79,487.81,487.85,487.90,487.91,487.97,488.00,488.03,488.09,488.10,488.11,488.15,488.20,488.22,488.27,488.30,488.32,488.39,488.40,488.46,488.50,488.51,488.59,488.60,488.64,488.70,488.70,488.77,488.80,488.83,488.89,488.90,488.91,488.95,489.00,489.00,489.07,489.10,489.12,489.19,489.20,489.25,489.30,489.31,489.38,489.40,489.44,489.50,489.50,489.57,489.60,489.60,489.62,489.68,489.70,489.73,489.79,489.80,489.80,489.85,489.90,489.91,489.97,489.99,490.00,490.00,490.00,490.00,490.00,490.00,490.00,490.00,489.96,489.91,489.90,489.90,489.90,489.87,489.82,489.88,489.90,489.90,490.01,490.48,491.25,492.09,492.94,493.82,494.81,495.60,496.56,497.79,499.01,500.11,501.32,502.64,503.98,505.33,506.48,507.57,508.66,509.73,510.63,511.49,512.33,513.15,513.90,514.34,514.62,514.84,515.00,515.33,515.93,516.73,517.40,517.85,518.94,520.51,522.25,524.00,525.73,527.32,528.74,530.06,531.48,532.94,534.42,535.95,537.42,539.16,541.62,545.06,548.53,551.63,554.64,557.63,560.42,562.80,564.77,566.68,569.09,572.60,575.66,577.81,578.92,579.44,579.90,580.48,581.30,582.70,584.52,586.55,588.44,589.93,591.24,592.42,593.67,595.26,597.76,601.88,607.01,612.04,615.88,619.39,623.03,626.78,629.84,629.96,631.33,634.08,637.79,641.93,646.70,653.19,660.25,666.92,673.97,680.96,687.08,692.42,698.13,703.51,709.48,716.04,722.96,729.82,736.88,743.60,749.44,754.24,759.22,763.19,766.19,769.35,774.37,778.14,780.09,780.35,780.58,780.95,781.14,781.05,780.84,780.44,779.43,778.21,777.46,777.09,777.38,777.72,777.70,777.33,776.37,775.18,773.83,772.06,769.01,763.76,758.00,753.60,750.63,752.74,756.69,760.61,763.54,767.34,772.54,777.35,778.83,778.26,777.05,775.89,774.85,773.20,771.08,766.66,760.59,755.74,751.57,744.46,736.07,728.48,720.38,711.19,702.91,696.65,692.56,689.88
