493.76,493.79,493.82,493.88,493.90,493.94,493.99,494.01,494.07,494.09,494.14,494.20,494.27,494.28,494.34,494.38,494.39,494.47,494.49,494.52,494.57,494.58,494.59,494.63,494.69,494.69,494.75,494.78,494.78,494.80,494.87,494.88,494.88,494.88,494.88,494.88,494.89,494.90,494.90,494.90,494.95,494.99,494.99,494.99,494.99,494.99,495.00,495.06,495.08,495.09,495.11,495.17,495.17,495.18,495.23,495.30,495.38,495.44,495.52,495.60,495.67,495.75,495.83,495.91,495.97,495.99,496.06,496.15,496.22,496.30,496.38,496.45,496.53,496.62,496.75,496.85,496.88,496.88,496.88,496.82,496.79,496.75,496.69,496.69,496.63,496.59,496.57,496.50,496.49,496.44,496.38,496.38,496.31,496.24,496.19,496.17,496.11,496.09,496.04,495.99,495.98,495.92,495.88,495.86,495.81,495.80,495.85,495.88,495.88,495.88,495.88,495.88,495.88,495.88,495.88,495.88,495.88,495.88,495.88,495.88,495.88,495.88,495.88,495.88,495.88,495.88,495.88,495.88,495.89,495.90,495.91,495.98,496.05,496.13,496.20,496.28,496.36,496.44,496.51,496.59,496.67,496.75,496.83,496.90,496.98,497.13,497.23,497.31,497.38,497.47,497.54,497.62,497.71,497.86,497.95,498.02,498.13,498.28,498.44,498.59,498.78,498.99,499.15,499.37,499.56,499.72,499.88,499.97,500.00,500.00,500.00,500.00,500.00,500.00,500.00,500.00,500.00,500.00,500.00,500.00,500.00,500.00,499.74,499.04,498.33,497.69,497.09,496.50,495.88,495.39,495.10,494.95,494.94,495.15,495.29,495.26,495.11,495.17,495.25,495.32,495.37,495.39,495.45,495.53,495.61,495.69,495.76,495.85,495.92,496.00,496.08,496.15,496.23,496.30,496.38,496.46,496.54,496.59,496.59,496.59,496.59,496.59,496.59,496.59,496.59,496.59,496.59,496.59,496.59,496.59,496.59,496.59,496.59,496.59,496.59,496.59,496.59,496.59,496.59,496.59,496.59,496.58,496.53,496.49,496.47,496.41,496.39,496.34,496.30,496.27,496.22,496.19,496.15,496.10,496.08,496.03
493.77,493.82,493.86,493.90,493.94,493.98,494.01,494.05,494.09,494.13,494.17,494.22,494.29,494.34,494.38,494.42,494.45,494.49,494.53,494.56,494.61,494.64,494.68,494.72,494.76,494.80,494.84,494.85,494.85,494.86,494.89,494.93,494.95,494.95,494.95,494.98,495.00,495.00,495.00,495.00,495.03,495.05,495.05,495.05,495.05,495.05,495.07,495.14,495.15,495.15,495.18,495.24,495.25,495.28,495.34,495.42,495.49,495.57,495.62,495.68,495.75,495.83,495.90,495.99,496.05,496.10,496.17,496.24,496.32,496.40,496.47,496.52,496.58,496.66,496.77,496.86,496.92,496.95,496.94,496.88,496.85,496.82,496.76,496.75,496.69,496.65,496.63,496.56,496.51,496.48,496.44,496.40,496.36,496.29,496.25,496.24,496.17,496.15,496.11,496.05,496.04,495.98,495.93,495.89,495.85,495.85,495.88,495.90,495.90,495.90,495.90,495.90,495.90,495.91,495.94,495.95,495.95,495.95,495.95,495.95,495.95,495.95,495.95,495.95,495.95,495.95,495.95,495.95,495.95,495.95,495.96,496.00,496.07,496.14,496.22,496.30,496.38,496.48,496.58,496.65,496.74,496.81,496.88,496.97,497.05,497.19,497.29,497.38,497.45,497.52,497.61,497.69,497.77,497.92,498.01,498.09,498.18,498.30,498.49,498.65,498.84,499.05,499.22,499.43,499.63,499.77,499.88,499.97,500.00,500.00,500.00,500.00,500.00,500.00,500.00,500.00,500.00,500.00,500.00,500.00,500.00,499.90,499.51,498.71,497.97,497.27,496.63,496.04,495.45,495.11,494.96,494.97,495.22,495.58,495.64,495.51,495.35,495.31,495.33,495.39,495.45,495.46,495.52,495.60,495.68,495.75,495.83,495.91,495.99,496.06,496.14,496.22,496.29,496.37,496.45,496.52,496.61,496.65,496.65,496.65,496.65,496.65,496.65,496.65,496.65,496.65,496.65,496.65,496.65,496.65,496.65,496.65,496.65,496.65,496.65,496.65,496.65,496.65,496.65,496.63,496.60,496.60,496.56,496.55,496.53,496.46,496.45,496.40,496.35,496.34,496.27,496.25,496.22,496.15,496.15,496.08
493.77,493.85,493.90,493.92,493.98,494.01,494.04,494.10,494.12,494.17,494.21,494.23,494.30,494.37,494.41,494.44,494.50,494.51,494.57,494.61,494.63,494.69,494.77,494.81,494.83,494.90,494.91,494.92,494.92,494.93,494.94,494.99,495.03,495.03,495.03,495.09,495.12,495.12,495.12,495.12,495.12,495.12,495.12,495.12,495.12,495.12,495.15,495.21,495.22,495.22,495.26,495.31,495.33,495.38,495.45,495.53,495.61,495.69,495.72,495.76,495.83,495.91,495.99,496.06,496.14,496.20,496.28,496.36,496.44,496.51,496.59,496.62,496.66,496.74,496.81,496.88,496.95,497.01,497.01,496.95,496.92,496.88,496.82,496.81,496.75,496.71,496.69,496.62,496.54,496.51,496.50,496.43,496.42,496.36,496.31,496.29,496.23,496.21,496.17,496.11,496.09,496.04,495.97,495.92,495.92,495.92,495.92,495.92,495.92,495.92,495.92,495.92,495.92,495.92,495.98,496.00,496.00,496.00,496.00,496.00,496.00,496.00,496.01,496.01,496.01,496.01,496.01,496.01,496.01,496.01,496.01,496.02,496.09,496.15,496.24,496.31,496.39,496.52,496.65,496.72,496.79,496.88,496.95,497.03,497.11,497.25,497.36,497.44,497.51,497.60,497.67,497.75,497.84,497.99,498.08,498.15,498.24,498.33,498.53,498.72,498.90,499.12,499.28,499.49,499.67,499.81,499.89,499.97,500.00,500.00,500.00,500.00,500.00,500.00,500.00,500.00,500.00,500.00,500.00,500.00,500.00,499.76,499.23,498.40,497.62,496.84,496.13,495.52,495.07,494.95,494.98,495.18,495.63,496.04,496.00,495.80,495.64,495.49,495.44,495.47,495.52,495.53,495.59,495.67,495.74,495.82,495.90,495.98,496.05,496.13,496.20,496.28,496.36,496.44,496.51,496.59,496.67,496.72,496.72,496.72,496.72,496.72,496.72,496.72,496.72,496.72,496.72,496.72,496.72,496.72,496.72,496.72,496.72,496.72,496.72,496.72,496.72,496.72,496.71,496.67,496.62,496.62,496.62,496.62,496.59,496.52,496.50,496.46,496.41,496.39,496.33,496.31,496.27,496.21,496.20,496.14
493.79,493.85,493.92,493.98,494.00,494.04,494.09,494.11,494.17,494.19,494.23,494.28,494.31,494.37,494.44,494.49,494.51,494.56,494.59,494.63,494.68,494.70,494.77,494.84,494.88,494.90,494.96,494.97,495.00,495.05,495.06,495.12,495.16,495.16,495.16,495.17,495.18,495.18,495.18,495.18,495.18,495.18,495.18,495.18,495.18,495.21,495.26,495.27,495.27,495.32,495.36,495.39,495.44,495.47,495.52,495.60,495.68,495.75,495.82,495.88,495.96,496.04,496.12,496.19,496.26,496.28,496.35,496.43,496.50,496.58,496.65,496.72,496.79,496.87,496.94,496.97,497.02,497.07,497.07,497.00,496.97,496.95,496.88,496.88,496.82,496.75,496.70,496.68,496.61,496.57,496.55,496.49,496.47,496.43,496.36,496.30,496.28,496.23,496.19,496.17,496.11,496.09,496.03,495.97,495.97,495.97,495.97,495.97,495.97,495.97,495.97,495.97,495.97,495.98,496.00,496.00,496.00,496.00,496.00,496.00,496.00,496.01,496.07,496.07,496.07,496.07,496.07,496.07,496.07,496.07,496.07,496.08,496.15,496.22,496.30,496.38,496.45,496.59,496.70,496.78,496.87,496.94,497.01,497.10,497.18,497.32,497.43,497.50,497.58,497.65,497.74,497.81,497.90,498.05,498.15,498.22,498.30,498.39,498.60,498.78,498.96,499.18,499.35,499.51,499.67,499.81,499.89,499.97,500.00,500.00,500.00,500.00,500.00,500.00,500.00,500.00,500.00,500.00,500.00,500.00,500.00,499.60,498.92,498.13,497.36,496.54,495.75,495.13,494.96,495.01,495.31,495.77,496.24,496.39,496.29,496.11,495.90,495.74,495.61,495.56,495.59,495.65,495.67,495.73,495.80,495.88,495.96,496.03,496.12,496.19,496.27,496.35,496.43,496.50,496.58,496.65,496.74,496.77,496.77,496.77,496.77,496.77,496.77,496.77,496.77,496.77,496.77,496.77,496.77,496.77,496.77,496.77,496.77,496.77,496.77,496.77,496.77,496.77,496.74,496.69,496.68,496.68,496.68,496.68,496.66,496.58,496.52,496.49,496.46,496.40,496.38,496.33,496.29,496.26,496.21,496.19
493.83,493.87,493.92,494.00,494.04,494.07,494.11,494.15,494.19,494.23,494.26,494.31,494.35,494.42,494.47,494.51,494.55,494.59,494.63,494.67,494.71,494.74,494.78,494.85,494.90,494.91,494.98,495.00,495.03,495.10,495.14,495.18,495.22,495.25,495.25,495.25,495.25,495.25,495.25,495.25,495.25,495.25,495.25,495.25,495.27,495.31,495.35,495.35,495.38,495.42,495.46,495.49,495.53,495.57,495.63,495.70,495.78,495.86,495.94,496.00,496.05,496.13,496.20,496.28,496.35,496.39,496.45,496.53,496.61,496.68,496.73,496.79,496.88,496.95,497.03,497.07,497.11,497.15,497.14,497.07,497.04,497.01,496.95,496.94,496.88,496.82,496.78,496.75,496.68,496.65,496.63,496.55,496.54,496.49,496.43,496.38,496.35,496.31,496.27,496.23,496.16,496.15,496.09,496.04,496.04,496.04,496.04,496.04,496.04,496.04,496.04,496.04,496.04,496.04,496.04,496.04,496.04,496.04,496.04,496.04,496.04,496.05,496.09,496.10,496.10,496.10,496.10,496.10,496.10,496.11,496.14,496.15,496.21,496.28,496.37,496.44,496.52,496.65,496.77,496.85,496.93,497.00,497.08,497.16,497.24,497.38,497.49,497.56,497.65,497.73,497.80,497.88,497.97,498.12,498.21,498.28,498.37,498.46,498.67,498.85,499.03,499.25,499.38,499.52,499.67,499.81,499.89,499.97,500.00,500.00,500.00,500.00,500.00,500.00,500.00,500.00,500.00,500.00,500.00,499.99,499.94,499.41,498.64,497.87,497.10,496.27,495.52,495.04,495.12,495.40,495.84,496.33,496.74,496.74,496.59,496.39,496.20,496.04,495.86,495.74,495.69,495.74,495.75,495.79,495.87,495.95,496.02,496.11,496.18,496.25,496.34,496.41,496.49,496.56,496.65,496.72,496.79,496.85,496.85,496.85,496.85,496.85,496.85,496.85,496.85,496.85,496.85,496.85,496.85,496.85,496.85,496.85,496.85,496.85,496.85,496.85,496.84,496.81,496.77,496.75,496.75,496.75,496.75,496.73,496.69,496.64,496.57,496.54,496.51,496.45,496.44,496.38,496.35,496.33,496.26,496.25
493.87,493.91,493.93,494.00,494.08,494.11,494.14,494.19,494.22,494.27,494.30,494.33,494.39,494.47,494.50,494.53,494.59,494.61,494.66,494.70,494.73,494.78,494.81,494.85,494.90,494.91,494.98,495.00,495.03,495.11,495.18,495.20,495.24,495.30,495.30,495.30,495.31,495.31,495.31,495.31,495.31,495.31,495.31,495.32,495.38,495.41,495.41,495.42,495.48,495.51,495.55,495.60,495.62,495.68,495.75,495.82,495.90,495.98,496.05,496.11,496.13,496.20,496.28,496.36,496.43,496.50,496.57,496.65,496.73,496.79,496.82,496.87,496.94,497.01,497.10,497.17,497.20,497.20,497.20,497.15,497.11,497.08,497.01,497.00,496.95,496.91,496.88,496.82,496.75,496.71,496.69,496.62,496.61,496.55,496.50,496.49,496.42,496.40,496.36,496.29,496.22,496.20,496.15,496.10,496.10,496.10,496.10,496.10,496.11,496.11,496.11,496.11,496.11,496.11,496.11,496.11,496.11,496.11,496.11,496.11,496.11,496.11,496.11,496.11,496.11,496.11,496.11,496.11,496.11,496.14,496.19,496.20,496.26,496.35,496.43,496.50,496.59,496.71,496.83,496.92,497.00,497.07,497.15,497.23,497.31,497.45,497.55,497.63,497.71,497.78,497.87,497.94,498.03,498.18,498.27,498.35,498.43,498.52,498.73,498.91,499.09,499.29,499.39,499.52,499.67,499.81,499.89,499.97,500.00,500.00,500.00,500.00,500.00,500.00,500.00,500.00,500.00,500.00,500.00,499.99,499.88,499.30,498.51,497.73,496.85,496.01,495.44,495.26,495.50,495.97,496.46,496.89,497.16,497.07,496.87,496.68,496.51,496.35,496.15,495.96,495.84,495.82,495.82,495.86,495.94,496.01,496.09,496.17,496.25,496.33,496.40,496.48,496.55,496.63,496.71,496.78,496.87,496.91,496.91,496.91,496.91,496.91,496.91,496.91,496.91,496.91,496.91,496.91,496.91,496.91,496.91,496.91,496.91,496.91,496.90,496.89,496.89,496.83,496.81,496.81,496.81,496.81,496.80,496.76,496.71,496.70,496.63,496.60,496.57,496.51,496.50,496.44,496.40,496.38,496.32,496.30
493.89,493.94,493.98,494.01,494.08,494.14,494.18,494.21,494.26,494.29,494.33,494.38,494.41,494.47,494.54,494.58,494.61,494.66,494.69,494.73,494.77,494.80,494.85,494.88,494.90,494.91,494.98,495.00,495.03,495.11,495.19,495.20,495.24,495.30,495.31,495.35,495.38,495.38,495.38,495.38,495.38,495.38,495.39,495.44,495.46,495.47,495.47,495.49,495.55,495.61,495.66,495.68,495.74,495.81,495.86,495.89,495.97,496.04,496.13,496.19,496.25,496.33,496.41,496.48,496.55,496.58,496.64,496.72,496.79,496.87,496.93,496.96,497.00,497.08,497.16,497.24,497.27,497.27,497.27,497.25,497.21,497.14,497.08,497.07,497.01,496.97,496.96,496.89,496.86,496.81,496.75,496.69,496.68,496.62,496.57,496.56,496.49,496.43,496.39,496.36,496.28,496.22,496.19,496.15,496.11,496.10,496.10,496.13,496.17,496.18,496.18,496.18,496.18,496.18,496.18,496.18,496.18,496.18,496.18,496.18,496.18,496.18,496.18,496.18,496.18,496.18,496.18,496.18,496.18,496.18,496.20,496.20,496.27,496.38,496.50,496.57,496.65,496.74,496.85,496.98,497.05,497.13,497.21,497.29,497.37,497.51,497.62,497.69,497.77,497.86,497.93,498.00,498.10,498.25,498.34,498.42,498.50,498.59,498.79,498.98,499.14,499.30,499.39,499.52,499.67,499.81,499.89,499.97,500.00,500.00,500.00,500.00,500.00,500.00,500.00,500.00,500.00,500.00,500.00,500.00,499.96,499.54,498.88,498.04,496.67,495.76,495.70,496.20,496.19,496.62,497.11,497.45,497.47,497.34,497.17,496.98,496.78,496.62,496.44,496.25,496.06,495.96,495.95,495.96,496.00,496.08,496.15,496.24,496.31,496.38,496.47,496.54,496.62,496.69,496.77,496.85,496.93,496.97,496.97,496.97,496.97,496.97,496.97,496.97,496.97,496.97,496.97,496.97,496.97,496.97,496.97,496.97,496.97,496.97,496.94,496.90,496.90,496.88,496.88,496.88,496.88,496.87,496.83,496.79,496.77,496.77,496.70,496.64,496.60,496.56,496.51,496.49,496.45,496.40,496.37,496.32
493.93,493.97,494.01,494.04,494.09,494.15,494.21,494.25,494.29,494.33,494.36,494.41,494.44,494.48,494.55,494.61,494.64,494.69,494.72,494.76,494.80,494.81,494.87,494.90,494.90,494.91,494.98,495.00,495.03,495.11,495.19,495.20,495.24,495.30,495.31,495.37,495.42,495.44,495.44,495.44,495.44,495.45,495.49,495.53,495.53,495.53,495.55,495.58,495.62,495.69,495.75,495.78,495.83,495.90,495.95,496.00,496.07,496.15,496.22,496.29,496.35,496.42,496.50,496.58,496.64,496.67,496.72,496.78,496.86,496.94,497.01,497.03,497.07,497.15,497.23,497.30,497.34,497.34,497.34,497.34,497.29,497.22,497.18,497.14,497.08,497.03,497.02,496.95,496.94,496.89,496.81,496.75,496.74,496.69,496.63,496.62,496.55,496.48,496.44,496.42,496.34,496.26,496.24,496.22,496.14,496.13,496.13,496.16,496.20,496.20,496.20,496.20,496.20,496.20,496.20,496.22,496.24,496.24,496.24,496.24,496.24,496.24,496.24,496.24,496.24,496.24,496.24,496.24,496.24,496.24,496.24,496.24,496.30,496.41,496.53,496.63,496.72,496.79,496.88,497.00,497.08,497.18,497.27,497.36,497.44,497.55,497.66,497.76,497.84,497.92,498.00,498.07,498.16,498.31,498.40,498.48,498.55,498.65,498.83,499.00,499.16,499.30,499.39,499.52,499.66,499.78,499.89,499.97,500.00,500.00,500.00,500.00,500.00,500.00,500.00,500.00,500.00,500.00,500.00,500.00,500.00,499.78,499.30,498.41,496.74,496.07,496.42,497.15,496.88,497.24,497.66,497.90,497.78,497.63,497.46,497.26,497.07,496.91,496.74,496.55,496.35,496.21,496.11,496.08,496.09,496.15,496.22,496.29,496.38,496.45,496.53,496.61,496.69,496.76,496.84,496.92,497.00,497.03,497.03,497.03,497.03,497.03,497.03,497.03,497.03,497.03,497.03,497.03,497.03,497.03,497.03,497.03,497.03,497.01,496.97,496.94,496.94,496.94,496.94,496.93,496.90,496.90,496.86,496.84,496.83,496.80,496.76,496.69,496.63,496.63,496.55,496.53,496.50,496.44,496.43,496.37
493.97,494.00,494.03,494.09,494.11,494.16,494.23,494.29,494.31,494.37,494.40,494.43,494.49,494.50,494.55,494.63,494.69,494.71,494.76,494.80,494.80,494.81,494.87,494.90,494.90,494.91,494.98,495.00,495.03,495.11,495.18,495.20,495.24,495.30,495.31,495.37,495.45,495.50,495.50,495.50,495.50,495.53,495.60,495.60,495.61,495.61,495.63,495.69,495.71,495.76,495.84,495.89,495.91,495.98,496.05,496.12,496.19,496.27,496.35,496.40,496.42,496.49,496.56,496.64,496.71,496.78,496.80,496.85,496.93,497.00,497.08,497.11,497.13,497.21,497.29,497.37,497.41,497.41,497.41,497.41,497.36,497.30,497.29,497.22,497.15,497.11,497.09,497.02,497.00,496.96,496.88,496.81,496.81,496.75,496.70,496.68,496.62,496.54,496.50,496.48,496.41,496.33,496.30,496.27,496.21,496.20,496.20,496.20,496.21,496.21,496.21,496.21,496.21,496.21,496.21,496.25,496.30,496.30,496.30,496.30,496.30,496.30,496.30,496.30,496.31,496.31,496.31,496.31,496.31,496.31,496.31,496.31,496.37,496.45,496.54,496.68,496.77,496.85,496.94,497.02,497.09,497.22,497.33,497.41,497.50,497.58,497.69,497.82,497.90,497.98,498.06,498.13,498.23,498.37,498.46,498.54,498.63,498.71,498.85,499.00,499.16,499.30,499.39,499.52,499.64,499.74,499.88,499.97,500.00,500.00,500.00,500.00,500.00,500.00,500.00,500.00,500.00,500.00,500.00,500.00,500.00,499.98,499.66,498.67,496.88,496.78,497.47,498.06,497.58,497.85,498.16,498.26,498.11,497.95,497.75,497.55,497.38,497.23,497.02,496.83,496.67,496.50,496.31,496.22,496.21,496.21,496.28,496.37,496.44,496.51,496.60,496.67,496.75,496.83,496.90,496.98,497.05,497.11,497.11,497.11,497.11,497.11,497.11,497.11,497.11,497.11,497.11,497.11,497.11,497.11,497.11,497.10,497.09,497.03,497.01,497.00,497.00,497.00,497.00,496.97,496.92,496.91,496.91,496.91,496.88,496.82,496.81,496.75,496.70,496.69,496.62,496.60,496.56,496.50,496.49,496.43
493.99,494.03,494.07,494.11,494.15,494.19,494.23,494.30,494.36,494.39,494.43,494.47,494.50,494.55,494.59,494.63,494.70,494.75,494.79,494.80,494.80,494.81,494.87,494.90,494.90,494.91,494.98,495.00,495.03,495.10,495.13,495.18,495.24,495.30,495.31,495.37,495.45,495.50,495.51,495.55,495.56,495.61,495.67,495.67,495.67,495.70,495.74,495.77,495.82,495.89,495.95,495.98,496.03,496.10,496.15,496.19,496.26,496.34,496.42,496.49,496.53,496.56,496.63,496.70,496.78,496.85,496.87,496.92,496.99,497.06,497.15,497.17,497.20,497.27,497.36,497.43,497.49,497.52,497.47,497.47,497.42,497.37,497.36,497.28,497.25,497.21,497.15,497.08,497.06,497.02,496.95,496.88,496.87,496.81,496.75,496.70,496.67,496.61,496.54,496.49,496.46,496.39,496.34,496.29,496.27,496.26,496.26,496.26,496.26,496.26,496.26,496.26,496.26,496.26,496.26,496.29,496.30,496.30,496.30,496.30,496.30,496.30,496.31,496.35,496.37,496.37,496.37,496.37,496.37,496.37,496.37,496.37,496.44,496.51,496.59,496.70,496.77,496.89,497.00,497.08,497.15,497.25,497.34,497.43,497.55,497.63,497.73,497.82,497.91,498.03,498.13,498.20,498.28,498.38,498.51,498.61,498.69,498.77,498.87,499.00,499.16,499.30,499.39,499.52,499.64,499.74,499.88,499.97,500.00,500.00,500.00,500.00,500.00,500.00,500.00,500.00,500.00,500.00,500.00,500.00,500.00,500.00,499.61,498.38,496.52,497.52,498.73,498.90,498.30,498.51,498.66,498.58,498.38,498.21,498.04,497.85,497.66,497.50,497.32,497.13,496.94,496.78,496.60,496.44,496.32,496.29,496.35,496.43,496.50,496.58,496.66,496.74,496.81,496.89,496.97,497.04,497.13,497.17,497.17,497.17,497.17,497.17,497.17,497.17,497.17,497.17,497.17,497.17,497.17,497.17,497.17,497.16,497.11,497.08,497.06,497.06,497.06,497.06,497.03,496.99,496.97,496.97,496.97,496.97,496.95,496.88,496.87,496.82,496.76,496.75,496.69,496.63,496.59,496.55,496.51,496.48
494.02,494.06,494.11,494.14,494.19,494.22,494.26,494.31,494.38,494.42,494.46,494.51,494.53,494.58,494.62,494.65,494.71,494.78,494.80,494.80,494.80,494.81,494.87,494.90,494.90,494.91,494.98,495.00,495.03,495.10,495.11,495.16,495.24,495.30,495.31,495.37,495.45,495.50,495.51,495.58,495.60,495.64,495.70,495.73,495.75,495.79,495.84,495.87,495.92,495.99,496.04,496.07,496.12,496.19,496.25,496.28,496.33,496.40,496.48,496.56,496.63,496.66,496.71,496.76,496.85,496.92,496.95,497.00,497.05,497.13,497.21,497.25,497.28,497.34,497.42,497.50,497.58,497.62,497.57,497.54,497.49,497.44,497.42,497.35,497.31,497.27,497.22,497.14,497.11,497.07,497.01,496.94,496.91,496.86,496.80,496.74,496.71,496.66,496.59,496.53,496.53,496.46,496.38,496.34,496.34,496.34,496.34,496.34,496.34,496.34,496.34,496.34,496.34,496.34,496.34,496.34,496.34,496.34,496.34,496.34,496.34,496.34,496.34,496.38,496.40,496.40,496.40,496.40,496.40,496.40,496.40,496.43,496.48,496.56,496.65,496.73,496.80,496.92,497.03,497.11,497.21,497.29,497.37,497.46,497.59,497.69,497.78,497.86,497.94,498.07,498.16,498.25,498.35,498.42,498.54,498.65,498.75,498.83,498.90,499.02,499.16,499.30,499.39,499.52,499.64,499.74,499.88,499.97,500.00,500.00,500.00,500.00,500.00,500.00,500.00,500.00,500.00,500.00,500.00,500.00,500.00,500.00,499.47,498.03,496.75,498.28,499.58,499.52,498.96,499.06,499.06,498.87,498.67,498.51,498.33,498.14,497.94,497.79,497.61,497.42,497.22,497.07,496.89,496.70,496.53,496.44,496.44,496.49,496.57,496.65,496.73,496.80,496.88,496.95,497.03,497.11,497.19,497.24,497.24,497.24,497.24,497.24,497.24,497.24,497.24,497.24,497.24,497.24,497.24,497.21,497.20,497.19,497.14,497.13,497.13,497.13,497.13,497.11,497.06,497.03,497.03,497.03,497.03,497.02,496.99,496.94,496.91,496.86,496.83,496.79,496.75,496.68,496.63,496.62,496.55,496.53
494.06,494.10,494.13,494.18,494.20,494.25,494.29,494.32,494.39,494.46,494.50,494.52,494.58,494.60,494.65,494.69,494.71,494.78,494.80,494.80,494.80,494.81,494.87,494.90,494.90,494.91,494.97,495.00,495.03,495.10,495.11,495.16,495.24,495.30,495.31,495.37,495.45,495.50,495.51,495.58,495.60,495.64,495.72,495.79,495.86,495.90,495.92,495.99,496.00,496.05,496.13,496.19,496.20,496.26,496.33,496.39,496.41,496.48,496.55,496.63,496.70,496.77,496.80,496.84,496.91,496.99,497.06,497.10,497.13,497.20,497.28,497.35,497.39,497.42,497.49,497.56,497.63,497.69,497.68,497.62,497.55,497.50,497.48,497.42,497.34,497.30,497.27,497.20,497.14,497.10,497.07,497.00,496.93,496.90,496.87,496.79,496.72,496.70,496.65,496.60,496.58,496.52,496.45,496.40,496.39,496.39,496.39,496.39,496.40,496.40,496.40,496.40,496.40,496.40,496.40,496.40,496.40,496.40,496.40,496.40,496.40,496.40,496.40,496.40,496.41,496.41,496.41,496.41,496.41,496.41,496.42,496.48,496.50,496.59,496.71,496.79,496.87,496.96,497.03,497.13,497.26,497.36,497.44,497.51,497.61,497.74,497.84,497.92,498.00,498.08,498.16,498.27,498.40,498.49,498.57,498.69,498.81,498.90,498.97,499.05,499.16,499.30,499.39,499.52,499.64,499.74,499.88,499.97,500.00,500.00,500.00,500.00,500.00,500.00,500.00,500.00,500.00,500.00,500.00,500.00,500.00,499.98,499.27,497.70,497.61,499.00,499.94,499.86,499.51,499.47,499.35,499.15,498.98,498.83,498.62,498.43,498.26,498.11,497.90,497.71,497.55,497.38,497.17,496.99,496.83,496.68,496.55,496.56,496.63,496.71,496.79,496.87,496.94,497.02,497.10,497.18,497.25,497.29,497.29,497.29,497.29,497.29,497.29,497.29,497.29,497.29,497.29,497.29,497.29,497.24,497.20,497.20,497.20,497.19,497.19,497.19,497.18,497.13,497.10,497.10,497.10,497.10,497.09,497.05,497.00,496.99,496.93,496.90,496.88,496.81,496.80,496.74,496.69,496.68,496.61,496.59
494.07,494.13,494.17,494.20,494.25,494.28,494.32,494.36,494.40,494.47,494.53,494.57,494.60,494.64,494.68,494.70,494.71,494.78,494.80,494.80,494.80,494.81,494.87,494.90,494.90,494.90,494.93,494.97,495.03,495.10,495.11,495.16,495.24,495.30,495.31,495.37,495.45,495.50,495.51,495.58,495.60,495.66,495.77,495.86,495.93,495.99,496.03,496.06,496.11,496.14,496.19,496.27,496.31,496.35,496.40,496.47,496.52,496.60,496.64,496.69,496.76,496.85,496.90,496.94,496.98,497.05,497.13,497.19,497.25,497.32,497.35,497.42,497.48,497.53,497.61,497.65,497.70,497.76,497.75,497.69,497.62,497.54,497.50,497.47,497.40,497.34,497.29,497.26,497.20,497.17,497.14,497.06,496.99,496.97,496.93,496.86,496.78,496.76,496.73,496.65,496.61,496.57,496.51,496.45,496.40,496.40,496.40,496.42,496.46,496.47,496.47,496.47,496.47,496.47,496.47,496.47,496.47,496.47,496.47,496.47,496.47,496.47,496.47,496.47,496.47,496.47,496.47,496.47,496.47,496.47,496.47,496.50,496.54,496.62,496.72,496.80,496.92,497.01,497.09,497.18,497.28,497.40,497.50,497.58,497.65,497.76,497.85,497.94,498.06,498.14,498.22,498.33,498.47,498.55,498.63,498.75,498.88,498.96,499.03,499.12,499.20,499.31,499.43,499.55,499.64,499.74,499.88,499.97,500.00,500.00,500.00,500.00,500.00,500.00,500.00,500.00,500.00,500.00,500.00,500.00,500.00,499.81,498.87,497.31,498.18,499.38,500.00,499.97,499.83,499.77,499.64,499.45,499.25,499.10,498.92,498.73,498.53,498.38,498.19,498.00,497.81,497.65,497.47,497.28,497.10,496.94,496.78,496.70,496.70,496.77,496.86,496.93,497.00,497.09,497.17,497.24,497.31,497.37,497.37,497.37,497.37,497.37,497.37,497.37,497.37,497.37,497.37,497.36,497.31,497.28,497.26,497.26,497.26,497.26,497.26,497.25,497.20,497.17,497.17,497.17,497.17,497.16,497.12,497.09,497.06,497.05,496.99,496.97,496.94,496.87,496.87,496.80,496.76,496.75,496.68,496.62
494.10,494.16,494.20,494.23,494.28,494.31,494.35,494.40,494.43,494.49,494.56,494.60,494.61,494.67,494.70,494.70,494.71,494.76,494.79,494.80,494.80,494.81,494.87,494.90,494.90,494.90,494.90,494.96,495.03,495.10,495.11,495.16,495.24,495.30,495.31,495.37,495.44,495.48,495.51,495.58,495.62,495.70,495.84,495.92,496.00,496.08,496.13,496.16,496.21,496.24,496.27,496.34,496.41,496.44,496.50,496.56,496.63,496.70,496.74,496.78,496.86,496.91,496.99,497.04,497.07,497.14,497.20,497.27,497.35,497.42,497.45,497.50,497.55,497.63,497.71,497.72,497.76,497.82,497.82,497.75,497.68,497.61,497.56,497.53,497.47,497.39,497.33,497.32,497.26,497.21,497.19,497.13,497.05,497.01,496.98,496.92,496.84,496.81,496.77,496.71,496.64,496.63,496.58,496.50,496.44,496.43,496.43,496.45,496.50,496.50,496.50,496.50,496.50,496.50,496.50,496.51,496.52,496.52,496.52,496.52,496.52,496.52,496.52,496.52,496.52,496.52,496.52,496.52,496.52,496.52,496.52,496.53,496.60,496.67,496.75,496.83,496.96,497.05,497.13,497.23,497.31,497.43,497.55,497.65,497.72,497.79,497.88,497.98,498.12,498.20,498.28,498.40,498.53,498.62,498.69,498.81,498.94,499.02,499.10,499.18,499.25,499.35,499.49,499.59,499.67,499.76,499.88,499.97,500.00,500.00,500.00,500.00,500.00,500.00,500.00,500.00,500.00,500.00,500.00,500.00,500.00,499.60,498.44,496.99,498.71,499.68,500.00,500.00,500.00,499.93,499.82,499.67,499.49,499.35,499.19,499.02,498.82,498.66,498.49,498.30,498.10,497.94,497.77,497.57,497.38,497.22,497.05,496.89,496.82,496.84,496.92,496.98,497.04,497.12,497.20,497.28,497.37,497.43,497.43,497.43,497.43,497.43,497.43,497.43,497.43,497.43,497.42,497.39,497.34,497.32,497.32,497.32,497.32,497.31,497.30,497.28,497.23,497.22,497.22,497.22,497.22,497.20,497.15,497.13,497.12,497.10,497.05,497.01,496.98,496.93,496.90,496.86,496.82,496.79,496.73,496.66
494.16,494.19,494.22,494.28,494.30,494.35,494.39,494.42,494.48,494.55,494.59,494.60,494.61,494.67,494.70,494.70,494.70,494.71,494.76,494.80,494.80,494.81,494.87,494.90,494.90,494.90,494.90,494.96,495.03,495.10,495.11,495.16,495.24,495.30,495.31,495.37,495.41,495.44,495.51,495.59,495.66,495.76,495.90,495.99,496.06,496.13,496.21,496.27,496.29,496.34,496.38,496.41,496.48,496.55,496.62,496.68,496.70,496.76,496.84,496.91,496.97,497.00,497.05,497.13,497.19,497.26,497.29,497.34,497.42,497.49,497.56,497.59,497.63,497.70,497.77,497.79,497.83,497.89,497.88,497.82,497.75,497.69,497.67,497.61,497.53,497.45,497.40,497.39,497.32,497.25,497.20,497.18,497.12,497.04,497.00,496.98,496.90,496.84,496.80,496.77,496.71,496.69,496.64,496.56,496.50,496.50,496.50,496.50,496.50,496.50,496.50,496.50,496.50,496.50,496.50,496.55,496.59,496.59,496.59,496.59,496.59,496.59,496.59,496.59,496.59,496.60,496.60,496.60,496.60,496.60,496.60,496.60,496.65,496.73,496.81,496.89,496.97,497.05,497.16,497.29,497.38,497.46,497.58,497.70,497.78,497.86,497.94,498.04,498.19,498.27,498.35,498.46,498.60,498.68,498.75,498.88,499.01,499.09,499.17,499.25,499.32,499.41,499.56,499.65,499.73,499.80,499.89,499.97,500.00,500.00,500.00,500.00,500.00,500.00,500.00,500.00,500.00,500.00,500.00,500.00,500.00,499.37,498.04,496.83,499.19,499.94,500.00,500.00,500.00,499.93,499.85,499.76,499.66,499.57,499.44,499.29,499.13,498.97,498.77,498.58,498.42,498.26,498.05,497.86,497.70,497.54,497.32,497.15,497.01,496.92,496.98,497.00,497.05,497.13,497.21,497.28,497.41,497.49,497.50,497.50,497.50,497.50,497.50,497.50,497.49,497.49,497.47,497.41,497.40,497.40,497.40,497.40,497.38,497.33,497.31,497.30,497.29,497.29,497.29,497.29,497.27,497.22,497.20,497.19,497.18,497.12,497.10,497.05,497.00,496.98,496.92,496.90,496.86,496.80,496.79,496.73
494.19,494.23,494.26,494.30,494.34,494.38,494.42,494.46,494.50,494.56,494.60,494.60,494.61,494.67,494.70,494.70,494.70,494.70,494.76,494.80,494.80,494.81,494.87,494.90,494.90,494.90,494.90,494.96,495.03,495.10,495.11,495.16,495.24,495.30,495.31,495.37,495.43,495.49,495.56,495.64,495.72,495.83,495.97,496.04,496.13,496.20,496.28,496.35,496.40,496.44,496.47,496.52,496.55,496.62,496.69,496.77,496.81,496.85,496.90,496.99,497.05,497.11,497.17,497.23,497.27,497.34,497.40,497.46,497.52,497.56,497.63,497.69,497.73,497.77,497.84,497.86,497.90,497.95,497.95,497.88,497.80,497.75,497.75,497.68,497.60,497.52,497.46,497.45,497.39,497.31,497.24,497.20,497.17,497.11,497.06,497.04,496.97,496.89,496.86,496.84,496.76,496.72,496.68,496.63,496.56,496.56,496.56,496.56,496.56,496.56,496.56,496.56,496.56,496.56,496.56,496.58,496.60,496.60,496.60,496.60,496.60,496.60,496.60,496.60,496.63,496.66,496.66,496.66,496.66,496.66,496.66,496.66,496.69,496.74,496.83,496.95,497.03,497.11,497.22,497.36,497.44,497.51,497.63,497.77,497.85,497.93,498.00,498.11,498.25,498.34,498.42,498.52,498.66,498.75,498.82,498.94,499.08,499.15,499.23,499.30,499.38,499.48,499.62,499.72,499.77,499.81,499.89,499.97,500.00,500.00,500.00,500.00,500.00,500.02,500.05,500.01,500.00,500.00,500.00,500.00,500.00,499.17,497.87,497.15,499.38,500.00,500.00,500.00,500.00,499.93,499.85,499.78,499.70,499.62,499.52,499.41,499.30,499.19,499.05,498.88,498.69,498.53,498.35,498.15,497.97,497.81,497.63,497.46,497.29,497.12,497.07,497.10,497.13,497.18,497.25,497.34,497.44,497.52,497.56,497.56,497.56,497.56,497.56,497.55,497.51,497.50,497.49,497.46,497.45,497.45,497.45,497.45,497.40,497.37,497.36,497.36,497.36,497.36,497.33,497.30,497.29,497.26,497.25,497.25,497.24,497.17,497.16,497.11,497.06,497.04,496.98,496.95,496.92,496.86,496.85,496.79
494.22,494.26,494.31,494.33,494.38,494.41,494.45,494.50,494.50,494.56,494.60,494.60,494.61,494.67,494.70,494.70,494.70,494.70,494.76,494.80,494.80,494.81,494.87,494.90,494.90,494.90,494.90,494.96,495.03,495.10,495.11,495.16,495.23,495.28,495.30,495.37,495.46,495.55,495.63,495.70,495.78,495.89,496.01,496.11,496.19,496.26,496.35,496.42,496.50,496.53,496.57,496.62,496.64,496.70,496.77,496.84,496.91,496.94,496.99,497.06,497.13,497.20,497.28,497.33,497.36,497.42,497.49,497.56,497.63,497.65,497.70,497.77,497.82,497.84,497.90,497.93,497.96,498.02,498.01,497.95,497.88,497.84,497.81,497.74,497.67,497.59,497.54,497.52,497.45,497.38,497.30,497.24,497.22,497.17,497.11,497.09,497.03,496.96,496.91,496.89,496.82,496.75,496.71,496.68,496.63,496.63,496.63,496.63,496.63,496.63,496.63,496.63,496.63,496.63,496.63,496.63,496.63,496.63,496.63,496.63,496.63,496.63,496.63,496.63,496.66,496.70,496.70,496.70,496.70,496.70,496.70,496.70,496.71,496.77,496.88,497.01,497.10,497.18,497.28,497.42,497.50,497.59,497.70,497.84,497.92,497.99,498.08,498.19,498.32,498.40,498.48,498.59,498.73,498.81,498.88,499.00,499.14,499.22,499.29,499.38,499.45,499.53,499.67,499.76,499.81,499.84,499.91,499.98,500.00,500.00,500.00,500.00,500.01,500.05,500.08,500.01,500.00,500.00,500.00,500.00,499.99,498.96,497.76,497.63,499.49,500.00,500.00,500.00,500.00,499.93,499.85,499.78,499.70,499.62,499.54,499.47,499.39,499.33,499.25,499.12,498.93,498.79,498.64,498.44,498.25,498.10,497.93,497.76,497.58,497.38,497.22,497.21,497.22,497.25,497.32,497.40,497.48,497.55,497.62,497.63,497.63,497.63,497.62,497.60,497.54,497.52,497.52,497.52,497.52,497.52,497.51,497.49,497.44,497.43,497.43,497.43,497.42,497.40,497.36,497.32,497.32,497.32,497.32,497.31,497.29,497.23,497.20,497.16,497.11,497.09,497.04,497.01,496.97,496.93,496.92,496.87
494.28,494.29,494.32,494.38,494.40,494.45,494.49,494.50,494.50,494.56,494.60,494.60,494.61,494.67,494.70,494.70,494.70,494.70,494.76,494.80,494.80,494.81,494.87,494.90,494.90,494.90,494.90,494.96,495.03,495.10,495.11,495.16,495.21,495.23,495.30,495.37,495.49,495.62,495.69,495.76,495.85,495.93,496.03,496.16,496.25,496.33,496.41,496.49,496.56,496.63,496.68,496.70,496.76,496.83,496.88,496.90,496.98,497.05,497.12,497.17,497.20,497.27,497.35,497.42,497.47,497.49,497.55,497.63,497.70,497.76,497.78,497.84,497.88,497.90,497.97,497.99,498.02,498.09,498.08,498.01,497.98,497.95,497.88,497.80,497.73,497.68,497.66,497.59,497.52,497.45,497.37,497.29,497.28,497.24,497.16,497.10,497.09,497.02,496.95,496.90,496.88,496.81,496.74,496.70,496.69,496.69,496.69,496.69,496.69,496.69,496.69,496.69,496.69,496.69,496.69,496.69,496.69,496.69,496.69,496.69,496.69,496.69,496.69,496.69,496.69,496.70,496.70,496.70,496.70,496.70,496.70,496.70,496.76,496.87,497.00,497.08,497.16,497.24,497.35,497.49,497.57,497.65,497.76,497.90,497.98,498.06,498.18,498.30,498.39,498.47,498.54,498.65,498.79,498.88,498.95,499.07,499.20,499.28,499.36,499.44,499.51,499.60,499.68,499.76,499.83,499.90,499.97,500.00,500.00,500.00,500.00,500.00,500.05,500.09,500.08,500.01,500.00,500.00,500.00,499.99,499.93,498.73,497.69,498.18,499.62,500.00,500.00,500.00,500.00,499.93,499.85,499.78,499.70,499.62,499.54,499.47,499.40,499.38,499.32,499.23,499.13,499.04,498.89,498.73,498.57,498.41,498.20,498.03,497.87,497.69,497.48,497.34,497.29,497.31,497.38,497.47,497.54,497.62,497.68,497.69,497.69,497.69,497.67,497.61,497.59,497.59,497.59,497.59,497.59,497.59,497.55,497.50,497.49,497.49,497.49,497.49,497.48,497.42,497.39,497.38,497.38,497.38,497.38,497.35,497.30,497.28,497.23,497.19,497.17,497.11,497.09,497.03,497.00,496.99,496.99,496.98
494.35,494.35,494.38,494.44,494.45,494.48,494.50,494.50,494.50,494.56,494.60,494.60,494.61,494.67,494.70,494.70,494.70,494.70,494.76,494.80,494.80,494.81,494.87,494.90,494.90,494.90,494.90,494.96,495.03,495.10,495.11,495.16,495.22,495.27,495.35,495.43,495.55,495.68,495.75,495.84,495.91,495.99,496.08,496.23,496.32,496.40,496.48,496.56,496.67,496.73,496.77,496.81,496.85,496.92,496.97,497.02,497.09,497.14,497.20,497.26,497.31,497.38,497.43,497.49,497.56,497.60,497.67,497.72,497.77,497.84,497.85,497.90,497.95,497.96,498.03,498.08,498.12,498.15,498.15,498.12,498.08,498.02,497.95,497.87,497.79,497.75,497.74,497.66,497.58,497.50,497.44,497.40,497.37,497.29,497.22,497.15,497.11,497.07,497.01,496.95,496.94,496.88,496.80,496.75,496.75,496.71,496.70,496.70,496.71,496.74,496.75,496.75,496.75,496.75,496.75,496.75,496.75,496.75,496.75,496.75,496.75,496.75,496.75,496.75,496.75,496.75,496.75,496.75,496.75,496.75,496.75,496.75,496.81,496.96,497.12,497.20,497.27,497.38,497.50,497.61,497.69,497.79,497.91,498.01,498.10,498.17,498.30,498.43,498.50,498.58,498.66,498.77,498.91,498.99,499.07,499.17,499.27,499.35,499.43,499.50,499.58,499.65,499.69,499.76,499.84,499.92,499.99,500.00,500.00,500.00,500.00,500.04,500.08,500.10,500.08,500.01,500.00,500.00,500.00,499.97,499.70,498.43,497.69,498.77,499.76,500.00,500.00,500.00,500.00,499.93,499.85,499.78,499.70,499.62,499.54,499.47,499.40,499.39,499.34,499.26,499.18,499.10,498.99,498.88,498.76,498.64,498.49,498.34,498.16,497.97,497.78,497.62,497.49,497.42,497.45,497.53,497.61,497.69,497.75,497.75,497.75,497.73,497.69,497.66,497.65,497.65,497.65,497.64,497.61,497.60,497.58,497.55,497.55,497.55,497.55,497.54,497.50,497.46,497.45,497.45,497.45,497.45,497.42,497.38,497.35,497.34,497.28,497.25,497.23,497.16,497.15,497.09,497.05,497.05,497.05,497.05
494.41,494.42,494.43,494.50,494.51,494.51,494.51,494.51,494.52,494.57,494.60,494.60,494.62,494.68,494.70,494.70,494.70,494.70,494.76,494.80,494.80,494.81,494.87,494.90,494.90,494.90,494.90,494.96,495.02,495.08,495.10,495.17,495.25,495.34,495.41,495.49,495.62,495.75,495.82,495.90,495.98,496.05,496.15,496.29,496.38,496.46,496.54,496.63,496.77,496.83,496.86,496.91,496.93,496.98,497.05,497.13,497.20,497.23,497.27,497.35,497.42,497.50,497.52,497.56,497.63,497.70,497.78,497.81,497.84,497.91,497.92,497.97,498.02,498.04,498.11,498.18,498.22,498.22,498.23,498.22,498.17,498.09,498.01,497.94,497.87,497.83,497.80,497.73,497.65,497.58,497.53,497.51,497.44,497.37,497.28,497.21,497.15,497.12,497.07,497.01,497.00,496.94,496.87,496.81,496.79,496.73,496.72,496.72,496.73,496.79,496.80,496.80,496.80,496.80,496.80,496.80,496.81,496.81,496.81,496.81,496.81,496.81,496.81,496.81,496.81,496.81,496.81,496.81,496.81,496.81,496.81,496.82,496.88,497.04,497.23,497.33,497.42,497.54,497.66,497.74,497.83,497.96,498.07,498.15,498.22,498.31,498.43,498.55,498.63,498.71,498.79,498.91,499.04,499.12,499.19,499.27,499.35,499.43,499.49,499.56,499.64,499.70,499.71,499.77,499.86,499.93,499.99,500.00,500.00,500.00,500.02,500.08,500.10,500.10,500.08,500.01,500.00,500.00,500.00,499.94,499.42,498.11,497.72,499.32,499.89,500.01,500.01,500.00,500.00,499.93,499.85,499.78,499.70,499.62,499.54,499.47,499.40,499.38,499.33,499.26,499.18,499.10,499.03,498.95,498.87,498.79,498.72,498.60,498.43,498.23,498.08,497.93,497.73,497.57,497.54,497.60,497.67,497.74,497.80,497.80,497.80,497.77,497.72,497.72,497.72,497.72,497.71,497.69,497.63,497.62,497.62,497.62,497.62,497.61,497.60,497.58,497.52,497.51,497.51,497.51,497.51,497.50,497.45,497.42,497.41,497.40,497.34,497.31,497.28,497.22,497.22,497.17,497.13,497.13,497.13,497.13
494.46,494.48,494.49,494.50,494.56,494.58,494.58,494.58,494.58,494.59,494.60,494.62,494.67,494.69,494.70,494.70,494.70,494.70,494.76,494.80,494.80,494.81,494.87,494.90,494.90,494.90,494.90,494.96,495.00,495.03,495.09,495.22,495.32,495.40,495.48,495.55,495.68,495.80,495.88,495.97,496.04,496.12,496.21,496.36,496.45,496.52,496.61,496.69,496.84,496.93,496.97,496.99,497.05,497.07,497.12,497.20,497.27,497.34,497.37,497.40,497.49,497.56,497.63,497.67,497.70,497.77,497.85,497.88,497.90,497.97,497.98,498.03,498.11,498.16,498.18,498.25,498.28,498.29,498.35,498.30,498.23,498.15,498.07,498.00,497.97,497.93,497.87,497.79,497.72,497.67,497.64,497.58,497.50,497.43,497.35,497.28,497.26,497.21,497.14,497.07,497.01,496.99,496.94,496.86,496.81,496.78,496.78,496.78,496.78,496.80,496.80,496.80,496.80,496.80,496.80,496.80,496.83,496.88,496.88,496.88,496.88,496.88,496.88,496.88,496.88,496.88,496.88,496.88,496.88,496.88,496.88,496.88,496.94,497.07,497.25,497.45,497.59,497.70,497.79,497.88,498.01,498.11,498.20,498.27,498.36,498.49,498.60,498.69,498.76,498.84,498.96,499.08,499.17,499.25,499.32,499.41,499.48,499.55,499.58,499.63,499.69,499.71,499.77,499.84,499.92,499.98,500.00,500.00,500.00,500.02,500.08,500.10,500.10,500.10,500.08,500.01,500.00,500.00,500.00,499.91,499.13,497.82,497.70,499.67,499.98,500.05,500.05,500.00,500.00,499.93,499.85,499.78,499.70,499.62,499.54,499.47,499.39,499.33,499.31,499.26,499.18,499.10,499.03,498.95,498.87,498.79,498.72,498.68,498.61,498.49,498.34,498.19,498.02,497.85,497.69,497.68,497.74,497.79,497.80,497.80,497.80,497.79,497.78,497.78,497.78,497.78,497.76,497.70,497.69,497.68,497.68,497.68,497.68,497.63,497.60,497.60,497.58,497.58,497.58,497.58,497.57,497.51,497.49,497.48,497.47,497.41,497.39,497.34,497.29,497.28,497.28,497.27,497.26,497.26,497.26,497.26
494.48,494.52,494.54,494.55,494.59,494.60,494.60,494.61,494.64,494.65,494.65,494.66,494.69,494.70,494.70,494.71,494.74,494.75,494.78,494.80,494.80,494.81,494.87,494.90,494.90,494.90,494.90,494.96,495.01,495.06,495.13,495.27,495.38,495.47,495.54,495.62,495.72,495.84,495.95,496.02,496.11,496.18,496.27,496.42,496.51,496.59,496.67,496.75,496.90,497.00,497.06,497.10,497.14,497.17,497.23,497.30,497.35,497.42,497.47,497.52,497.59,497.64,497.70,497.76,497.80,497.84,497.92,497.94,497.97,498.03,498.04,498.10,498.18,498.24,498.25,498.30,498.35,498.37,498.43,498.38,498.29,498.22,498.15,498.10,498.07,498.01,497.94,497.86,497.78,497.75,497.73,497.64,497.57,497.50,497.43,497.39,497.35,497.28,497.20,497.13,497.09,497.06,497.00,496.92,496.86,496.85,496.85,496.85,496.85,496.85,496.85,496.85,496.85,496.85,496.85,496.85,496.86,496.90,496.90,496.90,496.90,496.90,496.90,496.90,496.90,496.91,496.94,496.94,496.94,496.94,496.94,496.94,496.98,497.10,497.31,497.53,497.69,497.82,497.93,498.04,498.17,498.25,498.33,498.41,498.52,498.64,498.74,498.81,498.90,499.01,499.13,499.22,499.30,499.38,499.45,499.51,499.56,499.64,499.65,499.69,499.75,499.76,499.83,499.90,499.97,500.00,500.00,500.00,500.00,500.02,500.09,500.10,500.10,500.10,500.08,500.01,500.00,500.00,500.00,499.88,498.84,497.83,498.02,499.82,500.04,500.08,500.06,499.99,499.96,499.92,499.85,499.78,499.70,499.62,499.54,499.47,499.39,499.31,499.30,499.26,499.18,499.10,499.03,498.95,498.87,498.79,498.72,498.67,498.63,498.57,498.46,498.34,498.22,498.09,497.94,497.86,497.84,497.85,497.85,497.85,497.85,497.85,497.85,497.85,497.85,497.82,497.78,497.75,497.75,497.75,497.75,497.74,497.70,497.67,497.65,497.65,497.65,497.65,497.65,497.63,497.59,497.55,497.54,497.54,497.52,497.46,497.44,497.39,497.35,497.35,497.35,497.35,497.35,497.35,497.35,497.35
494.51,494.55,494.60,494.61,494.62,494.62,494.62,494.63,494.68,494.69,494.70,494.71,494.72,494.72,494.72,494.74,494.79,494.80,494.81,494.81,494.81,494.82,494.87,494.90,494.90,494.90,494.91,494.97,495.04,495.12,495.20,495.33,495.44,495.53,495.61,495.69,495.76,495.87,496.01,496.10,496.17,496.25,496.34,496.49,496.58,496.65,496.74,496.82,496.97,497.06,497.14,497.21,497.22,497.28,497.35,497.41,497.43,497.50,497.56,497.63,497.70,497.72,497.77,497.85,497.91,497.92,497.98,498.01,498.03,498.10,498.12,498.17,498.24,498.30,498.31,498.38,498.41,498.43,498.49,498.44,498.36,498.29,498.23,498.21,498.15,498.07,498.00,497.92,497.85,497.82,497.79,497.71,497.63,497.56,497.52,497.50,497.43,497.36,497.28,497.22,497.20,497.14,497.07,497.00,496.93,496.91,496.91,496.91,496.91,496.91,496.91,496.91,496.91,496.91,496.91,496.91,496.91,496.92,496.92,496.92,496.92,496.92,496.92,496.92,496.92,496.94,496.99,497.00,497.00,497.00,497.00,497.00,497.01,497.14,497.37,497.59,497.75,497.92,498.08,498.22,498.30,498.38,498.47,498.56,498.70,498.79,498.87,498.95,499.04,499.18,499.27,499.36,499.44,499.51,499.57,499.61,499.63,499.70,499.71,499.76,499.81,499.82,499.90,499.97,500.00,500.00,500.00,500.00,500.01,500.03,500.09,500.10,500.10,500.10,500.08,500.01,500.00,500.00,500.00,499.83,498.56,497.98,498.50,499.87,500.08,500.10,500.06,499.99,499.92,499.90,499.85,499.78,499.70,499.62,499.54,499.47,499.39,499.31,499.30,499.26,499.18,499.10,499.03,498.95,498.87,498.79,498.72,498.64,498.60,498.58,498.50,498.43,498.35,498.27,498.18,498.05,497.95,497.91,497.91,497.91,497.91,497.91,497.91,497.90,497.89,497.86,497.81,497.81,497.81,497.81,497.80,497.78,497.73,497.71,497.71,497.71,497.71,497.70,497.69,497.67,497.62,497.61,497.61,497.60,497.58,497.52,497.51,497.47,497.42,497.42,497.42,497.42,497.42,497.42,497.41,497.41
494.57,494.59,494.62,494.67,494.68,494.68,494.68,494.68,494.70,494.70,494.73,494.77,494.77,494.77,494.77,494.78,494.80,494.80,494.85,494.88,494.88,494.88,494.89,494.90,494.90,494.91,494.96,495.03,495.11,495.19,495.26,495.36,495.47,495.60,495.67,495.75,495.83,495.93,496.07,496.15,496.24,496.31,496.40,496.55,496.65,496.72,496.79,496.89,497.03,497.13,497.20,497.28,497.34,497.37,497.42,497.49,497.55,497.62,497.66,497.70,497.77,497.84,497.87,497.91,497.97,497.98,498.04,498.07,498.10,498.17,498.23,498.26,498.30,498.37,498.38,498.44,498.47,498.50,498.56,498.50,498.43,498.37,498.34,498.29,498.22,498.14,498.06,497.99,497.96,497.92,497.86,497.77,497.70,497.66,497.63,497.56,497.49,497.46,497.41,497.34,497.28,497.20,497.17,497.13,497.05,496.99,496.97,496.97,496.97,496.97,496.97,496.97,496.97,496.97,496.97,496.97,496.97,496.97,496.97,496.97,496.97,496.97,496.97,496.97,496.97,496.98,497.00,497.00,497.00,497.00,497.00,497.00,497.05,497.20,497.42,497.60,497.80,498.02,498.21,498.35,498.44,498.51,498.62,498.75,498.84,498.92,499.00,499.09,499.22,499.32,499.41,499.51,499.62,499.65,499.67,499.68,499.69,499.76,499.77,499.83,499.88,499.89,499.96,499.99,500.00,500.00,500.00,500.00,500.03,500.08,500.10,500.10,500.10,500.10,500.08,500.01,500.00,500.00,499.97,499.70,498.29,498.19,499.01,499.91,500.08,500.10,500.06,499.99,499.91,499.90,499.85,499.78,499.70,499.62,499.54,499.47,499.39,499.31,499.30,499.26,499.18,499.10,499.03,498.95,498.87,498.79,498.72,498.64,498.60,498.58,498.51,498.43,498.35,498.28,498.20,498.10,498.02,497.97,497.97,497.97,497.97,497.97,497.96,497.91,497.90,497.89,497.88,497.88,497.88,497.88,497.85,497.80,497.78,497.77,497.77,497.77,497.77,497.72,497.70,497.69,497.68,497.68,497.68,497.64,497.60,497.58,497.57,497.56,497.55,497.55,497.55,497.55,497.55,497.54,497.49,497.47
494.64,494.64,494.66,494.69,494.70,494.72,494.74,494.74,494.74,494.74,494.76,494.80,494.80,494.83,494.84,494.84,494.84,494.84,494.87,494.90,494.90,494.90,494.93,494.96,494.98,494.99,495.06,495.11,495.17,495.25,495.33,495.43,495.54,495.65,495.74,495.81,495.89,496.00,496.14,496.22,496.30,496.38,496.47,496.62,496.70,496.78,496.87,496.95,497.10,497.19,497.27,497.35,497.42,497.46,497.50,497.56,497.63,497.72,497.74,497.76,497.85,497.92,497.94,497.98,498.04,498.04,498.11,498.14,498.16,498.24,498.31,498.34,498.37,498.43,498.44,498.50,498.56,498.59,498.63,498.60,498.53,498.47,498.44,498.39,498.32,498.25,498.17,498.10,498.08,498.03,497.96,497.88,497.83,497.80,497.75,497.68,497.63,497.59,497.54,497.46,497.39,497.34,497.30,497.26,497.20,497.04,497.00,497.01,497.04,497.04,497.04,497.04,497.04,497.04,497.04,497.04,497.04,497.04,497.04,497.04,497.04,497.04,497.04,497.04,497.04,497.04,497.04,497.04,497.04,497.04,497.04,497.04,497.08,497.23,497.45,497.64,497.87,498.08,498.27,498.44,498.56,498.67,498.78,498.90,498.97,499.05,499.15,499.26,499.38,499.46,499.53,499.62,499.70,499.74,499.74,499.74,499.76,499.83,499.84,499.89,499.94,499.95,499.99,500.00,500.00,500.01,500.03,500.04,500.07,500.10,500.10,500.10,500.10,500.10,500.08,500.01,500.00,500.00,499.93,499.47,497.98,498.32,499.44,499.95,500.08,500.08,500.04,499.99,499.91,499.90,499.85,499.78,499.70,499.62,499.54,499.47,499.39,499.31,499.27,499.24,499.18,499.10,499.03,498.95,498.87,498.79,498.72,498.64,498.60,498.58,498.51,498.43,498.35,498.28,498.21,498.16,498.08,498.04,498.04,498.04,498.04,498.04,498.02,497.95,497.94,497.94,497.94,497.94,497.94,497.92,497.88,497.84,497.84,497.84,497.84,497.83,497.80,497.75,497.74,497.74,497.74,497.74,497.74,497.70,497.64,497.64,497.64,497.64,497.64,497.64,497.64,497.64,497.64,497.63,497.59,497.58
494.69,494.70,494.70,494.71,494.71,494.76,494.80,494.80,494.80,494.80,494.81,494.81,494.81,494.87,494.89,494.89,494.90,494.90,494.92,494.93,494.93,494.94,495.00,495.07,495.11,495.12,495.19,495.21,495.25,495.32,495.41,495.53,495.64,495.73,495.80,495.89,495.96,496.07,496.20,496.28,496.37,496.44,496.54,496.68,496.77,496.85,496.93,497.01,497.15,497.25,497.34,497.42,497.49,497.56,497.61,497.63,497.70,497.77,497.81,497.84,497.91,497.99,498.00,498.04,498.10,498.12,498.18,498.21,498.23,498.30,498.38,498.41,498.44,498.50,498.51,498.57,498.64,498.70,498.70,498.70,498.66,498.59,498.53,498.51,498.45,498.38,498.30,498.24,498.21,498.17,498.09,498.03,498.01,497.95,497.88,497.81,497.80,497.75,497.67,497.59,497.53,497.51,497.46,497.42,497.38,497.09,497.01,497.04,497.09,497.10,497.10,497.10,497.10,497.11,497.11,497.11,497.11,497.11,497.11,497.11,497.11,497.11,497.11,497.11,497.11,497.11,497.11,497.11,497.11,497.11,497.11,497.11,497.11,497.24,497.47,497.70,497.92,498.11,498.30,498.51,498.67,498.82,498.94,499.02,499.11,499.19,499.30,499.43,499.51,499.59,499.66,499.70,499.73,499.79,499.81,499.81,499.83,499.89,499.91,499.95,500.00,500.00,500.00,500.00,500.00,500.02,500.08,500.10,500.10,500.10,500.10,500.10,500.10,500.10,500.08,500.01,500.00,500.00,499.86,499.21,497.74,498.45,499.78,500.00,500.08,500.05,500.01,499.99,499.91,499.89,499.85,499.78,499.70,499.62,499.54,499.47,499.39,499.31,499.24,499.20,499.18,499.10,499.03,498.95,498.87,498.79,498.72,498.64,498.60,498.57,498.51,498.43,498.35,498.28,498.22,498.20,498.15,498.11,498.11,498.11,498.11,498.10,498.08,498.01,498.00,498.00,498.00,498.00,498.00,497.95,497.91,497.91,497.91,497.91,497.91,497.88,497.82,497.81,497.81,497.81,497.81,497.81,497.80,497.76,497.70,497.70,497.70,497.70,497.70,497.70,497.70,497.70,497.70,497.70,497.70,497.70
494.70,494.73,494.77,494.77,494.77,494.79,494.80,494.80,494.80,494.84,494.87,494.87,494.87,494.89,494.90,494.90,494.91,494.95,495.01,495.07,495.12,495.17,495.25,495.26,495.24,495.25,495.31,495.34,495.37,495.45,495.52,495.62,495.71,495.78,495.87,495.99,496.09,496.17,496.27,496.35,496.43,496.53,496.66,496.75,496.84,496.92,496.99,497.07,497.17,497.29,497.40,497.48,497.55,497.63,497.69,497.75,497.77,497.84,497.90,497.95,497.98,498.05,498.07,498.11,498.18,498.23,498.26,498.30,498.35,498.37,498.44,498.47,498.50,498.57,498.63,498.66,498.71,498.77,498.77,498.77,498.75,498.73,498.70,498.65,498.58,498.50,498.44,498.41,498.36,498.29,498.24,498.20,498.16,498.08,498.01,497.94,497.94,497.88,497.80,497.74,497.71,497.66,497.62,497.63,497.61,497.19,497.07,497.08,497.10,497.10,497.10,497.10,497.11,497.16,497.17,497.17,497.17,497.17,497.17,497.17,497.17,497.17,497.17,497.17,497.17,497.17,497.17,497.17,497.17,497.17,497.17,497.17,497.17,497.30,497.53,497.75,497.94,498.14,498.36,498.58,498.74,498.93,499.08,499.17,499.29,499.38,499.47,499.56,499.64,499.72,499.75,499.77,499.78,499.85,499.87,499.87,499.89,499.96,499.97,499.99,500.00,500.00,500.00,500.00,500.03,500.07,500.10,500.10,500.10,500.10,500.10,500.10,500.10,500.10,500.08,500.01,500.00,500.00,499.81,499.01,497.86,498.70,499.95,500.06,500.09,500.08,500.04,499.99,499.91,499.85,499.81,499.78,499.70,499.62,499.54,499.47,499.39,499.31,499.24,499.20,499.18,499.10,499.03,498.95,498.87,498.79,498.72,498.64,498.57,498.53,498.50,498.43,498.35,498.29,498.27,498.27,498.22,498.17,498.17,498.17,498.17,498.14,498.09,498.07,498.07,498.07,498.07,498.06,498.01,497.98,497.97,497.97,497.97,497.97,497.97,497.95,497.88,497.87,497.87,497.87,497.87,497.87,497.83,497.79,497.77,497.77,497.77,497.77,497.77,497.77,497.77,497.77,497.77,497.77,497.77,497.77
494.74,494.76,494.80,494.80,494.83,494.84,494.84,494.84,494.84,494.88,494.90,494.91,494.93,494.96,494.99,495.01,495.05,495.12,495.19,495.27,495.35,495.40,495.43,495.41,495.37,495.38,495.44,495.47,495.50,495.58,495.66,495.73,495.81,495.88,495.97,496.09,496.19,496.26,496.35,496.44,496.53,496.63,496.75,496.83,496.90,496.98,497.06,497.17,497.25,497.36,497.47,497.54,497.62,497.69,497.77,497.84,497.87,497.92,497.99,498.03,498.04,498.12,498.16,498.19,498.25,498.32,498.34,498.38,498.44,498.47,498.52,498.55,498.59,498.65,498.72,498.75,498.79,498.84,498.84,498.86,498.87,498.87,498.86,498.79,498.71,498.64,498.60,498.57,498.50,498.43,498.37,498.36,498.29,498.22,498.15,498.10,498.07,498.00,497.93,497.87,497.87,497.82,497.80,497.83,497.81,497.29,497.13,497.13,497.13,497.13,497.13,497.13,497.15,497.19,497.20,497.20,497.20,497.20,497.23,497.24,497.24,497.24,497.24,497.24,497.24,497.24,497.24,497.24,497.24,497.24,497.24,497.24,497.24,497.37,497.59,497.79,497.98,498.19,498.42,498.64,498.80,499.02,499.19,499.30,499.45,499.54,499.62,499.69,499.76,499.82,499.84,499.84,499.85,499.92,499.94,499.94,499.95,499.99,500.00,500.00,500.00,500.00,500.03,500.03,500.06,500.10,500.10,500.10,500.10,500.11,500.13,500.11,500.10,500.10,500.08,500.01,500.00,500.00,499.76,498.84,498.11,498.96,500.03,500.10,500.13,500.11,500.06,499.99,499.91,499.83,499.80,499.78,499.70,499.62,499.54,499.47,499.39,499.31,499.24,499.20,499.18,499.10,499.03,498.95,498.87,498.79,498.72,498.64,498.56,498.50,498.50,498.43,498.37,498.34,498.33,498.31,498.26,498.24,498.24,498.24,498.24,498.20,498.13,498.13,498.13,498.13,498.13,498.12,498.05,498.03,498.03,498.03,498.03,498.03,498.02,497.99,497.94,497.94,497.94,497.94,497.93,497.91,497.86,497.84,497.84,497.84,497.84,497.84,497.84,497.84,497.84,497.84,497.82,497.80,497.80,497.80
494.80,494.81,494.81,494.82,494.88,494.89,494.89,494.90,494.91,494.92,494.94,494.96,495.02,495.09,495.16,495.23,495.30,495.38,495.45,495.52,495.58,495.58,495.53,495.50,495.50,495.51,495.57,495.60,495.63,495.70,495.77,495.86,495.94,496.01,496.10,496.18,496.25,496.34,496.42,496.56,496.65,496.73,496.81,496.89,496.98,497.05,497.15,497.28,497.37,497.45,497.53,497.62,497.69,497.77,497.84,497.91,497.98,498.00,498.05,498.10,498.12,498.18,498.25,498.30,498.32,498.38,498.40,498.45,498.52,498.59,498.60,498.65,498.69,498.72,498.79,498.86,498.90,498.90,498.91,498.97,499.00,499.00,498.98,498.92,498.84,498.79,498.77,498.71,498.63,498.56,498.51,498.49,498.42,498.35,498.30,498.28,498.21,498.13,498.06,498.01,498.00,498.00,498.00,498.02,497.99,497.38,497.20,497.20,497.20,497.20,497.20,497.20,497.20,497.21,497.21,497.21,497.21,497.22,497.27,497.29,497.29,497.29,497.29,497.29,497.30,497.30,497.30,497.30,497.30,497.30,497.30,497.30,497.30,497.42,497.63,497.81,498.03,498.25,498.48,498.70,498.87,499.08,499.28,499.43,499.58,499.67,499.75,499.82,499.88,499.90,499.90,499.90,499.91,499.98,499.99,499.99,499.99,500.00,500.00,500.00,500.01,500.02,500.08,500.09,500.10,500.10,500.11,500.11,500.11,500.13,500.18,500.12,500.10,500.10,500.08,500.01,500.00,499.99,499.70,498.66,498.42,499.21,500.03,500.11,500.17,500.14,500.06,499.99,499.91,499.83,499.80,499.78,499.70,499.62,499.54,499.47,499.39,499.31,499.24,499.20,499.17,499.10,499.03,498.95,498.87,498.79,498.72,498.64,498.56,498.51,498.50,498.44,498.41,498.40,498.39,498.33,498.31,498.30,498.30,498.30,498.29,498.25,498.20,498.20,498.20,498.20,498.20,498.19,498.12,498.10,498.10,498.10,498.10,498.10,498.06,498.01,498.00,498.00,498.00,498.00,497.98,497.92,497.91,497.90,497.90,497.89,497.89,497.89,497.89,497.89,497.89,497.89,497.86,497.81,497.81,497.81
494.87,494.87,494.87,494.87,494.89,494.90,494.92,494.97,495.02,495.11,495.21,495.28,495.27,495.32,495.41,495.48,495.56,495.63,495.68,495.70,495.72,495.67,495.59,495.59,495.63,495.64,495.70,495.73,495.74,495.78,495.85,495.93,496.03,496.15,496.22,496.30,496.38,496.45,496.54,496.64,496.73,496.80,496.89,497.01,497.10,497.17,497.26,497.36,497.44,497.51,497.62,497.73,497.81,497.89,497.94,497.98,498.05,498.11,498.15,498.18,498.23,498.26,498.33,498.37,498.38,498.45,498.51,498.54,498.59,498.66,498.67,498.72,498.78,498.83,498.86,498.93,498.97,498.97,498.97,499.03,499.06,499.06,499.06,499.04,498.97,498.93,498.91,498.84,498.76,498.71,498.68,498.63,498.55,498.51,498.47,498.42,498.34,498.26,498.21,498.18,498.14,498.17,498.22,498.25,498.12,497.45,497.26,497.26,497.26,497.26,497.26,497.26,497.26,497.26,497.26,497.26,497.26,497.27,497.29,497.30,497.30,497.30,497.31,497.34,497.37,497.37,497.37,497.37,497.37,497.37,497.37,497.37,497.37,497.47,497.65,497.86,498.09,498.32,498.53,498.72,498.92,499.15,499.36,499.56,499.71,499.80,499.88,499.94,499.96,499.97,499.97,499.97,499.97,499.99,500.00,500.00,500.00,500.00,500.00,500.03,500.06,500.07,500.09,500.10,500.10,500.11,500.16,500.17,500.17,500.17,500.19,500.12,500.10,500.10,500.08,500.01,500.00,499.95,499.55,498.43,498.71,499.46,500.03,500.11,500.18,500.14,500.06,499.99,499.91,499.83,499.80,499.78,499.70,499.62,499.54,499.47,499.39,499.31,499.24,499.17,499.13,499.09,499.03,498.95,498.87,498.79,498.72,498.64,498.59,498.56,498.56,498.50,498.47,498.47,498.46,498.38,498.37,498.37,498.37,498.36,498.32,498.29,498.26,498.26,498.26,498.26,498.26,498.25,498.19,498.17,498.17,498.17,498.17,498.17,498.12,498.06,498.06,498.06,498.06,498.04,498.00,497.97,497.97,497.97,497.95,497.91,497.90,497.90,497.90,497.90,497.90,497.90,497.89,497.87,497.87,497.87
494.90,494.90,494.91,494.96,494.98,495.00,495.06,495.15,495.26,495.42,495.56,495.62,495.54,495.59,495.67,495.75,495.82,495.85,495.86,495.85,495.81,495.74,495.68,495.70,495.75,495.76,495.83,495.86,495.87,495.90,495.95,496.02,496.13,496.25,496.33,496.40,496.48,496.56,496.66,496.74,496.81,496.90,496.98,497.11,497.19,497.27,497.35,497.43,497.53,497.61,497.71,497.83,497.92,497.99,498.04,498.07,498.13,498.20,498.22,498.25,498.33,498.35,498.40,498.44,498.47,498.52,498.60,498.64,498.67,498.72,498.75,498.79,498.86,498.92,498.93,498.99,499.02,499.03,499.06,499.11,499.13,499.13,499.13,499.13,499.09,499.05,499.04,498.97,498.91,498.87,498.83,498.76,498.68,498.66,498.63,498.55,498.47,498.41,498.38,498.35,498.30,498.36,498.43,498.45,498.25,497.53,497.31,497.31,497.32,497.32,497.32,497.32,497.32,497.32,497.32,497.32,497.32,497.32,497.32,497.32,497.32,497.32,497.33,497.38,497.40,497.40,497.40,497.40,497.42,497.43,497.43,497.43,497.43,497.51,497.69,497.92,498.13,498.36,498.56,498.75,498.98,499.19,499.42,499.63,499.80,499.90,499.96,500.00,500.00,500.00,500.00,500.00,500.00,500.00,500.00,500.00,500.00,500.02,500.02,500.06,500.10,500.10,500.10,500.10,500.11,500.14,500.19,500.20,500.20,500.19,500.16,500.12,500.10,500.09,500.06,500.01,500.00,499.87,499.34,498.23,498.99,499.69,500.03,500.11,500.18,500.14,500.06,499.99,499.91,499.83,499.80,499.78,499.70,499.62,499.54,499.47,499.39,499.31,499.24,499.16,499.10,499.09,499.03,498.95,498.87,498.79,498.72,498.66,498.63,498.62,498.60,498.55,498.52,498.52,498.52,498.45,498.43,498.43,498.43,498.43,498.37,498.32,498.32,498.32,498.32,498.32,498.32,498.29,498.24,498.22,498.22,498.22,498.22,498.21,498.17,498.13,498.13,498.13,498.11,498.08,498.03,498.02,498.02,498.02,497.99,497.94,497.93,497.93,497.93,497.93,497.93,497.93,497.93,497.93,497.93,497.93
494.92,494.92,494.97,495.10,495.17,495.24,495.34,495.49,495.64,495.85,495.95,495.92,495.80,495.84,495.92,496.00,496.05,496.00,495.98,495.95,495.88,495.81,495.79,495.83,495.89,495.90,495.97,495.99,496.01,496.07,496.09,496.15,496.23,496.32,496.39,496.47,496.55,496.65,496.78,496.87,496.94,497.02,497.10,497.19,497.27,497.34,497.42,497.51,497.64,497.74,497.82,497.90,497.98,498.06,498.13,498.18,498.20,498.27,498.30,498.32,498.40,498.46,498.49,498.52,498.58,498.60,498.66,498.74,498.78,498.80,498.86,498.89,498.93,498.99,499.00,499.06,499.10,499.11,499.17,499.19,499.19,499.19,499.19,499.19,499.19,499.19,499.17,499.10,499.08,499.03,498.97,498.89,498.81,498.79,498.75,498.68,498.60,498.58,498.55,498.49,498.49,498.55,498.63,498.63,498.38,497.62,497.35,497.33,497.38,497.39,497.39,497.39,497.39,497.40,497.40,497.40,497.40,497.40,497.40,497.40,497.40,497.40,497.40,497.40,497.41,497.41,497.41,497.41,497.45,497.49,497.49,497.49,497.49,497.57,497.75,497.97,498.15,498.36,498.59,498.81,499.04,499.22,499.42,499.65,499.86,499.96,499.99,500.00,500.00,500.00,500.00,500.00,500.00,500.00,500.00,500.00,500.02,500.08,500.09,500.09,500.10,500.10,500.11,500.11,500.14,500.19,500.20,500.20,500.20,500.18,500.12,500.10,500.10,500.07,500.01,500.00,500.00,499.76,499.10,498.10,499.22,499.88,500.03,500.11,500.18,500.14,500.06,499.99,499.91,499.83,499.80,499.78,499.70,499.62,499.54,499.47,499.39,499.31,499.24,499.16,499.10,499.09,499.03,498.95,498.87,498.80,498.73,498.70,498.70,498.68,498.62,498.60,498.60,498.60,498.58,498.51,498.50,498.50,498.50,498.49,498.43,498.40,498.40,498.40,498.40,498.40,498.37,498.31,498.30,498.29,498.29,498.29,498.29,498.23,498.20,498.19,498.19,498.19,498.14,498.10,498.10,498.10,498.09,498.05,498.00,498.00,498.00,498.00,498.00,498.00,498.00,497.99,497.99,497.99,497.99,497.99
495.12,495.19,495.28,495.39,495.47,495.58,495.72,495.87,496.03,496.21,496.22,496.10,496.05,496.11,496.16,496.17,496.15,496.07,496.06,496.02,495.95,495.93,495.95,495.99,496.01,496.02,496.10,496.12,496.15,496.21,496.22,496.28,496.36,496.44,496.51,496.59,496.67,496.76,496.86,496.94,497.01,497.10,497.18,497.30,497.38,497.46,497.54,497.62,497.73,497.81,497.89,497.97,498.09,498.18,498.23,498.27,498.31,498.35,498.39,498.43,498.47,498.54,498.56,498.60,498.67,498.71,498.74,498.80,498.86,498.87,498.94,498.99,499.03,499.06,499.11,499.14,499.16,499.18,499.25,499.25,499.25,499.25,499.25,499.25,499.29,499.31,499.30,499.23,499.22,499.17,499.10,499.02,498.98,498.94,498.88,498.81,498.73,498.72,498.70,498.69,498.73,498.76,498.82,498.81,498.52,497.74,497.43,497.37,497.40,497.40,497.40,497.40,497.41,497.45,497.45,497.45,497.45,497.45,497.45,497.45,497.45,497.45,497.45,497.45,497.45,497.45,497.45,497.45,497.48,497.50,497.50,497.50,497.50,497.59,497.76,497.99,498.19,498.42,498.63,498.83,499.05,499.25,499.47,499.69,499.87,499.97,500.00,500.00,500.00,500.00,500.00,500.00,500.01,500.05,500.06,500.06,500.06,500.10,500.10,500.10,500.10,500.11,500.15,500.16,500.18,500.20,500.20,500.20,500.20,500.18,500.11,500.10,500.10,500.07,500.00,500.00,500.00,499.65,498.92,498.18,499.38,499.99,500.07,500.11,500.18,500.14,500.06,499.99,499.91,499.83,499.80,499.78,499.70,499.62,499.54,499.47,499.39,499.31,499.24,499.16,499.10,499.09,499.03,498.95,498.89,498.86,498.82,498.81,498.80,498.74,498.67,498.66,498.66,498.64,498.60,498.57,498.56,498.56,498.55,498.51,498.47,498.45,498.45,498.45,498.45,498.45,498.43,498.37,498.36,498.36,498.36,498.36,498.35,498.29,498.25,498.25,498.25,498.21,498.18,498.16,498.16,498.16,498.12,498.08,498.06,498.06,498.06,498.06,498.06,498.06,498.06,498.03,498.00,498.00,498.00,498.00
495.38,495.50,495.62,495.71,495.79,495.91,496.05,496.19,496.32,496.46,496.41,496.27,496.27,496.32,496.34,496.29,496.22,496.16,496.13,496.10,496.05,496.05,496.12,496.15,496.15,496.16,496.22,496.24,496.28,496.34,496.35,496.40,496.47,496.54,496.62,496.69,496.78,496.88,496.95,497.03,497.11,497.18,497.27,497.40,497.49,497.57,497.65,497.73,497.80,497.89,497.98,498.06,498.19,498.28,498.33,498.36,498.41,498.44,498.49,498.53,498.55,498.61,498.63,498.68,498.74,498.81,498.82,498.87,498.93,498.95,499.00,499.08,499.13,499.14,499.21,499.22,499.23,499.26,499.31,499.32,499.32,499.32,499.33,499.34,499.39,499.43,499.41,499.36,499.35,499.30,499.22,499.16,499.15,499.09,499.01,498.94,498.88,498.87,498.87,498.89,498.96,498.99,499.03,498.98,498.63,497.86,497.52,497.43,497.43,497.43,497.43,497.43,497.44,497.49,497.50,497.50,497.50,497.50,497.52,497.52,497.52,497.52,497.52,497.52,497.52,497.52,497.52,497.52,497.52,497.52,497.52,497.52,497.52,497.61,497.78,498.01,498.23,498.45,498.67,498.85,499.08,499.29,499.51,499.71,499.88,499.97,500.00,500.00,500.00,500.02,500.02,500.02,500.03,500.09,500.10,500.10,500.10,500.10,500.10,500.10,500.11,500.13,500.19,500.20,500.20,500.20,500.20,500.20,500.19,500.16,500.11,500.10,500.09,500.05,500.00,500.00,500.00,499.54,498.76,498.37,499.51,500.05,500.11,500.13,500.19,500.14,500.06,499.99,499.91,499.83,499.80,499.78,499.70,499.62,499.54,499.47,499.39,499.31,499.24,499.16,499.10,499.09,499.03,498.96,498.93,498.93,498.93,498.93,498.90,498.83,498.74,498.72,498.72,498.70,498.63,498.63,498.63,498.63,498.61,498.54,498.52,498.52,498.52,498.52,498.52,498.51,498.48,498.43,498.43,498.43,498.43,498.42,498.40,498.35,498.32,498.32,498.31,498.25,498.22,498.22,498.22,498.20,498.15,498.13,498.13,498.13,498.13,498.11,498.10,498.10,498.10,498.05,498.02,498.02,498.02,498.02
495.68,495.78,495.89,496.02,496.11,496.19,496.28,496.37,496.46,496.54,496.53,496.46,496.46,496.47,496.43,496.36,496.29,496.27,496.22,496.19,496.18,496.18,496.25,496.27,496.27,496.28,496.36,496.38,496.41,496.47,496.48,496.49,496.53,496.61,496.69,496.76,496.88,497.00,497.08,497.16,497.23,497.31,497.39,497.48,497.56,497.63,497.71,497.79,497.87,497.99,498.11,498.18,498.27,498.35,498.43,498.47,498.49,498.55,498.58,498.61,498.67,498.68,498.74,498.78,498.80,498.87,498.89,498.94,499.01,499.06,499.08,499.14,499.19,499.20,499.27,499.28,499.32,499.37,499.38,499.38,499.38,499.38,499.40,499.46,499.48,499.49,499.48,499.47,499.47,499.43,499.36,499.28,499.27,499.22,499.15,499.08,499.07,499.07,499.07,499.09,499.16,499.22,499.26,499.14,498.71,497.98,497.61,497.49,497.49,497.49,497.49,497.49,497.49,497.50,497.50,497.50,497.50,497.51,497.57,497.59,497.59,497.59,497.59,497.59,497.59,497.59,497.59,497.59,497.59,497.59,497.59,497.59,497.59,497.67,497.85,498.07,498.25,498.46,498.69,498.91,499.13,499.32,499.48,499.66,499.87,499.97,500.00,500.00,500.01,500.07,500.09,500.09,500.09,500.10,500.10,500.10,500.10,500.10,500.10,500.10,500.13,500.18,500.20,500.20,500.20,500.20,500.20,500.20,500.16,500.11,500.10,500.10,500.05,500.01,500.00,500.00,500.00,499.43,498.63,498.66,499.61,500.05,500.13,500.18,500.20,500.14,500.06,499.99,499.91,499.83,499.80,499.78,499.70,499.62,499.54,499.47,499.39,499.31,499.24,499.16,499.10,499.09,499.03,498.99,498.99,498.99,498.99,498.99,498.99,498.94,498.81,498.79,498.78,498.76,498.69,498.69,498.69,498.69,498.67,498.60,498.59,498.59,498.59,498.59,498.59,498.54,498.50,498.49,498.49,498.49,498.49,498.47,498.41,498.39,498.38,498.38,498.38,498.31,498.28,498.28,498.27,498.22,498.19,498.19,498.19,498.19,498.19,498.14,498.10,498.10,498.10,498.09,498.09,498.09,498.09,498.09
495.86,495.95,496.04,496.15,496.19,496.25,496.33,496.41,496.49,496.56,496.60,496.61,496.60,496.56,496.50,496.44,496.40,496.36,496.29,496.27,496.30,496.31,496.38,496.41,496.41,496.42,496.48,496.50,496.54,496.60,496.61,496.61,496.65,496.72,496.80,496.88,496.98,497.08,497.15,497.24,497.31,497.41,497.52,497.60,497.68,497.75,497.83,497.91,497.98,498.08,498.19,498.26,498.34,498.45,498.52,498.56,498.60,498.64,498.68,498.72,498.75,498.75,498.81,498.87,498.91,498.95,498.99,499.03,499.08,499.14,499.16,499.20,499.27,499.31,499.35,499.36,499.40,499.45,499.45,499.45,499.45,499.45,499.46,499.53,499.56,499.56,499.56,499.56,499.56,499.53,499.50,499.45,499.42,499.35,499.29,499.25,499.21,499.24,499.28,499.32,499.36,499.43,499.46,499.32,498.84,498.11,497.71,497.56,497.56,497.56,497.56,497.56,497.56,497.56,497.56,497.56,497.56,497.56,497.59,497.60,497.60,497.60,497.60,497.60,497.63,497.66,497.66,497.66,497.66,497.66,497.66,497.66,497.66,497.72,497.86,498.09,498.29,498.51,498.72,498.92,499.11,499.30,499.48,499.64,499.87,499.97,500.00,500.00,500.01,500.08,500.10,500.10,500.10,500.10,500.10,500.10,500.10,500.11,500.14,500.16,500.17,500.20,500.20,500.20,500.20,500.20,500.20,500.20,500.15,500.10,500.10,500.10,500.04,500.00,500.00,500.00,499.90,499.30,498.63,499.00,499.73,500.05,500.13,500.19,500.20,500.14,500.06,499.99,499.91,499.83,499.80,499.78,499.70,499.62,499.54,499.47,499.39,499.31,499.24,499.16,499.10,499.10,499.06,499.06,499.07,499.10,499.11,499.11,499.11,499.07,498.93,498.87,498.86,498.83,498.76,498.75,498.75,498.74,498.69,498.66,498.66,498.66,498.66,498.66,498.66,498.61,498.56,498.56,498.56,498.56,498.53,498.49,498.46,498.45,498.45,498.44,498.40,498.36,498.36,498.33,498.29,498.26,498.25,498.25,498.24,498.21,498.20,498.18,498.16,498.16,498.16,498.16,498.16,498.16,498.16,498.16
495.97,496.05,496.12,496.19,496.21,496.27,496.35,496.43,496.50,496.58,496.66,496.72,496.71,496.64,496.57,496.53,496.51,496.44,496.37,496.37,496.43,496.44,496.50,496.53,496.53,496.54,496.61,496.64,496.67,496.73,496.74,496.74,496.77,496.86,496.93,497.01,497.08,497.16,497.24,497.32,497.40,497.50,497.63,497.71,497.78,497.87,497.94,498.03,498.11,498.19,498.26,498.35,498.42,498.55,498.62,498.65,498.71,498.73,498.77,498.81,498.82,498.83,498.88,498.95,499.01,499.02,499.09,499.13,499.15,499.21,499.23,499.28,499.35,499.41,499.42,499.43,499.47,499.51,499.51,499.51,499.51,499.52,499.54,499.60,499.62,499.62,499.62,499.62,499.62,499.62,499.62,499.62,499.56,499.48,499.44,499.43,499.37,499.42,499.49,499.55,499.56,499.62,499.65,499.50,498.97,498.22,497.78,497.60,497.60,497.61,497.62,497.62,497.62,497.62,497.62,497.62,497.62,497.62,497.62,497.62,497.62,497.62,497.62,497.62,497.66,497.70,497.70,497.70,497.70,497.70,497.72,497.72,497.72,497.76,497.88,498.11,498.33,498.55,498.75,498.91,499.07,499.28,499.48,499.64,499.85,499.97,500.00,500.00,500.01,500.08,500.10,500.10,500.10,500.10,500.11,500.12,500.12,500.12,500.18,500.20,500.20,500.20,500.20,500.20,500.20,500.20,500.20,500.20,500.15,500.10,500.10,500.10,500.04,500.00,500.00,499.99,499.80,499.17,498.64,499.33,499.84,500.05,500.13,500.19,500.20,500.14,500.06,499.99,499.91,499.83,499.80,499.78,499.70,499.62,499.54,499.47,499.39,499.31,499.24,499.17,499.14,499.14,499.14,499.14,499.16,499.21,499.22,499.22,499.22,499.19,499.07,498.97,498.92,498.88,498.82,498.81,498.81,498.78,498.72,498.72,498.72,498.72,498.72,498.72,498.70,498.66,498.62,498.62,498.62,498.61,498.57,498.52,498.51,498.51,498.51,498.48,498.43,498.42,498.41,498.38,498.32,498.31,498.31,498.31,498.28,498.23,498.22,498.22,498.22,498.22,498.22,498.21,498.20,498.20,498.20,498.20
495.97,496.05,496.12,496.20,496.26,496.34,496.42,496.50,496.57,496.65,496.73,496.78,496.77,496.71,496.68,496.64,496.57,496.50,496.47,496.50,496.56,496.57,496.63,496.67,496.67,496.68,496.74,496.76,496.79,496.86,496.87,496.87,496.91,496.98,497.06,497.14,497.22,497.29,497.37,497.44,497.52,497.61,497.69,497.77,497.85,497.93,498.02,498.16,498.24,498.32,498.40,498.47,498.55,498.64,498.72,498.77,498.79,498.84,498.88,498.88,498.89,498.95,498.98,499.01,499.08,499.09,499.15,499.22,499.27,499.29,499.34,499.38,499.42,499.48,499.49,499.53,499.57,499.59,499.59,499.59,499.59,499.61,499.66,499.68,499.69,499.69,499.69,499.69,499.69,499.69,499.70,499.75,499.69,499.61,499.56,499.56,499.55,499.61,499.69,499.75,499.75,499.82,499.85,499.67,499.10,498.30,497.81,497.60,497.61,497.67,497.69,497.69,497.69,497.69,497.69,497.69,497.69,497.69,497.69,497.69,497.69,497.69,497.69,497.69,497.69,497.70,497.70,497.70,497.70,497.73,497.78,497.78,497.78,497.83,497.94,498.17,498.35,498.51,498.70,498.91,499.07,499.28,499.48,499.63,499.80,499.95,500.00,500.00,500.01,500.08,500.10,500.10,500.10,500.10,500.16,500.19,500.19,500.19,500.19,500.20,500.20,500.20,500.20,500.20,500.20,500.20,500.20,500.20,500.15,500.10,500.10,500.10,500.04,500.00,500.00,499.99,499.75,499.08,498.60,499.58,499.93,500.05,500.13,500.19,500.20,500.14,500.06,499.99,499.91,499.83,499.80,499.78,499.70,499.62,499.54,499.47,499.39,499.31,499.24,499.23,499.26,499.26,499.26,499.26,499.27,499.28,499.28,499.28,499.28,499.28,499.24,499.12,498.99,498.90,498.88,498.88,498.88,498.85,498.79,498.78,498.78,498.78,498.78,498.78,498.73,498.69,498.69,498.69,498.69,498.63,498.59,498.59,498.59,498.59,498.54,498.50,498.49,498.49,498.44,498.39,498.38,498.38,498.38,498.35,498.30,498.28,498.28,498.28,498.28,498.28,498.28,498.23,498.20,498.20,498.20,498.20
496.01,496.10,496.17,496.25,496.33,496.40,496.47,496.51,496.59,496.67,496.74,496.81,496.84,496.77,496.75,496.72,496.65,496.61,496.62,496.66,496.69,496.70,496.76,496.79,496.80,496.85,496.88,496.90,496.93,496.99,496.99,497.02,497.06,497.11,497.15,497.22,497.29,497.38,497.46,497.57,497.66,497.73,497.81,497.88,497.96,498.04,498.13,498.24,498.33,498.40,498.48,498.56,498.67,498.76,498.81,498.86,498.89,498.94,498.94,498.96,499.00,499.03,499.08,499.11,499.15,499.19,499.23,499.29,499.35,499.36,499.43,499.47,499.51,499.54,499.55,499.61,499.65,499.65,499.65,499.65,499.65,499.68,499.74,499.75,499.75,499.75,499.75,499.75,499.75,499.77,499.80,499.84,499.81,499.76,499.74,499.75,499.78,499.82,499.86,499.90,499.90,499.93,499.94,499.85,499.47,498.58,497.94,497.65,497.65,497.69,497.70,497.70,497.70,497.70,497.74,497.75,497.75,497.75,497.75,497.75,497.75,497.75,497.75,497.75,497.75,497.75,497.75,497.75,497.75,497.76,497.80,497.80,497.80,497.84,497.96,498.18,498.35,498.50,498.69,498.91,499.07,499.25,499.45,499.63,499.78,499.94,500.00,500.00,500.01,500.08,500.10,500.10,500.11,500.14,500.18,500.20,500.20,500.20,500.20,500.20,500.20,500.21,500.24,500.25,500.23,500.20,500.20,500.20,500.15,500.10,500.10,500.10,500.04,500.00,500.00,499.98,499.68,499.02,498.64,499.73,500.00,500.10,500.18,500.24,500.21,500.14,500.06,499.99,499.91,499.83,499.78,499.74,499.69,499.62,499.54,499.47,499.40,499.36,499.31,499.31,499.35,499.35,499.35,499.35,499.35,499.35,499.35,499.35,499.35,499.35,499.34,499.27,499.13,498.98,498.95,498.94,498.94,498.92,498.85,498.85,498.85,498.85,498.85,498.84,498.77,498.75,498.75,498.74,498.71,498.67,498.65,498.65,498.65,498.62,498.58,498.54,498.54,498.54,498.50,498.44,498.44,498.44,498.42,498.38,498.35,498.35,498.35,498.35,498.35,498.34,498.31,498.27,498.25,498.25,498.25,498.25
496.07,496.14,496.22,496.30,496.38,496.45,496.50,496.53,496.60,496.68,496.75,496.84,496.89,496.85,496.82,496.79,496.73,496.72,496.78,496.83,496.83,496.83,496.89,496.93,496.95,497.01,497.02,497.02,497.05,497.12,497.13,497.19,497.22,497.22,497.23,497.30,497.38,497.45,497.54,497.68,497.77,497.85,497.92,498.00,498.09,498.17,498.25,498.33,498.40,498.48,498.56,498.65,498.78,498.87,498.92,498.94,499.00,499.02,499.03,499.05,499.11,499.13,499.17,499.21,499.24,499.30,499.32,499.36,499.42,499.43,499.49,499.56,499.61,499.62,499.63,499.68,499.72,499.72,499.72,499.72,499.72,499.75,499.81,499.81,499.81,499.81,499.81,499.81,499.82,499.86,499.91,499.91,499.91,499.91,499.91,499.92,499.98,499.99,500.00,500.00,500.00,500.00,500.00,499.99,499.84,498.90,498.10,497.72,497.72,497.72,497.72,497.72,497.72,497.72,497.78,497.80,497.80,497.80,497.80,497.81,497.81,497.81,497.81,497.81,497.81,497.81,497.81,497.81,497.81,497.81,497.81,497.81,497.81,497.86,497.97,498.18,498.35,498.50,498.69,498.91,499.07,499.22,499.42,499.63,499.78,499.94,500.00,500.00,500.01,500.08,500.10,500.10,500.11,500.17,500.19,500.20,500.20,500.20,500.20,500.21,500.22,500.23,500.28,500.30,500.26,500.20,500.20,500.20,500.15,500.10,500.10,500.10,500.04,500.00,500.00,499.98,499.60,499.00,498.77,499.83,500.07,500.15,500.23,500.28,500.22,500.14,500.06,499.99,499.92,499.83,499.75,499.70,499.68,499.62,499.54,499.47,499.42,499.42,499.41,499.41,499.42,499.43,499.43,499.43,499.43,499.43,499.43,499.43,499.43,499.43,499.43,499.43,499.30,499.12,499.02,499.01,499.01,498.97,498.92,498.92,498.92,498.92,498.91,498.89,498.83,498.81,498.81,498.80,498.74,498.72,498.72,498.71,498.70,498.64,498.62,498.62,498.61,498.60,498.55,498.51,498.51,498.50,498.45,498.42,498.42,498.42,498.42,498.41,498.40,498.39,498.33,498.31,498.31,498.31,498.31,498.32
496.07,496.15,496.22,496.30,496.38,496.46,496.52,496.59,496.67,496.74,496.82,496.90,496.96,496.96,496.92,496.87,496.86,496.86,496.91,496.95,496.95,496.96,497.02,497.05,497.07,497.15,497.16,497.16,497.19,497.25,497.26,497.32,497.36,497.36,497.36,497.43,497.50,497.58,497.66,497.75,497.84,497.92,497.99,498.07,498.20,498.30,498.38,498.45,498.53,498.61,498.69,498.77,498.86,498.94,499.01,499.06,499.08,499.13,499.16,499.16,499.18,499.24,499.27,499.30,499.36,499.38,499.43,499.46,499.50,499.55,499.57,499.63,499.68,499.69,499.74,499.77,499.77,499.77,499.77,499.77,499.81,499.86,499.87,499.88,499.88,499.88,499.88,499.88,499.93,499.96,499.97,499.97,499.97,499.97,499.97,499.98,500.00,500.00,500.00,500.00,500.00,500.00,500.00,500.00,499.87,499.06,498.23,497.77,497.77,497.77,497.77,497.77,497.77,497.78,497.79,497.80,497.80,497.80,497.80,497.85,497.88,497.88,497.88,497.88,497.88,497.88,497.88,497.88,497.88,497.88,497.88,497.88,497.88,497.92,498.02,498.19,498.35,498.50,498.69,498.91,499.07,499.22,499.42,499.63,499.78,499.94,500.00,500.00,500.01,500.08,500.10,500.10,500.10,500.12,500.18,500.20,500.20,500.20,500.20,500.24,500.27,500.28,500.30,500.30,500.26,500.20,500.20,500.20,500.15,500.10,500.10,500.10,500.04,500.00,500.00,499.98,499.51,499.08,499.08,499.88,500.07,500.15,500.23,500.28,500.22,500.14,500.06,500.00,499.97,499.85,499.75,499.68,499.63,499.61,499.54,499.49,499.47,499.47,499.47,499.47,499.49,499.54,499.55,499.55,499.55,499.55,499.55,499.55,499.55,499.55,499.55,499.55,499.49,499.33,499.11,499.07,499.03,499.00,498.97,498.97,498.97,498.97,498.96,498.90,498.88,498.88,498.88,498.87,498.79,498.77,498.77,498.76,498.71,498.69,498.68,498.68,498.67,498.62,498.59,498.57,498.56,498.51,498.49,498.47,498.47,498.47,498.47,498.44,498.40,498.40,498.38,498.38,498.38,498.38,498.38,498.43
496.07,496.15,496.22,496.30,496.38,496.46,496.53,496.62,496.72,496.78,496.84,496.92,496.99,497.03,496.99,496.95,496.98,496.99,497.04,497.09,497.09,497.09,497.15,497.19,497.20,497.27,497.28,497.28,497.31,497.38,497.39,497.45,497.49,497.49,497.49,497.55,497.63,497.71,497.79,497.87,497.94,498.02,498.10,498.18,498.29,498.38,498.47,498.54,498.62,498.72,498.81,498.89,498.97,499.02,499.09,499.15,499.18,499.23,499.25,499.25,499.29,499.33,499.37,499.40,499.45,499.48,499.52,499.54,499.56,499.64,499.67,499.72,499.75,499.76,499.83,499.85,499.85,499.85,499.85,499.87,499.91,499.94,499.94,499.94,499.94,499.94,499.94,499.94,499.98,500.00,500.00,500.00,500.00,500.00,500.00,500.00,500.00,500.00,500.00,500.00,500.00,500.00,500.00,500.00,499.89,499.22,498.35,497.85,497.85,497.85,497.85,497.85,497.85,497.85,497.85,497.85,497.85,497.85,497.85,497.88,497.90,497.90,497.90,497.90,497.92,497.94,497.94,497.94,497.94,497.94,497.94,497.94,497.94,497.97,498.05,498.23,498.39,498.54,498.72,498.91,499.07,499.25,499.44,499.63,499.78,499.94,500.00,500.00,500.01,500.08,500.10,500.10,500.10,500.11,500.17,500.20,500.20,500.20,500.23,500.27,500.30,500.30,500.30,500.27,500.24,500.20,500.20,500.20,500.15,500.10,500.10,500.10,500.04,500.00,500.00,499.97,499.46,499.11,499.23,499.90,500.07,500.15,500.23,500.29,500.25,500.18,500.11,500.04,500.00,499.86,499.77,499.72,499.65,499.65,499.61,499.59,499.59,499.59,499.59,499.59,499.60,499.64,499.65,499.65,499.65,499.65,499.65,499.65,499.65,499.65,499.65,499.65,499.62,499.52,499.32,499.18,499.08,499.04,499.04,499.04,499.04,499.02,498.99,498.95,498.94,498.94,498.93,498.89,498.85,498.85,498.83,498.79,498.75,498.75,498.75,498.73,498.70,498.66,498.65,498.63,498.59,498.55,498.54,498.54,498.54,498.54,498.51,498.47,498.44,498.44,498.44,498.44,498.44,498.44,498.44,498.48
496.07,496.15,496.22,496.30,496.38,496.46,496.53,496.62,496.75,496.80,496.85,496.93,497.01,497.08,497.06,497.04,497.11,497.12,497.17,497.22,497.22,497.22,497.28,497.31,497.33,497.41,497.42,497.42,497.44,497.51,497.52,497.57,497.62,497.62,497.62,497.69,497.76,497.83,497.91,497.98,498.06,498.14,498.22,498.30,498.38,498.46,498.54,498.62,498.69,498.82,498.93,499.01,499.09,499.11,499.15,499.22,499.29,499.31,499.31,499.34,499.40,499.42,499.47,499.51,499.53,499.59,499.61,499.62,499.64,499.71,499.78,499.80,499.81,499.83,499.89,499.91,499.91,499.91,499.91,499.97,500.00,500.00,500.00,500.00,500.00,500.00,500.00,500.00,500.00,500.01,500.01,500.01,500.01,500.01,500.01,500.01,500.00,500.00,500.00,500.00,500.01,500.00,500.00,500.00,499.91,499.37,498.45,497.89,497.90,497.91,497.91,497.91,497.91,497.91,497.91,497.91,497.91,497.91,497.91,497.91,497.91,497.91,497.91,497.91,497.95,498.00,498.00,498.00,498.00,498.00,498.00,498.00,498.00,498.01,498.07,498.28,498.44,498.61,498.76,498.92,499.08,499.28,499.48,499.63,499.78,499.94,500.00,500.00,500.01,500.08,500.10,500.10,500.10,500.11,500.17,500.20,500.20,500.21,500.27,500.30,500.30,500.30,500.30,500.24,500.20,500.20,500.20,500.19,500.15,500.10,500.10,500.09,500.04,500.00,500.00,499.97,499.42,499.11,499.29,499.91,500.07,500.15,500.23,500.30,500.30,500.24,500.15,500.08,500.00,499.87,499.81,499.78,499.72,499.71,499.70,499.70,499.70,499.70,499.70,499.70,499.70,499.70,499.70,499.71,499.72,499.72,499.72,499.72,499.72,499.72,499.72,499.72,499.72,499.69,499.58,499.32,499.17,499.11,499.11,499.11,499.10,499.06,499.01,499.00,499.00,499.00,498.97,498.92,498.91,498.90,498.87,498.81,498.81,498.81,498.80,498.78,498.72,498.70,498.70,498.68,498.62,498.61,498.61,498.60,498.60,498.59,498.53,498.51,498.50,498.50,498.50,498.50,498.50,498.50,498.50,498.50
496.07,496.15,496.22,496.30,496.38,496.46,496.53,496.61,496.71,496.77,496.87,496.99,497.06,497.15,497.16,497.17,497.24,497.24,497.30,497.34,497.34,497.35,497.41,497.44,497.47,497.53,497.54,497.54,497.57,497.64,497.65,497.70,497.74,497.74,497.75,497.81,497.86,497.90,497.98,498.05,498.13,498.23,498.35,498.43,498.51,498.59,498.67,498.74,498.82,498.91,499.00,499.08,499.15,499.22,499.25,499.29,499.36,499.38,499.41,499.45,499.48,499.53,499.56,499.60,499.65,499.67,499.72,499.74,499.75,499.78,499.85,499.88,499.89,499.94,499.97,499.97,499.97,499.97,499.97,499.99,500.04,500.07,500.07,500.07,500.07,500.07,500.06,500.01,500.05,500.07,500.07,500.07,500.07,500.07,500.07,500.06,500.01,500.00,500.00,500.01,500.06,500.02,500.00,500.00,499.93,499.47,498.51,497.90,497.91,497.96,497.97,497.97,497.97,497.97,497.97,497.97,497.97,497.97,497.97,497.97,497.97,497.97,497.97,497.97,497.99,498.00,498.00,498.00,498.00,498.00,498.01,498.06,498.07,498.07,498.12,498.29,498.45,498.64,498.83,498.99,499.14,499.31,499.48,499.63,499.78,499.94,500.00,500.00,500.01,500.08,500.10,500.10,500.10,500.11,500.17,500.20,500.20,500.21,500.27,500.30,500.30,500.30,500.30,500.24,500.20,500.20,500.19,500.15,500.12,500.10,500.09,500.05,500.01,500.00,500.00,499.97,499.37,499.12,499.38,499.92,500.07,500.15,500.23,500.30,500.30,500.24,500.16,500.08,500.01,499.91,499.84,499.81,499.83,499.79,499.77,499.77,499.77,499.77,499.77,499.77,499.77,499.77,499.77,499.80,499.84,499.84,499.84,499.84,499.84,499.84,499.84,499.84,499.84,499.84,499.78,499.56,499.31,499.18,499.18,499.17,499.13,499.09,499.07,499.07,499.07,499.04,498.99,498.97,498.97,498.93,498.89,498.88,498.88,498.88,498.84,498.79,498.77,498.77,498.77,498.74,498.68,498.68,498.68,498.64,498.60,498.60,498.58,498.57,498.57,498.57,498.57,498.57,498.54,498.50,498.50,498.50
496.03,496.13,496.22,496.30,496.38,496.46,496.53,496.61,496.69,496.76,496.87,496.99,497.06,497.16,497.24,497.30,497.37,497.37,497.43,497.47,497.47,497.48,497.54,497.57,497.60,497.66,497.67,497.69,497.73,497.77,497.77,497.83,497.87,497.88,497.91,497.95,497.97,498.00,498.07,498.16,498.23,498.33,498.45,498.52,498.61,498.68,498.77,498.87,498.95,499.02,499.11,499.18,499.26,499.31,499.35,499.38,499.43,499.46,499.50,499.55,499.58,499.62,499.66,499.69,499.74,499.77,499.82,499.85,499.87,499.88,499.92,499.94,499.96,500.00,500.03,500.03,500.03,500.03,500.03,500.03,500.09,500.13,500.13,500.13,500.11,500.10,500.09,500.05,500.08,500.10,500.10,500.10,500.10,500.10,500.10,500.09,500.05,500.03,500.03,500.05,500.09,500.03,500.00,500.00,499.94,499.58,498.59,497.94,497.94,497.99,498.00,498.00,498.00,498.00,498.00,498.02,498.03,498.03,498.03,498.03,498.03,498.03,498.03,498.03,498.03,498.03,498.03,498.03,498.03,498.03,498.04,498.09,498.10,498.11,498.17,498.33,498.49,498.67,498.86,499.01,499.17,499.32,499.48,499.63,499.78,499.94,500.00,500.00,500.01,500.08,500.10,500.10,500.10,500.11,500.17,500.20,500.20,500.21,500.27,500.30,500.30,500.30,500.30,500.24,500.20,500.20,500.19,500.13,500.10,500.10,500.09,500.02,500.00,500.00,499.99,499.94,499.32,499.15,499.53,499.94,500.07,500.15,500.23,500.30,500.30,500.24,500.16,500.08,500.01,499.96,499.91,499.89,499.92,499.89,499.87,499.87,499.87,499.87,499.87,499.87,499.87,499.87,499.87,499.91,499.94,499.94,499.94,499.94,499.94,499.94,499.94,499.94,499.94,499.94,499.92,499.79,499.49,499.26,499.24,499.23,499.18,499.13,499.13,499.13,499.11,499.07,499.03,499.03,499.03,498.98,498.94,498.94,498.94,498.91,498.87,498.84,498.84,498.84,498.81,498.78,498.74,498.74,498.71,498.67,498.63,498.63,498.63,498.63,498.63,498.63,498.61,498.60,498.58,498.54,498.53,498.53
495.98,496.10,496.22,496.29,496.38,496.46,496.53,496.61,496.69,496.76,496.85,496.93,497.01,497.15,497.29,497.42,497.48,497.49,497.55,497.60,497.60,497.62,497.67,497.70,497.72,497.79,497.80,497.85,497.90,497.90,497.91,497.97,498.00,498.02,498.08,498.10,498.10,498.13,498.20,498.28,498.36,498.44,498.52,498.60,498.68,498.75,498.85,498.99,499.07,499.14,499.23,499.30,499.38,499.40,499.44,499.50,499.51,499.57,499.60,499.63,499.69,499.71,499.76,499.80,499.82,499.88,499.90,499.94,499.99,499.99,500.00,500.00,500.00,500.02,500.09,500.10,500.10,500.10,500.10,500.10,500.15,500.20,500.20,500.19,500.14,500.11,500.11,500.11,500.10,500.10,500.11,500.11,500.10,500.10,500.10,500.10,500.09,500.09,500.09,500.09,500.09,500.03,500.00,500.00,499.96,499.68,498.69,498.00,498.00,498.01,498.01,498.01,498.01,498.01,498.01,498.05,498.09,498.09,498.09,498.09,498.09,498.10,498.10,498.10,498.10,498.10,498.10,498.10,498.10,498.10,498.10,498.11,498.11,498.14,498.23,498.39,498.54,498.70,498.86,499.01,499.17,499.32,499.48,499.63,499.78,499.94,500.00,500.00,500.01,500.08,500.10,500.10,500.10,500.11,500.17,500.20,500.20,500.22,500.27,500.30,500.30,500.30,500.30,500.24,500.20,500.20,500.19,500.13,500.10,500.10,500.09,500.02,500.00,500.00,499.99,499.88,499.26,499.20,499.67,499.96,500.07,500.15,500.23,500.30,500.30,500.24,500.16,500.08,500.02,500.00,500.00,500.00,500.00,500.00,500.00,500.00,500.00,500.00,500.00,500.00,500.00,500.00,500.00,500.00,500.00,500.00,500.00,500.00,500.00,500.00,500.00,500.00,500.00,500.00,499.99,499.98,499.65,499.37,499.30,499.30,499.24,499.20,499.20,499.19,499.13,499.11,499.10,499.10,499.09,499.04,499.00,499.00,498.99,498.94,498.91,498.90,498.90,498.89,498.85,498.81,498.80,498.79,498.74,498.71,498.70,498.70,498.70,498.69,498.69,498.68,498.63,498.61,498.61,498.60,498.60,498.60
495.97,496.06,496.16,496.24,496.37,496.46,496.53,496.61,496.69,496.76,496.84,496.92,497.00,497.15,497.30,497.43,497.50,497.55,497.63,497.69,497.74,497.79,497.82,497.83,497.86,497.92,497.93,497.99,498.03,498.03,498.03,498.10,498.13,498.15,498.22,498.23,498.23,498.26,498.33,498.41,498.49,498.57,498.65,498.72,498.80,498.88,498.96,499.06,499.15,499.22,499.29,499.38,499.45,499.51,499.54,499.58,499.63,499.66,499.70,499.74,499.77,499.82,499.85,499.89,499.94,499.96,499.97,499.98,500.01,500.06,500.06,500.06,500.06,500.08,500.15,500.17,500.17,500.17,500.17,500.17,500.22,500.26,500.26,500.21,500.18,500.17,500.17,500.16,500.12,500.13,500.17,500.16,500.12,500.10,500.10,500.10,500.10,500.10,500.10,500.10,500.09,500.03,500.00,500.00,499.97,499.79,498.81,498.11,498.07,498.06,498.06,498.06,498.06,498.06,498.06,498.08,498.10,498.10,498.10,498.10,498.13,498.17,498.17,498.17,498.17,498.17,498.17,498.17,498.17,498.17,498.17,498.17,498.17,498.18,498.24,498.40,498.55,498.71,498.86,499.01,499.17,499.32,499.48,499.63,499.78,499.94,500.00,500.00,500.01,500.08,500.10,500.10,500.11,500.16,500.19,500.20,500.21,500.26,500.29,500.30,500.30,500.30,500.30,500.24,500.20,500.20,500.19,500.13,500.10,500.10,500.09,500.02,500.00,500.00,499.98,499.83,499.27,499.26,499.73,499.97,500.07,500.15,500.23,500.30,500.30,500.24,500.16,500.09,500.07,500.06,500.06,500.06,500.06,500.06,500.06,500.06,500.06,500.06,500.06,500.06,500.06,500.06,500.06,500.06,500.06,500.06,500.06,500.06,500.06,500.06,500.06,500.06,500.06,500.05,500.01,500.00,499.71,499.44,499.37,499.36,499.30,499.26,499.26,499.26,499.20,499.17,499.17,499.16,499.11,499.08,499.06,499.05,499.01,498.98,498.97,498.97,498.96,498.91,498.88,498.87,498.86,498.81,498.78,498.76,498.76,498.76,498.76,498.74,498.70,498.70,498.67,498.67,498.67,498.67,498.67,498.67
495.97,496.05,496.12,496.21,496.33,496.43,496.50,496.58,496.66,496.74,496.82,496.92,497.03,497.15,497.30,497.44,497.53,497.62,497.69,497.76,497.85,497.92,497.95,497.96,497.99,498.05,498.06,498.12,498.16,498.16,498.16,498.22,498.26,498.28,498.35,498.36,498.36,498.39,498.46,498.52,498.59,498.67,498.75,498.83,498.92,499.00,499.08,499.16,499.24,499.31,499.39,499.47,499.55,499.61,499.64,499.67,499.72,499.75,499.79,499.84,499.87,499.92,499.93,499.96,500.00,500.02,500.03,500.03,500.05,500.10,500.12,500.13,500.13,500.14,500.21,500.23,500.23,500.23,500.23,500.23,500.26,500.30,500.29,500.25,500.23,500.22,500.20,500.20,500.15,500.16,500.20,500.19,500.15,500.13,500.13,500.13,500.11,500.10,500.10,500.10,500.09,500.05,500.01,500.00,499.98,499.87,498.93,498.22,498.13,498.13,498.13,498.13,498.13,498.13,498.13,498.13,498.13,498.13,498.13,498.13,498.16,498.20,498.20,498.20,498.20,498.21,498.23,498.23,498.23,498.23,498.23,498.23,498.23,498.23,498.27,498.42,498.58,498.72,498.86,499.01,499.17,499.32,499.48,499.63,499.78,499.94,500.00,500.00,500.01,500.08,500.10,500.10,500.12,500.19,500.20,500.20,500.22,500.29,500.30,500.30,500.30,500.30,500.30,500.26,500.22,500.20,500.19,500.15,500.12,500.10,500.09,500.02,500.00,500.00,499.97,499.81,499.32,499.34,499.78,499.98,500.07,500.15,500.23,500.30,500.30,500.26,500.20,500.13,500.13,500.13,500.13,500.13,500.13,500.13,500.13,500.13,500.13,500.13,500.13,500.13,500.13,500.13,500.13,500.13,500.13,500.13,500.13,500.13,500.13,500.13,500.13,500.13,500.12,500.09,500.03,500.01,499.75,499.50,499.44,499.43,499.37,499.33,499.33,499.32,499.25,499.23,499.22,499.19,499.14,499.13,499.12,499.09,499.04,499.03,499.03,499.02,499.00,498.95,498.93,498.93,498.92,498.85,498.83,498.83,498.83,498.83,498.81,498.76,498.73,498.73,498.73,498.73,498.73,498.73,498.73,498.71
495.97,496.05,496.12,496.20,496.29,496.37,496.44,496.52,496.60,496.68,496.79,496.94,497.08,497.17,497.30,497.45,497.59,497.68,497.75,497.84,497.91,497.99,498.06,498.09,498.11,498.18,498.19,498.25,498.29,498.29,498.29,498.36,498.39,498.41,498.48,498.49,498.49,498.52,498.58,498.60,498.66,498.74,498.81,498.89,499.03,499.13,499.20,499.28,499.36,499.44,499.51,499.60,499.67,499.70,499.74,499.79,499.80,499.86,499.89,499.92,499.98,499.99,500.00,500.00,500.02,500.08,500.10,500.10,500.10,500.11,500.18,500.19,500.19,500.21,500.27,500.29,500.29,500.29,500.29,500.29,500.30,500.31,500.31,500.30,500.29,500.26,500.21,500.20,500.20,500.19,500.20,500.20,500.19,500.19,500.19,500.18,500.12,500.10,500.10,500.10,500.10,500.09,500.04,500.00,499.99,499.92,499.03,498.32,498.20,498.19,498.19,498.19,498.19,498.19,498.19,498.19,498.19,498.19,498.19,498.19,498.20,498.20,498.20,498.20,498.20,498.23,498.28,498.29,498.29,498.29,498.29,498.29,498.29,498.29,498.34,498.49,498.64,498.75,498.87,499.02,499.18,499.32,499.48,499.63,499.78,499.94,500.00,500.00,500.01,500.08,500.10,500.10,500.12,500.19,500.20,500.20,500.22,500.29,500.30,500.30,500.30,500.30,500.30,500.29,500.25,500.20,500.20,500.19,500.15,500.10,500.09,500.02,500.00,500.00,499.97,499.81,499.40,499.44,499.83,499.99,500.07,500.15,500.23,500.30,500.31,500.30,500.26,500.20,500.19,500.19,500.19,500.19,500.19,500.19,500.19,500.19,500.19,500.19,500.19,500.19,500.19,500.19,500.19,500.19,500.19,500.19,500.19,500.19,500.19,500.19,500.19,500.19,500.15,500.10,500.08,500.02,499.78,499.56,499.50,499.49,499.44,499.40,499.40,499.39,499.32,499.29,499.27,499.22,499.20,499.19,499.17,499.11,499.10,499.10,499.09,499.07,499.01,499.00,499.00,499.00,498.98,498.91,498.90,498.90,498.90,498.88,498.83,498.80,498.79,498.79,498.79,498.79,498.79,498.79,498.78,498.73
495.97,496.05,496.12,496.20,496.28,496.36,496.43,496.51,496.59,496.67,496.78,496.94,497.09,497.22,497.33,497.46,497.61,497.73,497.82,497.90,497.98,498.05,498.13,498.16,498.19,498.25,498.31,498.38,498.42,498.42,498.42,498.49,498.52,498.54,498.61,498.62,498.62,498.65,498.71,498.72,498.78,498.86,498.94,499.01,499.11,499.20,499.28,499.36,499.44,499.51,499.59,499.67,499.75,499.80,499.84,499.87,499.92,499.95,499.96,499.97,500.00,500.05,500.06,500.06,500.06,500.10,500.14,500.16,500.16,500.17,500.24,500.26,500.26,500.26,500.29,500.34,500.36,500.36,500.36,500.36,500.36,500.36,500.36,500.36,500.33,500.29,500.26,500.26,500.26,500.24,500.20,500.20,500.20,500.20,500.20,500.19,500.12,500.10,500.10,500.10,500.09,500.06,500.02,500.00,500.00,499.97,499.13,498.41,498.21,498.20,498.24,498.26,498.26,498.26,498.26,498.26,498.26,498.26,498.26,498.26,498.26,498.26,498.26,498.26,498.26,498.27,498.30,498.30,498.30,498.30,498.30,498.30,498.34,498.36,498.39,498.50,498.65,498.78,498.92,499.08,499.23,499.35,499.48,499.63,499.78,499.94,500.00,500.00,500.01,500.08,500.10,500.10,500.12,500.19,500.20,500.20,500.22,500.29,500.30,500.30,500.30,500.30,500.30,500.30,500.26,500.20,500.20,500.20,500.15,500.10,500.09,500.02,500.00,500.00,499.98,499.86,499.47,499.49,499.84,499.99,500.07,500.15,500.23,500.30,500.35,500.36,500.34,500.31,500.27,500.26,500.26,500.26,500.26,500.26,500.26,500.26,500.26,500.26,500.26,500.26,500.26,500.26,500.26,500.26,500.26,500.26,500.26,500.26,500.26,500.26,500.26,500.22,500.18,500.14,500.10,500.02,499.78,499.59,499.56,499.56,499.54,499.50,499.46,499.45,499.38,499.36,499.35,499.32,499.27,499.26,499.23,499.16,499.16,499.16,499.13,499.09,499.06,499.06,499.06,499.04,499.00,498.97,498.96,498.96,498.95,498.90,498.87,498.86,498.86,498.86,498.86,498.86,498.86,498.85,498.81,498.77
495.96,496.05,496.12,496.20,496.28,496.36,496.43,496.51,496.59,496.68,496.80,496.94,497.09,497.25,497.36,497.47,497.61,497.76,497.86,497.94,498.03,498.12,498.19,498.22,498.25,498.33,498.40,498.48,498.53,498.55,498.55,498.62,498.65,498.67,498.74,498.75,498.76,498.79,498.84,498.85,498.91,498.99,499.06,499.14,499.22,499.29,499.37,499.45,499.53,499.61,499.68,499.75,499.81,499.89,499.93,499.94,500.00,500.02,500.02,500.02,500.03,500.09,500.12,500.13,500.13,500.13,500.19,500.22,500.22,500.23,500.28,500.31,500.32,500.32,500.32,500.37,500.41,500.43,500.43,500.43,500.43,500.43,500.43,500.43,500.37,500.32,500.32,500.32,500.32,500.28,500.22,500.20,500.20,500.20,500.20,500.19,500.12,500.10,500.10,500.10,500.09,500.03,500.00,500.00,500.00,500.00,499.23,498.50,498.24,498.23,498.27,498.30,498.30,498.30,498.30,498.31,498.32,498.32,498.32,498.32,498.32,498.32,498.32,498.32,498.32,498.32,498.32,498.32,498.32,498.32,498.32,498.33,498.38,498.40,498.42,498.53,498.67,498.83,498.98,499.12,499.26,499.38,499.50,499.65,499.79,499.92,499.99,500.00,500.01,500.08,500.10,500.10,500.12,500.19,500.20,500.20,500.22,500.29,500.30,500.30,500.30,500.30,500.30,500.30,500.26,500.20,500.20,500.20,500.15,500.10,500.09,500.04,500.01,500.00,499.99,499.90,499.55,499.55,499.87,500.01,500.10,500.18,500.25,500.33,500.39,500.42,500.43,500.41,500.34,500.32,500.32,500.32,500.32,500.32,500.32,500.32,500.32,500.32,500.32,500.32,500.32,500.32,500.32,500.32,500.33,500.35,500.33,500.32,500.31,500.30,500.27,500.23,500.19,500.16,500.10,500.02,499.79,499.63,499.63,499.63,499.63,499.58,499.52,499.52,499.47,499.44,499.43,499.42,499.34,499.32,499.30,499.25,499.23,499.22,499.18,499.13,499.13,499.13,499.11,499.07,499.03,499.02,499.01,499.00,498.99,498.94,498.93,498.93,498.93,498.93,498.93,498.93,498.92,498.89,498.84,498.82
495.94,496.04,496.12,496.20,496.27,496.35,496.43,496.50,496.59,496.72,496.83,496.94,497.09,497.25,497.39,497.52,497.62,497.76,497.86,497.97,498.10,498.18,498.26,498.29,498.32,498.39,498.47,498.54,498.62,498.68,498.68,498.74,498.78,498.80,498.87,498.88,498.92,498.97,498.98,498.98,499.04,499.11,499.19,499.27,499.34,499.42,499.50,499.58,499.66,499.73,499.81,499.88,499.89,499.95,499.99,499.99,500.01,500.06,500.09,500.09,500.09,500.10,500.16,500.19,500.19,500.19,500.25,500.28,500.29,500.29,500.30,500.35,500.38,500.39,500.39,500.40,500.44,500.49,500.49,500.49,500.49,500.49,500.49,500.49,500.43,500.39,500.39,500.39,500.38,500.34,500.27,500.22,500.20,500.20,500.20,500.19,500.12,500.10,500.10,500.10,500.09,500.03,500.00,500.00,500.00,500.00,499.30,498.61,498.31,498.29,498.30,498.31,498.31,498.31,498.31,498.35,498.38,498.38,498.38,498.38,498.38,498.39,498.39,498.39,498.39,498.39,498.39,498.39,498.39,498.39,498.39,498.39,498.40,498.41,498.44,498.59,498.74,498.89,499.02,499.12,499.27,499.41,499.56,499.70,499.79,499.88,499.96,500.00,500.01,500.08,500.10,500.10,500.12,500.19,500.20,500.20,500.22,500.29,500.30,500.30,500.31,500.30,500.30,500.30,500.26,500.20,500.20,500.20,500.15,500.10,500.10,500.09,500.04,500.00,499.99,499.90,499.63,499.65,499.92,500.07,500.17,500.24,500.31,500.38,500.40,500.46,500.49,500.47,500.41,500.39,500.39,500.39,500.39,500.39,500.39,500.39,500.39,500.39,500.39,500.39,500.39,500.39,500.39,500.39,500.41,500.46,500.40,500.38,500.35,500.29,500.23,500.20,500.16,500.11,500.09,500.02,499.83,499.69,499.69,499.69,499.69,499.65,499.59,499.59,499.58,499.53,499.49,499.48,499.41,499.39,499.39,499.36,499.30,499.29,499.25,499.19,499.19,499.19,499.14,499.10,499.09,499.09,499.03,499.00,499.00,498.99,498.99,498.99,498.99,498.99,498.99,498.99,498.95,498.90,498.89,498.89
495.90,495.99,496.07,496.14,496.23,496.30,496.38,496.46,496.58,496.73,496.86,496.98,497.10,497.25,497.40,497.54,497.66,497.77,497.89,498.01,498.12,498.24,498.33,498.38,498.42,498.46,498.53,498.61,498.69,498.75,498.76,498.82,498.88,498.93,499.00,499.01,499.06,499.11,499.11,499.11,499.17,499.23,499.27,499.35,499.43,499.50,499.59,499.70,499.78,499.83,499.88,499.95,499.96,500.01,500.06,500.06,500.06,500.09,500.13,500.16,500.16,500.16,500.22,500.25,500.25,500.25,500.28,500.33,500.36,500.36,500.36,500.38,500.42,500.45,500.45,500.45,500.47,500.51,500.55,500.56,500.56,500.56,500.56,500.56,500.50,500.45,500.45,500.45,500.42,500.38,500.33,500.26,500.25,500.23,500.20,500.19,500.12,500.10,500.10,500.10,500.09,500.03,500.00,500.00,500.00,500.00,499.38,498.72,498.38,498.36,498.36,498.36,498.36,498.36,498.36,498.38,498.40,498.40,498.40,498.40,498.42,498.45,498.45,498.45,498.45,498.45,498.45,498.45,498.45,498.45,498.45,498.45,498.45,498.45,498.50,498.64,498.76,498.90,499.04,499.17,499.32,499.44,499.58,499.71,499.79,499.87,499.95,500.00,500.01,500.08,500.10,500.10,500.12,500.19,500.20,500.20,500.22,500.29,500.30,500.33,500.36,500.35,500.31,500.30,500.28,500.25,500.21,500.20,500.18,500.14,500.11,500.10,500.04,500.00,499.99,499.95,499.73,499.73,499.94,500.09,500.22,500.28,500.33,500.40,500.44,500.51,500.56,500.55,500.51,500.47,500.45,500.45,500.45,500.45,500.45,500.45,500.45,500.45,500.45,500.45,500.45,500.46,500.50,500.48,500.47,500.49,500.42,500.36,500.33,500.28,500.22,500.20,500.15,500.09,500.05,500.01,499.87,499.75,499.75,499.75,499.75,499.72,499.66,499.66,499.66,499.61,499.56,499.55,499.52,499.48,499.45,499.44,499.37,499.36,499.33,499.30,499.26,499.25,499.20,499.16,499.16,499.15,499.09,499.06,499.06,499.06,499.06,499.06,499.06,499.05,499.01,499.00,498.99,498.95,498.95,498.95
