501.58,501.69,501.70,501.55,501.41,501.30,501.18,501.03,500.88,500.77,500.63,500.47,500.33,500.17,500.02,499.74,499.35,499.50,499.80,499.91,499.74,499.45,499.13,498.71,498.66,499.56,499.98,500.16,500.32,500.54,500.76,501.01,501.26,501.51,501.76,502.05,502.35,502.64,502.87,503.10,503.33,503.53,503.71,503.86,504.03,504.20,504.36,504.47,504.61,504.71,504.83,504.97,505.06,505.15,505.26,505.39,505.49,505.62,505.77,505.92,506.08,506.23,506.39,506.55,506.72,506.88,507.02,507.21,507.37,507.37,507.37,507.37,507.34,507.29,507.36,507.42,507.49,507.56,507.64,507.72,507.76,507.80,507.87,507.95,508.01,508.08,508.16,508.24,508.31,508.39,508.45,508.44,508.35,508.22,508.06,507.91,507.75,507.60,507.42,507.21,507.04,506.88,506.74,506.63,506.58,506.57,506.57,506.57,506.57,506.54,506.45,506.23,505.94,505.70,505.40,505.09,504.81,504.61,504.54,504.63,504.75,504.85,504.96,505.14,505.26,505.34,505.40,505.49,505.56,505.65,505.79,505.91,506.04,506.22,506.42,506.59,506.75,506.90,507.08,507.29,507.47,507.62,507.78,507.93,508.09,508.29,508.48,508.65,508.81,509.03,509.21,509.40,509.60,509.71,509.79,509.75,509.67,509.68,509.75,509.77,509.71,509.57,509.49,509.53,509.61,509.67,509.67,509.60,509.57,509.57,509.57,509.57,509.53,509.49,509.45,509.36,509.31,509.19,509.04,509.03,508.90,508.75,508.59,508.44,508.34,508.20,508.08,508.01,507.93,507.80,507.69,507.60,507.52,507.45,507.43,507.45,507.54,507.63,507.71,507.77,507.83,507.97,508.07,508.19,508.34,508.47,508.57,508.71,508.83,508.92,509.07,509.21,509.30,509.36,509.42,509.43,509.43,509.43,509.43,509.43,509.43,509.43,509.43,509.43,509.50,509.63,509.77,509.91,510.06,510.22,510.31,510.34,510.30,510.34,510.38,510.38,510.31,510.30,510.30,510.26,510.19,510.15,510.08,510.04,510.02,510.00,510.00,510.00,510.00,510.00,510.00,510.00,510.00,510.00,510.00,510.00
501.71,501.82,501.83,501.69,501.59,501.46,501.31,501.16,501.00,500.86,500.67,500.48,500.38,500.24,500.08,499.84,499.53,499.64,499.97,500.12,500.00,499.75,499.41,498.94,498.71,499.18,499.63,499.91,500.10,500.28,500.51,500.80,501.10,501.40,501.69,501.94,502.22,502.51,502.74,502.97,503.20,503.43,503.63,503.80,504.00,504.23,504.44,504.64,504.75,504.88,505.03,505.17,505.25,505.38,505.50,505.60,505.74,505.84,505.97,506.12,506.27,506.43,506.58,506.77,506.97,507.13,507.28,507.44,507.57,507.57,507.57,507.57,507.53,507.48,507.55,507.57,507.62,507.69,507.77,507.85,507.92,507.99,508.06,508.15,508.17,508.22,508.29,508.37,508.44,508.52,508.58,508.56,508.44,508.28,508.13,507.98,507.82,507.66,507.50,507.33,507.11,506.95,506.84,506.77,506.76,506.76,506.76,506.76,506.75,506.67,506.49,506.23,505.94,505.70,505.40,505.09,504.81,504.62,504.59,504.66,504.77,504.94,505.15,505.43,505.59,505.64,505.68,505.80,505.85,505.90,505.97,506.00,506.07,506.20,506.38,506.59,506.75,506.90,507.06,507.24,507.45,507.62,507.78,507.93,508.09,508.25,508.45,508.65,508.81,509.03,509.21,509.40,509.61,509.76,509.86,509.88,509.87,509.87,509.94,509.96,509.91,509.76,509.69,509.73,509.80,509.86,509.86,509.80,509.76,509.76,509.76,509.76,509.75,509.72,509.64,509.50,509.37,509.25,509.18,509.16,509.03,508.87,508.72,508.56,508.42,508.27,508.15,508.07,508.00,507.91,507.79,507.67,507.59,507.51,507.49,507.52,507.61,507.75,507.85,507.95,508.09,508.23,508.32,508.45,508.58,508.68,508.82,508.97,509.09,509.18,509.33,509.43,509.46,509.48,509.49,509.49,509.49,509.49,509.49,509.49,509.49,509.49,509.49,509.50,509.56,509.69,509.82,509.92,510.06,510.22,510.36,510.48,510.54,510.56,510.60,510.63,510.56,510.55,510.55,510.52,510.43,510.30,510.22,510.14,510.07,510.01,510.00,510.00,510.00,510.00,510.00,510.00,510.00,510.00,510.00,510.00
501.80,501.90,501.93,501.85,501.74,501.59,501.46,501.33,501.14,500.98,500.78,500.57,500.41,500.25,500.10,499.89,499.66,499.77,500.07,500.27,500.26,500.02,499.67,499.19,498.81,498.89,499.26,499.55,499.78,500.03,500.34,500.65,500.96,501.26,501.52,501.80,502.09,502.38,502.61,502.84,503.07,503.30,503.52,503.68,503.90,504.15,504.42,504.64,504.85,505.04,505.22,505.37,505.45,505.59,505.72,505.84,505.95,506.07,506.21,506.36,506.52,506.68,506.83,507.00,507.18,507.34,507.49,507.62,507.72,507.75,507.76,507.76,507.73,507.67,507.70,507.74,507.80,507.88,507.95,507.99,508.05,508.13,508.21,508.28,508.34,508.39,508.47,508.55,508.63,508.68,508.70,508.69,508.56,508.40,508.23,508.04,507.88,507.73,507.57,507.41,507.23,507.10,507.01,506.96,506.96,506.96,506.96,506.96,506.92,506.72,506.50,506.23,505.94,505.70,505.40,505.09,504.83,504.66,504.61,504.69,504.85,505.08,505.38,505.69,505.89,505.96,505.99,506.12,506.16,506.20,506.26,506.27,506.33,506.40,506.50,506.64,506.76,506.90,507.06,507.22,507.41,507.60,507.78,507.93,508.09,508.24,508.42,508.61,508.80,509.00,509.19,509.40,509.62,509.77,509.90,509.98,510.00,510.01,510.04,510.06,510.01,509.91,509.87,509.92,509.98,510.00,510.00,509.97,509.94,509.91,509.91,509.91,509.91,509.86,509.73,509.58,509.46,509.39,509.34,509.25,509.11,508.95,508.79,508.64,508.49,508.37,508.25,508.14,508.06,507.99,507.88,507.78,507.72,507.75,507.65,507.62,507.78,507.97,508.07,508.19,508.34,508.45,508.57,508.71,508.84,508.93,509.07,509.20,509.31,509.43,509.50,509.54,509.56,509.56,509.56,509.56,509.56,509.56,509.56,509.56,509.56,509.56,509.56,509.56,509.59,509.70,509.83,509.92,510.06,510.22,510.37,510.52,510.64,510.73,510.80,510.85,510.81,510.77,510.73,510.66,510.54,510.43,510.34,510.26,510.19,510.12,510.07,510.06,510.04,510.00,510.00,510.00,510.00,510.00,510.00,510.00
501.90,501.98,502.03,502.01,501.90,501.74,501.61,501.50,501.29,501.12,500.91,500.68,500.47,500.30,500.12,499.94,499.78,499.89,500.16,500.41,500.52,500.29,499.93,499.45,498.97,498.73,498.93,499.16,499.44,499.80,500.19,500.52,500.83,501.12,501.36,501.66,501.95,502.23,502.48,502.73,502.96,503.20,503.43,503.62,503.84,504.12,504.40,504.64,504.94,505.20,505.41,505.56,505.66,505.78,505.93,506.07,506.16,506.30,506.45,506.61,506.76,506.92,507.07,507.22,507.38,507.53,507.68,507.79,507.88,507.94,507.95,507.95,507.92,507.86,507.84,507.90,507.97,508.05,508.12,508.15,508.20,508.28,508.36,508.42,508.50,508.57,508.65,508.72,508.80,508.84,508.83,508.80,508.66,508.51,508.33,508.13,507.95,507.79,507.64,507.49,507.35,507.27,507.21,507.18,507.18,507.18,507.16,507.13,507.04,506.75,506.50,506.23,505.93,505.68,505.39,505.10,504.86,504.72,504.64,504.74,504.94,505.20,505.56,505.88,506.12,506.26,506.31,506.43,506.48,506.52,506.59,506.60,506.66,506.69,506.71,506.79,506.86,506.97,507.10,507.23,507.37,507.57,507.76,507.93,508.09,508.24,508.40,508.58,508.79,508.96,509.17,509.39,509.61,509.79,509.94,510.05,510.12,510.13,510.12,510.12,510.09,510.04,510.04,510.09,510.12,510.12,510.12,510.12,510.08,510.03,510.03,510.03,510.02,509.95,509.80,509.66,509.58,509.54,509.50,509.34,509.19,509.03,508.88,508.71,508.55,508.45,508.35,508.22,508.13,508.06,508.01,507.97,507.95,508.08,507.92,507.80,507.95,508.17,508.31,508.45,508.59,508.68,508.81,508.96,509.09,509.19,509.32,509.41,509.51,509.61,509.62,509.62,509.62,509.62,509.62,509.62,509.62,509.62,509.62,509.62,509.62,509.62,509.62,509.62,509.62,509.71,509.83,509.92,510.06,510.22,510.37,510.53,510.68,510.84,510.96,511.03,511.02,510.96,510.87,510.76,510.63,510.55,510.47,510.40,510.32,510.24,510.17,510.13,510.10,510.04,510.02,510.01,510.00,510.00,510.00,510.00
502.01,502.11,502.17,502.16,502.07,501.94,501.79,501.64,501.47,501.27,501.04,500.82,500.65,500.44,500.22,500.02,499.90,499.97,500.22,500.55,500.77,500.55,500.19,499.71,499.22,498.88,498.72,498.81,499.11,499.60,500.05,500.39,500.70,500.99,501.23,501.53,501.79,502.06,502.35,502.65,502.90,503.16,503.45,503.73,503.97,504.25,504.53,504.77,505.07,505.33,505.55,505.76,505.90,506.00,506.13,506.26,506.35,506.49,506.65,506.80,506.96,507.11,507.26,507.42,507.57,507.72,507.83,507.95,508.07,508.14,508.15,508.15,508.12,508.04,507.98,508.03,508.11,508.18,508.26,508.32,508.40,508.47,508.54,508.56,508.62,508.70,508.78,508.86,508.93,508.97,508.95,508.87,508.73,508.57,508.42,508.24,508.03,507.86,507.70,507.56,507.48,507.45,507.44,507.44,507.44,507.44,507.38,507.26,507.05,506.75,506.50,506.23,505.92,505.63,505.38,505.13,504.92,504.78,504.70,504.80,505.00,505.25,505.57,505.88,506.21,506.49,506.61,506.70,506.78,506.85,506.91,506.91,506.98,507.01,507.03,507.11,507.19,507.23,507.26,507.29,507.38,507.53,507.73,507.93,508.09,508.24,508.40,508.58,508.79,508.96,509.17,509.37,509.56,509.83,509.96,510.08,510.20,510.25,510.21,510.19,510.18,510.17,510.17,510.18,510.19,510.19,510.19,510.19,510.18,510.17,510.17,510.17,510.12,510.01,509.88,509.78,509.75,509.71,509.63,509.47,509.32,509.16,508.99,508.78,508.62,508.52,508.44,508.34,508.20,508.17,508.24,508.33,508.39,508.53,508.41,508.17,508.04,508.24,508.51,508.71,508.84,508.94,509.07,509.19,509.30,509.43,509.53,509.61,509.66,509.68,509.69,509.69,509.69,509.69,509.69,509.69,509.69,509.69,509.69,509.69,509.69,509.69,509.69,509.69,509.69,509.74,509.83,509.92,510.06,510.22,510.37,510.53,510.68,510.84,511.02,511.17,511.16,511.09,510.97,510.85,510.76,510.68,510.60,510.52,510.45,510.37,510.29,510.23,510.18,510.16,510.10,510.03,510.00,510.00,510.00,510.00
502.10,502.22,502.30,502.33,502.23,502.11,501.98,501.81,501.63,501.40,501.19,501.00,500.80,500.61,500.39,500.21,500.15,500.15,500.38,500.71,500.94,500.75,500.37,499.90,499.44,499.11,498.90,498.87,498.98,499.26,499.80,500.19,500.52,500.81,501.05,501.35,501.61,501.87,502.18,502.52,502.81,503.11,503.45,503.76,504.00,504.28,504.58,504.85,505.12,505.36,505.60,505.82,506.01,506.17,506.32,506.47,506.58,506.70,506.84,507.00,507.15,507.30,507.46,507.61,507.77,507.92,508.01,508.13,508.26,508.33,508.34,508.34,508.31,508.23,508.12,508.16,508.25,508.35,508.40,508.47,508.54,508.62,508.69,508.73,508.80,508.88,508.95,509.03,509.08,509.07,509.02,508.94,508.79,508.64,508.49,508.32,508.13,507.94,507.79,507.69,507.65,507.64,507.64,507.64,507.64,507.64,507.50,507.30,507.05,506.75,506.50,506.23,505.92,505.65,505.39,505.14,504.94,504.80,504.76,504.84,505.01,505.26,505.58,505.88,506.21,506.53,506.75,506.98,507.09,507.17,507.23,507.24,507.30,507.36,507.40,507.48,507.52,507.54,507.54,507.55,507.58,507.68,507.80,507.93,508.09,508.24,508.40,508.58,508.79,508.96,509.17,509.38,509.59,509.85,510.00,510.12,510.22,510.29,510.30,510.29,510.28,510.26,510.28,510.29,510.29,510.29,510.29,510.29,510.29,510.29,510.29,510.26,510.22,510.13,509.99,509.91,509.90,509.83,509.71,509.56,509.40,509.25,509.07,508.89,508.73,508.61,508.53,508.49,508.45,508.50,508.60,508.72,508.83,508.95,508.87,508.50,508.02,508.37,508.73,508.95,509.08,509.22,509.31,509.42,509.54,509.68,509.69,509.73,509.75,509.75,509.75,509.75,509.75,509.75,509.75,509.75,509.75,509.75,509.75,509.75,509.75,509.75,509.75,509.75,509.75,509.79,509.86,509.92,510.06,510.25,510.42,510.58,510.77,510.93,511.13,511.29,511.28,511.18,511.06,510.97,510.88,510.81,510.73,510.66,510.58,510.50,510.42,510.35,510.28,510.25,510.21,510.13,510.08,510.04,510.01,510.00
502.19,502.31,502.44,502.49,502.38,502.27,502.15,501.99,501.76,501.54,501.35,501.17,500.96,500.80,500.61,500.47,500.45,500.39,500.58,500.88,501.10,500.95,500.53,500.06,499.65,499.36,499.19,499.10,498.99,498.97,499.50,499.96,500.33,500.62,500.86,501.15,501.41,501.68,502.00,502.38,502.71,503.06,503.42,503.74,504.00,504.28,504.59,504.89,505.13,505.36,505.60,505.83,506.07,506.30,506.50,506.66,506.82,506.92,507.04,507.19,507.34,507.50,507.65,507.81,507.96,508.10,508.20,508.32,508.45,508.53,508.54,508.54,508.51,508.42,508.27,508.29,508.40,508.52,508.54,508.61,508.69,508.76,508.83,508.91,508.98,509.05,509.13,509.21,509.21,509.17,509.10,509.01,508.86,508.70,508.55,508.39,508.24,508.04,507.90,507.84,507.84,507.84,507.84,507.84,507.84,507.80,507.58,507.31,507.06,506.76,506.51,506.25,505.97,505.71,505.42,505.16,504.95,504.82,504.81,504.87,505.02,505.28,505.59,505.89,506.21,506.52,506.83,507.19,507.37,507.48,507.56,507.58,507.63,507.70,507.78,507.85,507.87,507.88,507.88,507.88,507.88,507.93,507.97,508.00,508.13,508.26,508.40,508.57,508.78,508.96,509.17,509.40,509.63,509.86,510.03,510.14,510.22,510.31,510.38,510.41,510.38,510.35,510.40,510.41,510.41,510.41,510.42,510.43,510.43,510.42,510.40,510.33,510.30,510.24,510.10,510.02,510.00,509.91,509.76,509.62,509.47,509.31,509.15,509.00,508.85,508.71,508.65,508.69,508.77,508.91,509.02,509.12,509.26,509.36,509.34,508.85,508.07,508.50,508.95,509.21,509.36,509.53,509.58,509.66,509.78,509.87,509.83,509.81,509.81,509.81,509.81,509.81,509.81,509.81,509.81,509.81,509.81,509.81,509.81,509.81,509.82,509.83,509.83,509.83,509.83,509.87,509.92,509.95,510.09,510.30,510.50,510.66,510.89,511.06,511.26,511.43,511.41,511.27,511.17,511.10,511.01,510.94,510.85,510.77,510.71,510.63,510.55,510.47,510.40,510.33,510.31,510.26,510.19,510.11,510.04,510.02
502.30,502.41,502.52,502.63,502.56,502.43,502.29,502.12,501.89,501.71,501.51,501.31,501.15,501.04,500.94,500.84,500.78,500.70,500.78,501.03,501.30,501.19,500.74,500.25,499.86,499.62,499.45,499.36,499.22,499.06,499.16,499.67,500.13,500.42,500.66,500.90,501.18,501.50,501.87,502.25,502.58,502.93,503.31,503.68,503.98,504.28,504.59,504.89,505.13,505.36,505.60,505.84,506.12,506.37,506.59,506.80,507.01,507.16,507.27,507.38,507.54,507.69,507.85,508.00,508.15,508.25,508.37,508.49,508.59,508.71,508.73,508.73,508.70,508.61,508.46,508.44,508.53,508.67,508.73,508.80,508.88,508.94,508.96,509.03,509.11,509.19,509.26,509.34,509.30,509.27,509.22,509.08,508.92,508.77,508.62,508.46,508.31,508.14,508.04,508.03,508.03,508.03,508.03,508.03,508.00,507.85,507.61,507.38,507.13,506.82,506.58,506.34,506.08,505.79,505.53,505.26,505.02,504.89,504.88,504.89,505.05,505.34,505.65,505.96,506.27,506.58,506.89,507.21,507.49,507.72,507.89,507.95,507.98,508.03,508.11,508.18,508.24,508.26,508.26,508.26,508.26,508.28,508.28,508.29,508.33,508.36,508.43,508.55,508.73,508.94,509.17,509.40,509.63,509.86,510.03,510.14,510.24,510.37,510.45,510.47,510.47,510.46,510.47,510.47,510.47,510.49,510.54,510.55,510.55,510.54,510.47,510.40,510.33,510.26,510.17,510.09,510.02,509.91,509.78,509.68,509.53,509.38,509.22,509.06,508.91,508.85,508.89,509.01,509.15,509.30,509.41,509.51,509.66,509.80,509.83,509.34,508.45,508.58,509.12,509.58,509.83,509.88,509.94,509.95,509.92,509.90,509.88,509.88,509.88,509.88,509.88,509.88,509.88,509.88,509.88,509.88,509.88,509.88,509.88,509.88,509.93,509.95,509.95,509.95,509.95,509.96,510.00,510.07,510.22,510.43,510.63,510.79,511.02,511.19,511.39,511.55,511.53,511.40,511.30,511.22,511.15,511.07,510.94,510.87,510.84,510.76,510.68,510.61,510.53,510.45,510.39,510.37,510.32,510.24,510.17,510.10
502.39,502.51,502.62,502.73,502.73,502.62,502.45,502.26,502.06,501.87,501.69,501.54,501.42,501.34,501.26,501.19,501.14,501.07,501.06,501.22,501.47,501.44,501.02,500.51,500.11,499.92,499.75,499.61,499.43,499.21,499.09,499.40,499.82,500.19,500.43,500.68,501.00,501.35,501.73,502.09,502.44,502.80,503.18,503.53,503.88,504.21,504.56,504.89,505.13,505.36,505.61,505.87,506.15,506.39,506.62,506.86,507.08,507.28,507.43,507.58,507.73,507.89,508.04,508.18,508.30,508.42,508.56,508.67,508.77,508.91,508.93,508.93,508.90,508.81,508.66,508.60,508.66,508.80,508.88,508.95,509.03,509.09,509.14,509.21,509.28,509.35,509.39,509.43,509.40,509.37,509.30,509.14,508.99,508.83,508.68,508.52,508.38,508.30,508.26,508.26,508.23,508.23,508.23,508.20,508.12,507.90,507.67,507.45,507.23,506.93,506.69,506.43,506.17,505.89,505.66,505.35,505.08,504.96,504.94,504.97,505.11,505.37,505.68,505.98,506.29,506.60,506.91,507.22,507.52,507.81,508.06,508.24,508.32,508.39,508.47,508.55,508.60,508.61,508.61,508.62,508.64,508.65,508.65,508.65,508.65,508.62,508.64,508.69,508.76,508.98,509.21,509.44,509.68,509.90,510.04,510.14,510.24,510.39,510.47,510.52,510.55,510.58,510.59,510.59,510.59,510.60,510.64,510.65,510.62,510.58,510.50,510.42,510.34,510.25,510.15,510.07,510.00,509.87,509.74,509.65,509.51,509.38,509.25,509.10,508.97,508.97,509.04,509.17,509.33,509.48,509.61,509.72,509.85,510.00,510.04,509.67,508.89,508.65,509.29,509.87,510.09,510.12,510.14,510.09,510.01,509.95,509.94,509.94,509.94,509.95,509.98,509.99,509.99,509.99,510.02,510.02,510.02,510.02,510.02,510.03,510.06,510.10,510.13,510.16,510.17,510.17,510.19,510.24,510.36,510.54,510.73,510.93,511.15,511.32,511.52,511.67,511.63,511.52,511.43,511.35,511.27,511.16,511.04,510.97,510.93,510.88,510.81,510.74,510.66,510.58,510.50,510.46,510.42,510.37,510.29,510.22
502.50,502.62,502.74,502.82,502.89,502.80,502.62,502.41,502.24,502.04,501.90,501.82,501.74,501.67,501.60,501.54,501.52,501.44,501.38,501.44,501.64,501.69,501.32,500.81,500.40,500.24,500.08,499.85,499.61,499.38,499.18,499.19,499.48,499.91,500.19,500.49,500.84,501.22,501.59,501.92,502.28,502.67,503.05,503.38,503.76,504.15,504.52,504.88,505.13,505.36,505.63,505.92,506.16,506.39,506.62,506.86,507.08,507.31,507.54,507.74,507.91,508.07,508.22,508.35,508.45,508.60,508.75,508.86,508.96,509.10,509.12,509.12,509.09,509.00,508.85,508.76,508.80,508.93,509.01,509.09,509.18,509.25,509.31,509.39,509.47,509.51,509.51,509.52,509.51,509.46,509.37,509.22,509.07,508.90,508.75,508.60,508.47,508.48,508.51,508.50,508.44,508.43,508.42,508.35,508.19,507.97,507.74,507.54,507.35,507.06,506.81,506.54,506.26,506.02,505.78,505.45,505.17,505.05,505.03,505.09,505.20,505.39,505.69,505.99,506.30,506.61,506.92,507.23,507.54,507.85,508.15,508.44,508.63,508.75,508.85,508.92,508.94,508.94,508.94,508.96,509.01,509.02,509.02,509.01,509.01,508.95,508.93,508.91,508.88,509.05,509.27,509.50,509.73,509.95,510.06,510.14,510.24,510.39,510.47,510.55,510.63,510.69,510.70,510.70,510.70,510.70,510.70,510.70,510.65,510.58,510.50,510.41,510.33,510.23,510.10,510.01,509.93,509.81,509.68,509.59,509.45,509.34,509.24,509.11,509.03,509.08,509.15,509.24,509.39,509.54,509.69,509.82,509.92,510.07,510.11,509.88,509.30,508.66,509.43,510.07,510.22,510.29,510.25,510.18,510.11,510.06,510.05,510.05,510.05,510.06,510.12,510.13,510.13,510.15,510.21,510.21,510.21,510.21,510.22,510.22,510.23,510.26,510.34,510.40,510.42,510.43,510.43,510.44,510.51,510.64,510.83,511.05,511.27,511.45,511.65,511.79,511.72,511.64,511.56,511.48,511.38,511.25,511.15,511.07,511.02,511.00,510.94,510.87,510.79,510.71,510.63,510.56,510.51,510.49,510.42,510.35
502.68,502.77,502.87,502.94,503.02,502.93,502.77,502.60,502.44,502.32,502.22,502.14,502.07,502.04,501.98,501.91,501.85,501.78,501.70,501.71,501.86,501.99,501.59,501.13,500.78,500.62,500.42,500.07,499.75,499.53,499.35,499.20,499.27,499.58,500.02,500.35,500.71,501.08,501.41,501.77,502.15,502.56,502.99,503.36,503.79,504.20,504.57,504.89,505.13,505.36,505.63,505.92,506.16,506.39,506.62,506.86,507.08,507.31,507.55,507.77,507.98,508.19,508.36,508.51,508.64,508.79,508.90,509.02,509.16,509.29,509.32,509.32,509.28,509.19,509.04,508.95,508.97,509.06,509.14,509.26,509.36,509.42,509.45,509.52,509.60,509.65,509.65,509.64,509.59,509.52,509.44,509.34,509.19,509.00,508.81,508.69,508.68,508.70,508.71,508.71,508.69,508.69,508.58,508.42,508.25,508.03,507.80,507.60,507.43,507.18,506.94,506.67,506.38,506.14,505.86,505.58,505.38,505.28,505.23,505.28,505.37,505.50,505.76,506.05,506.36,506.67,506.98,507.29,507.60,507.91,508.22,508.52,508.75,508.98,509.18,509.25,509.31,509.33,509.33,509.33,509.35,509.36,509.33,509.28,509.28,509.21,509.19,509.17,509.11,509.15,509.34,509.55,509.74,509.96,510.06,510.14,510.24,510.39,510.47,510.55,510.65,510.76,510.77,510.77,510.77,510.77,510.77,510.72,510.65,510.58,510.49,510.37,510.27,510.19,510.09,510.01,509.89,509.77,509.67,509.54,509.44,509.31,509.21,509.17,509.15,509.20,509.25,509.30,509.45,509.61,509.73,509.84,509.99,510.18,510.20,510.01,509.50,508.50,509.36,510.11,510.30,510.42,510.42,510.37,510.33,510.36,510.36,510.36,510.33,510.30,510.37,510.38,510.38,510.39,510.41,510.36,510.35,510.37,510.41,510.42,510.42,510.45,510.53,510.61,510.67,510.69,510.69,510.69,510.71,510.79,510.95,511.17,511.36,511.56,511.78,511.92,511.85,511.76,511.69,511.59,511.47,511.36,511.28,511.20,511.13,511.08,511.05,511.00,510.92,510.84,510.76,510.69,510.62,510.57,510.54,510.47
502.83,502.92,503.00,503.07,503.15,503.08,502.96,502.83,502.71,502.64,502.58,502.50,502.43,502.39,502.33,502.26,502.21,502.13,502.06,502.02,502.10,502.27,501.89,501.49,501.20,501.00,500.73,500.32,499.93,499.66,499.47,499.27,499.21,499.38,499.85,500.21,500.60,500.98,501.33,501.74,502.15,502.59,503.04,503.43,503.86,504.25,504.59,504.89,505.13,505.36,505.63,505.92,506.16,506.39,506.62,506.86,507.08,507.31,507.55,507.78,508.01,508.25,508.46,508.66,508.83,508.95,509.06,509.20,509.35,509.46,509.50,509.51,509.48,509.39,509.24,509.15,509.14,509.19,509.27,509.42,509.52,509.58,509.62,509.69,509.75,509.77,509.77,509.74,509.69,509.63,509.54,509.43,509.28,509.10,508.93,508.86,508.90,508.91,508.91,508.91,508.91,508.86,508.69,508.48,508.28,508.06,507.85,507.65,507.47,507.26,507.04,506.78,506.51,506.27,506.00,505.77,505.62,505.53,505.43,505.47,505.55,505.65,505.86,506.10,506.39,506.70,507.01,507.32,507.63,507.94,508.25,508.56,508.82,509.11,509.37,509.50,509.64,509.68,509.68,509.68,509.65,509.64,509.61,509.55,509.54,509.47,509.43,509.40,509.35,509.32,509.42,509.57,509.74,509.96,510.06,510.16,510.27,510.39,510.50,510.61,510.72,510.83,510.84,510.86,510.88,510.87,510.84,510.74,510.65,510.58,510.49,510.37,510.26,510.17,510.09,510.01,509.87,509.76,509.66,509.52,509.46,509.37,509.31,509.31,509.31,509.35,509.38,509.40,509.49,509.64,509.76,509.88,510.04,510.24,510.26,510.12,509.65,508.51,509.34,510.13,510.34,510.48,510.58,510.60,510.60,510.64,510.64,510.64,510.61,510.56,510.63,510.64,510.64,510.64,510.60,510.53,510.51,510.53,510.57,510.60,510.61,510.65,510.73,510.80,510.88,510.93,510.94,510.94,510.94,511.00,511.13,511.30,511.46,511.68,511.91,512.05,511.97,511.90,511.82,511.71,511.57,511.49,511.41,511.33,511.25,511.18,511.15,511.11,511.04,510.97,510.89,510.81,510.74,510.67,510.64,510.59
502.93,503.04,503.12,503.19,503.27,503.24,503.17,503.10,503.01,502.99,502.95,502.88,502.80,502.73,502.66,502.61,502.59,502.52,502.44,502.37,502.37,502.52,502.19,501.86,501.62,501.37,501.01,500.56,500.12,499.78,499.54,499.35,499.25,499.32,499.70,500.09,500.53,500.96,501.35,501.80,502.26,502.72,503.16,503.55,503.93,504.27,504.59,504.89,505.13,505.36,505.62,505.91,506.16,506.39,506.62,506.86,507.09,507.32,507.55,507.78,508.02,508.25,508.53,508.79,508.99,509.10,509.24,509.39,509.52,509.61,509.68,509.71,509.67,509.57,509.43,509.34,509.29,509.32,509.41,509.54,509.65,509.73,509.80,509.88,509.91,509.91,509.89,509.82,509.80,509.75,509.65,509.50,509.35,509.20,509.11,509.11,509.11,509.11,509.11,509.10,509.08,508.96,508.75,508.53,508.30,508.07,507.88,507.70,507.49,507.31,507.10,506.87,506.63,506.41,506.18,506.00,505.88,505.79,505.66,505.69,505.75,505.84,506.00,506.16,506.40,506.71,507.02,507.33,507.63,507.94,508.25,508.56,508.86,509.16,509.45,509.67,509.90,509.98,509.98,509.96,509.90,509.88,509.85,509.80,509.79,509.72,509.66,509.61,509.59,509.53,509.52,509.59,509.75,509.97,510.08,510.19,510.33,510.42,510.55,510.70,510.83,510.89,510.91,510.96,510.99,510.97,510.89,510.76,510.66,510.58,510.50,510.41,510.29,510.17,510.09,510.01,509.88,509.76,509.66,509.54,509.51,509.50,509.49,509.49,509.49,509.50,509.50,509.50,509.52,509.65,509.79,509.94,510.10,510.26,510.31,510.20,509.77,508.64,509.38,510.10,510.33,510.50,510.72,510.84,510.89,510.91,510.91,510.91,510.87,510.83,510.89,510.90,510.89,510.88,510.80,510.73,510.71,510.71,510.72,510.79,510.80,510.84,510.92,511.00,511.08,511.15,511.19,511.20,511.20,511.26,511.34,511.44,511.59,511.81,512.03,512.17,512.10,512.02,511.94,511.84,511.70,511.62,511.54,511.46,511.38,511.31,511.24,511.20,511.17,511.10,511.02,510.94,510.87,510.79,510.72,510.70
502.96,503.08,503.19,503.26,503.35,503.39,503.38,503.35,503.28,503.26,503.25,503.21,503.14,503.10,503.05,502.98,502.92,502.85,502.77,502.72,502.70,502.70,502.45,502.19,501.95,501.64,501.23,500.70,500.21,499.84,499.55,499.33,499.27,499.40,499.70,500.11,500.60,501.07,501.47,501.92,502.38,502.85,503.28,503.63,503.96,504.28,504.59,504.89,505.13,505.36,505.61,505.87,506.15,506.39,506.62,506.87,507.14,507.34,507.55,507.80,508.07,508.31,508.56,508.81,509.03,509.21,509.41,509.59,509.72,509.80,509.88,509.90,509.85,509.72,509.62,509.50,509.43,509.45,509.53,509.68,509.78,509.86,509.94,510.01,510.07,510.07,510.02,509.94,509.89,509.82,509.73,509.57,509.41,509.33,509.32,509.36,509.37,509.32,509.30,509.27,509.17,509.02,508.82,508.59,508.36,508.13,507.91,507.72,507.53,507.33,507.14,506.93,506.72,506.54,506.36,506.23,506.14,506.06,506.01,506.02,506.04,506.09,506.19,506.29,506.49,506.77,507.08,507.38,507.69,507.98,508.25,508.56,508.87,509.17,509.46,509.69,509.97,510.06,510.06,510.06,510.04,510.03,510.02,510.00,509.99,509.93,509.88,509.85,509.80,509.77,509.73,509.74,509.86,510.03,510.18,510.29,510.40,510.52,510.63,510.77,510.90,510.97,511.02,511.05,511.04,510.99,510.91,510.81,510.69,510.58,510.50,510.42,510.29,510.17,510.09,510.01,509.91,509.80,509.69,509.64,509.63,509.63,509.63,509.63,509.63,509.63,509.63,509.63,509.64,509.68,509.79,509.95,510.11,510.31,510.37,510.27,509.86,508.84,509.32,509.94,510.29,510.55,510.84,511.01,511.12,511.17,511.22,511.19,511.13,511.08,511.14,511.12,511.10,511.07,511.00,510.92,510.90,510.90,510.92,510.98,511.00,511.04,511.12,511.19,511.27,511.35,511.40,511.41,511.45,511.52,511.58,511.62,511.73,511.94,512.13,512.26,512.23,512.15,512.04,511.92,511.83,511.75,511.67,511.59,511.51,511.44,511.36,511.30,511.26,511.22,511.15,511.07,511.00,510.92,510.85,510.79
503.03,503.14,503.26,503.36,503.44,503.52,503.56,503.55,503.50,503.47,503.46,503.44,503.37,503.36,503.33,503.26,503.19,503.14,503.07,503.02,503.01,502.93,502.74,502.50,502.23,501.90,501.43,500.84,500.28,499.88,499.58,499.34,499.31,499.49,499.74,500.17,500.68,501.17,501.59,502.05,502.52,502.96,503.35,503.66,503.95,504.23,504.53,504.86,505.10,505.35,505.60,505.84,506.14,506.41,506.66,506.93,507.23,507.45,507.65,507.88,508.11,508.35,508.58,508.81,509.04,509.27,509.52,509.74,509.88,509.96,510.04,510.04,509.98,509.86,509.80,509.70,509.66,509.67,509.73,509.85,509.93,509.99,510.06,510.14,510.22,510.24,510.18,510.10,510.00,509.92,509.82,509.69,509.54,509.51,509.54,509.59,509.59,509.53,509.48,509.42,509.25,509.06,508.86,508.63,508.42,508.19,507.96,507.75,507.57,507.36,507.22,507.04,506.85,506.70,506.57,506.47,506.40,506.36,506.38,506.38,506.38,506.40,506.45,506.52,506.66,506.85,507.11,507.39,507.70,507.97,508.22,508.52,508.83,509.13,509.41,509.70,510.02,510.15,510.16,510.16,510.16,510.18,510.19,510.19,510.19,510.12,510.09,510.07,510.00,509.99,509.95,509.95,510.01,510.12,510.24,510.36,510.47,510.62,510.73,510.85,510.97,511.06,511.12,511.13,511.08,510.99,510.91,510.83,510.72,510.60,510.50,510.42,510.30,510.19,510.09,510.01,509.94,509.84,509.76,509.76,509.76,509.76,509.76,509.76,509.76,509.76,509.77,509.79,509.79,509.79,509.86,509.98,510.14,510.37,510.45,510.35,509.95,509.03,509.23,509.78,510.27,510.58,510.87,511.07,511.22,511.34,511.44,511.44,511.39,511.34,511.38,511.32,511.28,511.25,511.19,511.12,511.09,511.09,511.11,511.18,511.19,511.23,511.31,511.39,511.46,511.54,511.59,511.60,511.67,511.75,511.80,511.84,511.90,512.07,512.25,512.36,512.35,512.29,512.15,512.03,511.95,511.88,511.80,511.72,511.65,511.57,511.49,511.41,511.35,511.32,511.27,511.20,511.13,511.05,510.97,510.90
503.16,503.24,503.35,503.48,503.56,503.65,503.69,503.69,503.68,503.62,503.59,503.57,503.51,503.49,503.48,503.45,503.39,503.37,503.31,503.28,503.26,503.19,503.04,502.80,502.49,502.15,501.64,501.00,500.38,499.90,499.63,499.40,499.38,499.55,499.80,500.23,500.75,501.26,501.72,502.18,502.64,503.02,503.33,503.63,503.90,504.14,504.42,504.78,505.03,505.32,505.60,505.85,506.15,506.46,506.76,507.06,507.37,507.67,507.88,508.02,508.15,508.36,508.59,508.81,509.04,509.27,509.57,509.83,510.00,510.09,510.17,510.15,510.07,510.00,509.99,509.96,509.96,509.96,509.98,510.05,510.08,510.12,510.19,510.27,510.35,510.39,510.37,510.29,510.16,510.05,509.97,509.88,509.75,509.75,509.79,509.79,509.78,509.72,509.64,509.53,509.31,509.09,508.86,508.65,508.48,508.25,508.03,507.81,507.60,507.44,507.33,507.21,507.05,506.91,506.81,506.74,506.69,506.70,506.76,506.77,506.77,506.77,506.79,506.86,506.90,506.97,507.14,507.35,507.63,507.90,508.15,508.45,508.76,509.04,509.32,509.69,510.06,510.23,510.27,510.28,510.29,510.34,510.38,510.38,510.38,510.32,510.29,510.26,510.20,510.19,510.18,510.18,510.19,510.21,510.28,510.40,510.54,510.69,510.84,510.94,511.05,511.18,511.19,511.19,511.12,510.99,510.91,510.83,510.75,510.64,510.51,510.42,510.34,510.23,510.10,510.02,509.95,509.90,509.89,509.89,509.90,509.90,509.90,509.90,509.90,509.90,509.93,509.99,509.99,509.99,510.00,510.05,510.22,510.44,510.55,510.46,510.04,509.19,509.14,509.63,510.26,510.57,510.81,511.00,511.18,511.38,511.53,511.62,511.63,511.58,511.58,511.52,511.45,511.40,511.38,511.31,511.29,511.29,511.30,511.37,511.39,511.43,511.50,511.58,511.66,511.74,511.79,511.80,511.87,511.95,512.02,512.07,512.10,512.23,512.38,512.49,512.48,512.41,512.28,512.16,512.08,512.00,511.93,511.85,511.77,511.69,511.62,511.54,511.47,511.41,511.39,511.33,511.25,511.18,511.10,511.02
503.27,503.37,503.46,503.56,503.64,503.75,503.82,503.82,503.82,503.75,503.72,503.71,503.69,503.64,503.62,503.59,503.53,503.52,503.50,503.48,503.47,503.44,503.31,503.06,502.75,502.40,501.81,501.16,500.52,499.96,499.70,499.47,499.42,499.57,499.86,500.30,500.81,501.34,501.84,502.31,502.67,502.94,503.17,503.43,503.74,504.04,504.34,504.67,504.95,505.33,505.67,505.96,506.26,506.57,506.88,507.19,507.50,507.81,508.08,508.26,508.36,508.49,508.66,508.85,509.04,509.28,509.61,509.90,510.09,510.17,510.28,510.30,510.25,510.18,510.13,510.12,510.12,510.12,510.13,510.19,510.22,510.25,510.32,510.35,510.42,510.48,510.50,510.43,510.32,510.24,510.16,510.08,510.02,510.02,510.05,510.04,509.99,509.88,509.73,509.56,509.37,509.15,508.91,508.69,508.50,508.31,508.16,507.98,507.77,507.66,507.53,507.39,507.25,507.15,507.11,507.08,507.07,507.08,507.15,507.17,507.17,507.17,507.17,507.24,507.26,507.28,507.34,507.39,507.56,507.80,508.08,508.34,508.64,508.96,509.32,509.73,510.04,510.19,510.26,510.30,510.35,510.46,510.52,510.52,510.52,510.49,510.48,510.46,510.39,510.38,510.38,510.38,510.39,510.43,510.47,510.54,510.65,510.76,510.91,511.04,511.16,511.25,511.26,511.23,511.15,511.03,510.92,510.83,510.75,510.66,510.55,510.43,510.34,510.25,510.15,510.08,510.04,510.02,510.02,510.03,510.06,510.08,510.08,510.08,510.08,510.12,510.16,510.18,510.18,510.18,510.18,510.23,510.39,510.62,510.67,510.51,510.08,509.39,509.10,509.48,510.20,510.46,510.70,510.91,511.11,511.28,511.44,511.61,511.73,511.78,511.77,511.71,511.64,511.57,511.52,511.49,511.48,511.48,511.50,511.57,511.58,511.62,511.70,511.78,511.85,511.93,511.98,511.99,512.06,512.14,512.22,512.29,512.33,512.39,512.51,512.62,512.61,512.54,512.41,512.29,512.20,512.09,512.00,511.94,511.90,511.82,511.75,511.67,511.60,511.52,511.47,511.44,511.38,511.31,511.23,511.16
503.37,503.47,503.55,503.65,503.73,503.85,503.94,503.97,503.95,503.90,503.87,503.85,503.84,503.78,503.75,503.73,503.68,503.66,503.67,503.68,503.68,503.67,503.56,503.32,502.99,502.58,501.93,501.27,500.62,500.00,499.74,499.53,499.45,499.58,499.89,500.34,500.85,501.38,501.86,502.25,502.54,502.76,502.97,503.22,503.57,503.89,504.19,504.52,504.83,505.24,505.64,505.99,506.31,506.66,507.00,507.32,507.63,507.94,508.25,508.50,508.63,508.71,508.83,508.96,509.11,509.31,509.64,509.94,510.13,510.23,510.38,510.44,510.42,510.35,510.29,510.26,510.25,510.25,510.28,510.33,510.35,510.38,510.44,510.45,510.51,510.57,510.62,510.58,510.49,510.42,510.36,510.31,510.28,510.26,510.24,510.21,510.12,509.99,509.80,509.56,509.38,509.20,509.01,508.84,508.65,508.51,508.38,508.19,507.97,507.88,507.74,507.60,507.47,507.39,507.41,507.44,507.45,507.46,507.51,507.54,507.55,507.55,507.56,507.61,507.64,507.65,507.65,507.59,507.65,507.79,508.01,508.25,508.55,508.91,509.31,509.71,509.99,510.13,510.21,510.28,510.36,510.50,510.58,510.61,510.65,510.67,510.68,510.65,510.58,510.57,510.57,510.57,510.59,510.66,510.68,510.72,510.80,510.88,511.00,511.14,511.25,511.32,511.30,511.24,511.16,511.07,510.94,510.86,510.77,510.68,510.59,510.47,510.37,510.30,510.24,510.17,510.15,510.15,510.16,510.18,510.25,510.27,510.27,510.27,510.28,510.34,510.38,510.38,510.38,510.38,510.38,510.42,510.56,510.76,510.76,510.55,510.14,509.58,509.06,509.34,510.13,510.36,510.60,510.81,511.01,511.19,511.36,511.58,511.78,511.93,511.95,511.90,511.83,511.75,511.69,511.66,511.67,511.68,511.69,511.76,511.77,511.82,511.89,511.97,512.05,512.13,512.17,512.19,512.26,512.34,512.41,512.49,512.56,512.57,512.66,512.75,512.74,512.65,512.53,512.42,512.33,512.18,512.09,512.04,512.01,511.95,511.88,511.80,511.72,511.65,511.57,511.53,511.50,511.44,511.36,511.28
503.46,503.54,503.64,503.77,503.86,503.94,504.05,504.15,504.09,504.07,504.03,503.99,503.97,503.91,503.88,503.88,503.86,503.80,503.84,503.87,503.87,503.87,503.80,503.58,503.20,502.67,501.99,501.30,500.61,500.00,499.75,499.56,499.49,499.58,499.89,500.33,500.84,501.33,501.70,501.92,502.19,502.49,502.78,503.08,503.39,503.67,503.95,504.32,504.64,505.02,505.43,505.86,506.25,506.68,507.08,507.44,507.75,508.07,508.38,508.68,508.93,509.03,509.12,509.21,509.29,509.40,509.67,509.94,510.14,510.29,510.44,510.54,510.55,510.48,510.47,510.42,510.39,510.40,510.46,510.48,510.48,510.51,510.57,510.59,510.64,510.68,510.70,510.75,510.64,510.58,510.56,510.55,510.49,510.42,510.35,510.27,510.13,510.04,509.84,509.56,509.36,509.25,509.19,509.13,509.04,508.95,508.72,508.43,508.17,508.08,507.94,507.82,507.72,507.61,507.70,507.79,507.84,507.84,507.85,507.91,507.94,507.94,507.94,507.95,508.00,508.04,508.04,508.03,507.99,507.95,507.98,508.19,508.53,508.90,509.27,509.60,509.90,510.06,510.14,510.21,510.30,510.43,510.54,510.63,510.75,510.84,510.86,510.84,510.78,510.77,510.77,510.77,510.78,510.86,510.87,510.92,510.99,511.07,511.15,511.24,511.32,511.37,511.32,511.24,511.16,511.08,511.00,510.92,510.80,510.68,510.60,510.52,510.44,510.39,510.37,510.30,510.28,510.28,510.30,510.37,510.44,510.47,510.47,510.47,510.47,510.53,510.57,510.57,510.57,510.57,510.57,510.60,510.69,510.85,510.78,510.57,510.23,509.74,509.00,509.21,510.06,510.30,510.53,510.72,510.90,511.13,511.35,511.58,511.80,512.00,512.07,512.08,512.03,511.95,511.87,511.80,511.83,511.87,511.89,511.95,511.97,512.01,512.09,512.17,512.24,512.32,512.37,512.38,512.45,512.53,512.61,512.68,512.75,512.77,512.82,512.88,512.87,512.74,512.63,512.55,512.46,512.31,512.22,512.15,512.09,512.07,512.01,511.93,511.86,511.77,511.70,511.63,511.59,511.56,511.49,511.41
503.56,503.66,503.75,503.86,503.98,504.06,504.16,504.24,504.22,504.21,504.19,504.16,504.12,504.08,504.03,504.03,504.06,504.03,504.05,504.07,504.07,504.06,504.04,503.83,503.43,502.79,502.03,501.28,500.56,499.96,499.74,499.61,499.53,499.56,499.85,500.24,500.71,501.14,501.43,501.68,501.97,502.28,502.58,502.85,503.15,503.46,503.80,504.19,504.54,504.95,505.37,505.79,506.22,506.68,507.08,507.44,507.83,508.18,508.51,508.82,509.11,509.32,509.43,509.51,509.59,509.67,509.80,509.97,510.16,510.35,510.51,510.61,510.64,510.61,510.61,510.58,510.54,510.53,510.60,510.61,510.64,510.68,510.71,510.75,510.79,510.81,510.82,510.89,510.81,510.74,510.71,510.70,510.63,510.56,510.48,510.39,510.24,510.11,509.94,509.75,509.64,509.60,509.56,509.50,509.42,509.31,509.01,508.68,508.41,508.28,508.13,508.02,507.92,507.80,507.92,508.07,508.19,508.23,508.23,508.26,508.30,508.33,508.33,508.33,508.38,508.43,508.43,508.43,508.38,508.31,508.30,508.36,508.48,508.72,509.05,509.32,509.67,509.89,510.02,510.10,510.22,510.33,510.45,510.58,510.73,510.86,510.93,510.96,510.96,510.96,510.96,510.96,510.98,511.05,511.10,511.14,511.19,511.26,511.34,511.39,511.43,511.44,511.37,511.26,511.16,511.08,511.01,510.93,510.83,510.73,510.66,510.62,510.56,510.51,510.50,510.47,510.43,510.41,510.43,510.50,510.58,510.64,510.68,510.71,510.72,510.75,510.76,510.76,510.76,510.76,510.76,510.79,510.87,510.94,510.84,510.63,510.31,509.90,508.99,509.09,510.00,510.23,510.46,510.68,510.88,511.11,511.30,511.56,511.81,512.02,512.18,512.25,512.22,512.14,512.07,511.99,511.99,512.03,512.07,512.15,512.16,512.21,512.28,512.36,512.44,512.51,512.57,512.58,512.65,512.72,512.80,512.88,512.95,512.96,513.01,513.05,513.00,512.86,512.75,512.68,512.59,512.44,512.38,512.32,512.26,512.21,512.14,512.06,511.99,511.91,511.83,511.75,511.71,511.69,511.62,511.54
503.66,503.77,503.86,503.95,504.08,504.19,504.27,504.34,504.36,504.35,504.34,504.32,504.25,504.24,504.21,504.20,504.25,504.26,504.26,504.26,504.26,504.26,504.26,504.09,503.68,502.94,502.09,501.28,500.53,499.92,499.75,499.65,499.59,499.58,499.77,500.13,500.53,500.89,501.14,501.45,501.75,502.06,502.34,502.62,502.94,503.31,503.70,504.10,504.49,504.93,505.37,505.77,506.22,506.67,507.04,507.39,507.85,508.24,508.59,508.91,509.24,509.56,509.71,509.79,509.87,509.93,509.95,510.05,510.22,510.43,510.61,510.70,510.74,510.74,510.74,510.74,510.71,510.68,510.73,510.75,510.80,510.84,510.85,510.92,510.94,510.94,510.96,511.02,510.99,510.92,510.86,510.83,510.76,510.69,510.61,510.52,510.37,510.22,510.07,509.96,509.94,509.94,509.90,509.83,509.75,509.62,509.29,508.94,508.66,508.48,508.34,508.23,508.12,508.00,508.12,508.32,508.50,508.59,508.62,508.62,508.65,508.70,508.72,508.72,508.76,508.82,508.82,508.82,508.77,508.74,508.72,508.63,508.57,508.70,508.95,509.17,509.46,509.69,509.84,509.96,510.12,510.24,510.36,510.51,510.66,510.81,510.92,511.01,511.10,511.13,511.15,511.16,511.18,511.25,511.31,511.35,511.38,511.44,511.50,511.52,511.51,511.49,511.42,511.29,511.17,511.09,511.02,510.97,510.89,510.82,510.76,510.75,510.69,510.65,510.64,510.64,510.57,510.54,510.55,510.62,510.69,510.77,510.85,510.91,510.94,510.95,510.96,510.96,510.97,510.98,510.97,510.98,511.05,511.04,510.92,510.69,510.38,510.02,509.01,509.04,509.92,510.18,510.40,510.63,510.86,511.09,511.26,511.53,511.80,512.04,512.27,512.39,512.40,512.34,512.26,512.18,512.16,512.19,512.27,512.34,512.36,512.40,512.48,512.55,512.63,512.71,512.76,512.77,512.84,512.92,512.99,513.05,513.13,513.14,513.18,513.22,513.13,512.99,512.88,512.81,512.72,512.57,512.54,512.50,512.42,512.35,512.27,512.19,512.11,512.04,511.96,511.88,511.84,511.81,511.75,511.67
503.75,503.87,503.99,504.07,504.16,504.28,504.40,504.48,504.54,504.50,504.47,504.45,504.38,504.37,504.40,504.44,504.45,504.46,504.46,504.46,504.46,504.46,504.46,504.35,503.97,503.14,502.23,501.38,500.57,499.93,499.80,499.72,499.68,499.66,499.68,500.00,500.31,500.58,500.88,501.19,501.50,501.78,502.04,502.41,502.83,503.24,503.65,504.09,504.49,504.93,505.38,505.83,506.23,506.63,506.98,507.32,507.78,508.18,508.55,508.93,509.31,509.68,509.88,509.99,510.05,510.07,510.13,510.24,510.40,510.57,510.78,510.86,510.87,510.87,510.87,510.87,510.86,510.86,510.88,510.93,510.96,510.97,510.98,511.05,511.07,511.07,511.09,511.15,511.16,511.11,511.03,510.97,510.90,510.81,510.74,510.65,510.50,510.34,510.22,510.14,510.08,510.07,510.06,510.02,509.95,509.86,509.55,509.20,508.91,508.69,508.58,508.46,508.31,508.20,508.37,508.55,508.74,508.92,508.99,509.00,509.01,509.04,509.10,509.11,509.15,509.20,509.21,509.21,509.20,509.19,509.17,509.04,509.00,509.09,509.25,509.35,509.41,509.46,509.56,509.76,509.98,510.14,510.29,510.44,510.60,510.70,510.82,510.96,511.10,511.23,511.31,511.36,511.37,511.44,511.46,511.50,511.56,511.57,511.58,511.59,511.56,511.49,511.42,511.33,511.22,511.10,511.09,511.07,511.02,510.97,510.94,510.88,510.86,510.83,510.77,510.76,510.70,510.67,510.67,510.69,510.76,510.84,510.92,510.99,511.05,511.12,511.16,511.17,511.22,511.24,511.20,511.18,511.23,511.19,511.01,510.75,510.43,510.04,509.14,509.10,509.82,510.16,510.36,510.57,510.80,511.03,511.25,511.49,511.76,512.04,512.27,512.48,512.56,512.53,512.45,512.38,512.36,512.38,512.46,512.54,512.55,512.59,512.67,512.75,512.83,512.90,512.95,512.97,513.03,513.11,513.16,513.18,513.25,513.27,513.31,513.35,513.26,513.12,513.02,512.94,512.85,512.70,512.67,512.63,512.55,512.48,512.40,512.32,512.25,512.16,512.09,512.01,511.94,511.88,511.87,511.80
503.85,503.97,504.08,504.16,504.26,504.38,504.49,504.56,504.67,504.67,504.63,504.59,504.56,504.58,504.62,504.65,504.65,504.65,504.65,504.67,504.69,504.69,504.69,504.56,504.15,503.30,502.49,501.56,500.65,499.94,499.81,499.76,499.77,499.78,499.73,499.88,500.10,500.35,500.62,500.89,501.19,501.52,501.86,502.18,502.75,503.25,503.67,504.10,504.52,504.95,505.37,505.79,506.18,506.57,506.91,507.26,507.71,508.11,508.50,508.90,509.32,509.70,509.92,510.05,510.16,510.24,510.32,510.44,510.59,510.75,510.94,511.00,511.01,511.04,511.01,511.00,511.00,511.00,511.01,511.07,511.10,511.11,511.15,511.19,511.20,511.20,511.21,511.28,511.26,511.23,511.18,511.10,511.02,510.94,510.87,510.78,510.63,510.48,510.38,510.33,510.25,510.18,510.10,510.02,509.95,509.87,509.65,509.40,509.15,508.90,508.78,508.66,508.51,508.43,508.51,508.76,509.02,509.20,509.32,509.38,509.40,509.41,509.48,509.49,509.55,509.60,509.60,509.63,509.64,509.64,509.63,509.56,509.55,509.59,509.65,509.69,509.69,509.69,509.74,509.86,509.98,510.12,510.26,510.38,510.53,510.66,510.77,510.90,511.05,511.21,511.30,511.38,511.46,511.53,511.58,511.62,511.65,511.66,511.69,511.65,511.57,511.50,511.46,511.39,511.31,511.24,511.21,511.20,511.15,511.10,511.09,511.02,511.00,510.97,510.91,510.90,510.83,510.80,510.80,510.81,510.87,510.95,511.03,511.11,511.18,511.26,511.32,511.36,511.44,511.45,511.40,511.36,511.38,511.32,511.11,510.80,510.46,510.08,509.28,509.16,509.70,510.10,510.33,510.55,510.78,511.01,511.25,511.48,511.75,512.04,512.28,512.50,512.64,512.69,512.64,512.57,512.55,512.58,512.66,512.73,512.75,512.79,512.87,512.94,513.02,513.10,513.15,513.16,513.23,513.28,513.31,513.35,513.39,513.43,513.47,513.48,513.39,513.25,513.14,513.05,512.94,512.83,512.80,512.78,512.73,512.65,512.58,512.50,512.42,512.34,512.27,512.16,512.06,512.00,511.95,511.92
503.95,504.06,504.14,504.24,504.37,504.47,504.55,504.65,504.78,504.82,504.79,504.75,504.75,504.80,504.83,504.83,504.83,504.83,504.83,504.86,504.91,504.91,504.91,504.76,504.34,503.55,502.81,501.83,500.81,500.07,499.93,499.94,499.98,499.98,499.84,499.82,499.94,500.13,500.34,500.58,500.90,501.32,501.78,502.12,502.77,503.34,503.77,504.16,504.61,505.00,505.37,505.74,506.12,506.50,506.85,507.19,507.65,508.05,508.43,508.84,509.28,509.68,509.90,510.08,510.24,510.39,510.48,510.60,510.75,510.90,511.05,511.11,511.15,511.20,511.16,511.14,511.13,511.13,511.15,511.20,511.24,511.26,511.32,511.33,511.33,511.33,511.34,511.40,511.36,511.33,511.31,511.23,511.15,511.07,511.00,510.91,510.76,510.61,510.53,510.49,510.40,510.26,510.10,509.97,509.88,509.81,509.68,509.53,509.35,509.08,508.96,508.84,508.70,508.64,508.63,508.96,509.32,509.50,509.63,509.71,509.74,509.75,509.81,509.83,509.87,509.91,509.92,509.99,510.01,510.01,510.01,510.00,510.00,510.00,510.01,510.01,510.01,510.01,510.01,510.01,510.03,510.14,510.25,510.35,510.50,510.65,510.75,510.85,511.00,511.15,511.25,511.36,511.49,511.57,511.66,511.71,511.73,511.74,511.78,511.71,511.60,511.53,511.53,511.47,511.43,511.41,511.34,511.33,511.28,511.23,511.22,511.15,511.13,511.10,511.03,511.02,510.97,510.93,510.93,510.94,511.00,511.08,511.16,511.24,511.31,511.39,511.47,511.54,511.60,511.61,511.56,511.49,511.48,511.38,511.15,510.83,510.48,510.15,509.43,509.22,509.59,510.05,510.31,510.53,510.76,511.00,511.24,511.48,511.74,512.03,512.27,512.50,512.70,512.82,512.82,512.76,512.74,512.77,512.85,512.92,512.94,512.98,513.06,513.14,513.21,513.27,513.33,513.34,513.41,513.43,513.47,513.52,513.53,513.58,513.61,513.59,513.51,513.37,513.27,513.17,513.02,512.93,512.92,512.93,512.91,512.84,512.76,512.68,512.60,512.52,512.44,512.32,512.21,512.13,512.06,512.04
504.01,504.13,504.22,504.35,504.45,504.53,504.64,504.77,504.86,504.93,504.95,504.94,504.94,504.95,504.96,504.96,504.96,504.96,504.96,504.96,504.98,504.98,504.98,504.94,504.73,504.14,503.25,502.21,501.24,500.56,500.39,500.50,500.56,500.41,499.96,499.88,499.87,499.90,500.04,500.31,500.76,501.33,501.96,502.56,503.15,503.63,504.03,504.41,504.82,505.12,505.41,505.74,506.06,506.44,506.78,507.13,507.59,507.98,508.37,508.76,509.16,509.55,509.85,510.10,510.30,510.45,510.54,510.67,510.81,510.91,511.05,511.14,511.21,511.28,511.33,511.29,511.26,511.27,511.33,511.35,511.40,511.44,511.46,511.46,511.46,511.46,511.46,511.47,511.46,511.46,511.44,511.36,511.28,511.20,511.13,511.04,510.89,510.78,510.67,510.55,510.41,510.26,510.10,509.96,509.82,509.74,509.65,509.53,509.37,509.19,509.09,508.97,508.84,508.77,508.76,509.16,509.62,509.86,509.91,509.93,509.94,509.94,509.96,509.96,509.97,509.98,509.99,510.06,510.08,510.08,510.08,510.08,510.08,510.08,510.08,510.08,510.08,510.08,510.08,510.09,510.15,510.23,510.31,510.41,510.56,510.66,510.75,510.85,510.99,511.09,511.22,511.34,511.43,511.51,511.63,511.77,511.86,511.86,511.81,511.78,511.73,511.67,511.66,511.60,511.56,511.54,511.47,511.46,511.41,511.36,511.35,511.28,511.26,511.22,511.16,511.16,511.10,511.06,511.06,511.07,511.13,511.21,511.28,511.37,511.44,511.52,511.60,511.66,511.68,511.68,511.60,511.48,511.40,511.22,511.03,510.81,510.54,510.22,509.58,509.28,509.49,510.03,510.26,510.47,510.71,510.94,511.23,511.48,511.72,511.98,512.26,512.50,512.73,512.90,512.95,512.94,512.94,512.97,513.05,513.12,513.14,513.18,513.25,513.32,513.35,513.41,513.46,513.47,513.54,513.56,513.60,513.65,513.66,513.67,513.68,513.65,513.58,513.48,513.40,513.29,513.14,513.01,513.03,513.06,513.06,513.03,512.91,512.81,512.73,512.65,512.58,512.49,512.40,512.32,512.25,512.18
504.05,504.16,504.28,504.39,504.48,504.58,504.69,504.81,504.89,504.97,505.00,505.00,505.00,505.00,505.02,505.04,505.04,505.04,505.04,505.04,505.04,505.04,505.01,505.00,504.92,504.63,504.10,503.21,502.35,501.76,501.55,501.62,501.57,501.26,500.69,500.17,499.92,499.86,499.93,500.12,500.58,501.18,501.87,502.65,503.38,503.94,504.38,504.76,505.11,505.36,505.59,505.86,506.14,506.45,506.74,507.06,507.51,507.88,508.26,508.64,509.03,509.42,509.77,510.06,510.27,510.39,510.51,510.64,510.79,510.90,511.05,511.15,511.24,511.35,511.43,511.44,511.43,511.44,511.48,511.49,511.51,511.55,511.59,511.59,511.59,511.59,511.59,511.59,511.59,511.57,511.52,511.44,511.34,511.23,511.12,511.04,510.93,510.84,510.74,510.61,510.45,510.30,510.12,509.95,509.80,509.68,509.57,509.46,509.33,509.18,509.09,509.01,508.93,508.90,508.92,509.38,509.84,509.99,510.00,510.00,510.00,510.00,510.00,510.03,510.04,510.05,510.09,510.13,510.15,510.15,510.15,510.15,510.15,510.15,510.15,510.15,510.15,510.15,510.16,510.19,510.24,510.33,510.43,510.51,510.63,510.74,510.83,510.93,511.04,511.16,511.28,511.38,511.46,511.57,511.69,511.81,511.91,511.94,511.90,511.89,511.86,511.79,511.79,511.73,511.69,511.67,511.60,511.59,511.54,511.49,511.48,511.41,511.39,511.36,511.29,511.29,511.25,511.21,511.19,511.20,511.23,511.29,511.38,511.45,511.52,511.61,511.68,511.75,511.78,511.73,511.61,511.46,511.31,511.15,510.99,510.79,510.52,510.23,509.68,509.31,509.38,509.98,510.23,510.45,510.68,510.93,511.22,511.48,511.71,511.95,512.26,512.50,512.73,512.95,513.11,513.10,513.11,513.16,513.24,513.32,513.33,513.37,513.44,513.49,513.52,513.56,513.60,513.63,513.68,513.69,513.73,513.78,513.79,513.79,513.79,513.77,513.69,513.61,513.54,513.42,513.27,513.13,513.15,513.19,513.19,513.18,513.08,512.98,512.90,512.83,512.75,512.67,512.60,512.51,512.40,512.32
504.07,504.19,504.32,504.40,504.48,504.60,504.72,504.81,504.89,504.97,505.01,505.01,505.01,505.02,505.06,505.11,505.11,505.11,505.10,505.10,505.10,505.09,505.04,505.01,505.00,504.99,504.94,504.35,503.67,503.24,503.03,502.96,502.75,502.32,501.73,500.71,500.19,500.05,500.02,500.06,500.42,500.97,501.66,502.57,503.48,504.21,504.74,505.12,505.44,505.65,505.85,506.07,506.30,506.53,506.77,507.05,507.46,507.78,508.14,508.51,508.89,509.27,509.67,509.99,510.20,510.30,510.44,510.60,510.74,510.89,511.04,511.15,511.26,511.39,511.48,511.56,511.61,511.62,511.62,511.62,511.62,511.65,511.71,511.72,511.72,511.72,511.72,511.72,511.71,511.65,511.57,511.48,511.35,511.20,511.07,510.99,510.90,510.82,510.75,510.65,510.50,510.35,510.15,509.95,509.78,509.63,509.48,509.36,509.27,509.14,509.06,509.03,509.03,509.04,509.10,509.57,509.99,510.00,510.01,510.01,510.01,510.01,510.03,510.09,510.11,510.14,510.20,510.20,510.20,510.20,510.21,510.22,510.22,510.22,510.22,510.22,510.22,510.22,510.25,510.31,510.33,510.43,510.55,510.63,510.72,510.85,510.96,511.04,511.13,511.26,511.37,511.45,511.54,511.68,511.78,511.87,511.94,512.01,512.02,512.02,511.99,511.93,511.92,511.86,511.82,511.80,511.73,511.72,511.68,511.63,511.61,511.55,511.53,511.49,511.43,511.42,511.42,511.38,511.32,511.32,511.32,511.37,511.45,511.53,511.60,511.68,511.76,511.83,511.88,511.77,511.62,511.43,511.23,511.12,510.98,510.77,510.49,510.23,509.77,509.34,509.26,509.92,510.21,510.44,510.68,510.93,511.22,511.48,511.71,511.95,512.25,512.50,512.73,512.98,513.24,513.24,513.28,513.35,513.42,513.50,513.51,513.56,513.62,513.62,513.68,513.71,513.75,513.80,513.82,513.83,513.86,513.92,513.92,513.92,513.92,513.89,513.82,513.74,513.66,513.55,513.39,513.25,513.28,513.32,513.32,513.31,513.25,513.18,513.10,513.02,512.94,512.85,512.78,512.69,512.56,512.47
504.07,504.19,504.32,504.40,504.48,504.57,504.68,504.81,504.89,505.01,505.07,505.07,505.08,505.13,505.16,505.18,505.18,505.18,505.13,505.10,505.10,505.10,505.08,505.07,505.07,505.07,505.01,504.83,504.62,504.50,504.42,504.23,503.89,503.42,502.83,501.81,501.14,500.78,500.55,500.35,500.40,500.80,501.52,502.44,503.37,504.27,505.01,505.38,505.70,505.94,506.16,506.38,506.56,506.79,507.01,507.25,507.49,507.73,508.04,508.37,508.70,509.09,509.51,509.88,510.14,510.28,510.44,510.59,510.73,510.83,510.98,511.12,511.24,511.35,511.48,511.61,511.70,511.74,511.74,511.74,511.74,511.77,511.84,511.85,511.85,511.85,511.85,511.84,511.75,511.66,511.57,511.44,511.33,511.20,511.05,510.92,510.84,510.76,510.69,510.60,510.50,510.36,510.15,509.93,509.73,509.56,509.41,509.29,509.22,509.19,509.20,509.22,509.22,509.22,509.24,509.64,510.00,510.01,510.06,510.07,510.07,510.09,510.14,510.17,510.21,510.25,510.27,510.27,510.27,510.27,510.28,510.34,510.35,510.35,510.35,510.35,510.35,510.35,510.38,510.44,510.45,510.52,510.64,510.76,510.84,510.94,511.05,511.17,511.25,511.35,511.47,511.58,511.66,511.76,511.89,511.99,512.07,512.13,512.14,512.14,512.12,512.05,512.04,511.99,511.95,511.93,511.86,511.85,511.84,511.80,511.75,511.73,511.68,511.64,511.61,511.56,511.54,511.50,511.45,511.45,511.45,511.50,511.57,511.65,511.73,511.81,511.88,511.95,511.96,511.83,511.65,511.43,511.21,511.07,510.91,510.75,510.53,510.25,509.89,509.40,509.15,509.89,510.16,510.41,510.68,510.92,511.17,511.45,511.71,511.94,512.20,512.48,512.73,512.97,513.21,513.38,513.48,513.53,513.56,513.63,513.64,513.69,513.75,513.75,513.82,513.85,513.88,513.94,513.95,513.99,514.03,514.04,514.04,514.04,514.04,514.02,513.95,513.87,513.79,513.66,513.47,513.37,513.41,513.44,513.44,513.44,513.43,513.37,513.29,513.21,513.08,512.99,512.91,512.83,512.73,512.65
504.07,504.18,504.29,504.40,504.48,504.56,504.65,504.77,504.88,505.05,505.13,505.15,505.18,505.22,505.22,505.20,505.20,505.20,505.16,505.13,505.13,505.13,505.13,505.13,505.13,505.13,505.06,505.03,505.03,505.03,505.00,504.87,504.64,504.34,503.92,503.10,502.45,502.00,501.66,501.29,501.04,501.03,501.38,502.31,503.24,504.21,505.03,505.38,505.69,506.01,506.32,506.60,506.85,507.06,507.27,507.49,507.68,507.88,508.13,508.41,508.70,509.02,509.43,509.82,510.12,510.28,510.41,510.55,510.69,510.81,510.95,511.11,511.24,511.36,511.54,511.68,511.78,511.84,511.87,511.88,511.88,511.90,511.97,511.97,511.97,511.96,511.94,511.90,511.76,511.64,511.53,511.40,511.29,511.18,511.04,510.89,510.78,510.70,510.62,510.55,510.46,510.35,510.15,509.92,509.71,509.54,509.43,509.35,509.32,509.32,509.36,509.39,509.42,509.42,509.42,509.72,510.01,510.04,510.09,510.12,510.13,510.15,510.23,510.26,510.31,510.34,510.34,510.34,510.34,510.35,510.38,510.43,510.44,510.44,510.44,510.44,510.46,510.47,510.50,510.57,510.58,510.64,510.74,510.86,510.97,511.04,511.15,511.27,511.38,511.45,511.57,511.69,511.78,511.87,511.98,512.10,512.19,512.23,512.24,512.24,512.22,512.18,512.17,512.14,512.10,512.07,512.02,511.99,511.97,511.95,511.89,511.88,511.82,511.77,511.76,511.69,511.68,511.63,511.58,511.58,511.58,511.63,511.70,511.78,511.86,511.94,512.01,512.07,512.03,511.88,511.66,511.44,511.24,511.06,510.87,510.70,510.52,510.28,510.01,509.49,509.13,509.83,510.13,510.40,510.68,510.92,511.15,511.42,511.69,511.94,512.18,512.45,512.72,512.97,513.20,513.43,513.60,513.67,513.69,513.76,513.77,513.82,513.88,513.88,513.95,513.98,514.00,514.07,514.08,514.13,514.17,514.17,514.17,514.17,514.17,514.15,514.08,514.00,513.90,513.76,513.58,513.50,513.54,513.58,513.58,513.58,513.58,513.53,513.45,513.37,513.25,513.16,513.08,513.00,512.92,512.85
504.07,504.15,504.25,504.38,504.48,504.56,504.63,504.73,504.87,505.08,505.20,505.23,505.29,505.30,505.26,505.22,505.22,505.22,505.21,505.21,505.20,505.20,505.20,505.20,505.20,505.19,505.13,505.11,505.10,505.08,505.02,505.05,505.06,505.01,504.86,504.34,503.86,503.46,503.09,502.64,502.12,501.55,501.27,502.17,503.09,504.04,504.83,505.19,505.50,505.90,506.33,506.70,507.07,507.29,507.52,507.76,508.00,508.17,508.37,508.61,508.85,509.08,509.42,509.79,510.12,510.27,510.38,510.51,510.67,510.82,510.97,511.13,511.28,511.44,511.65,511.76,511.85,511.92,511.98,512.00,512.00,512.03,512.10,512.11,512.10,512.06,511.98,511.90,511.76,511.61,511.48,511.39,511.25,511.14,511.03,510.88,510.74,510.64,510.56,510.48,510.40,510.32,510.15,509.92,509.71,509.55,509.51,509.51,509.51,509.51,509.51,509.56,509.61,509.61,509.61,509.81,510.03,510.10,510.12,510.17,510.21,510.23,510.30,510.37,510.40,510.41,510.41,510.41,510.41,510.44,510.50,510.50,510.50,510.51,510.51,510.52,510.58,510.60,510.63,510.69,510.70,510.76,510.84,510.94,511.08,511.17,511.25,511.36,511.49,511.58,511.67,511.77,511.90,511.99,512.07,512.19,512.30,512.30,512.31,512.31,512.30,512.30,512.30,512.29,512.25,512.21,512.19,512.13,512.11,512.08,512.01,512.00,511.95,511.91,511.89,511.82,511.80,511.76,511.70,511.70,511.70,511.76,511.83,511.91,511.98,512.05,512.13,512.17,512.09,511.89,511.66,511.46,511.28,511.06,510.85,510.65,510.49,510.32,510.10,509.59,509.17,509.74,510.10,510.40,510.67,510.91,511.14,511.38,511.65,511.93,512.16,512.41,512.68,512.96,513.20,513.43,513.66,513.79,513.82,513.89,513.91,513.95,514.01,514.02,514.08,514.11,514.14,514.20,514.20,514.26,514.31,514.31,514.31,514.31,514.31,514.29,514.21,514.13,514.00,513.85,513.70,513.63,513.67,513.70,513.70,513.70,513.70,513.66,513.59,513.51,513.43,513.35,513.27,513.19,513.11,513.03
504.07,504.15,504.23,504.34,504.47,504.56,504.63,504.71,504.82,505.02,505.22,505.34,505.36,505.37,505.35,505.34,505.34,505.34,505.34,505.31,505.27,505.26,505.26,505.26,505.26,505.25,505.19,505.17,505.15,505.10,505.07,505.09,505.13,505.15,505.06,504.83,504.65,504.51,504.32,503.79,503.04,502.11,501.39,502.02,502.82,503.63,504.37,504.95,505.31,505.72,506.16,506.55,506.98,507.32,507.67,508.04,508.31,508.48,508.69,508.92,509.14,509.33,509.58,509.87,510.12,510.28,510.41,510.59,510.78,510.94,511.09,511.28,511.44,511.56,511.73,511.83,511.90,511.99,512.06,512.12,512.13,512.16,512.23,512.24,512.19,512.11,511.99,511.90,511.76,511.61,511.47,511.34,511.23,511.11,510.99,510.88,510.73,510.60,510.50,510.41,510.34,510.26,510.12,509.92,509.71,509.59,509.64,509.71,509.71,509.71,509.71,509.75,509.80,509.80,509.80,509.91,510.05,510.17,510.23,510.25,510.29,510.35,510.43,510.46,510.47,510.47,510.47,510.47,510.51,510.55,510.56,510.56,510.56,510.60,510.64,510.64,510.66,510.70,510.75,510.78,510.83,510.86,510.93,511.06,511.16,511.24,511.35,511.47,511.57,511.70,511.79,511.88,511.99,512.12,512.20,512.29,512.37,512.37,512.37,512.37,512.37,512.37,512.37,512.37,512.36,512.34,512.33,512.27,512.24,512.21,512.14,512.13,512.08,512.04,512.02,511.95,511.94,511.90,511.84,511.84,511.84,511.89,511.97,512.03,512.06,512.13,512.21,512.24,512.11,511.89,511.69,511.50,511.30,511.06,510.87,510.68,510.48,510.32,510.11,509.64,509.25,509.70,510.08,510.37,510.62,510.85,511.13,511.38,511.62,511.88,512.11,512.38,512.65,512.92,513.19,513.43,513.66,513.84,513.94,514.02,514.08,514.12,514.15,514.19,514.23,514.27,514.31,514.33,514.33,514.39,514.43,514.43,514.43,514.43,514.43,514.41,514.33,514.26,514.13,513.97,513.84,513.75,513.80,513.83,513.83,513.83,513.83,513.82,513.78,513.70,513.62,513.55,513.44,513.33,513.25,513.17
504.11,504.18,504.26,504.37,504.50,504.59,504.67,504.75,504.82,505.00,505.24,505.44,505.44,505.44,505.44,505.44,505.44,505.44,505.44,505.39,505.34,505.34,505.34,505.34,505.34,505.32,505.25,505.24,505.20,505.14,505.13,505.11,505.13,505.15,505.10,505.03,505.00,505.00,504.93,504.56,503.70,502.55,501.60,501.97,502.63,503.34,504.05,504.72,505.13,505.54,505.97,506.38,506.82,507.24,507.69,508.15,508.50,508.75,508.98,509.22,509.46,509.63,509.80,510.00,510.19,510.38,510.53,510.72,510.91,511.09,511.23,511.41,511.56,511.66,511.80,511.90,511.98,512.05,512.13,512.21,512.25,512.29,512.36,512.34,512.25,512.13,511.99,511.90,511.76,511.61,511.46,511.31,511.22,511.10,510.96,510.85,510.72,510.58,510.45,510.35,510.27,510.20,510.09,509.93,509.75,509.68,509.78,509.87,509.87,509.87,509.87,509.91,509.97,509.97,509.97,510.02,510.13,510.26,510.32,510.35,510.39,510.45,510.52,510.53,510.53,510.53,510.54,510.56,510.62,510.67,510.67,510.67,510.67,510.69,510.74,510.76,510.76,510.82,510.87,510.88,510.95,510.97,511.03,511.15,511.25,511.33,511.44,511.56,511.67,511.80,511.89,511.98,512.09,512.21,512.29,512.38,512.43,512.43,512.43,512.43,512.43,512.43,512.43,512.43,512.43,512.43,512.43,512.38,512.37,512.34,512.28,512.26,512.21,512.16,512.15,512.11,512.08,512.04,511.99,511.97,511.97,512.00,512.06,512.13,512.16,512.23,512.29,512.29,512.12,511.92,511.73,511.53,511.30,511.09,510.90,510.71,510.51,510.33,510.11,509.69,509.34,509.66,510.03,510.32,510.56,510.82,511.10,511.35,511.59,511.84,512.08,512.35,512.62,512.88,513.16,513.42,513.66,513.88,514.04,514.14,514.23,514.26,514.28,514.35,514.37,514.41,514.46,514.47,514.49,514.54,514.56,514.56,514.56,514.56,514.56,514.54,514.46,514.36,514.23,514.07,513.93,513.88,513.93,513.96,513.97,514.00,514.00,513.98,513.94,513.86,513.79,513.71,513.61,513.49,513.41,513.33
504.17,504.25,504.34,504.48,504.57,504.65,504.72,504.80,504.88,505.01,505.25,505.50,505.50,505.50,505.50,505.50,505.50,505.50,505.50,505.46,505.41,505.40,505.40,505.40,505.40,505.38,505.32,505.29,505.26,505.20,505.19,505.14,505.11,505.11,505.09,505.03,505.00,505.00,504.99,504.94,504.09,502.88,501.88,502.02,502.57,503.23,503.90,504.49,504.96,505.38,505.79,506.24,506.64,507.09,507.59,508.10,508.55,508.93,509.22,509.48,509.76,509.94,510.04,510.17,510.34,510.55,510.73,510.88,511.06,511.26,511.37,511.50,511.63,511.73,511.87,511.96,512.03,512.12,512.20,512.27,512.34,512.41,512.47,512.41,512.29,512.13,512.00,511.90,511.77,511.62,511.47,511.32,511.23,511.10,510.94,510.81,510.71,510.58,510.42,510.29,510.21,510.13,510.05,509.94,509.81,509.79,509.90,509.98,509.98,509.99,509.99,510.04,510.09,510.09,510.10,510.15,510.25,510.38,510.40,510.46,510.50,510.52,510.59,510.60,510.60,510.61,510.62,510.68,510.75,510.78,510.78,510.78,510.79,510.80,510.82,510.89,510.90,510.94,510.99,511.01,511.07,511.09,511.14,511.23,511.37,511.46,511.55,511.65,511.78,511.88,511.96,512.07,512.20,512.29,512.37,512.44,512.50,512.50,512.50,512.50,512.50,512.50,512.50,512.50,512.50,512.50,512.50,512.50,512.50,512.47,512.41,512.39,512.35,512.30,512.29,512.29,512.23,512.19,512.17,512.11,512.10,512.10,512.13,512.21,512.28,512.35,512.39,512.34,512.13,511.96,511.76,511.53,511.31,511.14,510.93,510.73,510.56,510.34,510.11,509.75,509.44,509.62,509.97,510.26,510.51,510.80,511.05,511.28,511.55,511.83,512.07,512.31,512.59,512.86,513.12,513.40,513.66,513.89,514.10,514.26,514.36,514.39,514.41,514.48,514.50,514.54,514.60,514.61,514.67,514.69,514.69,514.69,514.69,514.69,514.69,514.67,514.59,514.45,514.30,514.14,514.01,514.00,514.06,514.10,514.11,514.17,514.18,514.14,514.08,514.00,513.92,513.84,513.76,513.68,513.60,513.53
504.23,504.31,504.39,504.50,504.58,504.65,504.73,504.81,504.89,504.95,505.22,505.56,505.56,505.56,505.56,505.56,505.56,505.56,505.56,505.55,505.52,505.47,505.47,505.47,505.45,505.40,505.37,505.37,505.33,505.27,505.26,505.20,505.17,505.15,505.11,505.07,505.06,505.04,505.00,505.00,504.37,503.28,502.17,502.17,502.67,503.27,503.84,504.31,504.77,505.19,505.60,506.06,506.50,506.99,507.49,507.99,508.50,508.94,509.31,509.63,509.92,510.14,510.25,510.36,510.52,510.70,510.90,511.05,511.18,511.35,511.49,511.60,511.71,511.83,511.94,512.02,512.11,512.18,512.25,512.33,512.41,512.49,512.54,512.48,512.35,512.19,512.04,511.92,511.81,511.67,511.52,511.37,511.24,511.10,510.94,510.79,510.71,510.58,510.42,510.28,510.15,510.06,509.99,509.90,509.82,509.90,509.97,510.00,510.01,510.05,510.11,510.14,510.18,510.22,510.22,510.28,510.37,510.46,510.51,510.55,510.59,510.63,510.66,510.67,510.69,510.72,510.73,510.80,510.85,510.87,510.87,510.87,510.91,510.93,510.94,511.01,511.02,511.04,511.08,511.13,511.16,511.20,511.26,511.35,511.45,511.58,511.67,511.76,511.87,511.99,512.08,512.17,512.28,512.40,512.49,512.54,512.56,512.57,512.61,512.63,512.63,512.63,512.63,512.63,512.63,512.63,512.63,512.63,512.63,512.62,512.58,512.54,512.50,512.46,512.43,512.42,512.36,512.33,512.31,512.24,512.23,512.23,512.25,512.33,512.41,512.49,512.48,512.35,512.13,511.96,511.76,511.54,511.36,511.16,510.94,510.74,510.56,510.34,510.15,509.84,509.53,509.58,509.95,510.25,510.50,510.75,510.99,511.25,511.52,511.79,512.06,512.31,512.55,512.82,513.10,513.36,513.63,513.89,514.12,514.32,514.42,514.49,514.54,514.61,514.63,514.67,514.73,514.74,514.81,514.83,514.83,514.83,514.83,514.83,514.83,514.80,514.72,514.57,514.42,514.26,514.13,514.13,514.19,514.23,514.24,514.31,514.33,514.31,514.26,514.18,514.11,514.03,513.95,513.88,513.80,513.72
504.27,504.36,504.45,504.53,504.61,504.69,504.75,504.81,504.88,504.90,505.20,505.63,505.63,505.63,505.63,505.63,505.63,505.63,505.63,505.63,505.61,505.54,505.52,505.52,505.50,505.44,505.43,505.41,505.38,505.33,505.32,505.26,505.22,505.21,505.14,505.13,505.11,505.08,505.03,505.00,504.63,503.68,502.49,502.32,502.74,503.26,503.74,504.15,504.59,505.00,505.44,505.90,506.36,506.89,507.39,507.87,508.40,508.88,509.32,509.71,510.03,510.29,510.41,510.54,510.70,510.84,511.04,511.19,511.29,511.43,511.58,511.68,511.79,511.93,512.03,512.10,512.16,512.25,512.32,512.40,512.48,512.55,512.61,512.54,512.41,512.25,512.11,511.97,511.87,511.74,511.58,511.43,511.27,511.13,510.99,510.85,510.75,510.61,510.45,510.29,510.14,510.05,510.00,509.94,509.91,510.00,510.02,510.04,510.07,510.14,510.20,510.24,510.27,510.32,510.35,510.40,510.47,510.56,510.62,510.65,510.68,510.72,510.73,510.75,510.79,510.84,510.86,510.91,510.93,510.94,510.95,510.96,511.00,511.04,511.07,511.12,511.15,511.16,511.19,511.25,511.26,511.31,511.39,511.47,511.55,511.68,511.79,511.88,511.96,512.09,512.20,512.29,512.38,512.50,512.60,512.64,512.65,512.66,512.71,512.73,512.73,512.73,512.73,512.73,512.73,512.73,512.73,512.73,512.73,512.73,512.72,512.67,512.65,512.62,512.56,512.55,512.49,512.45,512.43,512.37,512.36,512.36,512.38,512.46,512.54,512.60,512.54,512.36,512.15,511.97,511.77,511.57,511.39,511.17,510.95,510.75,510.57,510.37,510.18,509.91,509.62,509.54,509.91,510.23,510.46,510.71,510.95,511.22,511.49,511.75,512.04,512.29,512.54,512.78,513.07,513.33,513.61,513.88,514.13,514.36,514.50,514.60,514.67,514.72,514.75,514.81,514.86,514.87,514.93,514.95,514.95,514.95,514.95,514.95,514.95,514.93,514.84,514.70,514.53,514.37,514.24,514.25,514.32,514.36,514.37,514.44,514.45,514.45,514.43,514.38,514.30,514.21,514.12,514.04,513.97,513.91
504.27,504.39,504.51,504.59,504.67,504.74,504.79,504.81,504.88,504.90,505.23,505.69,505.70,505.70,505.69,505.69,505.69,505.69,505.69,505.69,505.68,505.61,505.60,505.59,505.56,505.50,505.50,505.44,505.40,505.40,505.38,505.32,505.29,505.27,505.21,505.19,505.14,505.10,505.08,505.02,504.85,504.05,502.82,502.47,502.74,503.15,503.57,504.01,504.41,504.85,505.30,505.77,506.23,506.76,507.26,507.74,508.27,508.75,509.25,509.72,510.09,510.41,510.54,510.69,510.88,510.98,511.13,511.28,511.41,511.50,511.65,511.75,511.86,512.00,512.15,512.19,512.24,512.31,512.38,512.47,512.54,512.62,512.67,512.61,512.48,512.33,512.18,512.09,511.96,511.81,511.65,511.50,511.35,511.24,511.12,510.96,510.82,510.67,510.52,510.36,510.21,510.12,510.09,510.08,510.08,510.10,510.10,510.13,510.20,510.26,510.29,510.33,510.38,510.40,510.46,510.49,510.55,510.67,510.69,510.75,510.79,510.79,510.80,510.86,510.89,510.92,510.98,511.00,511.00,511.03,511.08,511.08,511.09,511.13,511.19,511.20,511.26,511.28,511.31,511.38,511.39,511.44,511.52,511.60,511.68,511.76,511.88,512.01,512.09,512.17,512.30,512.41,512.50,512.58,512.66,512.73,512.78,512.78,512.79,512.79,512.79,512.79,512.79,512.79,512.79,512.79,512.79,512.79,512.79,512.79,512.79,512.78,512.78,512.75,512.69,512.68,512.62,512.58,512.56,512.50,512.49,512.49,512.51,512.59,512.66,512.68,512.59,512.37,512.20,511.99,511.80,511.62,511.40,511.17,510.98,510.79,510.59,510.41,510.21,509.97,509.71,509.50,509.85,510.16,510.42,510.70,510.94,511.18,511.45,511.74,511.99,512.27,512.53,512.77,513.02,513.31,513.57,513.84,514.12,514.36,514.57,514.72,514.78,514.80,514.86,514.93,514.98,514.99,515.06,515.08,515.08,515.08,515.08,515.08,515.08,515.05,514.97,514.82,514.63,514.43,514.32,514.38,514.45,514.49,514.50,514.57,514.58,514.58,514.58,514.56,514.49,514.37,514.25,514.18,514.11,514.08
504.33,504.43,504.52,504.60,504.68,504.75,504.80,504.81,504.88,504.90,505.28,505.81,505.81,505.81,505.78,505.75,505.75,505.75,505.75,505.75,505.74,505.67,505.66,505.63,505.59,505.56,505.56,505.50,505.45,505.45,505.41,505.37,505.33,505.29,505.25,505.22,505.15,505.10,505.09,505.02,504.95,504.27,503.05,502.48,502.68,503.10,503.52,503.94,504.33,504.71,505.13,505.64,506.11,506.63,507.13,507.61,508.14,508.62,509.13,509.65,510.11,510.47,510.65,510.80,510.98,511.10,511.21,511.35,511.48,511.56,511.71,511.84,511.96,512.08,512.22,512.29,512.33,512.38,512.45,512.53,512.63,512.74,512.79,512.69,512.57,512.44,512.30,512.17,512.02,511.87,511.72,511.56,511.45,511.33,511.20,511.04,510.88,510.74,510.60,510.47,510.28,510.14,510.16,510.22,510.22,510.22,510.22,510.25,510.31,510.35,510.40,510.43,510.47,510.51,510.59,510.62,510.66,510.75,510.80,510.84,510.86,510.87,510.91,510.99,511.01,511.04,511.11,511.12,511.12,511.13,511.17,511.21,511.22,511.26,511.31,511.32,511.39,511.42,511.44,511.51,511.51,511.54,511.60,511.68,511.80,511.88,511.98,512.10,512.21,512.29,512.39,512.51,512.62,512.70,512.78,512.83,512.86,512.86,512.86,512.86,512.86,512.86,512.86,512.86,512.86,512.86,512.86,512.86,512.86,512.86,512.86,512.86,512.86,512.84,512.82,512.81,512.75,512.71,512.69,512.63,512.62,512.62,512.63,512.67,512.74,512.72,512.61,512.42,512.23,512.03,511.84,511.63,511.40,511.21,511.01,510.82,510.63,510.43,510.24,510.03,509.76,509.45,509.78,510.13,510.39,510.66,510.89,511.16,511.43,511.69,511.96,512.23,512.51,512.77,513.00,513.27,513.54,513.81,514.07,514.35,514.59,514.76,514.87,514.91,514.99,515.03,515.06,515.07,515.14,515.15,515.15,515.16,515.20,515.17,515.13,515.08,514.99,514.85,514.67,514.53,514.48,514.51,514.58,514.62,514.63,514.70,514.71,514.71,514.71,514.70,514.63,514.53,514.43,514.37,514.33,514.29
504.37,504.45,504.52,504.60,504.68,504.75,504.80,504.81,504.88,504.90,505.31,505.88,505.92,505.93,505.88,505.85,505.84,505.83,505.82,505.82,505.80,505.74,505.72,505.68,505.63,505.62,505.61,505.56,505.51,505.49,505.41,505.40,505.36,505.30,505.30,505.23,505.15,505.10,505.07,505.01,505.00,504.43,503.32,502.61,502.69,503.06,503.49,503.88,504.25,504.59,504.98,505.48,505.95,506.47,506.99,507.49,508.03,508.53,509.05,509.59,510.10,510.49,510.72,510.90,511.05,511.20,511.29,511.41,511.55,511.65,511.78,511.93,512.06,512.16,512.29,512.38,512.42,512.44,512.52,512.61,512.73,512.85,512.89,512.78,512.67,512.55,512.39,512.24,512.09,511.94,511.80,511.65,511.55,511.41,511.26,511.11,510.95,510.80,510.67,510.55,510.34,510.19,510.24,510.35,510.37,510.37,510.37,510.39,510.44,510.45,510.51,510.54,510.56,510.64,510.70,510.74,510.77,510.85,510.91,510.93,510.93,510.96,511.03,511.10,511.13,511.16,511.22,511.22,511.24,511.24,511.26,511.33,511.35,511.38,511.43,511.45,511.50,511.53,511.57,511.62,511.64,511.65,511.68,511.77,511.90,511.99,512.08,512.19,512.32,512.40,512.49,512.60,512.73,512.83,512.89,512.92,512.92,512.92,512.92,512.92,512.92,512.92,512.92,512.92,512.92,512.92,512.92,512.92,512.92,512.92,512.92,512.92,512.92,512.92,512.92,512.92,512.87,512.85,512.83,512.77,512.75,512.75,512.75,512.76,512.82,512.77,512.64,512.45,512.23,512.06,511.86,511.63,511.42,511.25,511.04,510.85,510.67,510.46,510.28,510.08,509.81,509.45,509.74,510.08,510.37,510.61,510.85,511.13,511.41,511.65,511.94,512.20,512.47,512.75,513.00,513.23,513.52,513.80,514.04,514.35,514.59,514.79,514.94,515.01,515.10,515.13,515.13,515.15,515.21,515.24,515.25,515.26,515.31,515.25,515.17,515.10,515.02,514.88,514.76,514.68,514.68,514.69,514.74,514.76,514.78,514.84,514.85,514.85,514.85,514.84,514.78,514.72,514.65,514.59,514.58,514.52
504.37,504.45,504.52,504.60,504.68,504.75,504.80,504.81,504.88,504.90,505.28,505.85,505.97,505.99,505.98,505.97,505.96,505.90,505.88,505.88,505.87,505.80,505.78,505.74,505.69,505.68,505.62,505.59,505.56,505.49,505.41,505.40,505.36,505.30,505.30,505.23,505.15,505.07,505.02,505.00,505.00,504.57,503.71,503.03,502.84,503.03,503.43,503.80,504.13,504.49,504.88,505.30,505.76,506.28,506.82,507.37,507.96,508.50,509.05,509.59,510.09,510.44,510.73,510.95,511.11,511.26,511.36,511.48,511.63,511.76,511.86,512.00,512.14,512.28,512.37,512.45,512.49,512.50,512.59,512.72,512.83,512.91,512.97,512.89,512.77,512.62,512.46,512.31,512.15,512.04,511.93,511.77,511.63,511.48,511.32,511.17,511.01,510.86,510.71,510.56,510.40,510.31,510.37,510.50,510.55,510.56,510.56,510.57,510.58,510.58,510.64,510.68,510.69,510.76,510.78,510.83,510.90,510.97,510.99,510.99,511.02,511.09,511.16,511.19,511.23,511.27,511.29,511.29,511.34,511.37,511.39,511.46,511.47,511.48,511.51,511.57,511.59,511.63,511.68,511.70,511.76,511.77,511.81,511.89,511.98,512.06,512.17,512.30,512.39,512.47,512.59,512.71,512.81,512.94,512.98,512.99,512.99,512.99,512.99,512.99,512.99,512.99,512.99,512.99,512.99,512.99,512.99,512.99,512.99,512.99,512.99,512.99,512.99,512.99,512.99,512.99,512.98,512.98,512.97,512.95,512.89,512.88,512.88,512.89,512.95,512.86,512.68,512.45,512.23,512.06,511.86,511.65,511.48,511.26,511.08,510.89,510.68,510.51,510.30,510.11,509.89,509.56,509.72,510.01,510.32,510.61,510.85,511.13,511.41,511.64,511.89,512.18,512.44,512.70,512.99,513.23,513.52,513.79,514.04,514.34,514.59,514.81,515.00,515.08,515.15,515.18,515.21,515.27,515.28,515.34,515.37,515.38,515.38,515.32,515.24,515.16,515.09,515.00,514.96,514.94,514.94,514.94,514.95,514.96,514.96,514.97,514.98,514.98,514.98,514.97,514.96,514.95,514.91,514.85,514.84,514.78
504.42,504.50,504.58,504.65,504.69,504.75,504.80,504.81,504.88,504.90,505.25,505.81,506.02,506.06,506.06,506.06,506.04,505.97,505.95,505.94,505.89,505.86,505.81,505.78,505.74,505.69,505.62,505.60,505.57,505.50,505.46,505.42,505.36,505.30,505.30,505.23,505.15,505.08,505.05,505.01,505.00,504.73,504.14,503.51,503.10,503.06,503.31,503.69,504.00,504.37,504.74,505.11,505.61,506.14,506.70,507.28,507.86,508.41,508.94,509.50,510.04,510.37,510.68,510.96,511.17,511.33,511.45,511.57,511.69,511.85,511.96,512.08,512.22,512.36,512.43,512.51,512.56,512.58,512.69,512.81,512.90,512.99,513.07,512.98,512.83,512.68,512.52,512.38,512.25,512.13,512.01,511.86,511.70,511.54,511.39,511.24,511.08,510.89,510.72,510.57,510.43,510.44,510.55,510.67,510.70,510.70,510.70,510.70,510.71,510.75,510.79,510.80,510.81,510.85,510.89,510.93,510.98,511.05,511.10,511.11,511.14,511.22,511.29,511.30,511.33,511.37,511.40,511.41,511.43,511.47,511.51,511.55,511.59,511.61,511.62,511.69,511.70,511.75,511.80,511.82,511.88,511.91,511.92,511.98,512.09,512.17,512.27,512.39,512.50,512.58,512.68,512.80,512.92,513.03,513.06,513.06,513.06,513.06,513.06,513.08,513.11,513.11,513.11,513.11,513.11,513.11,513.11,513.11,513.11,513.11,513.11,513.11,513.11,513.11,513.11,513.11,513.11,513.11,513.11,513.09,513.03,513.00,513.00,513.01,513.04,512.90,512.69,512.46,512.27,512.08,511.89,511.69,511.50,511.30,511.11,510.92,510.73,510.53,510.34,510.15,509.91,509.62,509.73,509.97,510.26,510.55,510.80,511.09,511.36,511.59,511.83,512.12,512.38,512.64,512.94,513.18,513.47,513.75,513.98,514.25,514.52,514.79,515.02,515.10,515.17,515.25,515.32,515.35,515.39,515.43,515.47,515.49,515.46,515.38,515.31,515.24,515.20,515.16,515.15,515.15,515.15,515.15,515.15,515.15,515.15,515.15,515.15,515.15,515.15,515.15,515.15,515.13,515.08,515.04,515.01,514.93
504.47,504.55,504.62,504.68,504.70,504.75,504.80,504.81,504.88,504.90,505.23,505.76,506.07,506.12,506.12,506.11,506.09,506.03,506.01,505.97,505.92,505.90,505.83,505.80,505.78,505.70,505.62,505.60,505.57,505.50,505.50,505.44,505.36,505.30,505.30,505.23,505.16,505.11,505.09,505.02,505.00,504.87,504.52,503.96,503.42,503.19,503.27,503.58,503.88,504.24,504.59,504.94,505.44,506.00,506.59,507.18,507.72,508.27,508.82,509.38,509.95,510.30,510.62,510.93,511.21,511.39,511.55,511.67,511.77,511.92,512.07,512.18,512.29,512.42,512.50,512.58,512.62,512.66,512.80,512.90,512.98,513.08,513.18,513.06,512.90,512.75,512.61,512.45,512.35,512.23,512.08,511.92,511.76,511.60,511.44,511.28,511.13,510.92,510.72,510.57,510.44,510.56,510.73,510.83,510.83,510.83,510.84,510.85,510.86,510.92,510.93,510.93,510.93,510.94,511.01,511.03,511.06,511.14,511.20,511.23,511.27,511.35,511.41,511.43,511.43,511.45,511.51,511.53,511.53,511.56,511.63,511.64,511.70,511.73,511.75,511.82,511.83,511.88,511.92,511.94,512.00,512.03,512.03,512.06,512.20,512.30,512.38,512.48,512.61,512.71,512.79,512.89,513.02,513.10,513.12,513.12,513.13,513.13,513.13,513.17,513.22,513.22,513.22,513.22,513.22,513.22,513.22,513.22,513.22,513.22,513.22,513.22,513.22,513.22,513.22,513.22,513.22,513.22,513.22,513.21,513.16,513.13,513.13,513.13,513.10,512.92,512.70,512.49,512.32,512.11,511.92,511.74,511.52,511.35,511.14,510.94,510.77,510.56,510.38,510.18,509.94,509.67,509.74,509.94,510.21,510.49,510.73,511.01,511.28,511.52,511.76,512.06,512.32,512.57,512.88,513.12,513.40,513.68,513.92,514.16,514.44,514.75,515.00,515.09,515.17,515.29,515.39,515.41,515.49,515.53,515.56,515.60,515.54,515.47,515.39,515.35,515.35,515.35,515.35,515.35,515.35,515.35,515.35,515.35,515.35,515.35,515.35,515.35,515.35,515.35,515.34,515.27,515.22,515.18,515.11,515.03
504.47,504.55,504.61,504.63,504.68,504.75,504.80,504.81,504.88,504.90,505.20,505.73,506.12,506.18,506.18,506.16,506.10,506.09,506.03,505.99,505.97,505.91,505.83,505.80,505.78,505.70,505.62,505.60,505.57,505.50,505.50,505.44,505.36,505.30,505.30,505.23,505.19,505.16,505.10,505.02,505.00,504.91,504.68,504.25,503.79,503.55,503.51,503.55,503.76,504.11,504.46,504.79,505.21,505.82,506.43,506.98,507.52,508.12,508.69,509.25,509.83,510.23,510.55,510.86,511.17,511.44,511.62,511.76,511.89,511.99,512.13,512.28,512.40,512.49,512.56,512.64,512.71,512.78,512.88,513.01,513.11,513.19,513.25,513.12,512.97,512.84,512.73,512.58,512.44,512.29,512.14,511.99,511.83,511.63,511.44,511.28,511.13,510.92,510.72,510.57,510.45,510.66,510.86,510.96,510.96,510.96,511.01,511.04,511.04,511.06,511.06,511.06,511.06,511.07,511.14,511.16,511.19,511.26,511.28,511.33,511.40,511.47,511.49,511.54,511.56,511.57,511.59,511.65,511.66,511.69,511.76,511.76,511.83,511.86,511.88,511.95,511.96,511.97,512.00,512.06,512.08,512.13,512.16,512.18,512.27,512.41,512.51,512.59,512.69,512.83,512.92,513.00,513.09,513.16,513.18,513.22,513.26,513.26,513.26,513.27,513.28,513.28,513.28,513.28,513.28,513.28,513.28,513.28,513.28,513.28,513.28,513.28,513.28,513.28,513.28,513.28,513.28,513.28,513.28,513.28,513.27,513.26,513.26,513.24,513.13,512.92,512.72,512.54,512.33,512.15,511.95,511.75,511.57,511.36,511.18,510.99,510.78,510.61,510.40,510.21,510.01,509.73,509.71,509.91,510.19,510.44,510.67,510.91,511.18,511.46,511.70,511.99,512.25,512.51,512.81,513.05,513.34,513.62,513.86,514.15,514.40,514.68,514.95,515.08,515.17,515.26,515.34,515.42,515.55,515.63,515.67,515.68,515.66,515.60,515.55,515.54,515.54,515.54,515.54,515.54,515.54,515.54,515.54,515.54,515.54,515.54,515.54,515.54,515.54,515.53,515.48,515.40,515.30,515.19,515.11,515.03
504.47,504.55,504.60,504.61,504.68,504.73,504.77,504.81,504.88,504.90,505.17,505.68,506.16,506.25,506.22,506.19,506.14,506.11,506.04,506.00,505.99,505.91,505.83,505.80,505.78,505.71,505.66,505.62,505.57,505.50,505.50,505.44,505.36,505.30,505.30,505.23,505.20,505.17,505.10,505.02,505.00,504.93,504.74,504.43,504.07,503.88,503.80,503.71,503.77,504.07,504.41,504.70,505.09,505.67,506.28,506.89,507.51,508.12,508.67,509.20,509.75,510.16,510.49,510.80,511.11,511.41,511.65,511.84,511.98,512.09,512.21,512.35,512.48,512.55,512.63,512.71,512.78,512.87,512.98,513.10,513.20,513.27,513.32,513.19,513.06,512.94,512.82,512.67,512.51,512.36,512.20,512.00,511.85,511.66,511.47,511.29,511.13,510.94,510.75,510.58,510.54,510.81,511.01,511.10,511.13,511.14,511.17,511.19,511.19,511.19,511.22,511.24,511.24,511.24,511.28,511.29,511.32,511.39,511.39,511.45,511.51,511.55,511.59,511.63,511.67,511.69,511.70,511.77,511.79,511.82,511.89,511.89,511.93,511.97,512.00,512.04,512.08,512.09,512.12,512.18,512.19,512.25,512.29,512.31,512.39,512.50,512.62,512.72,512.80,512.91,513.03,513.13,513.20,513.27,513.29,513.31,513.35,513.35,513.35,513.35,513.35,513.35,513.35,513.35,513.35,513.35,513.35,513.35,513.35,513.35,513.35,513.35,513.35,513.35,513.35,513.35,513.35,513.35,513.35,513.35,513.35,513.35,513.35,513.32,513.14,512.95,512.75,512.56,512.36,512.18,511.98,511.79,511.60,511.40,511.21,511.02,510.82,510.63,510.44,510.24,510.04,509.82,509.73,509.88,510.14,510.37,510.60,510.83,511.10,511.40,511.63,511.93,512.19,512.44,512.74,512.98,513.27,513.55,513.79,514.10,514.34,514.62,514.89,515.03,515.13,515.21,515.29,515.41,515.53,515.64,515.72,515.75,515.78,515.76,515.74,515.74,515.74,515.74,515.74,515.74,515.74,515.74,515.74,515.76,515.78,515.75,515.74,515.69,515.63,515.59,515.52,515.41,515.30,515.19,515.11,515.00
504.47,504.55,504.60,504.61,504.68,504.70,504.73,504.81,504.87,504.90,505.14,505.65,506.23,506.31,506.27,506.22,506.20,506.13,506.06,506.02,506.00,505.92,505.85,505.82,505.79,505.74,505.72,505.65,505.59,505.53,505.51,505.45,505.38,505.32,505.31,505.24,505.21,505.18,505.11,505.03,505.01,504.93,504.77,504.55,504.31,504.17,504.07,503.94,503.87,504.11,504.43,504.70,505.09,505.60,506.23,506.91,507.60,508.24,508.77,509.28,509.77,510.14,510.45,510.74,511.04,511.35,511.65,511.89,512.05,512.20,512.30,512.42,512.54,512.62,512.70,512.78,512.86,512.96,513.09,513.18,513.26,513.35,513.39,513.26,513.15,513.04,512.88,512.72,512.56,512.41,512.23,512.01,511.85,511.69,511.51,511.29,511.13,510.97,510.78,510.61,510.66,510.98,511.17,511.25,511.31,511.31,511.32,511.33,511.34,511.34,511.39,511.42,511.42,511.42,511.42,511.43,511.46,511.51,511.52,511.58,511.62,511.64,511.71,511.72,511.76,511.81,511.83,511.89,511.92,511.95,512.01,512.02,512.02,512.07,512.12,512.13,512.20,512.22,512.25,512.30,512.32,512.37,512.41,512.43,512.50,512.59,512.71,512.83,512.91,513.00,513.13,513.24,513.33,513.39,513.41,513.41,513.41,513.41,513.41,513.41,513.41,513.41,513.41,513.41,513.41,513.41,513.41,513.41,513.41,513.41,513.41,513.41,513.41,513.41,513.41,513.41,513.41,513.41,513.41,513.41,513.41,513.41,513.41,513.37,513.17,512.99,512.79,512.58,512.41,512.20,512.01,511.83,511.62,511.44,511.24,511.04,510.87,510.65,510.48,510.28,510.07,509.91,509.75,509.85,510.08,510.32,510.55,510.78,511.04,511.32,511.57,511.86,512.13,512.38,512.67,512.92,513.21,513.48,513.73,514.02,514.26,514.54,514.81,514.98,515.07,515.15,515.25,515.38,515.48,515.62,515.74,515.83,515.89,515.91,515.92,515.93,515.93,515.93,515.93,515.93,515.93,515.93,515.93,515.96,515.99,515.91,515.89,515.80,515.67,515.60,515.52,515.38,515.27,515.19,515.11,514.97
504.50,504.55,504.60,504.61,504.68,504.70,504.73,504.80,504.82,504.87,505.12,505.62,506.32,506.39,506.37,506.33,506.27,506.20,506.16,506.13,506.06,505.99,505.96,505.92,505.87,505.85,505.79,505.72,505.67,505.64,505.58,505.51,505.46,505.44,505.38,505.30,505.24,505.19,505.17,505.09,505.03,504.96,504.84,504.67,504.45,504.31,504.22,504.14,504.11,504.29,504.57,504.88,505.32,505.84,506.47,507.16,507.85,508.53,509.15,509.67,510.07,510.30,510.50,510.72,510.98,511.28,511.60,511.88,512.12,512.27,512.41,512.52,512.61,512.68,512.76,512.88,512.99,513.07,513.16,513.25,513.36,513.48,513.52,513.39,513.25,513.10,512.94,512.73,512.57,512.41,512.23,512.01,511.85,511.70,511.51,511.29,511.13,510.98,510.78,510.65,510.83,511.13,511.33,511.44,511.45,511.45,511.45,511.48,511.52,511.53,511.54,511.55,511.55,511.55,511.55,511.59,511.64,511.65,511.65,511.71,511.75,511.77,511.84,511.85,511.87,511.90,511.95,511.97,512.02,512.06,512.09,512.14,512.15,512.19,512.25,512.26,512.33,512.35,512.36,512.38,512.44,512.47,512.50,512.56,512.58,512.70,512.81,512.90,512.98,513.12,513.22,513.33,513.45,513.47,513.48,513.48,513.48,513.48,513.48,513.48,513.48,513.48,513.48,513.48,513.48,513.48,513.48,513.48,513.48,513.48,513.48,513.48,513.48,513.48,513.48,513.48,513.48,513.48,513.48,513.48,513.48,513.48,513.48,513.44,513.23,513.01,512.82,512.63,512.43,512.25,512.05,511.85,511.67,511.46,511.27,511.09,510.88,510.70,510.50,510.31,510.14,509.98,509.77,509.85,510.08,510.31,510.54,510.78,511.02,511.26,511.50,511.80,512.06,512.30,512.56,512.84,513.14,513.42,513.66,513.90,514.14,514.41,514.71,514.96,515.07,515.15,515.24,515.34,515.47,515.62,515.76,515.88,515.97,516.03,516.08,516.13,516.13,516.13,516.13,516.13,516.13,516.13,516.13,516.11,516.06,515.98,515.92,515.80,515.67,515.60,515.52,515.38,515.26,515.19,515.11,514.96
504.50,504.55,504.60,504.61,504.68,504.70,504.73,504.80,504.81,504.87,505.11,505.62,506.40,506.50,506.46,506.42,506.34,506.29,506.26,506.20,506.13,506.09,506.05,506.00,505.94,505.93,505.87,505.78,505.73,505.69,505.65,505.57,505.52,505.48,505.40,505.36,505.29,505.23,505.19,505.12,505.06,505.00,504.92,504.79,504.60,504.46,504.37,504.33,504.35,504.50,504.75,505.09,505.60,506.14,506.75,507.41,508.08,508.74,509.38,509.91,510.27,510.47,510.64,510.83,511.06,511.31,511.56,511.84,512.12,512.33,512.50,512.60,512.67,512.75,512.86,512.98,513.08,513.16,513.27,513.35,513.46,513.56,513.61,513.45,513.29,513.13,512.95,512.73,512.57,512.41,512.23,512.01,511.85,511.70,511.52,511.32,511.14,510.98,510.80,510.70,510.96,511.30,511.50,511.59,511.62,511.62,511.62,511.64,511.68,511.68,511.68,511.70,511.72,511.72,511.72,511.75,511.78,511.78,511.78,511.82,511.86,511.89,511.94,511.97,511.98,512.00,512.07,512.08,512.14,512.18,512.19,512.26,512.28,512.31,512.35,512.38,512.42,512.46,512.48,512.49,512.56,512.58,512.62,512.68,512.69,512.79,512.91,513.00,513.09,513.20,513.32,513.43,513.53,513.54,513.54,513.54,513.54,513.54,513.54,513.56,513.58,513.58,513.58,513.58,513.58,513.58,513.58,513.58,513.58,513.58,513.58,513.58,513.58,513.58,513.58,513.58,513.58,513.58,513.58,513.58,513.58,513.58,513.57,513.50,513.29,513.06,512.85,512.66,512.46,512.27,512.08,511.89,511.70,511.50,511.31,511.12,510.92,510.73,510.53,510.36,510.20,510.04,509.85,509.87,510.04,510.27,510.50,510.74,510.97,511.20,511.44,511.70,511.98,512.23,512.47,512.77,513.05,513.31,513.55,513.78,514.03,514.32,514.63,514.88,515.02,515.11,515.21,515.35,515.50,515.66,515.81,515.95,516.03,516.11,516.16,516.21,516.24,516.27,516.30,516.32,516.31,516.29,516.26,516.20,516.13,516.04,515.94,515.82,515.70,515.60,515.52,515.40,515.31,515.23,515.15,515.03
504.51,504.55,504.60,504.62,504.68,504.71,504.74,504.80,504.81,504.87,505.10,505.62,506.47,506.60,506.55,506.48,506.41,506.39,506.34,506.27,506.21,506.19,506.12,506.04,506.00,505.99,505.91,505.84,505.76,505.70,505.68,505.63,505.56,505.48,505.41,505.39,505.34,505.27,505.19,505.12,505.09,505.05,504.97,504.88,504.74,504.61,504.51,504.52,504.58,504.70,504.93,505.31,505.88,506.43,507.00,507.60,508.23,508.86,509.48,510.02,510.40,510.65,510.83,511.02,511.23,511.40,511.57,511.80,512.10,512.38,512.55,512.66,512.74,512.83,512.97,513.06,513.15,513.25,513.38,513.47,513.55,513.64,513.66,513.47,513.29,513.13,512.96,512.74,512.57,512.41,512.24,512.02,511.85,511.70,511.54,511.37,511.14,510.98,510.83,510.80,511.10,511.47,511.66,511.74,511.80,511.80,511.80,511.80,511.81,511.82,511.82,511.86,511.91,511.91,511.91,511.91,511.91,511.91,511.91,511.91,511.95,512.01,512.02,512.08,512.11,512.13,512.20,512.21,512.26,512.30,512.32,512.39,512.41,512.41,512.43,512.50,512.51,512.57,512.61,512.62,512.69,512.71,512.75,512.80,512.81,512.88,513.00,513.13,513.21,513.29,513.42,513.53,513.60,513.61,513.61,513.61,513.61,513.62,513.62,513.66,513.70,513.70,513.70,513.70,513.70,513.70,513.70,513.70,513.70,513.70,513.70,513.70,513.70,513.70,513.70,513.70,513.70,513.70,513.70,513.70,513.70,513.70,513.67,513.57,513.36,513.13,512.90,512.68,512.51,512.30,512.11,511.93,511.72,511.54,511.34,511.14,510.97,510.75,510.57,510.41,510.27,510.12,509.96,509.90,509.99,510.22,510.45,510.69,510.92,511.14,511.38,511.62,511.89,512.18,512.41,512.70,512.95,513.19,513.42,513.65,513.94,514.25,514.54,514.78,514.95,515.06,515.19,515.41,515.57,515.73,515.88,516.01,516.10,516.17,516.20,516.23,516.32,516.39,516.45,516.50,516.48,516.41,516.34,516.26,516.19,516.09,515.96,515.86,515.75,515.62,515.54,515.46,515.38,515.31,515.24,515.16
504.55,504.59,504.62,504.67,504.69,504.74,504.78,504.80,504.81,504.87,505.08,505.60,506.57,506.69,506.62,506.54,506.47,506.41,506.38,506.33,506.26,506.21,506.13,506.05,506.00,505.99,505.92,505.85,505.77,505.69,505.64,505.61,505.56,505.48,505.40,505.35,505.31,505.27,505.19,505.12,505.06,505.02,504.96,504.79,504.72,504.67,504.66,504.70,504.74,504.81,505.06,505.54,506.05,506.54,507.01,507.52,508.18,508.81,509.46,510.05,510.47,510.77,511.00,511.19,511.38,511.58,511.74,511.93,512.14,512.39,512.60,512.73,512.82,512.95,513.05,513.13,513.24,513.36,513.46,513.54,513.65,513.75,513.74,513.53,513.32,513.13,512.97,512.79,512.59,512.41,512.25,512.07,511.86,511.70,511.54,511.37,511.14,510.98,510.90,510.98,511.29,511.61,511.79,511.87,511.93,511.94,511.94,511.94,511.95,512.00,512.01,512.02,512.04,512.04,512.04,512.04,512.04,512.04,512.04,512.04,512.08,512.14,512.14,512.21,512.24,512.26,512.33,512.34,512.36,512.39,512.44,512.47,512.52,512.54,512.56,512.63,512.64,512.69,512.74,512.75,512.82,512.84,512.85,512.88,512.93,513.01,513.10,513.21,513.34,513.42,513.51,513.61,513.67,513.67,513.67,513.67,513.68,513.73,513.74,513.75,513.77,513.77,513.77,513.77,513.77,513.77,513.77,513.77,513.77,513.77,513.77,513.77,513.77,513.77,513.77,513.77,513.77,513.77,513.77,513.77,513.77,513.77,513.72,513.59,513.41,513.19,512.96,512.73,512.52,512.34,512.15,511.94,511.76,511.56,511.37,511.18,510.98,510.80,510.60,510.45,510.33,510.18,510.02,509.94,509.98,510.22,510.44,510.68,510.91,511.14,511.38,511.65,511.92,512.17,512.40,512.60,512.82,513.06,513.29,513.52,513.81,514.12,514.42,514.70,514.93,515.09,515.25,515.47,515.63,515.79,515.94,516.08,516.16,516.19,516.23,516.31,516.43,516.52,516.55,516.57,516.56,516.49,516.40,516.33,516.24,516.11,516.01,515.92,515.81,515.68,515.65,515.58,515.50,515.44,515.41,515.34
504.61,504.63,504.66,504.73,504.74,504.77,504.81,504.84,504.84,504.90,505.19,505.79,506.68,506.76,506.69,506.61,506.53,506.45,506.41,506.36,506.29,506.21,506.13,506.05,505.99,505.96,505.91,505.85,505.77,505.69,505.62,505.58,505.52,505.45,505.37,505.32,505.28,505.24,505.16,505.08,505.03,504.97,504.90,504.79,504.79,504.80,504.82,504.87,504.90,504.96,505.17,505.59,506.04,506.51,506.94,507.42,508.11,508.74,509.39,509.99,510.44,510.78,511.08,511.32,511.50,511.71,511.89,512.06,512.24,512.46,512.67,512.81,512.92,513.04,513.15,513.23,513.33,513.46,513.56,513.64,513.75,513.84,513.80,513.56,513.33,513.13,512.98,512.82,512.60,512.41,512.26,512.10,511.87,511.70,511.54,511.37,511.14,510.98,510.97,511.15,511.48,511.79,511.95,512.02,512.07,512.10,512.11,512.11,512.12,512.16,512.17,512.17,512.17,512.17,512.19,512.20,512.20,512.20,512.17,512.17,512.21,512.27,512.27,512.32,512.35,512.38,512.43,512.46,512.47,512.50,512.56,512.58,512.63,512.67,512.69,512.76,512.77,512.81,512.85,512.88,512.92,512.95,512.97,512.99,513.06,513.14,513.22,513.31,513.43,513.54,513.63,513.69,513.74,513.76,513.77,513.77,513.78,513.83,513.84,513.84,513.84,513.84,513.84,513.84,513.84,513.84,513.84,513.84,513.84,513.84,513.84,513.84,513.84,513.84,513.84,513.84,513.84,513.84,513.84,513.84,513.84,513.84,513.78,513.62,513.44,513.22,513.00,512.79,512.56,512.38,512.18,511.98,511.79,511.59,511.40,511.21,511.02,510.83,510.63,510.48,510.36,510.21,510.08,509.99,510.01,510.22,510.44,510.70,510.94,511.18,511.41,511.75,512.11,512.40,512.61,512.79,512.99,513.20,513.42,513.58,513.84,514.15,514.48,514.78,515.00,515.15,515.31,515.51,515.69,515.85,516.00,516.14,516.22,516.24,516.29,516.40,516.53,516.61,516.65,516.66,516.62,516.55,516.47,516.38,516.27,516.15,516.06,515.99,515.90,515.81,515.78,515.73,515.67,515.60,515.57,515.50
504.67,504.70,504.73,504.79,504.80,504.81,504.84,504.91,504.92,504.99,505.41,506.12,506.77,506.82,506.75,506.67,506.59,506.51,506.45,506.37,506.29,506.22,506.14,506.06,505.99,505.93,505.91,505.85,505.77,505.70,505.62,505.55,505.48,505.40,505.32,505.31,505.25,505.18,505.10,505.03,505.00,504.94,504.85,504.89,504.95,504.99,505.00,505.01,505.08,505.15,505.26,505.50,505.92,506.38,506.84,507.36,508.04,508.67,509.29,509.86,510.31,510.70,511.08,511.39,511.62,511.79,512.00,512.18,512.36,512.58,512.75,512.91,513.03,513.13,513.26,513.36,513.44,513.54,513.67,513.77,513.85,513.90,513.86,513.59,513.33,513.13,512.98,512.82,512.60,512.42,512.26,512.10,511.88,511.70,511.54,511.37,511.15,510.99,511.03,511.29,511.66,511.98,512.14,512.19,512.21,512.27,512.29,512.29,512.29,512.30,512.31,512.31,512.31,512.32,512.37,512.39,512.39,512.38,512.32,512.30,512.34,512.40,512.40,512.40,512.45,512.50,512.51,512.58,512.60,512.63,512.69,512.70,512.76,512.80,512.82,512.88,512.90,512.90,512.93,513.00,513.01,513.06,513.10,513.12,513.19,513.26,513.34,513.42,513.51,513.65,513.75,513.80,513.82,513.88,513.89,513.89,513.89,513.90,513.90,513.90,513.90,513.90,513.90,513.90,513.90,513.90,513.90,513.90,513.90,513.90,513.90,513.90,513.90,513.90,513.90,513.90,513.90,513.90,513.90,513.90,513.90,513.90,513.85,513.68,513.46,513.23,513.03,512.85,512.62,512.40,512.21,512.02,511.81,511.64,511.43,511.24,511.06,510.85,510.67,510.52,510.37,510.22,510.13,510.06,510.07,510.24,510.46,510.74,511.01,511.25,511.50,511.92,512.41,512.83,513.01,513.23,513.41,513.60,513.78,513.82,514.01,514.32,514.67,514.96,515.14,515.25,515.36,515.53,515.75,515.91,516.07,516.21,516.28,516.30,516.39,516.52,516.60,516.67,516.75,516.76,516.69,516.62,516.54,516.43,516.29,516.22,516.14,516.06,516.01,515.98,515.92,515.90,515.86,515.79,515.72,515.64
504.75,504.76,504.78,504.86,504.87,504.90,504.96,505.03,505.09,505.24,505.61,506.17,506.79,506.87,506.81,506.74,506.66,506.58,506.50,506.43,506.35,506.27,506.20,506.12,506.06,506.03,505.98,505.91,505.83,505.75,505.68,505.60,505.52,505.45,505.37,505.32,505.25,505.17,505.10,505.02,504.96,504.93,504.94,504.96,505.03,505.09,505.15,505.20,505.27,505.31,505.37,505.52,505.87,506.23,506.70,507.29,507.93,508.55,509.13,509.67,510.13,510.57,510.96,511.35,511.69,511.90,512.09,512.28,512.48,512.66,512.87,513.04,513.16,513.24,513.35,513.47,513.57,513.65,513.76,513.88,513.98,514.01,513.93,513.64,513.39,513.17,512.98,512.82,512.64,512.45,512.26,512.10,511.92,511.73,511.54,511.38,511.20,511.08,511.17,511.47,511.80,512.11,512.28,512.35,512.39,512.42,512.43,512.43,512.43,512.43,512.47,512.49,512.49,512.50,512.52,512.53,512.53,512.51,512.45,512.43,512.47,512.53,512.53,512.53,512.58,512.63,512.64,512.71,512.73,512.74,512.77,512.82,512.85,512.89,512.94,512.97,513.01,513.03,513.06,513.12,513.13,513.19,513.23,513.25,513.32,513.35,513.41,513.50,513.63,513.74,513.86,513.93,513.93,513.96,513.97,513.97,513.97,513.97,513.97,513.97,513.97,513.97,513.97,513.97,513.97,513.97,513.97,513.97,513.97,513.97,513.97,513.97,513.97,513.97,513.97,513.97,513.97,513.99,514.03,514.03,514.03,514.03,513.95,513.75,513.52,513.29,513.07,512.87,512.68,512.46,512.25,512.05,511.86,511.66,511.47,511.28,511.08,510.90,510.74,510.58,510.42,510.29,510.24,510.21,510.23,510.35,510.52,510.80,511.08,511.32,511.66,512.15,512.68,513.15,513.44,513.68,513.86,514.00,514.11,514.13,514.31,514.60,514.91,515.10,515.23,515.35,515.48,515.64,515.82,515.98,516.13,516.27,516.30,516.39,516.49,516.58,516.66,516.74,516.82,516.83,516.75,516.68,516.60,516.51,516.41,516.34,516.30,516.24,516.18,516.13,516.10,516.06,516.02,515.98,515.90,515.83
504.83,504.85,504.88,504.95,504.98,505.06,505.15,505.23,505.33,505.50,505.80,506.24,506.81,506.94,506.91,506.83,506.75,506.68,506.60,506.52,506.44,506.37,506.29,506.21,506.15,506.12,506.05,505.98,505.89,505.82,505.75,505.67,505.59,505.51,505.44,505.36,505.28,505.20,505.13,505.07,505.02,505.01,505.06,505.09,505.16,505.22,505.28,505.36,505.44,505.48,505.51,505.60,505.83,506.12,506.58,507.17,507.75,508.34,508.90,509.43,509.93,510.40,510.82,511.25,511.66,511.95,512.17,512.38,512.58,512.76,512.96,513.15,513.29,513.37,513.44,513.57,513.67,513.75,513.85,513.98,514.08,514.11,513.99,513.71,513.44,513.19,512.98,512.82,512.66,512.47,512.26,512.10,511.95,511.74,511.54,511.38,511.24,511.18,511.32,511.63,511.96,512.27,512.44,512.50,512.55,512.56,512.58,512.59,512.59,512.59,512.63,512.66,512.66,512.66,512.68,512.67,512.66,512.64,512.58,512.56,512.58,512.63,512.66,512.68,512.72,512.76,512.76,512.81,512.85,512.86,512.88,512.94,512.96,513.00,513.06,513.07,513.13,513.16,513.18,513.23,513.25,513.30,513.34,513.37,513.42,513.45,513.50,513.60,513.73,513.83,513.96,514.03,514.03,514.03,514.03,514.03,514.03,514.03,514.03,514.03,514.04,514.06,514.06,514.06,514.06,514.06,514.06,514.06,514.06,514.06,514.06,514.06,514.06,514.06,514.06,514.06,514.06,514.09,514.13,514.13,514.13,514.11,514.02,513.79,513.58,513.35,513.12,512.90,512.72,512.51,512.29,512.07,511.89,511.69,511.50,511.31,511.12,510.95,510.80,510.64,510.51,510.43,510.42,510.40,510.41,510.48,510.63,510.88,511.14,511.41,511.84,512.38,512.94,513.44,513.85,514.11,514.29,514.39,514.41,514.42,514.61,514.86,515.10,515.24,515.33,515.46,515.60,515.74,515.89,516.04,516.19,516.30,516.36,516.48,516.58,516.65,516.73,516.83,516.91,516.92,516.83,516.77,516.69,516.62,516.55,516.50,516.46,516.42,516.36,516.29,516.26,516.22,516.18,516.14,516.07,515.99
504.91,504.95,505.02,505.10,505.17,505.29,505.41,505.50,505.64,505.74,505.99,506.40,506.85,507.03,507.03,506.96,506.88,506.80,506.73,506.64,506.57,506.49,506.42,506.34,506.26,506.19,506.12,506.04,505.97,505.88,505.80,505.73,505.65,505.57,505.50,505.42,505.35,505.27,505.21,505.20,505.19,505.19,505.20,505.27,505.35,505.39,505.42,505.49,505.57,505.64,505.69,505.71,505.81,506.07,506.48,507.00,507.49,508.03,508.58,509.15,509.73,510.21,510.67,511.09,511.50,511.92,512.25,512.47,512.66,512.88,513.05,513.25,513.42,513.50,513.58,513.66,513.74,513.83,513.97,514.07,514.15,514.17,514.06,513.78,513.48,513.20,512.98,512.82,512.66,512.47,512.26,512.10,511.95,511.74,511.54,511.38,511.24,511.26,511.45,511.78,512.14,512.46,512.63,512.68,512.69,512.69,512.75,512.78,512.78,512.78,512.78,512.79,512.79,512.80,512.86,512.84,512.79,512.77,512.71,512.69,512.69,512.72,512.78,512.85,512.88,512.89,512.89,512.90,512.95,512.99,513.00,513.07,513.09,513.13,513.18,513.20,513.26,513.29,513.29,513.31,513.38,513.39,513.43,513.49,513.50,513.56,513.63,513.71,513.81,513.94,514.05,514.10,514.10,514.10,514.10,514.10,514.10,514.10,514.10,514.10,514.13,514.18,514.18,514.18,514.18,514.18,514.18,514.18,514.18,514.18,514.18,514.18,514.18,514.18,514.18,514.18,514.18,514.19,514.19,514.19,514.19,514.15,514.02,513.80,513.63,513.41,513.18,512.95,512.74,512.56,512.35,512.13,511.91,511.74,511.53,511.34,511.17,511.02,510.87,510.72,510.62,510.67,510.68,510.63,510.59,510.62,510.76,510.97,511.20,511.50,512.02,512.62,513.18,513.72,514.21,514.49,514.66,514.72,514.67,514.68,514.86,515.05,515.23,515.37,515.46,515.59,515.72,515.82,515.96,516.12,516.24,516.33,516.46,516.56,516.64,516.72,516.81,516.94,517.04,517.03,516.91,516.89,516.83,516.75,516.69,516.67,516.62,516.58,516.55,516.48,516.41,516.38,516.35,516.28,516.21,516.13
