518.54,518.50,518.48,518.48,518.44,518.40,518.38,518.38,518.38,518.28,518.09,517.89,517.66,517.48,517.30,517.08,516.94,516.87,516.83,516.80,516.76,516.74,516.73,516.70,516.65,516.62,516.58,516.55,516.54,516.52,516.47,516.40,516.33,516.25,516.13,516.04,515.93,515.79,515.70,515.67,515.50,515.09,514.49,513.78,512.96,512.09,511.25,510.51,510.03,509.87,510.17,511.03,512.08,513.22,514.30,514.93,515.11,515.18,515.25,515.28,515.22,515.14,515.03,514.87,514.63,514.36,514.11,513.88,513.65,513.50,513.60,513.82,514.05,514.27,514.53,514.77,514.93,514.91,514.61,514.19,513.73,513.26,512.80,512.44,512.13,511.81,511.51,511.20,510.89,510.65,510.68,510.83,510.95,510.85,510.42,510.01,509.70,510.33,512.16,514.64,515.26,515.47,515.68,515.79,515.73,515.60,515.48,515.41,515.36,515.28,515.24,515.24,515.25,515.30,515.33,515.34,515.34,515.32,515.27,515.15,514.99,514.91,514.83,514.77,514.72,514.64,514.61,514.54,514.47,514.40,514.34,514.27,514.20,514.12,514.05,514.01,513.95,513.87,513.88,514.29,514.86,515.27,515.44,515.45,515.46,515.52,515.60,515.67,515.75,515.83,515.90,515.98,516.06,516.14,516.22,516.29,516.37,516.44,516.52,516.60,516.67,516.67,516.62,516.54,516.46,516.38,516.31,516.27,516.27,516.24,516.17,516.09,516.01,515.94,515.89,515.82,515.74,515.67,515.60,515.59,515.53,515.46,515.38,515.30,515.25,515.23,515.28,515.42,515.58,515.74,515.89,516.05,516.20,516.36,516.50,516.66,516.78,516.87,516.95,517.01,517.02,517.08,517.11,517.14,517.20,517.21,517.15,517.07,517.01,517.01,517.01,517.01,516.99,516.92,516.88,516.88,516.88,516.88,516.88,516.88,516.81,516.69,516.62,516.54,516.49,516.45,516.38,516.38,516.31,516.27,516.26,516.22,516.16,516.10,515.85,515.21,515.11,515.11,515.11,515.11,515.11,515.07,515.05,515.05,515.05,515.02,515.04,515.08,515.11,515.11,515.09,515.05,514.99,514.91,514.80,514.70
518.70,518.67,518.62,518.61,518.60,518.57,518.51,518.50,518.50,518.38,518.18,518.01,517.79,517.60,517.43,517.23,517.13,517.10,517.07,517.02,517.01,517.00,516.96,516.91,516.90,516.84,516.81,516.80,516.79,516.73,516.71,516.66,516.59,516.51,516.44,516.36,516.25,516.10,515.99,515.75,515.38,514.86,514.18,513.48,512.66,511.77,510.94,510.18,509.90,510.09,510.79,511.88,512.97,514.06,514.92,515.08,515.17,515.25,515.30,515.29,515.22,515.14,515.03,514.86,514.63,514.40,514.18,513.96,513.77,513.71,513.75,513.89,514.14,514.42,514.67,514.87,515.00,514.98,514.72,514.30,513.85,513.41,512.98,512.78,512.59,512.28,511.96,511.65,511.35,511.12,511.13,511.20,511.30,511.18,510.67,510.20,509.75,510.19,511.91,514.60,515.30,515.54,515.77,515.95,515.92,515.80,515.68,515.62,515.61,515.55,515.52,515.52,515.52,515.52,515.56,515.60,515.57,515.50,515.36,515.18,514.99,514.91,514.84,514.80,514.77,514.69,514.62,514.54,514.47,514.41,514.39,514.33,514.25,514.18,514.10,514.03,513.96,513.90,513.99,514.69,515.13,515.45,515.69,515.70,515.65,515.66,515.73,515.80,515.88,515.96,516.03,516.11,516.19,516.26,516.35,516.42,516.50,516.58,516.65,516.73,516.80,516.81,516.75,516.67,516.59,516.51,516.44,516.41,516.43,516.48,516.43,516.36,516.29,516.22,516.20,516.14,516.07,515.99,515.92,515.91,515.86,515.78,515.70,515.63,515.61,515.57,515.56,515.69,515.84,516.00,516.15,516.30,516.46,516.61,516.76,516.90,517.00,517.07,517.14,517.20,517.21,517.28,517.30,517.33,517.40,517.40,517.35,517.28,517.22,517.21,517.20,517.20,517.17,517.11,517.04,517.01,517.01,517.01,517.01,517.01,516.96,516.88,516.80,516.72,516.65,516.58,516.51,516.50,516.44,516.40,516.40,516.38,516.27,516.16,515.94,515.40,515.31,515.30,515.30,515.30,515.30,515.30,515.29,515.29,515.29,515.24,515.22,515.24,515.30,515.29,515.23,515.12,514.99,514.91,514.84,514.76
518.83,518.83,518.79,518.75,518.74,518.72,518.69,518.64,518.63,518.51,518.30,518.14,517.92,517.74,517.57,517.41,517.37,517.33,517.29,517.26,517.26,517.22,517.18,517.16,517.15,517.09,517.07,517.05,517.00,516.97,516.96,516.92,516.85,516.78,516.75,516.65,516.50,516.29,516.06,515.65,515.15,514.55,513.81,513.11,512.34,511.52,510.74,510.10,510.06,510.58,511.58,512.72,513.82,514.63,515.08,515.16,515.24,515.31,515.35,515.29,515.22,515.14,515.03,514.85,514.59,514.43,514.30,514.16,514.04,513.98,513.91,513.97,514.25,514.51,514.75,514.94,515.06,515.04,514.74,514.32,513.90,513.62,513.44,513.31,513.10,512.78,512.42,512.11,511.83,511.63,511.63,511.66,511.60,511.35,510.86,510.35,509.87,510.16,511.70,514.56,515.31,515.57,515.84,516.04,516.09,516.03,515.93,515.87,515.86,515.85,515.83,515.83,515.83,515.83,515.81,515.78,515.71,515.54,515.34,515.15,514.99,514.91,514.88,514.84,514.78,514.70,514.62,514.54,514.49,514.46,514.41,514.34,514.26,514.18,514.11,514.07,514.01,514.07,514.40,514.96,515.34,515.64,515.90,515.95,515.89,515.88,515.91,515.94,516.01,516.09,516.16,516.24,516.32,516.39,516.48,516.55,516.63,516.71,516.78,516.86,516.93,516.93,516.88,516.80,516.72,516.64,516.61,516.60,516.62,516.69,516.72,516.68,516.60,516.54,516.53,516.47,516.39,516.32,516.25,516.23,516.18,516.11,516.03,515.95,515.93,515.92,515.91,515.96,516.10,516.25,516.41,516.57,516.72,516.84,516.96,517.11,517.24,517.29,517.34,517.40,517.40,517.47,517.50,517.52,517.59,517.60,517.58,517.53,517.46,517.41,517.36,517.33,517.33,517.29,517.22,517.20,517.20,517.20,517.20,517.16,517.10,517.02,516.94,516.86,516.79,516.71,516.64,516.63,516.58,516.54,516.52,516.47,516.38,516.26,516.04,515.63,515.51,515.50,515.50,515.50,515.50,515.50,515.50,515.50,515.50,515.48,515.46,515.47,515.48,515.39,515.27,515.11,514.94,514.91,514.88,514.85
518.96,518.96,518.95,518.91,518.88,518.86,518.85,518.80,518.75,518.63,518.42,518.24,518.04,517.87,517.72,517.61,517.59,517.55,517.53,517.52,517.50,517.45,517.42,517.42,517.39,517.34,517.31,517.28,517.23,517.22,517.20,517.14,517.04,516.91,516.84,516.71,516.54,516.31,515.97,515.47,514.89,514.23,513.48,512.76,512.02,511.27,510.54,510.14,510.47,511.31,512.47,513.57,514.46,514.97,515.14,515.23,515.30,515.38,515.40,515.30,515.22,515.14,515.03,514.86,514.64,514.55,514.50,514.44,514.36,514.26,514.11,514.10,514.38,514.61,514.85,515.04,515.15,515.08,514.78,514.41,514.12,514.02,514.01,513.87,513.61,513.27,512.91,512.59,512.31,512.13,512.13,512.01,511.76,511.40,510.92,510.42,509.94,510.25,511.79,514.58,515.31,515.57,515.85,516.09,516.23,516.24,516.19,516.13,516.13,516.13,516.13,516.13,516.12,516.10,516.01,515.89,515.78,515.55,515.32,515.12,514.97,514.91,514.90,514.85,514.78,514.70,514.65,514.58,514.52,514.49,514.41,514.34,514.27,514.22,514.14,514.11,514.11,514.30,514.78,515.19,515.53,515.84,516.10,516.20,516.15,516.13,516.13,516.13,516.15,516.22,516.29,516.37,516.45,516.52,516.60,516.68,516.76,516.83,516.91,516.99,517.05,517.06,517.00,516.93,516.85,516.77,516.76,516.78,516.82,516.92,517.00,516.99,516.93,516.89,516.86,516.79,516.72,516.64,516.60,516.56,516.51,516.43,516.36,516.30,516.27,516.26,516.25,516.24,516.36,516.51,516.66,516.82,516.96,517.06,517.18,517.34,517.46,517.50,517.53,517.59,517.60,517.66,517.69,517.72,517.79,517.80,517.80,517.76,517.68,517.61,517.53,517.50,517.50,517.49,517.42,517.38,517.36,517.36,517.36,517.30,517.23,517.14,517.07,516.99,516.91,516.84,516.77,516.76,516.71,516.66,516.64,516.55,516.47,516.36,516.17,515.84,515.74,515.72,515.72,515.70,515.69,515.69,515.69,515.69,515.69,515.69,515.69,515.68,515.64,515.53,515.38,515.21,515.06,515.03,515.03,515.04
519.09,519.09,519.09,519.08,519.03,519.00,518.99,518.98,518.87,518.72,518.54,518.33,518.15,518.00,517.87,517.80,517.79,517.78,517.78,517.76,517.71,517.69,517.68,517.66,517.61,517.59,517.54,517.49,517.48,517.47,517.40,517.28,517.12,516.90,516.69,516.51,516.35,516.15,515.73,515.21,514.60,513.91,513.20,512.46,511.73,511.02,510.40,510.35,511.14,512.28,513.42,514.38,514.83,515.07,515.20,515.28,515.37,515.44,515.44,515.31,515.23,515.15,515.04,514.90,514.81,514.78,514.77,514.74,514.66,514.52,514.33,514.28,514.52,514.74,514.97,515.16,515.26,515.11,514.84,514.61,514.52,514.61,514.62,514.41,514.09,513.73,513.41,513.10,512.80,512.57,512.56,512.22,511.78,511.33,510.87,510.40,509.94,510.48,512.30,514.67,515.31,515.55,515.81,516.09,516.32,516.43,516.45,516.39,516.38,516.38,516.38,516.38,516.37,516.30,516.13,515.93,515.78,515.55,515.32,515.09,514.91,514.90,514.89,514.85,514.78,514.71,514.69,514.63,514.56,514.49,514.41,514.34,514.30,514.27,514.19,514.14,514.26,514.58,515.07,515.41,515.73,516.03,516.31,516.45,516.42,516.39,516.38,516.38,516.32,516.35,516.43,516.50,516.58,516.65,516.73,516.81,516.89,516.97,517.04,517.12,517.18,517.19,517.13,517.06,516.98,516.90,516.89,516.93,517.03,517.17,517.25,517.27,517.28,517.26,517.19,517.12,517.04,516.99,516.96,516.91,516.83,516.76,516.69,516.67,516.62,516.59,516.57,516.52,516.63,516.77,516.92,517.07,517.16,517.29,517.44,517.58,517.67,517.69,517.73,517.79,517.79,517.86,517.89,517.91,517.98,517.99,517.99,517.96,517.88,517.81,517.72,517.69,517.69,517.67,517.61,517.54,517.50,517.50,517.50,517.43,517.35,517.27,517.20,517.12,517.04,516.97,516.90,516.89,516.83,516.79,516.75,516.63,516.53,516.45,516.31,516.04,515.98,515.98,515.95,515.90,515.89,515.89,515.89,515.89,515.89,515.89,515.89,515.86,515.79,515.71,515.58,515.45,515.36,515.30,515.29,515.33
519.22,519.22,519.22,519.22,519.20,519.16,519.12,519.12,519.00,518.84,518.67,518.45,518.28,518.15,518.07,518.05,518.05,518.01,517.98,517.97,517.95,517.94,517.92,517.87,517.85,517.84,517.79,517.74,517.72,517.59,517.42,517.22,516.97,516.74,516.50,516.29,516.11,515.90,515.48,514.89,514.23,513.53,512.84,512.15,511.44,510.87,510.82,511.24,512.11,513.23,514.34,514.80,514.99,515.11,515.22,515.30,515.41,515.48,515.47,515.36,515.28,515.21,515.11,515.02,514.99,514.98,514.95,514.90,514.81,514.63,514.50,514.51,514.70,514.88,515.07,515.26,515.38,515.23,515.03,514.91,514.88,514.93,514.89,514.73,514.46,514.13,513.81,513.55,513.23,512.90,512.63,512.19,511.73,511.27,510.80,510.34,509.95,511.06,513.48,514.91,515.37,515.60,515.84,516.10,516.34,516.52,516.65,516.69,516.65,516.64,516.64,516.62,516.52,516.36,516.15,515.94,515.78,515.55,515.32,515.09,514.91,514.90,514.86,514.82,514.78,514.71,514.70,514.64,514.57,514.49,514.41,514.38,514.34,514.28,514.22,514.26,514.53,514.90,515.29,515.61,515.92,516.23,516.51,516.70,516.72,516.68,516.64,516.63,516.57,516.57,516.59,516.63,516.71,516.78,516.86,516.94,517.02,517.10,517.17,517.25,517.31,517.32,517.27,517.18,517.11,517.04,517.02,517.10,517.23,517.37,517.46,517.52,517.56,517.59,517.52,517.44,517.39,517.35,517.30,517.23,517.16,517.09,517.07,517.02,516.98,516.94,516.90,516.88,516.91,517.01,517.13,517.27,517.40,517.55,517.69,517.79,517.87,517.88,517.92,517.98,517.99,518.05,518.08,518.11,518.17,518.18,518.22,518.20,518.13,518.05,517.93,517.88,517.87,517.82,517.79,517.73,517.68,517.68,517.68,517.59,517.48,517.40,517.33,517.25,517.17,517.10,517.03,517.02,516.97,516.90,516.84,516.74,516.62,516.51,516.42,516.26,516.20,516.18,516.17,516.15,516.14,516.14,516.12,516.08,516.08,516.08,516.08,516.06,515.98,515.90,515.81,515.69,515.58,515.55,515.58,515.62
519.31,519.34,519.37,519.36,519.35,519.33,519.28,519.25,519.13,518.96,518.78,518.57,518.41,518.32,518.28,518.28,518.28,518.23,518.20,518.20,518.20,518.18,518.14,518.11,518.10,518.08,518.01,517.92,517.82,517.59,517.35,517.07,516.79,516.54,516.31,516.06,515.85,515.65,515.20,514.57,513.89,513.19,512.50,511.85,511.27,510.99,511.47,512.23,513.12,514.07,514.92,515.02,515.08,515.16,515.24,515.32,515.45,515.51,515.50,515.43,515.37,515.29,515.22,515.15,515.15,515.13,515.08,515.00,514.91,514.74,514.68,514.73,514.86,515.00,515.14,515.33,515.47,515.38,515.24,515.16,515.15,515.14,515.07,514.94,514.72,514.41,514.11,513.86,513.52,513.08,512.60,512.13,511.65,511.18,510.71,510.25,509.96,511.55,514.45,515.15,515.46,515.69,515.93,516.18,516.41,516.66,516.86,516.96,516.92,516.88,516.86,516.78,516.60,516.38,516.16,515.96,515.78,515.55,515.34,515.12,514.93,514.90,514.85,514.81,514.78,514.73,514.71,514.64,514.57,514.49,514.44,514.41,514.36,514.29,514.26,514.45,514.81,515.19,515.50,515.80,516.12,516.42,516.72,516.96,517.01,516.95,516.90,516.89,516.82,516.80,516.80,516.81,516.85,516.91,516.99,517.07,517.14,517.23,517.30,517.38,517.44,517.45,517.39,517.31,517.24,517.16,517.15,517.24,517.39,517.54,517.67,517.75,517.84,517.89,517.84,517.78,517.75,517.71,517.63,517.56,517.49,517.45,517.42,517.35,517.33,517.30,517.25,517.23,517.23,517.26,517.35,517.50,517.65,517.81,517.92,517.99,518.06,518.08,518.12,518.18,518.18,518.25,518.28,518.30,518.37,518.38,518.42,518.42,518.36,518.28,518.16,518.09,518.06,517.99,517.98,517.92,517.87,517.85,517.85,517.75,517.64,517.56,517.48,517.39,517.31,517.23,517.16,517.15,517.10,517.01,516.91,516.83,516.71,516.60,516.52,516.48,516.42,516.39,516.38,516.38,516.38,516.38,516.35,516.30,516.28,516.28,516.28,516.25,516.18,516.12,516.03,515.92,515.81,515.82,515.88,515.90
519.34,519.43,519.53,519.50,519.48,519.48,519.46,519.39,519.26,519.07,518.86,518.70,518.54,518.48,518.47,518.47,518.47,518.47,518.46,518.46,518.45,518.40,518.37,518.36,518.34,518.28,518.15,517.96,517.70,517.46,517.17,516.90,516.65,516.36,516.12,515.84,515.59,515.38,514.88,514.28,513.62,512.93,512.24,511.57,511.31,511.54,512.27,513.15,514.06,514.73,514.99,515.08,515.15,515.23,515.30,515.38,515.47,515.54,515.56,515.50,515.48,515.42,515.35,515.28,515.27,515.22,515.14,515.07,514.99,514.90,514.87,514.90,514.99,515.08,515.21,515.37,515.51,515.55,515.43,515.33,515.28,515.27,515.20,515.07,514.85,514.54,514.24,513.99,513.60,513.07,512.54,512.07,511.56,511.05,510.59,510.13,510.00,511.83,514.88,515.34,515.59,515.82,516.08,516.37,516.61,516.89,517.09,517.16,517.16,517.10,516.99,516.83,516.61,516.38,516.19,516.00,515.79,515.56,515.37,515.18,514.98,514.91,514.89,514.85,514.80,514.78,514.72,514.65,514.57,514.50,514.49,514.43,514.36,514.30,514.35,514.70,515.06,515.38,515.69,516.00,516.31,516.62,516.92,517.20,517.26,517.21,517.16,517.15,517.09,517.07,517.07,517.05,517.00,517.05,517.13,517.20,517.27,517.35,517.43,517.51,517.57,517.58,517.52,517.44,517.37,517.29,517.28,517.37,517.52,517.69,517.89,518.01,518.09,518.15,518.15,518.14,518.10,518.04,517.96,517.88,517.84,517.82,517.75,517.67,517.65,517.65,517.63,517.56,517.55,517.56,517.61,517.76,517.91,518.06,518.16,518.18,518.25,518.27,518.31,518.37,518.38,518.44,518.47,518.50,518.56,518.57,518.58,518.58,518.56,518.49,518.40,518.32,518.25,518.18,518.17,518.12,518.05,517.99,517.98,517.91,517.83,517.76,517.67,517.54,517.43,517.36,517.30,517.28,517.22,517.11,516.99,516.90,516.82,516.70,516.61,516.67,516.67,516.62,516.58,516.58,516.57,516.57,516.57,516.55,516.48,516.47,516.47,516.45,516.38,516.36,516.25,516.14,516.08,516.14,516.16,516.16
519.35,519.44,519.58,519.61,519.61,519.61,519.60,519.52,519.38,519.21,519.03,518.88,518.76,518.72,518.72,518.72,518.72,518.72,518.70,518.67,518.66,518.64,518.63,518.58,518.45,518.25,518.06,517.81,517.52,517.28,516.99,516.72,516.47,516.17,515.92,515.64,515.37,515.12,514.58,513.94,513.28,512.62,511.95,511.63,511.79,512.30,513.00,513.79,514.50,514.95,515.06,515.14,515.22,515.29,515.37,515.45,515.52,515.58,515.59,515.56,515.56,515.50,515.44,515.40,515.36,515.29,515.22,515.13,515.06,515.02,515.04,515.09,515.16,515.20,515.30,515.41,515.53,515.67,515.57,515.47,515.41,515.40,515.33,515.17,514.94,514.68,514.41,514.13,513.69,513.11,512.53,512.01,511.49,510.97,510.51,510.08,510.89,512.88,515.15,515.53,515.77,516.03,516.30,516.57,516.85,517.12,517.28,517.32,517.35,517.23,517.05,516.85,516.62,516.42,516.22,516.03,515.84,515.61,515.40,515.21,515.03,514.92,514.90,514.85,514.80,514.79,514.72,514.67,514.63,514.55,514.51,514.47,514.41,514.40,514.59,514.93,515.27,515.58,515.88,516.20,516.47,516.76,517.07,517.36,517.49,517.47,517.42,517.42,517.39,517.35,517.32,517.31,517.24,517.25,517.28,517.33,517.40,517.48,517.56,517.64,517.70,517.71,517.65,517.58,517.50,517.42,517.37,517.47,517.65,517.82,518.00,518.17,518.30,518.38,518.46,518.48,518.44,518.36,518.28,518.20,518.18,518.15,518.08,518.04,518.00,517.98,517.96,517.89,517.88,517.85,517.87,518.02,518.17,518.27,518.33,518.37,518.40,518.44,518.48,518.52,518.57,518.64,518.66,518.69,518.76,518.76,518.80,518.82,518.81,518.73,518.62,518.52,518.44,518.38,518.37,518.31,518.24,518.17,518.12,518.05,517.97,517.89,517.81,517.71,517.62,517.54,517.46,517.38,517.30,517.20,517.10,517.02,516.91,516.79,516.78,516.99,516.95,516.87,516.82,516.82,516.77,516.76,516.76,516.75,516.68,516.66,516.66,516.64,516.58,516.57,516.45,516.37,516.38,516.42,516.42,516.42
519.35,519.44,519.59,519.68,519.72,519.74,519.73,519.65,519.52,519.36,519.21,519.06,518.99,518.97,518.98,518.98,518.96,518.96,518.93,518.88,518.88,518.85,518.81,518.69,518.44,518.14,517.88,517.62,517.34,517.09,516.81,516.53,516.28,515.99,515.73,515.46,515.16,514.83,514.24,513.56,512.90,512.29,511.73,511.76,512.23,512.91,513.55,514.24,514.74,515.03,515.11,515.18,515.26,515.33,515.39,515.48,515.55,515.59,515.61,515.62,515.62,515.58,515.54,515.51,515.45,515.38,515.30,515.23,515.17,515.16,515.21,515.29,515.35,515.36,515.41,515.47,515.57,515.75,515.70,515.61,515.56,515.55,515.45,515.27,515.04,514.81,514.57,514.27,513.77,513.14,512.53,511.99,511.44,510.97,510.64,510.46,512.12,514.04,515.36,515.71,515.98,516.26,516.53,516.77,517.07,517.33,517.46,517.47,517.50,517.31,517.08,516.85,516.63,516.46,516.25,516.05,515.88,515.65,515.43,515.24,515.08,514.94,514.90,514.86,514.82,514.79,514.72,514.70,514.67,514.59,514.53,514.51,514.49,514.53,514.84,515.15,515.46,515.77,516.08,516.39,516.64,516.90,517.22,517.51,517.71,517.74,517.70,517.68,517.68,517.63,517.59,517.57,517.50,517.48,517.48,517.49,517.54,517.61,517.69,517.77,517.83,517.84,517.78,517.71,517.62,517.53,517.47,517.56,517.77,517.94,518.09,518.29,518.47,518.58,518.72,518.78,518.75,518.68,518.61,518.54,518.51,518.48,518.42,518.40,518.36,518.31,518.29,518.23,518.21,518.17,518.15,518.28,518.42,518.46,518.49,518.56,518.56,518.62,518.66,518.68,518.75,518.82,518.85,518.88,518.93,518.94,519.00,519.04,519.02,518.95,518.82,518.72,518.64,518.57,518.55,518.50,518.43,518.36,518.29,518.22,518.14,518.07,517.99,517.91,517.84,517.75,517.65,517.52,517.42,517.34,517.27,517.19,517.08,516.98,517.01,517.31,517.23,517.13,517.08,517.05,517.00,516.98,516.97,516.95,516.89,516.86,516.86,516.84,516.79,516.76,516.67,516.62,516.66,516.66,516.66,516.67
519.34,519.44,519.59,519.68,519.79,519.87,519.86,519.78,519.64,519.49,519.34,519.20,519.16,519.19,519.24,519.23,519.17,519.16,519.15,519.14,519.13,519.03,518.82,518.55,518.25,517.94,517.68,517.45,517.20,516.90,516.65,516.38,516.10,515.84,515.56,515.29,514.97,514.45,513.85,513.18,512.52,511.96,511.68,511.85,512.36,513.05,513.73,514.43,514.84,515.03,515.11,515.18,515.26,515.31,515.33,515.40,515.49,515.56,515.62,515.68,515.68,515.68,515.64,515.59,515.57,515.50,515.43,515.37,515.36,515.36,515.41,515.48,515.55,515.55,515.56,515.57,515.62,515.77,515.84,515.81,515.75,515.73,515.54,515.36,515.17,514.94,514.70,514.35,513.81,513.14,512.53,511.99,511.45,511.11,511.21,511.82,513.63,515.02,515.52,515.84,516.20,516.49,516.73,516.97,517.27,517.52,517.65,517.64,517.58,517.34,517.08,516.86,516.69,516.48,516.25,516.05,515.88,515.65,515.47,515.28,515.09,515.00,514.92,514.89,514.87,514.80,514.72,514.70,514.67,514.60,514.58,514.53,514.56,514.73,515.04,515.35,515.65,515.97,516.27,516.58,516.83,517.10,517.41,517.71,517.95,518.03,518.00,517.95,517.94,517.88,517.84,517.83,517.76,517.74,517.74,517.73,517.69,517.75,517.82,517.90,517.96,517.97,517.91,517.83,517.74,517.61,517.57,517.67,517.85,518.06,518.22,518.39,518.57,518.77,518.92,519.01,519.04,519.01,518.94,518.92,518.87,518.82,518.80,518.74,518.72,518.68,518.63,518.61,518.55,518.52,518.51,518.54,518.63,518.65,518.68,518.75,518.76,518.82,518.86,518.87,518.94,518.96,519.01,519.06,519.07,519.07,519.13,519.17,519.15,519.08,518.99,518.91,518.83,518.76,518.69,518.66,518.63,518.56,518.54,518.47,518.40,518.32,518.25,518.17,518.09,518.00,517.86,517.76,517.68,517.61,517.53,517.46,517.42,517.37,517.38,517.59,517.49,517.38,517.31,517.26,517.24,517.24,517.21,517.15,517.13,517.08,517.05,517.05,517.03,516.97,516.93,516.90,516.86,516.86,516.86,516.89
519.32,519.44,519.59,519.68,519.81,519.93,519.98,519.91,519.81,519.65,519.48,519.41,519.39,519.42,519.45,519.44,519.41,519.39,519.38,519.34,519.25,519.01,518.72,518.40,518.06,517.75,517.47,517.21,516.97,516.71,516.47,516.20,515.90,515.66,515.37,515.06,514.66,514.07,513.42,512.76,512.24,511.95,511.88,512.01,512.36,512.88,513.55,514.30,514.79,515.01,515.06,515.13,515.18,515.22,515.27,515.35,515.42,515.50,515.58,515.65,515.69,515.73,515.73,515.69,515.65,515.62,515.58,515.55,515.56,515.58,515.63,515.66,515.70,515.70,515.70,515.70,515.72,515.84,515.95,515.95,515.89,515.83,515.65,515.46,515.27,515.07,514.83,514.41,513.84,513.18,512.54,511.95,511.75,511.96,512.57,513.33,514.53,515.35,515.67,516.01,516.36,516.66,516.93,517.20,517.47,517.72,517.85,517.81,517.63,517.37,517.13,516.90,516.70,516.48,516.28,516.08,515.88,515.65,515.48,515.33,515.18,515.07,514.98,514.92,514.88,514.81,514.76,514.75,514.72,514.65,514.61,514.60,514.70,514.92,515.23,515.54,515.85,516.16,516.47,516.77,517.03,517.29,517.61,517.91,518.19,518.30,518.28,518.20,518.19,518.14,518.09,518.09,518.06,518.02,517.99,517.98,517.91,517.94,517.97,518.02,518.09,518.10,518.04,517.95,517.83,517.72,517.70,517.79,517.97,518.19,518.35,518.51,518.69,518.91,519.07,519.19,519.29,519.34,519.30,519.26,519.20,519.15,519.14,519.11,519.07,519.03,519.00,518.95,518.88,518.83,518.79,518.76,518.79,518.80,518.83,518.89,518.90,518.93,518.97,519.01,519.05,519.09,519.13,519.15,519.15,519.19,519.23,519.25,519.23,519.16,519.08,519.00,518.94,518.90,518.86,518.85,518.82,518.75,518.75,518.72,518.66,518.59,518.51,518.42,518.36,518.25,518.11,518.02,517.94,517.87,517.79,517.76,517.71,517.65,517.63,517.72,517.64,517.55,517.47,517.40,517.40,517.40,517.38,517.35,517.34,517.28,517.25,517.25,517.24,517.17,517.15,517.13,517.10,517.09,517.09,517.12
519.29,519.44,519.57,519.67,519.80,519.95,520.08,520.04,519.97,519.82,519.66,519.64,519.64,519.65,519.66,519.66,519.64,519.63,519.57,519.46,519.28,518.93,518.59,518.25,517.88,517.56,517.25,516.97,516.74,516.50,516.26,515.99,515.71,515.47,515.16,514.78,514.29,513.67,512.99,512.42,512.13,512.16,512.23,512.30,512.41,512.67,513.22,514.01,514.62,514.94,515.00,515.07,515.09,515.13,515.20,515.28,515.36,515.44,515.51,515.59,515.68,515.76,515.81,515.82,515.76,515.75,515.75,515.75,515.75,515.82,515.84,515.84,515.84,515.84,515.84,515.84,515.86,515.93,516.06,516.08,516.00,515.92,515.76,515.56,515.36,515.18,514.94,514.47,513.89,513.26,512.59,511.99,512.15,512.88,513.85,514.58,515.08,515.47,515.80,516.18,516.51,516.83,517.14,517.44,517.68,517.91,518.03,517.95,517.67,517.42,517.18,516.94,516.71,516.48,516.30,516.12,515.88,515.67,515.50,515.38,515.28,515.15,515.05,514.97,514.89,514.82,514.81,514.81,514.77,514.71,514.63,514.69,514.86,515.12,515.43,515.74,516.04,516.36,516.66,516.97,517.23,517.50,517.80,518.11,518.41,518.55,518.53,518.46,518.45,518.41,518.37,518.36,518.36,518.30,518.26,518.24,518.17,518.16,518.16,518.18,518.23,518.23,518.16,518.05,517.92,517.83,517.83,517.92,518.09,518.31,518.48,518.64,518.82,519.02,519.20,519.35,519.51,519.63,519.65,519.59,519.51,519.45,519.45,519.44,519.38,519.34,519.31,519.24,519.16,519.08,519.00,518.94,518.93,518.93,518.96,519.01,519.03,519.03,519.06,519.12,519.13,519.19,519.22,519.23,519.24,519.30,519.32,519.33,519.31,519.24,519.16,519.09,519.03,519.03,519.03,519.04,519.01,518.95,518.94,518.94,518.91,518.84,518.76,518.68,518.61,518.51,518.37,518.28,518.21,518.14,518.08,518.05,518.00,517.91,517.85,517.83,517.75,517.67,517.59,517.53,517.53,517.54,517.55,517.55,517.54,517.47,517.44,517.44,517.43,517.36,517.34,517.34,517.34,517.35,517.36,517.36
519.29,519.43,519.52,519.66,519.77,519.91,520.09,520.15,520.10,520.00,519.91,519.85,519.84,519.88,519.91,519.91,519.85,519.75,519.62,519.45,519.17,518.81,518.43,518.07,517.74,517.38,517.05,516.77,516.54,516.31,516.02,515.76,515.51,515.27,514.92,514.43,513.84,513.22,512.59,512.29,512.36,512.72,512.87,512.86,512.76,512.68,512.82,513.51,514.20,514.70,514.91,515.00,515.02,515.06,515.13,515.21,515.29,515.37,515.44,515.53,515.66,515.76,515.86,515.95,515.94,515.94,515.94,515.94,515.95,516.01,516.04,516.04,516.04,516.04,516.04,516.04,516.04,516.06,516.14,516.17,516.13,516.04,515.84,515.65,515.47,515.25,515.01,514.58,514.02,513.40,512.79,512.33,512.58,513.26,514.08,514.78,515.20,515.56,515.93,516.31,516.64,516.98,517.33,517.63,517.87,518.11,518.16,517.97,517.72,517.49,517.22,516.94,516.71,516.48,516.30,516.12,515.89,515.72,515.56,515.45,515.36,515.26,515.13,515.04,514.96,514.89,514.88,514.84,514.79,514.77,514.70,514.79,515.02,515.31,515.62,515.93,516.24,516.55,516.86,517.16,517.46,517.73,518.00,518.30,518.61,518.77,518.80,518.72,518.71,518.71,518.67,518.62,518.61,518.55,518.51,518.50,518.43,518.41,518.41,518.40,518.37,518.36,518.25,518.14,518.04,517.91,517.93,518.05,518.21,518.38,518.60,518.77,518.93,519.11,519.32,519.49,519.64,519.78,519.89,519.84,519.76,519.71,519.71,519.65,519.58,519.51,519.44,519.37,519.29,519.22,519.14,519.07,519.06,519.06,519.06,519.09,519.14,519.16,519.16,519.19,519.25,519.27,519.32,519.36,519.36,519.38,519.42,519.46,519.44,519.37,519.29,519.22,519.16,519.16,519.16,519.20,519.21,519.14,519.14,519.14,519.13,519.10,519.03,518.94,518.87,518.76,518.63,518.53,518.51,518.46,518.39,518.32,518.26,518.17,518.09,517.97,517.88,517.76,517.67,517.66,517.66,517.71,517.74,517.74,517.73,517.67,517.64,517.64,517.63,517.56,517.54,517.54,517.55,517.60,517.61,517.61
519.29,519.42,519.51,519.65,519.77,519.92,520.10,520.22,520.18,520.11,520.02,519.96,519.94,520.00,520.03,520.00,519.96,519.80,519.60,519.35,519.01,518.63,518.27,517.92,517.57,517.22,516.88,516.56,516.30,516.07,515.80,515.55,515.30,514.99,514.59,514.05,513.43,512.84,512.40,512.45,512.79,513.27,513.46,513.43,513.30,513.15,513.05,513.32,513.75,514.19,514.50,514.70,514.84,514.97,515.07,515.15,515.23,515.30,515.39,515.50,515.62,515.74,515.85,515.97,516.03,516.07,516.11,516.14,516.18,516.22,516.23,516.23,516.23,516.23,516.23,516.23,516.23,516.23,516.27,516.29,516.25,516.13,515.91,515.73,515.54,515.31,515.07,514.65,514.13,513.53,512.96,512.68,512.95,513.55,514.27,514.90,515.31,515.68,516.05,516.41,516.75,517.10,517.45,517.79,518.09,518.27,518.25,518.02,517.78,517.52,517.25,516.98,516.72,516.51,516.32,516.12,515.90,515.77,515.65,515.53,515.43,515.35,515.21,515.10,515.02,514.95,514.91,514.87,514.83,514.80,514.80,514.95,515.18,515.46,515.77,516.08,516.39,516.71,517.05,517.36,517.67,517.94,518.19,518.50,518.80,519.00,519.07,519.02,518.99,518.97,518.94,518.88,518.88,518.82,518.78,518.77,518.72,518.69,518.65,518.61,518.54,518.50,518.37,518.24,518.13,518.01,518.03,518.13,518.30,518.49,518.68,518.85,519.02,519.21,519.41,519.60,519.77,519.91,519.98,519.99,519.94,519.89,519.88,519.81,519.73,519.65,519.58,519.50,519.42,519.35,519.28,519.24,519.20,519.19,519.19,519.20,519.24,519.25,519.26,519.30,519.34,519.38,519.42,519.44,519.45,519.48,519.52,519.54,519.53,519.46,519.38,519.32,519.29,519.29,519.32,519.36,519.37,519.34,519.33,519.33,519.33,519.32,519.28,519.20,519.13,519.04,518.92,518.84,518.80,518.73,518.62,518.51,518.42,518.33,518.21,518.09,517.98,517.86,517.79,517.80,517.83,517.87,517.89,517.89,517.89,517.85,517.83,517.83,517.82,517.75,517.73,517.75,517.78,517.82,517.83,517.83
519.30,519.42,519.52,519.66,519.82,519.98,520.13,520.26,520.24,520.17,520.10,520.03,520.01,520.05,520.08,520.02,520.00,519.81,519.53,519.21,518.82,518.45,518.10,517.77,517.40,517.07,516.71,516.36,516.06,515.82,515.58,515.34,515.06,514.65,514.20,513.64,513.05,512.57,512.44,512.79,513.32,513.81,514.04,514.04,513.97,513.86,513.65,513.44,513.49,513.71,514.02,514.30,514.60,514.84,514.99,515.08,515.16,515.24,515.34,515.48,515.57,515.70,515.83,515.92,516.06,516.15,516.23,516.31,516.39,516.41,516.42,516.43,516.43,516.43,516.43,516.43,516.43,516.43,516.44,516.44,516.39,516.23,515.99,515.80,515.60,515.36,515.12,514.73,514.22,513.65,513.13,513.06,513.33,513.82,514.46,515.00,515.41,515.79,516.16,516.50,516.88,517.23,517.57,517.95,518.33,518.41,518.30,518.07,517.84,517.55,517.29,517.03,516.74,516.55,516.35,516.12,515.93,515.83,515.75,515.63,515.50,515.41,515.28,515.18,515.10,515.02,514.94,514.90,514.87,514.83,514.90,515.11,515.34,515.59,515.90,516.21,516.52,516.86,517.23,517.54,517.85,518.13,518.38,518.69,519.00,519.22,519.34,519.33,519.26,519.23,519.20,519.14,519.12,519.06,519.02,519.01,519.00,518.94,518.86,518.79,518.71,518.62,518.49,518.34,518.21,518.13,518.12,518.21,518.38,518.60,518.77,518.93,519.11,519.32,519.49,519.70,519.88,520.00,520.02,520.08,520.06,520.02,520.00,519.93,519.86,519.79,519.72,519.63,519.55,519.48,519.41,519.39,519.34,519.32,519.32,519.33,519.32,519.32,519.35,519.40,519.42,519.48,519.51,519.52,519.53,519.59,519.61,519.61,519.60,519.53,519.46,519.42,519.42,519.44,519.50,519.51,519.52,519.53,519.53,519.53,519.53,519.53,519.53,519.46,519.38,519.30,519.20,519.12,519.03,518.92,518.78,518.64,518.54,518.43,518.30,518.20,518.07,517.97,517.92,517.93,518.00,518.01,518.02,518.02,518.02,518.01,518.01,518.01,518.00,517.95,517.93,517.96,518.02,518.03,518.03,518.03
519.33,519.44,519.57,519.73,519.88,520.03,520.18,520.28,520.28,520.24,520.17,520.15,520.10,520.13,520.14,520.07,520.01,519.74,519.38,519.01,518.63,518.30,517.94,517.59,517.25,516.89,516.55,516.21,515.87,515.62,515.35,515.06,514.72,514.22,513.71,513.16,512.71,512.58,512.87,513.37,513.91,514.40,514.68,514.72,514.70,514.65,514.52,514.25,514.01,513.84,513.82,513.99,514.32,514.61,514.82,515.00,515.10,515.17,515.27,515.42,515.50,515.64,515.79,515.91,516.01,516.14,516.24,516.33,516.46,516.53,516.58,516.62,516.62,516.62,516.62,516.62,516.62,516.63,516.67,516.69,516.64,516.47,516.14,515.85,515.60,515.37,515.13,514.81,514.32,513.76,513.38,513.46,513.77,514.19,514.66,515.14,515.51,515.86,516.26,516.67,517.07,517.44,517.82,518.20,518.59,518.53,518.30,518.07,517.84,517.59,517.35,517.10,516.80,516.57,516.35,516.15,516.04,515.91,515.81,515.70,515.56,515.48,515.39,515.30,515.23,515.14,515.01,514.93,514.89,514.89,514.97,515.22,515.47,515.72,516.03,516.34,516.65,516.99,517.36,517.68,517.98,518.28,518.58,518.88,519.20,519.45,519.59,519.58,519.51,519.49,519.46,519.39,519.33,519.26,519.19,519.15,519.14,519.08,519.00,518.92,518.84,518.71,518.56,518.43,518.32,518.20,518.23,518.34,518.50,518.68,518.88,519.05,519.22,519.40,519.61,519.79,519.92,520.01,520.07,520.14,520.16,520.13,520.08,520.05,519.99,519.94,519.89,519.77,519.68,519.60,519.53,519.48,519.45,519.45,519.47,519.51,519.46,519.45,519.46,519.49,519.54,519.57,519.61,519.65,519.65,519.67,519.67,519.67,519.67,519.65,519.58,519.55,519.56,519.62,519.64,519.65,519.67,519.72,519.72,519.72,519.72,519.73,519.78,519.72,519.62,519.48,519.34,519.21,519.08,518.96,518.86,518.76,518.63,518.52,518.41,518.28,518.18,518.10,518.05,518.06,518.13,518.15,518.15,518.15,518.15,518.15,518.15,518.15,518.15,518.13,518.12,518.15,518.21,518.22,518.22,518.22
519.38,519.48,519.63,519.79,519.92,520.06,520.20,520.28,520.33,520.30,520.24,520.23,520.16,520.17,520.17,520.10,520.02,519.74,519.35,518.94,518.56,518.18,517.80,517.43,517.09,516.73,516.39,516.03,515.67,515.43,515.11,514.76,514.35,513.82,513.30,512.86,512.65,512.87,513.34,513.89,514.41,514.83,515.11,515.20,515.24,515.20,515.05,514.81,514.49,514.20,514.04,514.08,514.28,514.49,514.67,514.89,515.02,515.13,515.24,515.36,515.47,515.59,515.73,515.87,515.98,516.11,516.22,516.33,516.45,516.56,516.67,516.75,516.78,516.81,516.82,516.83,516.86,516.86,516.90,516.92,516.89,516.75,516.40,516.05,515.73,515.44,515.18,514.90,514.46,513.95,513.73,513.87,514.17,514.53,514.94,515.42,515.80,516.16,516.56,517.01,517.42,517.80,518.20,518.58,518.76,518.58,518.30,518.07,517.84,517.61,517.36,517.09,516.82,516.58,516.37,516.21,516.13,516.00,515.92,515.82,515.70,515.63,515.55,515.47,515.39,515.31,515.16,515.04,514.98,515.00,515.11,515.35,515.62,515.88,516.17,516.47,516.78,517.12,517.49,517.81,518.11,518.42,518.73,519.04,519.38,519.65,519.82,519.81,519.74,519.69,519.64,519.57,519.49,519.41,519.35,519.31,519.28,519.21,519.13,519.04,518.93,518.77,518.64,518.52,518.41,518.27,518.33,518.47,518.62,518.78,518.97,519.14,519.31,519.50,519.70,519.87,519.98,520.05,520.10,520.17,520.22,520.22,520.18,520.14,520.10,520.06,520.01,519.90,519.81,519.72,519.62,519.56,519.57,519.58,519.60,519.63,519.59,519.58,519.58,519.59,519.63,519.66,519.71,519.74,519.74,519.74,519.76,519.78,519.77,519.75,519.73,519.72,519.73,519.77,519.78,519.80,519.84,519.88,519.91,519.94,519.95,519.95,519.93,519.87,519.75,519.59,519.44,519.28,519.15,519.04,518.96,518.85,518.73,518.62,518.50,518.38,518.30,518.23,518.19,518.22,518.27,518.28,518.28,518.28,518.28,518.28,518.28,518.29,518.31,518.32,518.32,518.35,518.41,518.42,518.42,518.42
519.45,519.54,519.70,519.85,519.95,520.06,520.20,520.28,520.36,520.36,520.31,520.30,520.24,520.21,520.18,520.12,520.03,519.78,519.40,518.95,518.55,518.11,517.69,517.31,516.93,516.61,516.24,515.85,515.49,515.23,514.87,514.45,513.98,513.45,512.98,512.74,512.82,513.32,513.79,514.36,514.83,515.13,515.37,515.54,515.61,515.54,515.33,515.15,514.90,514.65,514.51,514.44,514.44,514.49,514.60,514.80,514.96,515.11,515.23,515.32,515.47,515.58,515.69,515.84,515.99,516.09,516.21,516.34,516.43,516.57,516.72,516.85,516.92,516.99,517.01,517.05,517.10,517.10,517.11,517.11,517.11,517.05,516.72,516.34,515.96,515.60,515.29,515.03,514.63,514.21,514.15,514.28,514.55,514.90,515.32,515.82,516.23,516.62,517.03,517.48,517.87,518.26,518.65,518.99,518.86,518.58,518.29,518.06,517.83,517.60,517.33,517.05,516.81,516.61,516.43,516.30,516.23,516.14,516.06,515.98,515.90,515.82,515.74,515.66,515.58,515.49,515.35,515.21,515.12,515.15,515.30,515.51,515.77,516.06,516.30,516.60,516.91,517.24,517.62,517.93,518.24,518.55,518.87,519.18,519.55,519.84,519.98,519.98,519.93,519.86,519.77,519.70,519.62,519.54,519.50,519.48,519.41,519.33,519.26,519.15,519.01,518.85,518.75,518.63,518.48,518.35,518.44,518.60,518.75,518.90,519.06,519.22,519.40,519.61,519.78,519.92,520.03,520.10,520.11,520.17,520.25,520.29,520.29,520.23,520.20,520.16,520.09,520.01,519.94,519.82,519.70,519.63,519.68,519.69,519.70,519.70,519.70,519.70,519.70,519.71,519.72,519.77,519.80,519.81,519.82,519.82,519.86,519.90,519.89,519.84,519.88,519.91,519.91,519.92,519.92,519.98,520.03,520.05,520.10,520.16,520.18,520.14,520.02,519.93,519.80,519.65,519.50,519.35,519.25,519.17,519.07,518.94,518.84,518.72,518.59,518.51,518.42,518.36,518.34,518.40,518.40,518.40,518.40,518.40,518.40,518.41,518.41,518.44,518.50,518.51,518.51,518.55,518.60,518.61,518.61,518.61
519.51,519.61,519.76,519.87,519.95,520.06,520.20,520.28,520.36,520.39,520.37,520.37,520.35,520.30,520.26,520.22,520.10,519.88,519.50,519.00,518.56,518.10,517.68,517.30,516.91,516.55,516.13,515.71,515.34,514.99,514.62,514.19,513.72,513.24,512.77,512.80,513.17,513.66,514.18,514.69,515.09,515.35,515.63,515.85,515.91,515.81,515.59,515.42,515.24,515.05,514.91,514.83,514.77,514.75,514.79,514.87,515.01,515.13,515.24,515.38,515.52,515.66,515.78,515.89,516.04,516.18,516.32,516.46,516.54,516.69,516.84,516.99,517.11,517.19,517.20,517.24,517.30,517.30,517.30,517.30,517.30,517.27,517.02,516.66,516.27,515.90,515.53,515.23,514.87,514.53,514.53,514.71,515.05,515.48,515.91,516.30,516.72,517.13,517.52,517.93,518.33,518.71,519.04,519.17,518.89,518.54,518.24,518.00,517.77,517.54,517.29,517.05,516.83,516.78,516.67,516.55,516.46,516.33,516.25,516.17,516.09,516.01,515.94,515.83,515.72,515.63,515.53,515.40,515.33,515.40,515.55,515.72,515.94,516.19,516.43,516.73,517.04,517.37,517.75,518.06,518.37,518.71,519.06,519.38,519.75,519.95,520.01,520.06,520.10,520.01,519.90,519.83,519.75,519.67,519.63,519.62,519.54,519.47,519.39,519.28,519.13,518.98,518.84,518.70,518.55,518.46,518.57,518.73,518.88,519.03,519.19,519.35,519.51,519.69,519.89,519.98,520.04,520.11,520.16,520.19,520.25,520.32,520.36,520.34,520.30,520.24,520.15,520.08,520.05,519.95,519.81,519.75,519.76,519.76,519.76,519.78,519.82,519.83,519.83,519.83,519.84,519.86,519.87,519.89,519.93,519.93,519.96,519.99,520.03,520.01,520.07,520.11,520.12,520.17,520.17,520.22,520.29,520.33,520.31,520.28,520.24,520.18,520.07,519.95,519.84,519.72,519.57,519.46,519.38,519.28,519.15,519.05,518.92,518.81,518.72,518.63,518.51,518.49,518.51,518.54,518.54,518.54,518.54,518.54,518.54,518.59,518.61,518.63,518.70,518.70,518.70,518.74,518.80,518.80,518.80,518.80
519.56,519.63,519.76,519.87,519.95,520.06,520.20,520.28,520.36,520.41,520.43,520.43,520.41,520.34,520.26,520.23,520.15,519.94,519.57,519.07,518.60,518.13,517.70,517.30,516.90,516.50,516.03,515.57,515.17,514.78,514.37,513.94,513.51,513.08,512.75,512.96,513.45,513.92,514.43,514.89,515.25,515.51,515.82,516.09,516.19,516.11,515.88,515.72,515.56,515.42,515.30,515.22,515.14,515.09,515.07,515.08,515.18,515.28,515.38,515.50,515.63,515.78,515.91,516.02,516.15,516.30,516.45,516.59,516.70,516.82,516.97,517.13,517.27,517.38,517.40,517.43,517.47,517.50,517.50,517.50,517.51,517.51,517.32,516.98,516.60,516.22,515.86,515.54,515.22,514.98,515.05,515.28,515.65,516.11,516.55,516.89,517.26,517.65,518.03,518.40,518.78,519.14,519.34,519.23,518.88,518.51,518.19,517.94,517.71,517.48,517.24,517.04,516.96,517.03,516.96,516.83,516.72,516.57,516.47,516.38,516.28,516.18,516.10,515.99,515.88,515.80,515.72,515.59,515.55,515.66,515.80,515.99,516.18,516.38,516.60,516.87,517.18,517.53,517.88,518.22,518.54,518.88,519.25,519.56,519.87,520.01,520.05,520.13,520.21,520.14,520.04,519.96,519.88,519.80,519.75,519.72,519.66,519.60,519.50,519.38,519.23,519.07,518.94,518.79,518.66,518.59,518.70,518.86,519.01,519.16,519.32,519.48,519.63,519.79,519.96,520.02,520.06,520.12,520.19,520.23,520.28,520.35,520.40,520.43,520.39,520.33,520.26,520.21,520.15,520.06,519.94,519.87,519.84,519.85,519.87,519.88,519.95,519.96,519.96,519.97,520.00,520.00,520.01,520.05,520.10,520.10,520.12,520.16,520.20,520.23,520.28,520.32,520.36,520.42,520.43,520.47,520.51,520.52,520.45,520.35,520.26,520.18,520.10,519.96,519.87,519.79,519.67,519.56,519.48,519.38,519.25,519.15,519.02,518.92,518.84,518.73,518.61,518.62,518.66,518.66,518.66,518.69,518.70,518.71,518.73,518.78,518.80,518.82,518.89,518.90,518.90,518.92,518.97,519.00,519.00,519.01
519.61,519.63,519.72,519.86,519.95,520.06,520.20,520.28,520.36,520.44,520.50,520.48,520.42,520.31,520.18,520.13,520.16,519.94,519.56,519.10,518.63,518.17,517.72,517.29,516.89,516.45,515.94,515.44,514.99,514.60,514.16,513.74,513.34,512.97,512.90,513.19,513.65,514.11,514.58,514.99,515.34,515.64,515.95,516.26,516.43,516.43,516.21,516.04,515.89,515.76,515.68,515.61,515.53,515.45,515.40,515.40,515.46,515.54,515.63,515.71,515.79,515.92,516.06,516.19,516.29,516.43,516.58,516.74,516.88,516.97,517.10,517.25,517.41,517.55,517.59,517.60,517.62,517.68,517.69,517.69,517.71,517.75,517.63,517.32,516.93,516.56,516.25,515.93,515.67,515.55,515.70,515.98,516.34,516.77,517.21,517.60,517.88,518.20,518.55,518.87,519.23,519.50,519.55,519.20,518.82,518.48,518.16,517.88,517.65,517.41,517.20,517.08,517.20,517.35,517.29,517.13,516.99,516.84,516.74,516.62,516.48,516.33,516.24,516.16,516.07,515.99,515.92,515.79,515.76,515.91,516.07,516.28,516.47,516.64,516.81,517.04,517.35,517.69,518.02,518.39,518.72,519.07,519.43,519.74,519.94,520.05,520.12,520.20,520.27,520.24,520.16,520.09,520.01,519.94,519.87,519.81,519.79,519.72,519.60,519.45,519.30,519.14,519.04,518.91,518.78,518.72,518.83,518.99,519.14,519.29,519.44,519.59,519.75,519.89,519.98,520.06,520.10,520.13,520.20,520.26,520.34,520.39,520.41,520.48,520.49,520.46,520.39,520.38,520.26,520.16,520.08,520.00,519.94,519.96,520.00,520.01,520.08,520.10,520.11,520.13,520.18,520.20,520.24,520.29,520.29,520.30,520.35,520.39,520.40,520.47,520.50,520.54,520.61,520.67,520.68,520.67,520.65,520.58,520.50,520.37,520.26,520.18,520.10,519.96,519.90,519.87,519.77,519.64,519.54,519.46,519.37,519.23,519.13,519.05,518.95,518.81,518.73,518.76,518.80,518.80,518.80,518.86,518.89,518.91,518.97,518.99,519.00,519.02,519.09,519.09,519.09,519.10,519.12,519.18,519.19,519.23
519.73,519.74,519.77,519.87,519.95,520.06,520.20,520.28,520.36,520.47,520.55,520.50,520.38,520.27,520.17,520.11,520.08,519.77,519.36,518.93,518.48,518.05,517.64,517.23,516.84,516.38,515.93,515.47,514.97,514.52,514.11,513.68,513.25,512.92,513.06,513.44,513.89,514.31,514.77,515.14,515.46,515.77,516.09,516.43,516.69,516.75,516.53,516.36,516.21,516.11,516.07,516.00,515.91,515.84,515.78,515.77,515.76,515.83,515.94,516.01,516.05,516.13,516.24,516.33,516.42,516.56,516.71,516.87,517.01,517.10,517.23,517.38,517.54,517.69,517.76,517.79,517.80,517.82,517.87,517.89,517.90,517.92,517.92,517.67,517.33,517.00,516.69,516.38,516.22,516.24,516.45,516.66,517.05,517.51,517.93,518.36,518.63,518.89,519.18,519.43,519.64,519.71,519.58,519.19,518.81,518.44,518.13,517.87,517.64,517.40,517.31,517.37,517.56,517.68,517.58,517.41,517.30,517.15,517.01,516.88,516.73,516.58,516.49,516.38,516.26,516.19,516.11,516.02,516.01,516.17,516.32,516.54,516.76,516.96,517.16,517.35,517.54,517.77,518.10,518.47,518.84,519.19,519.53,519.87,520.02,520.11,520.18,520.26,520.34,520.34,520.29,520.22,520.14,520.10,520.05,519.98,519.92,519.81,519.70,519.57,519.42,519.26,519.13,518.99,518.86,518.84,518.96,519.12,519.27,519.42,519.53,519.67,519.82,519.96,519.99,520.06,520.13,520.18,520.25,520.29,520.35,520.42,520.46,520.49,520.54,520.55,520.52,520.46,520.37,520.31,520.27,520.19,520.16,520.17,520.19,520.20,520.27,520.29,520.31,520.36,520.39,520.43,520.47,520.49,520.50,520.54,520.57,520.59,520.61,520.67,520.73,520.80,520.86,520.88,520.84,520.76,520.67,520.59,520.51,520.38,520.26,520.18,520.11,520.00,519.93,519.88,519.80,519.74,519.63,519.53,519.44,519.34,519.22,519.12,519.04,518.93,518.90,518.94,518.99,518.99,518.99,519.05,519.09,519.11,519.17,519.19,519.22,519.26,519.29,519.29,519.29,519.29,519.30,519.38,519.39,519.43
519.83,519.83,519.83,519.88,519.97,520.08,520.21,520.31,520.39,520.50,520.60,520.50,520.38,520.27,520.17,520.09,519.98,519.53,519.05,518.63,518.17,517.77,517.39,517.00,516.63,516.20,515.79,515.38,514.90,514.46,514.06,513.65,513.24,512.97,513.24,513.66,514.09,514.50,514.94,515.28,515.60,515.93,516.24,516.60,516.91,517.05,516.85,516.69,516.55,516.46,516.43,516.36,516.28,516.20,516.14,516.13,516.07,516.12,516.24,516.31,516.33,516.40,516.47,516.54,516.61,516.73,516.86,517.00,517.14,517.25,517.37,517.51,517.67,517.82,517.91,517.97,517.98,517.99,518.03,518.07,518.08,518.09,518.14,518.01,517.76,517.45,517.15,516.91,516.86,516.99,517.22,517.38,517.78,518.25,518.67,519.10,519.34,519.51,519.70,519.85,519.91,519.81,519.56,519.19,518.81,518.42,518.09,517.85,517.63,517.49,517.54,517.72,517.91,517.99,517.88,517.70,517.60,517.44,517.30,517.15,517.01,516.86,516.75,516.62,516.49,516.41,516.31,516.26,516.30,516.46,516.64,516.86,517.09,517.32,517.55,517.71,517.81,517.95,518.19,518.52,518.89,519.29,519.66,519.95,520.07,520.14,520.22,520.30,520.38,520.41,520.41,520.37,520.30,520.27,520.22,520.13,520.03,519.86,519.75,519.66,519.52,519.37,519.21,519.06,518.93,518.93,519.06,519.22,519.37,519.52,519.63,519.75,519.88,519.99,520.03,520.09,520.16,520.22,520.29,520.32,520.36,520.43,520.49,520.52,520.58,520.64,520.64,520.62,520.55,520.50,520.47,520.41,520.39,520.40,520.41,520.42,520.47,520.50,520.54,520.58,520.59,520.65,520.68,520.69,520.72,520.77,520.80,520.82,520.82,520.88,520.95,521.03,521.08,521.05,520.96,520.81,520.67,520.59,520.51,520.39,520.28,520.18,520.11,520.03,519.95,519.88,519.81,519.80,519.70,519.60,519.51,519.44,519.31,519.20,519.11,519.04,519.05,519.12,519.19,519.21,519.21,519.25,519.30,519.33,519.37,519.38,519.43,519.48,519.48,519.48,519.48,519.48,519.49,519.55,519.56,519.58
519.90,519.90,519.90,519.91,520.01,520.13,520.23,520.36,520.46,520.57,520.65,520.52,520.43,520.31,520.19,520.09,519.88,519.27,518.65,518.18,517.72,517.32,516.94,516.57,516.24,515.86,515.48,515.11,514.76,514.38,513.99,513.60,513.26,513.14,513.43,513.82,514.24,514.68,515.08,515.41,515.75,516.12,516.43,516.75,517.10,517.32,517.17,517.01,516.91,516.83,516.76,516.68,516.60,516.52,516.46,516.45,516.39,516.41,516.50,516.58,516.64,516.72,516.79,516.86,516.88,516.95,517.03,517.13,517.28,517.43,517.53,517.65,517.80,517.95,518.04,518.12,518.17,518.18,518.19,518.23,518.28,518.28,518.29,518.31,518.20,517.91,517.62,517.54,517.60,517.77,517.99,518.16,518.52,518.98,519.41,519.79,519.90,519.96,520.04,520.06,520.01,519.81,519.51,519.19,518.81,518.42,518.07,517.81,517.66,517.72,517.89,518.10,518.25,518.27,518.17,518.01,517.86,517.71,517.56,517.43,517.33,517.17,517.03,516.88,516.75,516.66,516.52,516.53,516.63,516.80,517.02,517.25,517.48,517.71,517.93,518.11,518.21,518.27,518.34,518.56,518.91,519.39,519.86,519.99,520.07,520.15,520.23,520.31,520.39,520.46,520.52,520.56,520.49,520.42,520.35,520.25,520.08,519.87,519.75,519.66,519.57,519.42,519.27,519.12,519.00,519.01,519.13,519.28,519.43,519.59,519.74,519.84,519.93,520.01,520.08,520.15,520.20,520.23,520.30,520.37,520.40,520.44,520.51,520.59,520.66,520.73,520.80,520.85,520.80,520.73,520.68,520.66,520.60,520.63,520.67,520.67,520.68,520.73,520.77,520.78,520.79,520.85,520.88,520.90,520.96,520.98,521.03,521.07,521.07,521.08,521.14,521.22,521.26,521.18,521.05,520.85,520.68,520.60,520.52,520.43,520.32,520.19,520.11,520.03,519.95,519.88,519.81,519.80,519.74,519.65,519.58,519.50,519.42,519.30,519.18,519.12,519.16,519.28,519.41,519.46,519.47,519.48,519.51,519.57,519.58,519.58,519.63,519.68,519.68,519.68,519.68,519.68,519.67,519.68,519.68,519.65
520.01,520.01,520.01,520.01,520.09,520.19,520.28,520.43,520.52,520.61,520.67,520.57,520.53,520.44,520.36,520.27,519.86,519.17,518.43,517.79,517.32,516.92,516.54,516.17,515.86,515.52,515.18,514.83,514.49,514.18,513.82,513.46,513.22,513.34,513.60,513.95,514.37,514.81,515.17,515.52,515.89,516.26,516.62,516.94,517.29,517.55,517.48,517.38,517.29,517.22,517.13,517.01,516.93,516.85,516.79,516.78,516.72,516.74,516.81,516.89,516.97,517.01,517.07,517.14,517.18,517.25,517.30,517.36,517.47,517.58,517.69,517.81,517.93,518.08,518.21,518.29,518.32,518.36,518.37,518.39,518.43,518.47,518.47,518.53,518.52,518.37,518.17,518.23,518.38,518.55,518.77,518.94,519.24,519.58,519.85,520.07,520.12,520.13,520.15,520.10,520.03,519.82,519.49,519.13,518.75,518.37,518.05,517.88,517.94,518.07,518.27,518.48,518.62,518.60,518.46,518.28,518.13,518.01,517.87,517.73,517.60,517.44,517.30,517.16,517.05,516.92,516.73,516.76,516.93,517.18,517.45,517.65,517.87,518.10,518.33,518.53,518.62,518.66,518.71,518.81,519.16,519.59,519.96,520.05,520.13,520.21,520.29,520.41,520.49,520.57,520.64,520.69,520.63,520.59,520.51,520.33,519.97,519.79,519.70,519.62,519.52,519.38,519.26,519.17,519.12,519.12,519.21,519.35,519.50,519.65,519.81,519.91,519.99,520.06,520.14,520.22,520.28,520.33,520.41,520.49,520.54,520.60,520.68,520.75,520.83,520.91,520.99,521.05,521.04,520.99,520.92,520.92,520.86,520.85,520.87,520.88,520.92,520.96,520.97,520.98,521.02,521.06,521.10,521.14,521.17,521.17,521.23,521.27,521.28,521.32,521.36,521.42,521.45,521.36,521.18,520.96,520.77,520.64,520.53,520.44,520.35,520.23,520.12,520.03,519.95,519.88,519.81,519.80,519.74,519.69,519.64,519.57,519.49,519.39,519.29,519.23,519.25,519.45,519.64,519.68,519.72,519.72,519.75,519.78,519.82,519.82,519.85,519.87,519.87,519.87,519.87,519.85,519.81,519.76,519.75,519.72
520.14,520.14,520.14,520.14,520.20,520.27,520.36,520.49,520.58,520.65,520.68,520.61,520.57,520.50,520.42,520.30,519.78,519.05,518.23,517.46,516.91,516.48,516.10,515.76,515.45,515.16,514.85,514.52,514.17,513.92,513.63,513.37,513.28,513.56,513.80,514.12,514.51,514.94,515.26,515.63,516.02,516.40,516.78,517.11,517.46,517.76,517.80,517.74,517.66,517.58,517.49,517.36,517.26,517.17,517.11,517.11,517.06,517.06,517.12,517.19,517.26,517.30,517.35,517.42,517.48,517.55,517.60,517.63,517.71,517.77,517.88,518.00,518.08,518.22,518.37,518.45,518.48,518.53,518.56,518.57,518.59,518.66,518.67,518.71,518.75,518.74,518.64,518.79,518.98,519.14,519.38,519.53,519.77,520.00,520.14,520.23,520.25,520.24,520.21,520.13,520.04,519.82,519.48,519.10,518.73,518.35,518.08,518.04,518.26,518.45,518.65,518.85,519.00,518.93,518.75,518.55,518.41,518.31,518.17,518.01,517.86,517.73,517.57,517.45,517.31,517.14,516.93,516.99,517.22,517.52,517.83,518.04,518.27,518.51,518.74,518.96,519.04,519.08,519.12,519.12,519.46,519.82,520.05,520.13,520.23,520.31,520.40,520.54,520.64,520.72,520.80,520.85,520.78,520.75,520.64,520.37,519.93,519.78,519.69,519.62,519.53,519.40,519.31,519.26,519.25,519.25,519.31,519.43,519.56,519.72,519.88,520.00,520.10,520.17,520.25,520.33,520.41,520.48,520.56,520.64,520.72,520.79,520.87,520.95,521.02,521.10,521.18,521.25,521.28,521.25,521.18,521.16,521.11,521.09,521.09,521.10,521.15,521.18,521.18,521.20,521.26,521.27,521.32,521.37,521.37,521.38,521.43,521.47,521.50,521.56,521.58,521.62,521.64,521.53,521.32,521.10,520.90,520.73,520.56,520.45,520.36,520.26,520.12,520.03,519.95,519.88,519.82,519.81,519.74,519.70,519.68,519.61,519.53,519.47,519.40,519.34,519.33,519.60,519.85,519.86,519.91,519.92,519.92,519.94,519.99,520.00,520.00,520.00,520.02,520.02,520.03,520.01,519.93,519.84,519.81,519.77
520.27,520.27,520.27,520.27,520.33,520.40,520.48,520.57,520.65,520.69,520.68,520.60,520.48,520.34,520.20,520.01,519.56,518.81,517.99,517.21,516.44,515.91,515.57,515.31,515.01,514.75,514.47,514.15,513.85,513.56,513.45,513.47,513.59,513.83,514.06,514.35,514.70,515.08,515.39,515.76,516.15,516.53,516.91,517.24,517.59,517.93,518.10,518.06,517.98,517.91,517.83,517.74,517.61,517.50,517.44,517.43,517.43,517.39,517.38,517.45,517.53,517.60,517.67,517.73,517.75,517.82,517.89,517.95,518.02,518.04,518.11,518.19,518.27,518.36,518.50,518.61,518.66,518.68,518.74,518.76,518.78,518.85,518.86,518.87,518.90,518.95,518.94,519.07,519.23,519.40,519.63,519.79,519.96,520.13,520.27,520.36,520.37,520.34,520.27,520.19,520.06,519.82,519.48,519.10,518.77,518.41,518.21,518.30,518.58,518.82,519.01,519.19,519.37,519.22,519.04,518.88,518.72,518.58,518.43,518.28,518.13,518.04,517.89,517.71,517.50,517.28,517.11,517.22,517.48,517.78,518.09,518.39,518.68,518.96,519.19,519.36,519.46,519.51,519.51,519.45,519.74,520.03,520.18,520.27,520.40,520.50,520.59,520.68,520.82,520.91,520.99,521.04,520.98,520.90,520.69,520.36,520.09,519.93,519.83,519.75,519.67,519.58,519.50,519.43,519.38,519.38,519.44,519.52,519.63,519.78,519.94,520.13,520.29,520.37,520.45,520.52,520.60,520.68,520.76,520.83,520.91,520.99,521.07,521.14,521.22,521.30,521.37,521.45,521.52,521.51,521.43,521.37,521.35,521.34,521.34,521.35,521.36,521.41,521.44,521.45,521.46,521.46,521.51,521.56,521.57,521.63,521.65,521.69,521.74,521.76,521.82,521.85,521.82,521.67,521.45,521.26,521.07,520.85,520.63,520.47,520.36,520.26,520.12,520.03,519.95,519.90,519.88,519.82,519.74,519.70,519.68,519.61,519.53,519.49,519.47,519.40,519.38,519.69,519.97,519.97,519.98,519.99,519.99,519.99,520.00,520.00,520.00,520.02,520.08,520.09,520.13,520.14,520.05,519.91,519.83,519.79
520.36,520.37,520.40,520.40,520.46,520.53,520.61,520.69,520.76,520.76,520.67,520.55,520.40,520.28,520.15,519.92,519.35,518.50,517.64,516.88,516.15,515.50,515.08,514.82,514.59,514.36,514.10,513.88,513.75,513.68,513.73,513.84,514.00,514.15,514.37,514.65,514.96,515.26,515.58,515.91,516.27,516.66,517.04,517.40,517.75,518.09,518.36,518.37,518.31,518.23,518.15,518.07,517.97,517.87,517.80,517.77,517.76,517.71,517.68,517.76,517.84,517.88,517.94,518.01,518.06,518.13,518.18,518.22,518.30,518.35,518.41,518.49,518.56,518.60,518.70,518.79,518.85,518.86,518.89,518.93,518.97,519.00,519.04,519.05,519.07,519.11,519.15,519.25,519.39,519.55,519.74,519.90,520.05,520.22,520.39,520.44,520.36,520.28,520.26,520.28,520.13,519.84,519.48,519.10,518.74,518.45,518.39,518.60,518.86,519.10,519.34,519.55,519.66,519.53,519.33,519.15,519.00,518.85,518.72,518.59,518.43,518.27,518.08,517.89,517.69,517.47,517.34,517.48,517.74,518.05,518.36,518.66,518.95,519.23,519.53,519.71,519.78,519.80,519.79,519.73,519.94,520.18,520.32,520.44,520.56,520.67,520.78,520.86,520.97,521.06,521.13,521.18,521.12,521.01,520.77,520.46,520.27,520.15,520.03,519.93,519.85,519.78,519.70,519.62,519.56,519.55,519.55,519.60,519.70,519.86,520.04,520.24,520.42,520.56,520.64,520.72,520.80,520.87,520.95,521.03,521.11,521.18,521.26,521.34,521.41,521.49,521.57,521.64,521.72,521.74,521.68,521.61,521.57,521.55,521.55,521.56,521.60,521.64,521.65,521.66,521.70,521.70,521.73,521.77,521.81,521.85,521.86,521.89,521.95,521.96,522.02,522.05,522.00,521.80,521.58,521.40,521.21,520.99,520.79,520.60,520.42,520.28,520.16,520.04,519.95,519.90,519.89,519.82,519.74,519.70,519.68,519.61,519.57,519.56,519.54,519.50,519.47,519.74,520.00,520.00,520.00,520.00,520.02,520.05,520.06,520.06,520.08,520.12,520.15,520.15,520.21,520.20,520.08,519.93,519.87,519.83
520.43,520.46,520.52,520.54,520.59,520.66,520.74,520.80,520.87,520.82,520.66,520.51,520.36,520.24,520.13,519.86,519.10,518.10,517.14,516.38,515.80,515.15,514.69,514.42,514.23,514.04,513.87,513.78,513.84,513.99,514.13,514.28,514.42,514.54,514.73,515.00,515.28,515.51,515.79,516.09,516.42,516.79,517.18,517.57,517.91,518.25,518.60,518.67,518.63,518.55,518.48,518.40,518.32,518.25,518.17,518.10,518.08,518.04,518.01,518.07,518.14,518.17,518.22,518.29,518.36,518.43,518.47,518.50,518.58,518.66,518.72,518.80,518.86,518.85,518.90,518.97,519.02,519.03,519.04,519.09,519.14,519.15,519.22,519.24,519.25,519.26,519.32,519.40,519.51,519.65,519.81,519.98,520.13,520.32,520.51,520.49,520.30,520.18,520.20,520.28,520.13,519.82,519.45,519.08,518.71,518.54,518.61,518.89,519.13,519.37,519.64,519.88,519.92,519.82,519.62,519.43,519.27,519.12,519.00,518.87,518.69,518.48,518.24,518.05,517.87,517.67,517.59,517.73,518.00,518.31,518.61,518.91,519.17,519.44,519.79,519.97,520.03,520.04,520.03,519.98,520.13,520.31,520.48,520.63,520.72,520.83,520.96,521.05,521.13,521.20,521.28,521.33,521.26,521.10,520.87,520.62,520.48,520.38,520.26,520.14,520.06,519.97,519.89,519.81,519.74,519.73,519.66,519.68,519.78,519.94,520.15,520.33,520.52,520.72,520.83,520.91,520.99,521.07,521.14,521.22,521.30,521.38,521.45,521.53,521.61,521.68,521.76,521.82,521.90,521.94,521.93,521.87,521.80,521.76,521.76,521.78,521.84,521.86,521.86,521.88,521.94,521.95,521.96,521.99,522.04,522.05,522.06,522.10,522.15,522.17,522.22,522.24,522.17,521.94,521.72,521.54,521.34,521.13,520.96,520.75,520.52,520.33,520.22,520.06,519.95,519.90,519.89,519.82,519.74,519.70,519.69,519.63,519.62,519.62,519.62,519.61,519.54,519.76,519.99,520.00,520.00,520.00,520.04,520.10,520.10,520.10,520.15,520.20,520.20,520.21,520.27,520.25,520.09,519.93,519.90,519.86
520.56,520.58,520.65,520.66,520.72,520.79,520.86,520.88,520.89,520.82,520.66,520.51,520.36,520.21,520.05,519.70,518.71,517.49,516.34,515.46,515.13,514.86,514.56,514.26,514.01,513.93,513.98,514.10,514.28,514.44,514.55,514.67,514.83,515.03,515.21,515.42,515.66,515.89,516.08,516.31,516.59,516.92,517.31,517.69,518.07,518.45,518.81,518.97,518.96,518.88,518.80,518.72,518.65,518.57,518.49,518.42,518.41,518.36,518.31,518.33,518.40,518.48,518.54,518.61,518.63,518.69,518.76,518.83,518.90,518.98,519.02,519.05,519.11,519.06,519.05,519.07,519.10,519.16,519.22,519.25,519.28,519.34,519.36,519.41,519.44,519.45,519.46,519.53,519.61,519.72,519.88,520.09,520.26,520.45,520.61,520.46,520.24,520.09,520.03,519.99,519.90,519.66,519.34,519.01,518.69,518.72,518.91,519.15,519.39,519.67,519.94,520.13,520.13,520.06,519.92,519.75,519.60,519.44,519.25,519.04,518.83,518.66,518.44,518.21,518.01,517.86,517.83,517.99,518.25,518.57,518.87,519.13,519.37,519.62,519.92,520.05,520.16,520.23,520.18,520.21,520.30,520.47,520.67,520.82,520.91,521.00,521.10,521.24,521.32,521.40,521.48,521.53,521.45,521.22,520.98,520.83,520.73,520.60,520.49,520.40,520.31,520.18,520.09,519.98,519.87,519.86,519.79,519.81,519.91,520.06,520.23,520.44,520.63,520.81,521.00,521.11,521.18,521.26,521.34,521.42,521.49,521.57,521.65,521.73,521.80,521.88,521.94,521.96,522.03,522.10,522.14,522.12,522.05,522.03,522.03,522.03,522.04,522.10,522.13,522.13,522.14,522.14,522.18,522.23,522.24,522.25,522.29,522.33,522.36,522.41,522.44,522.41,522.30,522.07,521.90,521.69,521.47,521.25,521.09,520.88,520.68,520.50,520.30,520.08,519.95,519.90,519.89,519.82,519.74,519.70,519.70,519.69,519.68,519.68,519.68,519.67,519.61,519.76,519.94,520.00,520.00,520.00,520.04,520.10,520.10,520.10,520.15,520.20,520.21,520.26,520.33,520.31,520.15,519.94,519.90,519.86
520.69,520.72,520.78,520.79,520.85,520.92,520.99,520.99,520.93,520.82,520.66,520.47,520.31,520.15,519.84,519.10,517.74,516.47,515.51,514.95,514.74,514.58,514.38,514.18,514.11,514.15,514.31,514.50,514.70,514.92,515.09,515.26,515.46,515.68,515.82,515.94,516.09,516.28,516.44,516.60,516.81,517.10,517.49,517.87,518.25,518.63,518.97,519.22,519.26,519.21,519.16,519.06,518.97,518.89,518.83,518.78,518.75,518.68,518.63,518.64,518.71,518.76,518.82,518.89,518.93,519.00,519.07,519.14,519.18,519.19,519.19,519.19,519.19,519.16,519.14,519.16,519.21,519.28,519.33,519.37,519.42,519.49,519.53,519.57,519.61,519.64,519.64,519.67,519.74,519.83,519.99,520.18,520.37,520.55,520.65,520.45,520.22,520.03,519.89,519.77,519.66,519.47,519.22,518.96,518.75,518.89,519.15,519.41,519.64,519.91,520.14,520.31,520.36,520.28,520.14,519.98,519.83,519.67,519.46,519.23,519.01,518.85,518.63,518.40,518.18,518.02,518.00,518.16,518.42,518.73,519.00,519.24,519.47,519.71,519.97,520.14,520.29,520.40,520.44,520.51,520.56,520.66,520.82,520.97,521.09,521.18,521.27,521.39,521.47,521.57,521.66,521.67,521.56,521.35,521.18,521.07,520.98,520.84,520.74,520.65,520.58,520.46,520.37,520.28,520.16,520.09,519.95,519.94,520.04,520.19,520.35,520.53,520.72,520.91,521.11,521.27,521.38,521.46,521.53,521.61,521.69,521.76,521.84,521.92,522.00,522.06,522.10,522.14,522.21,522.28,522.35,522.37,522.31,522.26,522.24,522.25,522.28,522.32,522.34,522.35,522.38,522.38,522.41,522.45,522.48,522.48,522.51,522.56,522.59,522.63,522.64,522.58,522.44,522.25,522.05,521.83,521.62,521.42,521.23,521.01,520.81,520.64,520.41,520.18,520.00,519.90,519.89,519.82,519.77,519.75,519.75,519.75,519.75,519.75,519.75,519.74,519.70,519.80,519.93,520.00,520.00,520.00,520.04,520.11,520.14,520.14,520.20,520.25,520.25,520.33,520.40,520.44,520.35,519.98,519.90,519.86
520.81,520.85,520.91,520.92,520.98,521.04,521.09,521.08,520.96,520.80,520.63,520.43,520.26,520.11,519.59,518.27,516.60,515.44,514.83,514.66,514.50,514.38,514.25,514.20,514.35,514.52,514.82,515.07,515.19,515.47,515.71,515.94,516.17,516.38,516.48,516.52,516.58,516.71,516.84,516.93,517.09,517.33,517.67,518.05,518.44,518.81,519.13,519.45,519.55,519.55,519.52,519.40,519.31,519.24,519.17,519.15,519.09,519.01,518.96,518.97,519.02,519.05,519.09,519.17,519.25,519.31,519.36,519.40,519.38,519.33,519.30,519.27,519.22,519.22,519.22,519.26,519.33,519.41,519.43,519.48,519.54,519.61,519.69,519.72,519.80,519.95,519.95,519.92,519.92,519.98,520.13,520.29,520.50,520.65,520.66,520.45,520.21,519.98,519.77,519.62,519.47,519.31,519.14,518.95,518.86,519.05,519.35,519.63,519.88,520.12,520.30,520.46,520.59,520.50,520.35,520.19,520.02,519.86,519.64,519.41,519.19,519.02,518.80,518.58,518.37,518.19,518.16,518.30,518.54,518.82,519.06,519.29,519.52,519.75,520.00,520.22,520.39,520.54,520.67,520.77,520.81,520.86,520.97,521.12,521.27,521.38,521.46,521.53,521.61,521.73,521.83,521.81,521.68,521.53,521.42,521.34,521.25,521.13,521.02,520.94,520.87,520.79,520.72,520.64,520.55,520.39,520.18,520.12,520.19,520.33,520.48,520.63,520.81,521.02,521.20,521.40,521.56,521.65,521.73,521.80,521.88,521.96,522.04,522.11,522.18,522.23,522.25,522.32,522.40,522.48,522.55,522.61,522.56,522.50,522.45,522.46,522.52,522.53,522.54,522.56,522.62,522.63,522.64,522.67,522.72,522.73,522.74,522.78,522.83,522.83,522.84,522.75,522.59,522.41,522.20,521.96,521.76,521.59,521.37,521.14,520.95,520.77,520.54,520.31,520.07,519.91,519.89,519.83,519.81,519.81,519.81,519.81,519.81,519.81,519.81,519.81,519.81,519.86,519.93,520.00,520.01,520.01,520.05,520.13,520.20,520.22,520.26,520.31,520.32,520.39,520.47,520.58,520.59,520.03,519.90,519.87
520.91,520.98,521.04,521.05,521.10,521.13,521.09,521.03,520.90,520.75,520.58,520.41,520.26,520.10,519.30,517.29,515.64,514.95,514.68,514.52,514.38,514.37,514.39,514.44,514.62,514.93,515.63,516.09,515.97,516.19,516.42,516.65,516.87,517.04,517.13,517.20,517.25,517.27,517.26,517.36,517.51,517.68,517.84,518.18,518.57,518.95,519.32,519.69,519.85,519.86,519.80,519.76,519.69,519.62,519.54,519.48,519.41,519.33,519.28,519.28,519.30,519.35,519.41,519.49,519.56,519.55,519.50,519.46,519.40,519.38,519.34,519.29,519.28,519.27,519.32,519.36,519.41,519.53,519.61,519.64,519.66,519.68,519.75,519.82,520.14,520.68,520.70,520.52,520.29,520.17,520.33,520.53,520.72,520.79,520.67,520.45,520.17,519.94,519.77,519.62,519.46,519.31,519.16,519.06,519.03,519.21,519.46,519.72,520.00,520.25,520.43,520.61,520.79,520.74,520.61,520.43,520.22,520.00,519.77,519.54,519.32,519.10,518.87,518.71,518.59,518.49,518.48,518.52,518.63,518.83,519.06,519.29,519.53,519.77,520.05,520.24,520.40,520.53,520.63,520.77,520.89,521.02,521.16,521.31,521.46,521.57,521.65,521.73,521.80,521.89,521.98,522.01,521.92,521.83,521.74,521.66,521.59,521.49,521.40,521.33,521.25,521.17,521.10,521.05,520.99,520.78,520.60,520.47,520.43,520.53,520.62,520.76,520.92,521.10,521.31,521.49,521.68,521.84,521.92,522.00,522.08,522.15,522.23,522.31,522.34,522.38,522.44,522.52,522.59,522.67,522.75,522.82,522.81,522.75,522.70,522.71,522.72,522.73,522.76,522.81,522.83,522.83,522.87,522.91,522.93,522.93,522.97,523.01,523.03,523.03,523.08,522.99,522.77,522.56,522.33,522.09,521.89,521.72,521.50,521.27,521.08,520.90,520.67,520.44,520.17,519.96,519.90,519.88,519.88,519.88,519.88,519.88,519.88,519.88,519.88,519.88,519.88,519.89,519.93,520.00,520.06,520.08,520.12,520.19,520.26,520.27,520.33,520.38,520.38,520.46,520.53,520.67,520.70,520.05,519.90,519.89
521.02,521.10,521.17,521.18,521.19,521.17,521.09,520.98,520.84,520.68,520.52,520.37,520.22,519.75,518.47,516.20,515.06,514.70,514.59,514.52,514.44,514.49,514.58,514.83,515.43,516.06,516.96,517.43,517.12,517.01,517.15,517.35,517.55,517.72,517.79,517.86,517.91,517.88,517.73,517.78,517.93,518.09,518.18,518.38,518.70,519.09,519.47,519.86,520.10,520.20,520.18,520.15,520.09,520.00,519.92,519.82,519.73,519.67,519.64,519.61,519.61,519.61,519.64,519.68,519.69,519.63,519.56,519.48,519.41,519.40,519.37,519.34,519.35,519.38,519.42,519.44,519.47,519.62,519.74,519.78,519.78,519.79,519.83,519.92,520.26,520.83,521.00,520.86,520.58,520.34,520.45,520.63,520.82,520.87,520.67,520.45,520.18,519.97,519.82,519.69,519.54,519.37,519.22,519.15,519.14,519.31,519.54,519.77,519.98,520.24,520.46,520.66,520.90,520.96,520.87,520.68,520.44,520.18,519.92,519.66,519.41,519.20,519.03,518.91,518.84,518.77,518.73,518.72,518.79,518.95,519.18,519.39,519.59,519.81,520.07,520.28,520.44,520.59,520.74,520.92,521.09,521.24,521.39,521.51,521.63,521.75,521.84,521.92,522.00,522.10,522.21,522.29,522.28,522.23,522.14,522.07,521.99,521.91,521.84,521.76,521.68,521.61,521.52,521.47,521.40,521.22,521.08,520.92,520.78,520.77,520.84,520.95,521.08,521.24,521.41,521.59,521.78,521.97,522.11,522.19,522.25,522.31,522.38,522.46,522.51,522.56,522.63,522.71,522.79,522.87,522.93,522.98,523.01,522.99,522.95,522.93,522.96,522.96,522.98,523.03,523.06,523.07,523.09,523.13,523.16,523.16,523.20,523.24,523.26,523.27,523.30,523.21,522.99,522.73,522.47,522.22,522.01,521.82,521.62,521.40,521.19,521.00,520.80,520.57,520.27,520.01,519.95,519.94,519.94,519.94,519.94,519.98,519.98,519.98,519.98,519.98,519.98,520.00,520.04,520.09,520.13,520.16,520.20,520.26,520.33,520.34,520.39,520.44,520.45,520.52,520.62,520.77,520.78,520.10,519.91,519.90
521.15,521.23,521.30,521.30,521.24,521.17,521.07,520.93,520.77,520.62,520.46,520.30,520.16,519.19,517.38,515.22,514.77,514.62,514.57,514.61,514.63,514.75,514.99,515.55,516.72,517.64,518.49,518.81,518.34,517.87,517.89,518.05,518.22,518.42,518.45,518.50,518.55,518.50,518.23,518.21,518.36,518.55,518.63,518.65,518.86,519.23,519.60,519.98,520.30,520.52,520.59,520.56,520.48,520.40,520.30,520.16,520.07,520.03,519.99,519.91,519.88,519.83,519.79,519.77,519.71,519.63,519.56,519.48,519.42,519.41,519.41,519.41,519.42,519.49,519.51,519.51,519.55,519.70,519.88,519.94,519.93,519.93,519.93,520.02,520.26,520.64,520.98,521.02,520.81,520.53,520.53,520.66,520.86,520.92,520.69,520.46,520.24,520.07,519.95,519.85,519.68,519.47,519.29,519.22,519.21,519.38,519.60,519.79,519.90,520.16,520.42,520.67,520.97,521.15,521.11,520.94,520.68,520.38,520.08,519.78,519.51,519.36,519.26,519.18,519.11,519.04,518.96,518.93,518.98,519.15,519.38,519.56,519.72,519.90,520.14,520.37,520.54,520.73,520.96,521.17,521.34,521.49,521.63,521.71,521.80,521.91,522.04,522.12,522.19,522.32,522.48,522.64,522.70,522.66,522.59,522.52,522.44,522.37,522.29,522.22,522.13,522.06,521.98,521.91,521.81,521.67,521.58,521.41,521.20,521.07,521.11,521.19,521.30,521.43,521.52,521.72,521.90,522.07,522.27,522.38,522.41,522.45,522.52,522.61,522.67,522.75,522.83,522.91,522.98,523.06,523.11,523.13,523.19,523.22,523.19,523.14,523.20,523.21,523.22,523.25,523.30,523.31,523.32,523.35,523.40,523.41,523.42,523.46,523.51,523.52,523.52,523.43,523.24,522.94,522.63,522.37,522.13,521.91,521.74,521.53,521.30,521.08,520.92,520.69,520.38,520.11,520.05,520.04,520.04,520.03,520.04,520.10,520.11,520.11,520.11,520.11,520.12,520.16,520.20,520.21,520.22,520.27,520.31,520.33,520.39,520.41,520.46,520.50,520.51,520.58,520.71,520.87,520.86,520.17,519.95,519.90
521.28,521.36,521.42,521.33,521.25,521.15,521.01,520.86,520.71,520.55,520.40,520.25,520.13,518.67,516.56,515.00,514.73,514.71,514.72,514.75,514.83,515.30,516.22,517.49,518.81,519.31,519.61,519.55,519.00,518.58,518.64,518.80,518.91,519.08,519.11,519.12,519.13,519.08,518.76,518.72,518.87,519.06,519.09,519.10,519.19,519.40,519.73,520.06,520.38,520.66,520.88,520.97,520.93,520.83,520.69,520.54,520.45,520.39,520.29,520.11,519.94,519.88,519.85,519.79,519.71,519.63,519.56,519.49,519.47,519.47,519.50,519.54,519.54,519.57,519.62,519.64,519.67,519.84,520.13,520.22,520.18,520.18,520.13,520.14,520.24,520.44,520.76,521.03,521.02,520.81,520.67,520.74,520.93,520.99,520.75,520.52,520.37,520.34,520.35,520.16,519.87,519.60,519.40,519.29,519.33,519.47,519.62,519.75,519.88,520.11,520.38,520.67,520.98,521.25,521.31,521.18,520.88,520.58,520.27,519.97,519.70,519.60,519.51,519.47,519.43,519.35,519.28,519.17,519.18,519.35,519.63,519.81,519.97,520.15,520.43,520.62,520.82,521.03,521.26,521.44,521.60,521.73,521.82,521.90,522.03,522.14,522.23,522.31,522.39,522.52,522.74,523.00,523.05,523.03,523.01,522.98,522.90,522.82,522.75,522.66,522.59,522.51,522.43,522.36,522.26,522.12,522.08,521.93,521.69,521.45,521.39,521.47,521.59,521.68,521.77,521.92,522.06,522.18,522.35,522.49,522.58,522.64,522.72,522.79,522.87,522.95,523.02,523.10,523.18,523.22,523.26,523.31,523.39,523.45,523.45,523.39,523.41,523.41,523.44,523.48,523.51,523.51,523.55,523.59,523.61,523.61,523.65,523.69,523.71,523.71,523.71,523.65,523.50,523.19,522.88,522.59,522.32,522.10,521.88,521.66,521.42,521.21,521.04,520.78,520.53,520.38,520.35,520.30,520.28,520.26,520.22,520.24,520.24,520.24,520.24,520.25,520.30,520.33,520.34,520.34,520.34,520.40,520.44,520.44,520.47,520.52,520.55,520.57,520.58,520.65,520.78,520.96,520.99,520.34,520.01,519.90
521.41,521.47,521.45,521.31,521.21,521.11,520.95,520.80,520.64,520.49,520.34,520.21,520.10,518.34,516.09,514.97,514.78,514.85,514.99,515.19,515.44,516.24,517.54,518.98,519.97,520.21,520.18,519.94,519.48,519.27,519.37,519.48,519.55,519.67,519.74,519.75,519.73,519.60,519.25,519.21,519.35,519.54,519.58,519.58,519.61,519.71,519.97,520.25,520.53,520.83,521.11,521.30,521.35,521.27,521.12,520.97,520.83,520.69,520.53,520.29,519.98,519.88,519.84,519.79,519.71,519.63,519.57,519.53,519.54,519.56,519.60,519.63,519.64,519.66,519.71,519.74,519.76,519.90,520.22,520.38,520.40,520.37,520.32,520.30,520.34,520.45,520.66,520.93,521.08,521.05,520.85,520.88,521.00,521.02,520.83,520.65,520.55,520.57,520.60,520.29,519.92,519.63,519.45,519.42,519.48,519.62,519.74,519.83,519.98,520.20,520.47,520.77,521.06,521.36,521.49,521.39,521.09,520.77,520.47,520.18,519.97,519.88,519.81,519.78,519.75,519.67,519.54,519.36,519.32,519.56,519.90,520.13,520.28,520.45,520.75,520.92,521.13,521.35,521.55,521.70,521.86,521.97,522.05,522.13,522.25,522.35,522.43,522.51,522.58,522.69,522.97,523.38,523.41,523.41,523.40,523.37,523.35,523.27,523.19,523.12,523.04,522.97,522.89,522.81,522.73,522.61,522.56,522.41,522.17,521.90,521.75,521.78,521.88,521.95,522.03,522.16,522.28,522.37,522.50,522.65,522.75,522.83,522.91,522.99,523.06,523.14,523.22,523.30,523.35,523.39,523.43,523.50,523.58,523.66,523.69,523.65,523.64,523.64,523.66,523.71,523.74,523.74,523.77,523.82,523.84,523.84,523.88,523.90,523.90,523.91,523.93,523.89,523.76,523.45,523.14,522.83,522.54,522.29,522.05,521.80,521.55,521.34,521.17,520.91,520.75,520.66,520.64,520.59,520.56,520.52,520.47,520.45,520.44,520.42,520.40,520.41,520.45,520.47,520.47,520.48,520.50,520.54,520.57,520.57,520.60,520.65,520.67,520.68,520.71,520.76,520.88,521.06,521.12,520.61,520.11,519.90
521.53,521.54,521.40,521.25,521.15,521.04,520.88,520.73,520.57,520.43,520.29,520.19,520.02,518.14,515.90,515.05,514.98,515.12,515.44,515.92,516.39,517.42,518.73,519.88,520.26,520.45,520.35,520.09,519.85,519.92,520.01,520.06,520.08,520.16,520.30,520.36,520.28,520.04,519.68,519.65,519.80,519.99,520.06,520.07,520.08,520.13,520.31,520.54,520.77,521.03,521.32,521.55,521.71,521.69,521.51,521.34,521.13,520.91,520.68,520.41,520.01,519.85,519.80,519.78,519.71,519.64,519.60,519.59,519.60,519.66,519.69,519.70,519.72,519.78,519.81,519.82,519.84,519.94,520.21,520.45,520.57,520.51,520.50,520.50,520.53,520.61,520.71,520.81,521.02,521.21,521.04,521.07,521.10,521.04,520.90,520.81,520.74,520.72,520.67,520.24,519.85,519.57,519.46,519.59,519.68,519.81,519.93,520.03,520.18,520.39,520.66,520.95,521.20,521.50,521.65,521.59,521.28,520.97,520.67,520.43,520.29,520.21,520.14,520.11,520.07,519.96,519.76,519.48,519.43,519.74,520.17,520.47,520.63,520.77,521.06,521.24,521.45,521.65,521.81,521.97,522.12,522.23,522.31,522.38,522.47,522.55,522.62,522.70,522.78,522.86,523.19,523.76,523.80,523.80,523.77,523.73,523.77,523.72,523.65,523.58,523.50,523.42,523.35,523.27,523.19,523.11,523.03,522.87,522.63,522.40,522.18,522.11,522.13,522.21,522.29,522.43,522.54,522.62,522.71,522.86,522.95,523.02,523.10,523.17,523.25,523.33,523.40,523.47,523.50,523.55,523.62,523.70,523.78,523.85,523.90,523.90,523.89,523.89,523.90,523.92,523.98,524.00,524.00,524.03,524.09,524.10,524.10,524.10,524.10,524.11,524.16,524.15,524.02,523.72,523.41,523.10,522.79,522.50,522.26,521.97,521.70,521.48,521.31,521.10,521.00,520.97,520.91,520.90,520.85,520.80,520.78,520.72,520.70,520.66,520.61,520.61,520.62,520.61,520.60,520.62,520.67,520.69,520.70,520.72,520.78,520.80,520.81,520.83,520.89,520.90,521.01,521.16,521.24,520.95,520.35,520.03
521.59,521.49,521.34,521.24,521.11,520.98,520.82,520.67,520.51,520.38,520.27,520.12,519.71,517.91,515.96,515.41,515.65,516.01,516.45,516.96,517.42,518.34,519.33,520.13,520.46,520.65,520.54,520.33,520.21,520.25,520.32,520.36,520.38,520.46,520.61,520.66,520.57,520.28,520.00,520.02,520.19,520.38,520.42,520.42,520.42,520.48,520.68,520.87,521.08,521.33,521.58,521.81,521.99,521.91,521.61,521.35,521.08,520.79,520.53,520.29,519.98,519.84,519.78,519.74,519.71,519.68,519.64,519.60,519.61,519.67,519.74,519.78,519.83,519.86,519.94,520.02,520.07,520.17,520.39,520.61,520.71,520.65,520.68,520.69,520.73,520.80,520.88,520.92,521.03,521.19,521.25,521.24,521.16,521.06,520.97,520.94,520.91,520.81,520.56,520.08,519.75,519.58,519.58,519.74,519.91,520.04,520.15,520.27,520.38,520.59,520.84,521.10,521.39,521.69,521.84,521.78,521.47,521.16,520.89,520.71,520.61,520.53,520.50,520.46,520.36,520.13,519.90,519.61,519.51,519.77,520.22,520.66,520.93,521.09,521.34,521.55,521.74,521.93,522.12,522.24,522.34,522.43,522.51,522.59,522.66,522.74,522.82,522.89,522.97,523.05,523.46,524.19,524.20,524.19,524.17,524.15,524.13,524.10,524.07,524.03,523.95,523.88,523.83,523.76,523.65,523.62,523.51,523.32,523.09,522.86,522.63,522.45,522.39,522.48,522.60,522.71,522.80,522.89,523.01,523.12,523.18,523.20,523.24,523.31,523.39,523.47,523.54,523.62,523.67,523.74,523.82,523.89,523.97,524.05,524.11,524.15,524.10,524.09,524.12,524.16,524.19,524.19,524.23,524.27,524.29,524.30,524.30,524.30,524.30,524.35,524.38,524.38,524.29,524.02,523.72,523.42,523.11,522.80,522.52,522.22,521.92,521.65,521.46,521.35,521.29,521.25,521.22,521.17,521.14,521.10,521.06,521.03,520.98,520.94,520.91,520.87,520.86,520.79,520.75,520.79,520.83,520.83,520.86,520.90,520.92,520.93,520.96,521.00,521.03,521.08,521.13,521.25,521.42,521.41,521.19,520.93
521.58,521.43,521.30,521.20,521.07,520.91,520.75,520.60,520.47,520.35,520.24,520.01,519.20,517.50,516.13,516.31,516.81,517.26,517.69,518.12,518.48,519.13,519.77,520.30,520.65,520.84,520.74,520.59,520.52,520.52,520.59,520.61,520.63,520.72,520.86,520.90,520.80,520.52,520.30,520.38,520.57,520.74,520.75,520.75,520.76,520.84,521.04,521.22,521.42,521.64,521.87,522.12,522.23,522.07,521.69,521.36,521.00,520.67,520.36,520.12,519.94,519.86,519.79,519.73,519.73,519.73,519.69,519.63,519.61,519.67,519.74,519.79,519.85,519.94,520.12,520.25,520.31,520.39,520.62,520.78,520.84,520.81,520.87,520.89,520.92,521.00,521.07,521.09,521.13,521.23,521.37,521.30,521.15,521.01,520.95,520.92,520.91,520.76,520.41,519.94,519.68,519.63,519.72,519.92,520.15,520.28,520.37,520.50,520.61,520.79,521.01,521.26,521.55,521.85,522.02,521.98,521.67,521.36,521.14,521.01,520.94,520.89,520.84,520.72,520.50,520.18,519.94,519.70,519.63,519.83,520.26,520.78,521.17,521.43,521.64,521.87,522.05,522.22,522.38,522.47,522.55,522.63,522.70,522.78,522.86,522.93,523.01,523.09,523.17,523.24,523.72,524.56,524.59,524.58,524.58,524.57,524.52,524.49,524.48,524.46,524.40,524.33,524.31,524.25,524.14,524.13,524.00,523.80,523.57,523.34,523.09,522.85,522.71,522.75,522.89,522.99,523.06,523.15,523.27,523.34,523.36,523.36,523.37,523.44,523.52,523.60,523.67,523.75,523.83,523.92,524.01,524.09,524.16,524.23,524.29,524.35,524.33,524.32,524.35,524.39,524.41,524.41,524.45,524.49,524.49,524.49,524.51,524.51,524.53,524.58,524.61,524.61,524.56,524.34,524.05,523.72,523.39,523.06,522.73,522.39,522.11,521.89,521.73,521.69,521.62,521.54,521.52,521.46,521.43,521.40,521.35,521.32,521.27,521.23,521.20,521.15,521.10,520.99,520.91,520.96,520.96,520.96,521.00,521.06,521.06,521.08,521.12,521.16,521.20,521.27,521.29,521.37,521.55,521.70,521.73,521.59
521.52,521.38,521.29,521.15,521.00,520.85,520.69,520.54,520.44,520.32,520.17,519.85,518.46,516.95,516.47,517.77,518.38,518.74,519.02,519.27,519.52,519.81,520.14,520.50,520.86,521.04,520.98,520.85,520.79,520.78,520.84,520.87,520.89,520.98,521.12,521.13,521.01,520.78,520.62,520.74,520.93,521.07,521.07,521.07,521.11,521.21,521.38,521.60,521.78,521.97,522.21,522.50,522.46,522.20,521.81,521.43,520.99,520.59,520.24,519.97,519.91,519.90,519.87,519.81,519.80,519.80,519.75,519.68,519.63,519.67,519.71,519.72,519.78,520.03,520.32,520.48,520.50,520.60,520.86,520.98,520.99,521.00,521.06,521.09,521.12,521.19,521.27,521.28,521.32,521.38,521.38,521.25,521.06,520.89,520.81,520.73,520.72,520.57,520.24,519.87,519.67,519.69,519.88,520.16,520.40,520.53,520.62,520.71,520.85,521.01,521.21,521.44,521.69,521.99,522.19,522.17,521.87,521.56,521.42,521.34,521.27,521.25,521.12,520.85,520.49,520.12,519.88,519.75,519.76,519.98,520.35,520.86,521.37,521.79,521.97,522.19,522.36,522.50,522.59,522.67,522.74,522.82,522.90,522.98,523.06,523.13,523.21,523.29,523.37,523.44,523.94,524.87,524.94,524.94,524.94,524.94,524.93,524.88,524.85,524.85,524.83,524.77,524.75,524.71,524.64,524.62,524.50,524.30,524.08,523.84,523.55,523.31,523.11,523.03,523.15,523.25,523.32,523.39,523.47,523.49,523.49,523.49,523.50,523.57,523.64,523.72,523.80,523.88,523.96,524.07,524.19,524.27,524.35,524.38,524.42,524.50,524.56,524.57,524.58,524.60,524.66,524.67,524.68,524.68,524.68,524.68,524.73,524.77,524.77,524.78,524.84,524.87,524.82,524.64,524.35,523.99,523.61,523.23,522.85,522.49,522.27,522.19,522.16,522.11,521.99,521.86,521.80,521.77,521.72,521.68,521.65,521.60,521.57,521.53,521.48,521.45,521.33,521.18,521.09,521.09,521.09,521.10,521.13,521.19,521.20,521.26,521.29,521.32,521.39,521.46,521.49,521.52,521.63,521.77,521.80,521.81
521.51,521.37,521.24,521.09,520.94,520.80,520.68,520.53,520.40,520.26,520.02,519.36,517.47,517.06,517.91,519.09,519.46,519.66,519.80,519.90,520.04,520.22,520.47,520.79,521.10,521.24,521.24,521.17,521.10,521.05,521.06,521.10,521.15,521.24,521.38,521.39,521.26,521.05,520.93,521.03,521.23,521.39,521.40,521.40,521.47,521.60,521.76,521.98,522.16,522.35,522.58,522.83,522.70,522.36,521.94,521.55,521.10,520.68,520.32,520.05,519.97,519.99,520.01,519.98,519.97,519.86,519.78,519.74,519.67,519.69,519.73,519.79,519.91,520.16,520.50,520.70,520.75,520.85,521.08,521.18,521.18,521.19,521.26,521.28,521.31,521.39,521.46,521.48,521.47,521.44,521.34,521.19,521.02,520.84,520.67,520.55,520.52,520.39,520.11,519.80,519.73,519.81,520.01,520.31,520.55,520.74,520.87,520.95,521.07,521.25,521.44,521.63,521.88,522.17,522.38,522.37,522.07,521.85,521.74,521.66,521.58,521.48,521.26,520.90,520.47,520.07,519.85,519.84,520.00,520.30,520.64,521.07,521.54,521.99,522.27,522.47,522.61,522.71,522.78,522.86,522.94,523.01,523.10,523.22,523.30,523.38,523.48,523.58,523.63,523.66,524.10,524.94,525.05,525.10,525.12,525.12,525.12,525.09,525.08,525.08,525.07,525.04,525.03,525.01,524.93,524.88,524.78,524.63,524.46,524.30,524.06,523.81,523.60,523.43,523.44,523.50,523.57,523.63,523.62,523.62,523.62,523.62,523.63,523.70,523.74,523.79,523.88,524.00,524.08,524.18,524.28,524.36,524.43,524.52,524.61,524.69,524.76,524.78,524.80,524.84,524.88,524.88,524.88,524.88,524.88,524.88,524.90,524.92,524.92,524.92,524.99,525.02,524.96,524.75,524.41,524.04,523.65,523.26,522.88,522.67,522.61,522.63,522.66,522.61,522.45,522.27,522.15,522.06,522.01,521.98,521.94,521.90,521.86,521.82,521.78,521.67,521.53,521.37,521.26,521.22,521.22,521.25,521.32,521.38,521.38,521.45,521.48,521.50,521.57,521.61,521.65,521.69,521.75,521.89,521.92,521.96
521.48,521.31,521.15,521.00,520.86,520.74,520.63,520.48,520.34,520.20,519.84,518.78,516.99,517.57,519.23,519.97,520.15,520.23,520.28,520.31,520.39,520.53,520.77,521.08,521.37,521.47,521.49,521.47,521.41,521.34,521.32,521.35,521.41,521.50,521.62,521.63,521.52,521.31,521.24,521.34,521.54,521.73,521.75,521.73,521.82,521.99,522.15,522.35,522.54,522.73,522.93,523.12,522.91,522.52,522.07,521.68,521.25,520.86,520.53,520.30,520.23,520.27,520.29,520.21,520.11,519.90,519.81,519.82,519.80,519.80,519.84,519.95,520.12,520.33,520.66,520.90,520.99,521.10,521.29,521.37,521.37,521.38,521.45,521.47,521.51,521.58,521.63,521.62,521.55,521.44,521.28,521.13,520.98,520.80,520.60,520.43,520.36,520.22,520.00,519.75,519.78,519.93,520.14,520.42,520.68,520.91,521.09,521.18,521.29,521.48,521.67,521.85,522.07,522.35,522.58,522.59,522.31,522.15,522.05,521.95,521.84,521.68,521.37,520.95,520.49,520.06,519.87,519.98,520.28,520.68,521.01,521.39,521.80,522.22,522.58,522.75,522.84,522.93,523.02,523.10,523.18,523.27,523.37,523.50,523.59,523.67,523.76,523.86,523.87,523.87,524.23,524.96,525.11,525.18,525.23,525.25,525.25,525.25,525.25,525.25,525.25,525.25,525.24,525.18,525.09,525.01,524.92,524.80,524.68,524.59,524.41,524.21,524.01,523.82,523.74,523.75,523.80,523.83,523.78,523.75,523.76,523.77,523.78,523.84,523.85,523.88,523.97,524.10,524.19,524.27,524.35,524.42,524.50,524.62,524.73,524.81,524.88,524.91,524.97,525.02,525.02,525.02,525.02,525.02,525.02,525.02,525.04,525.05,525.05,525.05,525.10,525.13,525.08,524.81,524.39,524.00,523.64,523.30,523.01,522.96,523.01,523.09,523.15,523.12,522.96,522.76,522.59,522.43,522.36,522.29,522.22,522.19,522.14,522.10,522.03,521.88,521.74,521.62,521.49,521.36,521.37,521.42,521.49,521.55,521.58,521.63,521.66,521.69,521.75,521.77,521.81,521.86,521.89,522.00,522.04,522.09
521.39,521.19,521.03,520.88,520.76,520.65,520.50,520.35,520.25,520.12,519.61,518.15,517.44,518.49,519.91,520.17,520.33,520.42,520.50,520.57,520.65,520.79,521.03,521.34,521.62,521.73,521.76,521.75,521.73,521.66,521.64,521.65,521.67,521.75,521.84,521.86,521.78,521.58,521.54,521.66,521.88,522.12,522.13,522.08,522.17,522.38,522.53,522.69,522.89,523.10,523.25,523.33,523.07,522.65,522.21,521.81,521.42,521.12,520.89,520.75,520.78,520.85,520.76,520.48,520.16,519.91,519.84,519.92,520.04,520.06,520.11,520.22,520.37,520.54,520.82,521.05,521.20,521.35,521.50,521.57,521.57,521.58,521.65,521.67,521.70,521.76,521.76,521.65,521.51,521.37,521.22,521.07,520.91,520.75,520.58,520.43,520.24,520.06,519.89,519.75,519.83,520.02,520.25,520.50,520.80,521.04,521.24,521.39,521.53,521.69,521.89,522.09,522.27,522.50,522.77,522.84,522.57,522.46,522.33,522.18,522.04,521.86,521.47,521.01,520.56,520.13,519.94,520.15,520.57,521.07,521.46,521.84,522.20,522.54,522.90,523.03,523.11,523.21,523.35,523.43,523.51,523.61,523.75,523.83,523.91,523.99,524.05,524.06,524.07,524.07,524.36,524.98,525.16,525.25,525.32,525.38,525.38,525.38,525.38,525.38,525.38,525.38,525.32,525.22,525.09,525.00,524.88,524.76,524.68,524.60,524.50,524.40,524.28,524.13,524.05,523.99,523.97,523.98,523.96,523.90,523.92,523.96,523.96,523.98,523.98,524.01,524.09,524.17,524.25,524.33,524.41,524.49,524.56,524.65,524.73,524.81,524.88,524.95,525.02,525.08,525.09,525.09,525.09,525.09,525.09,525.09,525.14,525.18,525.18,525.18,525.19,525.23,525.20,524.87,524.32,523.92,523.63,523.42,523.35,523.39,523.47,523.54,523.61,523.62,523.51,523.32,523.12,522.95,522.76,522.62,522.54,522.47,522.45,522.37,522.24,522.09,521.99,521.95,521.80,521.52,521.55,521.57,521.62,521.69,521.75,521.77,521.82,521.87,521.89,521.95,521.97,522.01,522.07,522.09,522.15,522.22
521.44,521.25,521.06,520.86,520.69,520.53,520.38,520.22,520.10,519.75,518.92,517.49,517.87,519.08,520.12,520.31,520.47,520.60,520.70,520.78,520.90,521.05,521.27,521.55,521.83,521.94,521.96,521.96,521.96,521.97,521.93,521.91,521.93,522.01,522.09,522.09,522.01,521.88,521.83,521.96,522.21,522.46,522.51,522.46,522.53,522.72,522.91,523.08,523.25,523.44,523.59,523.52,523.20,522.80,522.37,521.96,521.67,521.48,521.34,521.25,521.31,521.20,520.95,520.61,520.27,520.01,519.95,520.06,520.24,520.34,520.39,520.48,520.63,520.78,521.02,521.26,521.44,521.60,521.68,521.74,521.76,521.77,521.84,521.86,521.84,521.79,521.70,521.56,521.43,521.30,521.15,521.00,520.85,520.69,520.53,520.38,520.20,520.02,519.88,519.78,519.89,520.12,520.38,520.62,520.92,521.17,521.41,521.63,521.79,521.94,522.12,522.31,522.51,522.70,522.94,523.03,522.82,522.69,522.54,522.39,522.21,521.92,521.52,521.10,520.69,520.34,520.16,520.42,520.88,521.37,521.84,522.24,522.61,522.96,523.28,523.36,523.42,523.52,523.66,523.75,523.83,523.94,524.07,524.11,524.15,524.18,524.21,524.21,524.21,524.24,524.50,524.99,525.17,525.26,525.36,525.47,525.50,525.51,525.51,525.51,525.50,525.42,525.34,525.23,525.09,525.00,524.87,524.75,524.68,524.60,524.52,524.42,524.32,524.25,524.21,524.14,524.11,524.11,524.11,524.07,524.09,524.11,524.11,524.11,524.11,524.13,524.16,524.20,524.27,524.34,524.42,524.50,524.58,524.65,524.73,524.81,524.88,524.96,525.02,525.06,525.10,525.14,525.15,525.16,525.20,525.21,525.23,525.25,525.26,525.30,525.31,525.35,525.31,524.95,524.47,524.19,523.99,523.80,523.82,523.86,523.91,524.00,524.07,524.08,524.00,523.85,523.63,523.47,523.26,523.08,522.96,522.84,522.75,522.67,522.59,522.49,522.44,522.43,522.19,521.67,521.69,521.74,521.78,521.83,521.89,521.91,521.96,522.02,522.06,522.10,522.14,522.18,522.22,522.25,522.29,522.33
521.54,521.35,521.12,520.89,520.66,520.46,520.30,520.13,519.88,519.27,518.21,517.00,518.15,519.41,520.17,520.38,520.54,520.71,520.85,520.96,521.12,521.28,521.48,521.72,522.00,522.13,522.17,522.17,522.19,522.24,522.21,522.17,522.19,522.26,522.34,522.34,522.26,522.18,522.11,522.27,522.54,522.80,522.89,522.84,522.88,523.05,523.28,523.46,523.62,523.79,523.91,523.69,523.33,522.95,522.56,522.18,522.00,521.89,521.80,521.72,521.72,521.45,521.07,520.71,520.39,520.15,520.10,520.21,520.42,520.62,520.67,520.74,520.88,521.05,521.25,521.47,521.68,521.83,521.86,521.90,521.95,521.96,522.00,522.00,521.92,521.76,521.61,521.45,521.33,521.22,521.07,520.92,520.77,520.63,520.47,520.32,520.16,520.01,519.89,519.84,519.97,520.22,520.51,520.75,521.04,521.30,521.56,521.84,522.02,522.19,522.35,522.53,522.74,522.90,523.11,523.21,523.06,522.89,522.74,522.57,522.36,521.98,521.61,521.22,520.86,520.56,520.42,520.73,521.19,521.66,522.18,522.61,523.01,523.39,523.67,523.71,523.76,523.86,523.99,524.08,524.15,524.25,524.35,524.36,524.36,524.36,524.36,524.36,524.36,524.40,524.62,525.00,525.17,525.26,525.38,525.52,525.61,525.63,525.63,525.61,525.58,525.44,525.34,525.23,525.09,525.00,524.87,524.75,524.68,524.60,524.52,524.41,524.34,524.34,524.34,524.29,524.25,524.24,524.24,524.24,524.24,524.24,524.24,524.24,524.24,524.24,524.24,524.24,524.31,524.38,524.44,524.50,524.58,524.65,524.73,524.81,524.88,524.96,525.00,525.02,525.09,525.17,525.20,525.23,525.29,525.30,525.31,525.32,525.35,525.42,525.44,525.48,525.41,525.04,524.68,524.53,524.42,524.28,524.33,524.35,524.38,524.44,524.50,524.53,524.47,524.32,524.10,523.92,523.69,523.49,523.34,523.23,523.11,523.05,523.03,522.96,522.95,522.95,522.60,521.84,521.82,521.90,521.94,521.95,522.02,522.05,522.10,522.16,522.23,522.24,522.29,522.34,522.36,522.42,522.44,522.44
521.64,521.42,521.19,520.96,520.72,520.52,520.36,520.13,519.56,518.75,517.80,516.99,518.08,519.35,520.16,520.32,520.48,520.68,520.89,521.09,521.25,521.46,521.65,521.85,522.14,522.30,522.39,522.43,522.44,522.45,522.44,522.43,522.45,522.53,522.61,522.63,522.57,522.45,522.42,522.64,522.91,523.13,523.27,523.18,523.21,523.38,523.61,523.83,524.00,524.14,524.17,523.84,523.46,523.08,522.74,522.61,522.50,522.38,522.24,522.08,521.85,521.55,521.23,520.89,520.53,520.33,520.29,520.39,520.58,520.84,520.93,521.00,521.14,521.30,521.47,521.66,521.88,522.02,522.05,522.10,522.15,522.14,522.10,521.99,521.85,521.70,521.54,521.38,521.24,521.09,520.94,520.78,520.67,520.56,520.40,520.25,520.10,519.97,519.90,519.90,520.08,520.35,520.64,520.87,521.12,521.39,521.67,521.92,522.20,522.38,522.57,522.78,522.94,523.10,523.30,523.42,523.31,523.10,522.93,522.75,522.49,522.12,521.78,521.42,521.04,520.72,520.71,521.05,521.51,521.98,522.45,522.91,523.36,523.78,524.05,524.10,524.15,524.24,524.32,524.40,524.48,524.53,524.55,524.55,524.55,524.55,524.55,524.55,524.55,524.56,524.70,525.01,525.17,525.26,525.38,525.53,525.67,525.74,525.73,525.66,525.58,525.44,525.34,525.23,525.09,525.00,524.87,524.75,524.68,524.60,524.52,524.48,524.46,524.46,524.46,524.46,524.42,524.37,524.37,524.37,524.37,524.37,524.37,524.37,524.37,524.37,524.37,524.37,524.43,524.48,524.49,524.51,524.58,524.65,524.73,524.81,524.88,524.96,525.00,525.02,525.09,525.17,525.20,525.23,525.29,525.30,525.35,525.41,525.48,525.55,525.56,525.57,525.48,525.12,524.90,524.83,524.81,524.78,524.85,524.87,524.88,524.89,524.90,524.96,524.86,524.64,524.41,524.19,523.91,523.68,523.57,523.59,523.58,523.57,523.55,523.48,523.47,523.47,523.02,522.05,521.97,522.03,522.06,522.08,522.16,522.23,522.26,522.29,522.36,522.37,522.42,522.46,522.48,522.55,522.56,522.56
521.76,521.53,521.30,521.07,520.84,520.62,520.42,520.18,519.74,518.95,517.91,517.09,518.12,519.33,520.09,520.21,520.37,520.58,520.79,520.98,521.18,521.37,521.56,521.80,522.14,522.41,522.58,522.64,522.64,522.65,522.67,522.69,522.70,522.75,522.85,522.89,522.86,522.75,522.74,522.97,523.25,523.47,523.64,523.56,523.53,523.66,523.93,524.17,524.35,524.43,524.33,523.98,523.65,523.36,523.12,523.00,522.92,522.77,522.57,522.33,522.03,521.69,521.36,521.04,520.71,520.48,520.46,520.60,520.79,521.02,521.15,521.25,521.40,521.56,521.72,521.89,522.06,522.18,522.23,522.25,522.23,522.14,522.04,521.92,521.78,521.63,521.48,521.32,521.17,521.01,520.86,520.74,520.65,520.56,520.43,520.28,520.16,520.04,519.96,520.01,520.20,520.48,520.77,521.00,521.23,521.52,521.79,522.04,522.30,522.54,522.75,522.94,523.13,523.29,523.47,523.58,523.52,523.34,523.15,522.95,522.71,522.30,521.94,521.59,521.23,520.91,520.96,521.32,521.80,522.30,522.76,523.23,523.69,524.13,524.44,524.49,524.51,524.57,524.64,524.68,524.72,524.75,524.75,524.75,524.75,524.75,524.75,524.75,524.75,524.75,524.83,525.02,525.17,525.29,525.43,525.58,525.73,525.82,525.80,525.71,525.59,525.44,525.34,525.23,525.08,524.97,524.85,524.78,524.74,524.69,524.62,524.60,524.60,524.60,524.60,524.60,524.56,524.50,524.50,524.50,524.50,524.50,524.50,524.50,524.50,524.50,524.50,524.50,524.56,524.60,524.60,524.60,524.63,524.68,524.73,524.81,524.88,524.96,525.00,525.02,525.09,525.17,525.22,525.27,525.35,525.38,525.46,525.53,525.60,525.64,525.68,525.69,525.60,525.28,525.09,525.07,525.09,525.10,525.13,525.14,525.16,525.19,525.15,525.12,524.98,524.76,524.51,524.34,524.15,524.02,524.00,524.03,524.04,524.06,524.07,524.00,524.02,524.03,523.47,522.22,522.10,522.16,522.19,522.21,522.28,522.34,522.37,522.41,522.45,522.49,522.53,522.56,522.60,522.64,522.68,522.69
521.89,521.66,521.43,521.20,520.97,520.74,520.50,520.27,520.03,519.35,518.23,517.31,518.13,519.20,519.90,520.07,520.23,520.44,520.63,520.80,521.01,521.18,521.39,521.68,522.07,522.45,522.71,522.83,522.85,522.86,522.91,522.94,522.95,522.97,523.09,523.15,523.13,523.06,523.07,523.29,523.57,523.80,524.01,523.94,523.87,523.93,524.24,524.49,524.65,524.68,524.49,524.15,523.89,523.70,523.55,523.39,523.28,523.09,522.82,522.52,522.21,521.85,521.51,521.20,520.88,520.64,520.63,520.81,521.02,521.19,521.35,521.50,521.65,521.80,521.96,522.12,522.25,522.33,522.38,522.34,522.24,522.10,521.96,521.85,521.74,521.59,521.45,521.30,521.15,521.01,520.88,520.78,520.69,520.61,520.53,520.39,520.28,520.18,520.09,520.17,520.34,520.61,520.90,521.13,521.36,521.65,521.93,522.16,522.40,522.69,522.91,523.10,523.31,523.48,523.64,523.74,523.71,523.57,523.38,523.19,522.96,522.53,522.12,521.77,521.43,521.11,521.22,521.60,522.10,522.62,523.09,523.55,524.01,524.45,524.76,524.82,524.83,524.86,524.92,524.92,524.92,524.92,524.92,524.92,524.92,524.92,524.92,524.92,524.92,524.92,524.96,525.05,525.20,525.36,525.50,525.65,525.80,525.90,525.87,525.76,525.60,525.46,525.35,525.24,525.09,524.94,524.86,524.82,524.81,524.81,524.75,524.73,524.73,524.73,524.73,524.73,524.68,524.63,524.63,524.63,524.63,524.63,524.63,524.63,524.63,524.63,524.63,524.63,524.69,524.73,524.73,524.73,524.73,524.73,524.75,524.83,524.90,524.97,525.01,525.03,525.11,525.18,525.26,525.34,525.41,525.49,525.57,525.64,525.71,525.73,525.79,525.83,525.75,525.48,525.30,525.30,525.34,525.34,525.34,525.35,525.38,525.39,525.30,525.16,525.01,524.83,524.59,524.50,524.43,524.42,524.48,524.48,524.48,524.51,524.55,524.51,524.56,524.57,523.89,522.42,522.24,522.29,522.33,522.34,522.41,522.43,522.48,522.53,522.54,522.61,522.63,522.66,522.72,522.73,522.79,522.83
522.02,521.79,521.56,521.33,521.10,520.86,520.63,520.40,520.17,519.58,518.64,517.73,517.92,518.59,519.33,519.84,520.09,520.27,520.44,520.59,520.76,520.92,521.19,521.55,521.94,522.32,522.72,523.00,523.10,523.11,523.12,523.16,523.21,523.22,523.30,523.37,523.38,523.33,523.37,523.62,523.89,524.13,524.34,524.31,524.20,524.20,524.50,524.80,524.91,524.87,524.70,524.45,524.25,524.09,523.94,523.78,523.53,523.25,522.96,522.65,522.34,522.02,521.70,521.38,521.02,520.81,520.86,521.06,521.23,521.38,521.58,521.75,521.85,522.00,522.16,522.31,522.45,522.51,522.44,522.32,522.19,522.10,522.00,521.88,521.76,521.66,521.57,521.43,521.30,521.21,521.11,520.98,520.88,520.81,520.73,520.63,520.50,520.42,520.41,520.48,520.54,520.74,521.03,521.26,521.49,521.78,522.05,522.30,522.59,522.84,523.07,523.27,523.45,523.66,523.84,523.93,523.91,523.77,523.65,523.49,523.23,522.83,522.39,521.99,521.62,521.32,521.51,521.92,522.42,522.94,523.41,523.88,524.34,524.74,524.92,524.95,525.00,525.04,525.06,525.06,525.06,525.06,525.06,525.06,525.06,525.06,525.06,525.06,525.06,525.06,525.09,525.18,525.33,525.48,525.61,525.72,525.87,526.01,525.97,525.83,525.67,525.52,525.38,525.25,525.15,525.00,524.96,524.92,524.88,524.87,524.86,524.86,524.86,524.86,524.86,524.86,524.81,524.76,524.75,524.75,524.75,524.75,524.75,524.75,524.75,524.75,524.75,524.76,524.82,524.86,524.86,524.86,524.86,524.86,524.86,524.89,524.96,524.99,525.03,525.10,525.17,525.25,525.33,525.40,525.48,525.56,525.63,525.72,525.78,525.85,525.92,525.95,525.90,525.72,525.56,525.52,525.53,525.53,525.54,525.58,525.56,525.45,525.31,525.16,525.04,524.95,524.90,524.88,524.86,524.85,524.87,524.87,524.87,524.88,524.90,524.94,524.96,524.93,524.24,522.77,522.41,522.42,522.45,522.47,522.54,522.56,522.60,522.65,522.66,522.74,522.75,522.79,522.85,522.86,522.92,522.95
522.11,521.88,521.65,521.42,521.18,520.95,520.72,520.49,520.25,519.81,519.11,518.29,517.94,518.24,518.88,519.51,519.82,520.05,520.22,520.36,520.55,520.70,520.99,521.38,521.80,522.19,522.61,522.98,523.24,523.35,523.38,523.41,523.47,523.48,523.55,523.60,523.62,523.59,523.65,523.90,524.19,524.45,524.66,524.68,524.61,524.60,524.80,524.99,525.04,525.00,524.88,524.74,524.59,524.42,524.22,523.96,523.66,523.37,523.09,522.78,522.47,522.16,521.85,521.53,521.20,521.02,521.08,521.27,521.43,521.61,521.80,521.97,522.09,522.24,522.39,522.55,522.68,522.71,522.59,522.45,522.34,522.23,522.15,522.04,521.92,521.82,521.74,521.63,521.51,521.41,521.32,521.21,521.12,521.03,520.92,520.85,520.76,520.71,520.73,520.80,520.82,520.94,521.16,521.39,521.65,521.93,522.18,522.43,522.73,522.98,523.23,523.47,523.62,523.82,523.99,524.10,524.10,523.96,523.89,523.76,523.50,523.12,522.69,522.27,521.85,521.52,521.77,522.22,522.73,523.22,523.69,524.18,524.61,524.91,525.03,525.07,525.12,525.15,525.18,525.18,525.18,525.18,525.18,525.18,525.18,525.18,525.18,525.18,525.18,525.18,525.20,525.27,525.41,525.57,525.70,525.82,525.98,526.13,526.09,525.93,525.78,525.62,525.47,525.33,525.21,525.07,525.04,525.02,524.99,524.99,524.99,524.96,524.94,524.95,524.98,524.99,524.96,524.93,524.93,524.93,524.91,524.88,524.88,524.88,524.88,524.88,524.88,524.89,524.95,524.99,524.99,524.99,524.99,524.99,525.00,525.04,525.07,525.08,525.13,525.19,525.24,525.31,525.39,525.47,525.54,525.63,525.70,525.77,525.86,525.93,526.01,526.06,526.06,525.96,525.79,525.73,525.74,525.76,525.74,525.74,525.67,525.52,525.39,525.27,525.16,525.09,525.13,525.13,525.13,525.13,525.13,525.13,525.13,525.13,525.14,525.18,525.15,525.07,524.44,523.15,522.63,522.56,522.58,522.60,522.67,522.68,522.73,522.79,522.80,522.87,522.88,522.92,522.98,522.99,523.05,523.08
522.19,521.95,521.72,521.49,521.26,521.03,520.81,520.59,520.36,520.04,519.56,518.88,518.15,518.08,518.51,519.12,519.46,519.77,519.99,520.13,520.33,520.51,520.81,521.21,521.66,522.06,522.45,522.87,523.29,523.55,523.63,523.67,523.73,523.74,523.80,523.84,523.84,523.85,523.91,524.16,524.47,524.74,524.95,525.00,525.00,525.02,525.09,525.11,525.11,525.08,525.02,524.99,524.88,524.68,524.42,524.06,523.74,523.47,523.20,522.89,522.60,522.29,521.98,521.67,521.37,521.25,521.31,521.46,521.63,521.85,522.02,522.18,522.33,522.49,522.64,522.79,522.91,522.91,522.79,522.68,522.59,522.44,522.36,522.27,522.16,522.02,521.94,521.85,521.74,521.62,521.53,521.45,521.37,521.27,521.13,521.05,521.04,521.04,521.06,521.13,521.14,521.19,521.32,521.53,521.82,522.08,522.32,522.57,522.86,523.11,523.38,523.65,523.82,523.98,524.13,524.25,524.29,524.17,524.13,524.02,523.75,523.38,522.97,522.54,522.08,521.72,522.01,522.51,523.02,523.49,523.96,524.47,524.83,525.02,525.11,525.18,525.21,525.24,525.30,525.31,525.31,525.31,525.31,525.31,525.31,525.31,525.31,525.31,525.31,525.31,525.32,525.35,525.49,525.65,525.80,525.95,526.09,526.25,526.20,526.05,525.89,525.74,525.59,525.43,525.28,525.15,525.12,525.11,525.10,525.10,525.10,525.06,525.02,525.03,525.09,525.11,525.12,525.11,525.11,525.11,525.06,525.01,525.01,525.02,525.03,525.02,525.02,525.03,525.09,525.12,525.12,525.12,525.12,525.12,525.15,525.20,525.20,525.21,525.25,525.32,525.33,525.39,525.47,525.54,525.62,525.70,525.78,525.86,525.93,526.01,526.09,526.16,526.21,526.18,525.99,525.92,525.95,525.99,525.92,525.86,525.75,525.62,525.52,525.44,525.33,525.25,525.30,525.31,525.31,525.31,525.32,525.32,525.32,525.32,525.31,525.30,525.23,525.10,524.58,523.53,522.86,522.71,522.72,522.74,522.80,522.82,522.87,522.91,522.92,523.00,523.01,523.05,523.10,523.12,523.17,523.20
