564.93,564.83,564.76,564.75,564.70,564.66,564.63,564.55,564.77,565.21,565.66,565.70,565.61,565.53,565.49,565.49,565.46,565.46,565.44,565.39,565.39,565.37,565.32,565.23,565.12,564.97,564.82,564.39,563.59,562.90,562.15,561.43,561.18,562.31,563.15,563.85,564.34,564.47,564.49,564.43,564.36,564.29,564.26,564.19,564.09,563.96,563.86,563.73,563.95,564.32,564.63,564.84,564.97,565.00,564.96,564.97,565.06,565.19,565.35,565.51,565.73,566.02,566.32,566.61,566.92,567.18,567.38,567.52,567.63,567.75,567.90,567.99,567.88,567.38,566.84,566.30,565.76,565.21,564.56,563.83,563.05,562.42,562.56,563.15,563.91,564.64,565.12,565.43,565.71,565.98,566.29,566.60,566.89,567.16,567.43,567.73,567.92,567.98,567.96,567.96,567.96,567.96,567.98,568.07,568.37,568.73,569.05,569.32,569.52,569.68,569.50,568.94,568.23,568.82,569.64,570.34,570.78,571.12,571.32,571.57,571.97,572.42,572.37,572.15,571.91,571.66,571.63,571.85,572.14,572.40,572.62,572.85,573.08,573.31,573.54,573.77,574.00,574.21,574.36,574.47,574.61,574.86,575.25,575.74,576.32,576.71,576.85,576.70,576.56,576.47,576.41,576.37,576.42,576.49,576.57,576.64,576.71,576.73,576.63,576.41,576.11,575.93,575.85,575.84,575.87,575.95,576.00,575.81,575.52,575.34,575.06,574.22,573.32,572.67,572.04,571.69,571.41,571.16,571.03,570.92,571.26,571.80,572.20,572.46,572.34,572.10,571.86,571.69,571.63,571.72,571.88,572.06,572.26,572.43,572.62,572.84,573.00,573.17,573.25,573.20,573.07,572.96,572.88,572.80,572.72,572.60,572.51,572.41,572.32,572.24,572.16,572.05,571.94,571.88,571.96,572.26,572.67,573.09,573.45,573.63,573.74,573.85,573.98,574.09,574.13,574.12,574.08,573.96,573.87,573.79,573.71,573.60,573.31,573.03,572.80,572.57,572.34,572.35,572.52,572.75,572.84,572.90,572.96,573.02,573.01,572.93,573.32,574.00,574.55,574.67,574.63,574.52,574.38,574.30,574.24,574.15
565.56,565.48,565.41,565.40,565.35,565.29,565.26,565.22,565.44,565.80,566.15,566.19,566.09,565.98,565.91,565.90,565.89,565.88,565.86,565.81,565.78,565.78,565.74,565.66,565.57,565.43,565.31,565.09,564.62,563.96,563.02,562.18,562.00,563.33,564.12,564.63,564.91,564.91,564.91,564.86,564.77,564.71,564.68,564.62,564.51,564.38,564.28,564.15,564.33,564.66,565.01,565.29,565.41,565.40,565.30,565.24,565.27,565.37,565.52,565.73,565.94,566.20,566.47,566.74,567.02,567.32,567.56,567.71,567.80,567.94,568.09,568.14,567.95,567.44,566.90,566.38,565.86,565.34,564.75,564.06,563.32,562.68,562.65,563.17,563.90,564.62,565.12,565.46,565.72,565.98,566.29,566.60,566.90,567.18,567.43,567.73,568.00,568.16,568.22,568.22,568.22,568.22,568.22,568.25,568.47,568.81,569.20,569.59,569.90,570.18,570.08,569.50,568.65,568.90,569.59,570.25,570.65,570.95,571.12,571.42,571.95,572.58,572.69,572.54,572.29,572.01,571.93,572.14,572.49,572.87,573.11,573.34,573.59,573.84,574.07,574.30,574.55,574.78,574.94,575.02,575.10,575.30,575.64,576.07,576.60,577.03,577.24,577.08,576.93,576.83,576.74,576.67,576.71,576.78,576.87,576.93,577.01,577.03,576.87,576.64,576.42,576.35,576.34,576.34,576.35,576.40,576.38,576.12,575.77,575.51,575.06,573.99,572.99,572.48,572.13,572.04,571.93,571.79,571.76,571.71,572.07,572.62,573.05,573.33,573.25,573.02,572.73,572.38,572.08,572.07,572.25,572.42,572.62,572.81,572.99,573.19,573.35,573.45,573.49,573.47,573.36,573.28,573.19,573.09,573.01,572.88,572.79,572.70,572.61,572.53,572.45,572.35,572.22,572.14,572.17,572.45,572.87,573.32,573.71,573.95,574.10,574.21,574.33,574.42,574.45,574.44,574.41,574.31,574.22,574.14,574.06,573.93,573.59,573.28,573.03,572.80,572.59,572.64,572.86,573.12,573.28,573.39,573.47,573.51,573.52,573.38,573.71,574.35,574.91,575.13,575.16,575.11,575.03,574.95,574.88,574.76
566.21,566.13,566.06,566.05,565.99,565.92,565.86,565.86,566.04,566.36,566.66,566.66,566.59,566.46,566.37,566.35,566.29,566.27,566.27,566.25,566.19,566.17,566.13,566.05,565.96,565.82,565.67,565.50,565.21,564.60,563.43,562.70,562.93,564.32,564.92,565.21,565.35,565.36,565.36,565.30,565.23,565.15,565.08,565.00,564.92,564.82,564.68,564.59,564.68,564.91,565.24,565.60,565.74,565.70,565.57,565.49,565.48,565.54,565.69,565.96,566.14,566.36,566.62,566.91,567.16,567.45,567.71,567.90,567.99,568.13,568.29,568.30,568.03,567.52,566.98,566.47,566.00,565.52,564.99,564.36,563.65,563.01,562.69,563.11,563.84,564.56,565.10,565.45,565.72,565.98,566.28,566.59,566.90,567.18,567.43,567.73,568.03,568.29,568.46,568.47,568.47,568.48,568.48,568.49,568.58,568.88,569.29,569.74,570.18,570.58,570.47,569.82,568.94,568.93,569.54,570.19,570.48,570.61,570.70,571.06,571.77,572.56,572.94,572.93,572.68,572.39,572.22,572.39,572.76,573.18,573.43,573.67,573.94,574.22,574.45,574.68,574.97,575.23,575.44,575.54,575.62,575.84,576.20,576.54,576.93,577.36,577.62,577.47,577.32,577.22,577.10,576.98,576.98,577.05,577.12,577.19,577.27,577.29,577.14,576.96,576.88,576.86,576.85,576.85,576.85,576.83,576.59,576.21,575.78,575.39,574.87,573.79,572.88,572.65,572.82,572.91,572.81,572.62,572.56,572.54,572.88,573.39,573.82,574.14,574.14,573.92,573.53,573.07,572.52,572.44,572.70,572.86,573.03,573.23,573.43,573.58,573.72,573.71,573.68,573.68,573.66,573.60,573.48,573.36,573.28,573.19,573.12,573.01,572.88,572.80,572.72,572.64,572.53,572.39,572.38,572.65,573.07,573.51,573.90,574.23,574.45,574.59,574.67,574.75,574.78,574.75,574.69,574.67,574.61,574.54,574.42,574.20,573.85,573.51,573.23,573.01,572.83,572.93,573.17,573.41,573.69,573.88,573.96,573.99,574.02,573.85,574.10,574.61,575.08,575.45,575.60,575.61,575.54,575.46,575.38,575.26
566.88,566.78,566.71,566.70,566.61,566.50,566.45,566.49,566.65,566.91,567.17,567.17,567.06,566.95,566.85,566.76,566.73,566.68,566.66,566.65,566.62,566.58,566.54,566.49,566.36,566.21,566.05,565.81,565.39,564.81,563.64,563.01,563.38,564.67,565.19,565.47,565.68,565.80,565.77,565.70,565.63,565.55,565.47,565.39,565.31,565.22,565.08,565.03,565.06,565.24,565.60,565.97,566.05,565.97,565.82,565.75,565.73,565.76,565.87,566.12,566.33,566.52,566.75,567.06,567.34,567.60,567.85,568.05,568.18,568.33,568.48,568.48,568.16,567.69,567.16,566.65,566.19,565.72,565.23,564.65,563.98,563.31,562.80,563.10,563.77,564.50,565.04,565.40,565.69,565.97,566.24,566.54,566.85,567.14,567.42,567.73,568.04,568.33,568.57,568.66,568.68,568.71,568.73,568.74,568.77,568.99,569.36,569.83,570.34,570.86,570.76,570.05,569.21,568.85,569.32,569.94,570.13,570.23,570.30,570.74,571.58,572.41,573.08,573.26,573.07,572.77,572.51,572.63,572.97,573.41,573.74,574.03,574.30,574.55,574.79,575.06,575.33,575.60,575.87,576.09,576.16,576.36,576.73,577.05,577.42,577.77,577.97,577.85,577.70,577.57,577.44,577.30,577.25,577.30,577.38,577.45,577.53,577.58,577.51,577.39,577.33,577.32,577.28,577.26,577.23,577.07,576.61,576.14,575.72,575.25,574.61,573.55,573.00,573.44,573.83,573.87,573.69,573.46,573.38,573.34,573.63,574.09,574.45,574.81,574.80,574.56,574.13,573.49,572.87,572.80,573.12,573.31,573.47,573.68,573.85,573.90,573.96,573.92,573.88,573.88,573.88,573.85,573.77,573.67,573.59,573.47,573.38,573.29,573.19,573.11,573.03,572.93,572.78,572.61,572.58,572.85,573.26,573.71,574.10,574.46,574.76,574.96,575.00,575.07,575.10,575.09,575.05,575.01,574.98,574.90,574.75,574.47,574.11,573.76,573.48,573.25,573.09,573.23,573.49,573.73,574.03,574.26,574.40,574.47,574.45,574.33,574.44,574.75,575.16,575.56,575.85,575.99,575.95,575.87,575.76,575.64
567.39,567.40,567.35,567.31,567.20,567.10,567.07,567.12,567.24,567.48,567.72,567.71,567.58,567.46,567.34,567.19,567.17,567.12,567.06,567.05,567.04,566.98,566.95,566.91,566.77,566.57,566.33,565.96,565.40,564.82,563.75,563.28,563.76,564.84,565.30,565.63,565.93,566.14,566.15,566.09,566.02,565.93,565.86,565.78,565.69,565.60,565.51,565.50,565.50,565.63,565.96,566.34,566.35,566.23,566.09,566.01,565.99,565.99,566.04,566.26,566.49,566.67,566.91,567.21,567.50,567.75,567.99,568.21,568.37,568.52,568.68,568.67,568.36,567.88,567.36,566.86,566.38,565.92,565.45,564.92,564.30,563.62,563.00,563.13,563.71,564.44,564.98,565.33,565.64,565.94,566.17,566.47,566.78,567.09,567.40,567.71,568.02,568.32,568.61,568.79,568.88,568.93,568.97,568.98,568.99,569.13,569.41,569.88,570.48,571.14,571.03,570.24,569.40,568.85,569.11,569.59,569.75,569.86,570.01,570.53,571.46,572.45,573.31,573.59,573.44,573.14,572.84,572.87,573.17,573.64,574.07,574.39,574.65,574.88,575.14,575.42,575.69,575.96,576.26,576.56,576.66,576.88,577.25,577.54,577.90,578.18,578.33,578.24,578.10,577.94,577.77,577.60,577.52,577.57,577.65,577.74,577.82,577.88,577.86,577.80,577.73,577.72,577.66,577.62,577.55,577.20,576.57,576.03,575.60,575.11,574.37,573.48,573.33,574.23,574.72,574.69,574.48,574.26,574.20,574.14,574.38,574.74,575.04,575.37,575.29,574.99,574.51,573.80,573.18,573.16,573.51,573.74,573.92,574.10,574.19,574.17,574.15,574.10,574.07,574.07,574.07,574.07,574.04,573.97,573.89,573.76,573.67,573.58,573.49,573.43,573.36,573.23,573.03,572.83,572.76,573.02,573.45,573.88,574.29,574.68,575.03,575.27,575.33,575.39,575.42,575.42,575.41,575.34,575.28,575.16,574.95,574.64,574.30,574.01,573.77,573.56,573.42,573.52,573.74,573.98,574.26,574.52,574.75,574.91,574.90,574.83,574.83,574.97,575.29,575.65,576.03,576.28,576.33,576.24,576.11,576.00
567.61,568.00,567.98,567.86,567.75,567.70,567.70,567.71,567.83,568.06,568.29,568.29,568.16,568.01,567.84,567.65,567.63,567.57,567.50,567.44,567.43,567.37,567.34,567.31,567.18,566.86,566.41,565.87,565.27,564.65,563.77,563.58,564.18,564.91,565.35,565.73,566.08,566.35,566.50,566.48,566.40,566.33,566.25,566.17,566.06,565.97,566.01,566.02,566.02,566.09,566.31,566.66,566.63,566.48,566.34,566.27,566.26,566.21,566.22,566.39,566.62,566.84,567.10,567.40,567.64,567.88,568.14,568.40,568.56,568.72,568.87,568.91,568.67,568.11,567.60,567.10,566.59,566.12,565.66,565.17,564.62,563.95,563.32,563.24,563.64,564.37,564.91,565.27,565.58,565.87,566.11,566.41,566.72,567.03,567.34,567.64,567.95,568.26,568.57,568.85,569.07,569.16,569.17,569.18,569.23,569.28,569.46,569.93,570.66,571.46,571.31,570.36,569.49,569.02,569.00,569.20,569.40,569.55,569.90,570.54,571.53,572.85,573.73,573.95,573.78,573.53,573.23,573.16,573.39,573.92,574.44,574.74,574.97,575.22,575.51,575.76,576.04,576.35,576.64,576.89,577.11,577.39,577.75,578.00,578.30,578.57,578.72,578.63,578.48,578.33,578.11,577.86,577.78,577.82,577.94,578.06,578.13,578.16,578.15,578.12,578.06,578.05,577.99,577.94,577.80,577.19,576.50,575.90,575.42,574.97,574.18,573.70,573.90,574.81,575.29,575.27,575.11,574.98,574.97,574.97,575.13,575.38,575.61,575.78,575.55,575.15,574.66,574.03,573.48,573.51,573.90,574.13,574.35,574.44,574.43,574.36,574.30,574.28,574.27,574.27,574.27,574.27,574.26,574.23,574.15,574.07,573.99,573.88,573.76,573.75,573.68,573.52,573.30,573.07,572.92,573.19,573.62,574.02,574.47,574.87,575.21,575.49,575.62,575.71,575.75,575.75,575.73,575.66,575.49,575.25,574.96,574.66,574.40,574.23,574.11,573.95,573.86,573.81,573.88,574.11,574.35,574.63,574.95,575.25,575.37,575.34,575.32,575.36,575.50,575.80,576.16,576.49,576.69,576.58,576.48,576.36
567.56,568.49,568.51,568.38,568.31,568.31,568.34,568.35,568.43,568.61,568.79,568.82,568.69,568.51,568.30,568.11,568.08,568.02,567.97,567.93,567.89,567.82,567.76,567.66,567.39,566.95,566.40,565.82,565.24,564.63,564.06,564.04,564.55,565.10,565.48,565.85,566.21,566.51,566.75,566.82,566.79,566.72,566.64,566.56,566.49,566.45,566.48,566.52,566.53,566.58,566.73,567.00,566.91,566.74,566.61,566.53,566.51,566.47,566.44,566.53,566.75,566.98,567.24,567.54,567.77,568.04,568.31,568.56,568.75,568.91,569.07,569.13,568.98,568.45,567.93,567.40,566.87,566.37,565.90,565.41,564.87,564.26,563.65,563.32,563.51,564.21,564.79,565.18,565.51,565.81,566.09,566.39,566.70,567.02,567.33,567.63,567.94,568.25,568.56,568.87,569.15,569.30,569.36,569.37,569.44,569.49,569.66,570.11,570.97,571.80,571.58,570.53,569.64,569.38,569.39,569.49,569.63,569.70,570.11,571.02,572.38,573.69,574.23,574.31,574.15,573.87,573.60,573.47,573.64,574.19,574.76,575.06,575.32,575.59,575.86,576.13,576.40,576.68,576.98,577.26,577.53,577.82,578.12,578.39,578.66,578.91,579.06,579.01,578.83,578.63,578.39,578.12,578.04,578.12,578.23,578.35,578.45,578.47,578.47,578.44,578.38,578.37,578.31,578.17,577.86,577.14,576.44,575.81,575.26,574.75,573.98,573.93,574.42,575.20,575.71,575.77,575.65,575.55,575.59,575.71,575.85,576.01,576.14,575.96,575.51,575.05,574.59,574.04,573.76,573.90,574.26,574.55,574.64,574.66,574.63,574.55,574.48,574.46,574.46,574.46,574.46,574.46,574.46,574.45,574.41,574.34,574.26,574.17,574.08,574.06,573.97,573.78,573.54,573.28,573.11,573.35,573.76,574.15,574.57,574.93,575.25,575.54,575.74,575.94,576.07,576.09,575.95,575.80,575.58,575.33,575.08,574.85,574.69,574.61,574.54,574.39,574.31,574.23,574.22,574.33,574.44,574.70,575.02,575.34,575.58,575.73,575.78,575.78,575.81,576.05,576.31,576.61,576.89,576.92,576.83,576.71
567.43,568.88,569.01,568.92,568.88,568.92,568.97,568.99,569.04,569.14,569.27,569.33,569.21,568.98,568.73,568.55,568.53,568.49,568.45,568.42,568.35,568.27,568.16,567.96,567.53,567.00,566.40,565.81,565.26,564.68,564.42,564.51,564.88,565.29,565.63,565.99,566.34,566.65,566.96,567.13,567.17,567.11,567.03,566.96,566.94,566.95,566.96,567.03,567.05,567.08,567.16,567.33,567.20,567.00,566.87,566.80,566.78,566.73,566.67,566.69,566.88,567.11,567.37,567.65,567.90,568.20,568.47,568.70,568.92,569.10,569.25,569.34,569.26,568.80,568.27,567.73,567.19,566.65,566.17,565.66,565.13,564.58,563.98,563.47,563.45,564.02,564.62,565.05,565.40,565.72,566.03,566.35,566.67,566.98,567.30,567.61,567.93,568.25,568.56,568.87,569.17,569.41,569.55,569.57,569.66,569.77,569.98,570.44,571.38,572.15,571.84,570.71,569.80,569.71,570.09,570.55,570.85,570.88,571.22,572.13,573.49,574.49,574.69,574.66,574.53,574.26,574.02,573.81,573.90,574.42,575.00,575.36,575.66,575.95,576.21,576.49,576.76,577.02,577.33,577.64,577.94,578.21,578.47,578.76,579.01,579.25,579.41,579.37,579.15,578.91,578.65,578.38,578.32,578.41,578.52,578.63,578.75,578.78,578.78,578.77,578.70,578.69,578.62,578.37,577.86,577.10,576.38,575.71,575.11,574.55,573.94,574.22,574.88,575.52,576.04,576.21,576.16,576.08,576.18,576.38,576.51,576.58,576.50,576.00,575.40,574.88,574.48,574.05,574.04,574.26,574.61,574.94,574.96,574.93,574.88,574.77,574.68,574.66,574.66,574.66,574.66,574.66,574.66,574.66,574.65,574.59,574.53,574.47,574.41,574.37,574.22,574.00,573.74,573.47,573.32,573.50,573.85,574.24,574.63,574.94,575.25,575.55,575.80,576.10,576.33,576.39,576.17,575.94,575.71,575.48,575.28,575.13,575.03,575.00,574.96,574.83,574.74,574.66,574.61,574.60,574.61,574.80,575.08,575.37,575.67,575.99,576.16,576.18,576.17,576.34,576.51,576.75,577.08,577.25,577.18,577.08
567.31,569.10,569.50,569.49,569.50,569.54,569.57,569.63,569.65,569.70,569.79,569.85,569.73,569.40,569.09,569.00,568.99,568.98,568.94,568.88,568.80,568.72,568.53,568.19,567.67,567.08,566.46,565.88,565.34,564.86,564.77,564.92,565.18,565.46,565.81,566.15,566.47,566.78,567.09,567.37,567.51,567.49,567.42,567.39,567.42,567.47,567.48,567.55,567.57,567.58,567.59,567.62,567.46,567.26,567.14,567.12,567.06,566.99,566.92,566.88,567.02,567.24,567.47,567.73,568.02,568.33,568.60,568.83,569.06,569.28,569.41,569.47,569.41,569.09,568.60,568.06,567.51,566.98,566.44,565.95,565.45,564.91,564.35,563.82,563.60,563.85,564.37,564.79,565.17,565.53,565.84,566.21,566.54,566.87,567.23,567.55,567.90,568.25,568.56,568.87,569.17,569.47,569.69,569.77,569.96,570.17,570.48,571.01,571.90,572.50,572.07,570.89,569.94,569.84,571.20,572.96,574.06,574.18,574.25,574.43,574.70,574.90,574.99,575.01,574.95,574.76,574.54,574.22,574.16,574.55,575.09,575.59,575.99,576.29,576.59,576.84,577.11,577.41,577.72,578.03,578.29,578.56,578.85,579.10,579.38,579.64,579.79,579.69,579.43,579.17,578.91,578.65,578.63,578.69,578.81,578.94,579.02,579.03,579.08,579.09,579.03,579.02,578.91,578.53,577.87,577.10,576.34,575.62,574.98,574.49,574.31,574.66,575.23,575.78,576.26,576.56,576.64,576.61,576.75,576.91,577.06,576.99,576.48,575.88,575.27,574.76,574.40,574.20,574.27,574.55,574.93,575.29,575.43,575.38,575.22,575.03,574.88,574.85,574.85,574.85,574.85,574.85,574.85,574.85,574.85,574.84,574.83,574.81,574.78,574.64,574.39,574.10,573.82,573.60,573.54,573.63,573.85,574.24,574.63,574.94,575.25,575.56,575.86,576.17,576.46,576.60,576.42,576.20,575.97,575.76,575.60,575.44,575.35,575.32,575.30,575.21,575.13,575.05,574.98,574.92,574.92,575.01,575.16,575.37,575.67,576.04,576.34,576.53,576.60,576.69,576.83,577.03,577.29,577.56,577.55,577.50
566.86,569.47,569.88,569.94,570.00,570.04,570.06,570.13,570.14,570.18,570.23,570.18,570.02,569.73,569.48,569.45,569.48,569.47,569.40,569.33,569.25,569.11,568.81,568.34,567.76,567.18,566.68,566.24,565.86,565.55,565.49,565.49,565.52,565.66,565.97,566.29,566.60,566.91,567.22,567.53,567.77,567.88,567.85,567.85,567.86,567.89,567.90,567.93,567.94,567.96,567.98,567.91,567.74,567.57,567.44,567.40,567.36,567.30,567.22,567.15,567.15,567.35,567.60,567.85,568.15,568.46,568.73,568.96,569.19,569.42,569.58,569.65,569.62,569.43,568.97,568.41,567.85,567.33,566.74,566.31,565.88,565.25,564.69,564.18,563.83,563.78,564.14,564.50,564.84,565.18,565.50,565.88,566.21,566.54,566.90,567.31,567.74,568.15,568.57,568.95,569.27,569.58,569.90,570.24,570.55,570.83,571.20,571.75,572.45,572.85,572.33,571.13,570.15,569.96,571.52,573.61,574.93,575.21,575.25,575.26,575.30,575.34,575.38,575.37,575.31,575.18,574.96,574.70,574.56,574.66,575.00,575.50,575.98,576.40,576.82,577.17,577.49,577.79,578.07,578.37,578.65,578.94,579.23,579.47,579.73,579.98,580.10,579.93,579.67,579.43,579.17,578.91,578.90,578.99,579.13,579.25,579.29,579.33,579.37,579.38,579.35,579.34,579.14,578.67,577.97,577.19,576.39,575.62,574.96,574.53,574.60,575.02,575.55,576.05,576.51,576.94,577.14,577.17,577.28,577.40,577.40,577.11,576.41,575.69,575.13,574.71,574.47,574.49,574.60,574.82,575.15,575.53,575.85,575.84,575.65,575.43,575.23,575.13,575.09,575.09,575.09,575.09,575.12,575.16,575.19,575.19,575.19,575.18,575.09,574.84,574.53,574.22,573.98,573.95,573.94,573.94,574.01,574.22,574.65,575.00,575.33,575.67,576.02,576.33,576.66,576.85,576.68,576.46,576.23,576.03,575.88,575.76,575.68,575.64,575.62,575.55,575.47,575.39,575.33,575.30,575.29,575.33,575.38,575.50,575.74,576.06,576.41,576.71,576.90,577.05,577.21,577.38,577.59,577.84,577.89,577.89
566.14,569.40,570.09,570.27,570.38,570.46,570.50,570.57,570.58,570.61,570.63,570.49,570.29,570.08,569.94,569.94,570.00,569.98,569.90,569.81,569.68,569.44,569.02,568.47,567.90,567.41,567.08,566.81,566.59,566.43,566.32,566.17,566.00,566.00,566.20,566.46,566.74,567.05,567.36,567.67,567.97,568.21,568.26,568.26,568.26,568.27,568.27,568.27,568.27,568.30,568.32,568.20,568.03,567.88,567.74,567.68,567.66,567.61,567.53,567.44,567.30,567.46,567.71,567.96,568.27,568.58,568.86,569.09,569.32,569.56,569.76,569.87,569.87,569.79,569.36,568.79,568.19,567.68,567.12,566.86,566.61,565.93,565.25,564.63,564.12,563.86,564.01,564.26,564.52,564.80,565.11,565.48,565.81,566.13,566.49,567.01,567.49,567.99,568.51,568.98,569.34,569.68,570.13,570.76,571.23,571.59,572.00,572.54,573.04,573.23,572.61,571.44,570.48,570.13,571.61,573.67,575.01,575.43,575.54,575.61,575.70,575.78,575.79,575.74,575.64,575.55,575.35,575.17,574.98,574.82,574.95,575.41,575.95,576.48,577.02,577.50,577.88,578.16,578.41,578.71,579.02,579.33,579.62,579.86,580.10,580.31,580.37,580.14,579.91,579.69,579.46,579.25,579.24,579.34,579.47,579.57,579.57,579.64,579.68,579.69,579.69,579.66,579.34,578.85,578.22,577.55,576.70,575.82,575.05,574.67,574.88,575.34,575.85,576.32,576.79,577.31,577.62,577.72,577.79,577.87,577.66,577.16,576.40,575.60,575.09,574.80,574.70,574.88,574.98,575.14,575.40,575.79,576.23,576.26,576.08,575.84,575.59,575.43,575.36,575.36,575.36,575.37,575.41,575.48,575.55,575.57,575.58,575.52,575.34,574.97,574.64,574.36,574.23,574.37,574.39,574.35,574.26,574.26,574.73,575.09,575.44,575.82,576.20,576.52,576.88,577.09,576.93,576.72,576.49,576.31,576.18,576.10,576.02,575.98,575.95,575.87,575.79,575.72,575.68,575.68,575.67,575.67,575.67,575.70,575.84,576.10,576.44,576.80,577.11,577.36,577.55,577.72,577.89,578.10,578.21,578.26
564.85,567.70,569.83,570.32,570.56,570.78,570.94,570.97,570.97,570.98,570.97,570.88,570.77,570.66,570.57,570.52,570.59,570.60,570.52,570.35,570.03,569.63,569.15,568.64,568.23,568.02,567.88,567.71,567.49,567.33,567.19,567.03,566.88,566.76,566.69,566.75,566.94,567.25,567.55,567.87,568.15,568.38,568.56,568.59,568.59,568.59,568.59,568.59,568.59,568.60,568.60,568.51,568.32,568.13,568.02,567.99,567.94,567.87,567.79,567.70,567.55,567.61,567.78,568.03,568.33,568.69,568.99,569.22,569.46,569.74,570.02,570.22,570.25,570.18,569.79,569.22,568.54,567.94,567.76,567.96,568.14,567.72,566.56,565.35,564.53,564.25,564.17,564.21,564.28,564.41,564.72,565.04,565.36,565.71,566.16,566.68,567.17,567.67,568.20,568.72,569.17,569.67,570.32,571.16,571.87,572.38,572.83,573.31,573.75,573.69,572.99,571.93,571.07,570.49,571.76,573.72,575.02,575.49,575.76,575.96,576.10,576.23,576.25,576.13,575.97,575.88,575.72,575.56,575.35,575.13,575.21,575.66,576.20,576.74,577.28,577.81,578.23,578.55,578.80,579.10,579.41,579.72,580.01,580.25,580.53,580.64,580.57,580.34,580.10,579.96,579.87,579.81,579.81,579.83,579.87,579.89,579.90,579.97,580.03,580.09,580.12,579.96,579.53,579.13,578.88,578.65,577.74,576.51,575.42,575.00,575.20,575.63,576.13,576.64,577.11,577.63,578.00,578.16,578.25,578.32,577.92,577.26,576.61,575.94,575.44,575.23,575.31,575.41,575.50,575.63,575.84,576.18,576.57,576.59,576.40,576.15,575.81,575.71,575.66,575.61,575.62,575.67,575.70,575.74,575.81,575.88,575.94,575.80,575.42,575.03,574.66,574.53,574.63,574.82,574.85,574.79,574.65,574.52,574.93,575.28,575.63,576.01,576.40,576.72,577.08,577.31,577.19,576.98,576.79,576.65,576.56,576.48,576.40,576.34,576.27,576.19,576.12,576.08,576.07,576.06,576.00,575.99,575.99,576.00,576.05,576.21,576.48,576.82,577.18,577.48,577.76,577.99,578.14,578.31,578.45,578.51
564.32,566.57,569.60,570.28,570.55,570.82,571.07,571.24,571.33,571.36,571.36,571.35,571.31,571.25,571.16,571.11,571.14,571.10,570.94,570.67,570.32,569.90,569.48,569.12,568.85,568.71,568.65,568.56,568.39,568.24,568.09,567.93,567.76,567.53,567.26,567.09,567.12,567.40,567.71,568.02,568.30,568.57,568.82,568.88,568.89,568.92,568.92,568.92,568.92,568.92,568.90,568.79,568.56,568.38,568.32,568.31,568.25,568.17,568.08,567.97,567.85,567.80,567.89,568.13,568.44,568.78,569.09,569.35,569.60,569.95,570.41,570.76,570.76,570.38,569.83,569.17,568.52,568.19,568.31,568.74,569.18,569.19,568.41,567.13,565.90,565.04,564.70,564.61,564.57,564.59,564.72,564.83,565.03,565.37,565.87,566.41,566.89,567.39,567.93,568.47,569.00,569.63,570.39,571.37,572.43,573.07,573.50,573.91,574.30,574.09,573.52,572.79,572.11,571.21,572.01,573.67,575.02,575.51,575.81,576.06,576.28,576.50,576.62,576.54,576.37,576.26,576.14,575.97,575.77,575.62,575.65,576.04,576.53,577.05,577.59,578.13,578.59,578.96,579.22,579.50,579.75,580.00,580.27,580.51,580.80,580.94,580.89,580.67,580.46,580.33,580.26,580.26,580.26,580.26,580.26,580.26,580.26,580.30,580.39,580.50,580.56,580.39,580.01,579.71,579.57,579.43,578.41,576.99,575.72,575.29,575.58,576.00,576.45,576.93,577.43,577.93,578.33,578.58,578.65,578.70,578.38,577.81,577.19,576.57,576.10,575.90,576.00,576.10,576.07,576.13,576.32,576.57,576.94,576.95,576.74,576.44,576.10,575.99,575.95,575.92,575.92,575.95,576.00,576.03,576.08,576.15,576.18,575.97,575.48,575.07,574.75,574.70,574.88,575.18,575.25,575.07,574.83,574.75,575.11,575.46,575.83,576.21,576.56,576.90,577.27,577.52,577.44,577.24,577.09,576.98,576.91,576.83,576.75,576.67,576.60,576.52,576.48,576.44,576.42,576.41,576.37,576.36,576.36,576.36,576.37,576.44,576.60,576.86,577.20,577.52,577.85,578.14,578.36,578.54,578.70,578.80
564.41,565.91,569.28,570.15,570.44,570.71,571.03,571.40,571.63,571.73,571.76,571.83,571.84,571.80,571.73,571.66,571.65,571.52,571.27,570.92,570.61,570.24,569.94,569.72,569.57,569.42,569.38,569.36,569.27,569.13,568.98,568.81,568.59,568.25,567.83,567.48,567.35,567.55,567.85,568.16,568.46,568.77,569.05,569.13,569.18,569.23,569.24,569.24,569.24,569.24,569.21,569.06,568.79,568.63,568.63,568.63,568.57,568.49,568.38,568.25,568.15,568.03,568.04,568.26,568.56,568.88,569.19,569.48,569.76,570.24,570.91,571.38,571.24,570.44,569.64,568.96,568.51,568.54,568.82,569.32,569.89,570.32,570.25,569.23,567.75,566.31,565.65,565.42,565.30,565.18,565.06,564.90,564.92,565.15,565.62,566.15,566.63,567.13,567.68,568.25,568.87,569.59,570.45,571.56,572.96,573.71,574.08,574.33,574.61,574.39,574.05,573.73,573.32,572.07,572.31,573.59,575.00,575.50,575.77,576.05,576.35,576.66,576.90,576.94,576.81,576.67,576.58,576.39,576.23,576.18,576.20,576.50,576.92,577.40,577.94,578.47,578.95,579.36,579.64,579.87,580.05,580.24,580.47,580.69,580.99,581.20,581.26,581.07,580.89,580.75,580.66,580.66,580.66,580.65,580.65,580.65,580.65,580.65,580.75,580.89,581.00,580.89,580.62,580.36,580.19,579.93,578.81,577.28,575.94,575.58,575.99,576.44,576.85,577.28,577.76,578.23,578.65,578.96,579.03,579.04,578.89,578.54,577.95,577.34,576.90,576.70,576.72,576.83,576.66,576.65,576.80,576.99,577.33,577.33,577.08,576.71,576.40,576.28,576.24,576.24,576.23,576.23,576.28,576.33,576.36,576.42,576.38,576.09,575.57,575.15,574.94,574.92,575.11,575.51,575.62,575.29,574.97,574.99,575.28,575.64,576.02,576.39,576.71,577.08,577.47,577.72,577.70,577.52,577.40,577.32,577.24,577.15,577.07,577.00,576.92,576.85,576.84,576.79,576.75,576.75,576.75,576.75,576.75,576.75,576.75,576.75,576.79,576.93,577.22,577.53,577.88,578.23,578.53,578.77,578.96,579.08
565.40,565.99,568.56,569.84,570.31,570.60,570.98,571.41,571.76,572.01,572.15,572.23,572.24,572.23,572.21,572.17,572.07,571.88,571.62,571.30,571.04,570.73,570.45,570.26,570.16,570.06,570.07,570.10,570.06,569.97,569.83,569.59,569.22,568.76,568.34,567.99,567.77,567.77,568.04,568.35,568.66,568.96,569.20,569.39,569.47,569.51,569.56,569.57,569.57,569.57,569.53,569.33,569.05,568.89,568.89,568.89,568.88,568.78,568.66,568.56,568.43,568.32,568.27,568.33,568.63,568.98,569.32,569.64,570.03,570.76,571.51,571.84,571.38,570.27,569.36,569.08,569.29,569.23,569.35,569.75,570.31,570.81,571.09,570.53,569.67,568.73,567.61,567.09,566.73,566.36,565.95,565.61,565.38,565.28,565.39,565.89,566.37,566.87,567.45,568.16,568.88,569.67,570.66,572.02,573.47,574.30,574.55,574.38,574.31,574.42,574.36,574.23,574.27,572.88,572.65,573.57,574.95,575.44,575.75,576.05,576.37,576.73,577.03,577.22,577.27,577.12,577.04,576.85,576.73,576.77,576.83,577.06,577.44,577.90,578.38,578.87,579.34,579.73,579.97,580.15,580.31,580.47,580.65,580.83,581.12,581.37,581.52,581.49,581.30,581.17,581.12,581.12,581.11,581.07,581.04,581.04,581.04,581.04,581.10,581.22,581.35,581.38,581.11,580.79,580.50,580.05,578.82,577.28,576.04,575.93,576.38,576.92,577.46,577.91,578.20,578.57,579.00,579.35,579.42,579.38,579.29,579.08,578.65,578.06,577.65,577.48,577.47,577.44,577.21,577.14,577.27,577.48,577.70,577.62,577.34,576.97,576.66,576.58,576.57,576.55,576.50,576.49,576.55,576.61,576.67,576.75,576.62,576.28,575.79,575.49,575.35,575.39,575.59,575.95,575.98,575.67,575.35,575.26,575.53,575.86,576.22,576.58,576.90,577.27,577.66,577.94,577.97,577.87,577.78,577.70,577.62,577.49,577.40,577.32,577.25,577.18,577.16,577.15,577.14,577.14,577.14,577.14,577.14,577.14,577.13,577.09,577.08,577.14,577.30,577.59,577.91,578.26,578.61,578.90,579.17,579.36
566.80,566.48,567.99,569.43,570.15,570.56,570.95,571.41,571.82,572.16,572.44,572.57,572.62,572.66,572.69,572.65,572.53,572.33,572.06,571.77,571.53,571.24,570.97,570.78,570.71,570.63,570.66,570.72,570.72,570.62,570.41,570.08,569.65,569.21,568.84,568.49,568.21,568.11,568.26,568.52,568.81,569.11,569.38,569.64,569.82,569.92,570.00,570.03,570.02,569.97,569.85,569.58,569.29,569.15,569.16,569.18,569.16,569.08,568.95,568.85,568.72,568.61,568.51,568.51,568.74,569.05,569.37,569.67,570.02,570.68,571.62,572.12,571.54,570.19,569.40,569.50,570.09,569.95,569.96,570.29,570.80,571.30,571.73,571.41,570.84,570.20,569.19,568.56,568.04,567.51,566.98,566.55,566.16,565.84,565.67,565.83,566.20,566.72,567.34,568.08,568.83,569.62,570.65,572.18,573.74,574.47,574.52,574.11,573.83,573.96,574.05,574.19,574.61,573.34,572.92,573.59,574.92,575.38,575.72,576.05,576.38,576.75,577.10,577.39,577.57,577.56,577.46,577.33,577.27,577.35,577.43,577.59,577.91,578.38,578.84,579.30,579.71,580.03,580.25,580.38,580.53,580.69,580.84,581.00,581.24,581.49,581.72,581.82,581.71,581.59,581.52,581.52,581.52,581.47,581.42,581.42,581.42,581.40,581.46,581.58,581.70,581.68,581.34,580.93,580.54,580.05,578.75,577.18,576.05,576.21,576.74,577.38,578.02,578.58,578.85,579.09,579.42,579.75,579.84,579.74,579.64,579.50,579.22,578.74,578.43,578.27,578.19,578.04,577.69,577.57,577.69,577.91,578.08,577.93,577.60,577.23,576.95,576.89,576.88,576.84,576.80,576.79,576.82,576.89,576.99,577.07,576.87,576.54,576.19,576.01,575.94,575.95,576.10,576.40,576.33,575.99,575.65,575.55,575.76,576.06,576.41,576.78,577.13,577.48,577.86,578.16,578.26,578.21,578.13,578.04,577.93,577.81,577.72,577.65,577.58,577.53,577.52,577.52,577.52,577.52,577.52,577.50,577.49,577.49,577.49,577.45,577.41,577.40,577.47,577.65,577.95,578.29,578.65,578.98,579.30,579.56
568.30,567.19,567.61,569.02,569.98,570.54,570.94,571.39,571.80,572.22,572.61,572.84,572.96,573.10,573.18,573.11,573.02,572.84,572.58,572.30,572.05,571.75,571.49,571.30,571.22,571.15,571.17,571.25,571.28,571.12,570.78,570.37,569.93,569.60,569.29,568.96,568.68,568.55,568.55,568.72,568.96,569.25,569.56,569.87,570.19,570.44,570.56,570.63,570.59,570.44,570.18,569.83,569.57,569.46,569.46,569.50,569.45,569.37,569.26,569.13,569.03,568.91,568.79,568.75,568.90,569.11,569.37,569.63,569.83,570.23,571.45,572.32,571.75,570.19,569.68,570.10,570.84,570.69,570.66,570.92,571.37,571.84,572.29,572.02,571.48,570.92,570.34,569.75,569.17,568.59,568.07,567.59,567.13,566.71,566.35,566.02,566.18,566.63,567.24,567.95,568.65,569.39,570.40,571.93,573.61,574.28,574.20,573.68,573.29,573.19,573.37,573.85,574.52,573.55,573.12,573.65,574.92,575.34,575.70,576.05,576.38,576.76,577.14,577.47,577.75,577.93,577.87,577.83,577.86,577.93,578.01,578.10,578.38,578.84,579.29,579.73,580.03,580.27,580.48,580.59,580.74,580.89,581.04,581.19,581.35,581.60,581.87,582.07,582.10,582.01,581.92,581.92,581.91,581.86,581.82,581.81,581.81,581.75,581.82,581.96,582.06,581.85,581.39,580.90,580.46,579.99,578.66,577.09,576.06,576.51,577.14,577.81,578.51,579.19,579.58,579.70,579.88,580.15,580.27,580.13,579.99,579.88,579.69,579.38,579.19,579.05,578.88,578.62,578.15,577.98,578.10,578.31,578.46,578.25,577.87,577.50,577.26,577.21,577.17,577.12,577.11,577.10,577.11,577.17,577.31,577.39,577.15,576.89,576.74,576.65,576.63,576.59,576.63,576.85,576.69,576.25,575.89,575.84,575.99,576.26,576.61,576.99,577.37,577.69,578.05,578.38,578.56,578.52,578.45,578.34,578.21,578.13,578.05,577.97,577.91,577.90,577.90,577.90,577.90,577.90,577.90,577.86,577.82,577.82,577.82,577.81,577.77,577.72,577.72,577.74,578.00,578.33,578.66,579.03,579.36,579.67
569.06,567.89,567.58,568.83,569.81,570.44,570.88,571.29,571.72,572.14,572.53,572.87,573.17,573.43,573.58,573.50,573.42,573.27,573.08,572.86,572.58,572.27,572.01,571.82,571.74,571.66,571.69,571.77,571.77,571.44,571.02,570.57,570.13,569.77,569.50,569.33,569.19,569.05,569.04,569.10,569.21,569.39,569.70,570.09,570.53,570.98,571.33,571.40,571.22,570.91,570.57,570.24,570.07,569.98,569.92,569.85,569.77,569.66,569.54,569.44,569.36,569.26,569.15,569.06,569.15,569.24,569.35,569.52,569.75,570.15,571.63,572.68,571.93,570.18,569.90,570.58,571.49,571.53,571.50,571.60,571.90,572.40,572.83,572.54,572.00,571.48,570.99,570.52,570.06,569.59,569.10,568.59,568.11,567.67,567.28,566.85,566.64,566.56,566.69,567.41,568.12,568.86,569.66,570.67,572.37,573.72,574.13,573.49,572.90,572.53,572.84,573.69,574.43,573.71,573.38,573.83,574.94,575.39,575.73,576.07,576.43,576.76,577.14,577.48,577.80,578.12,578.30,578.38,578.44,578.51,578.60,578.67,578.93,579.34,579.74,580.01,580.22,580.42,580.64,580.83,580.99,581.12,581.23,581.38,581.54,581.75,582.00,582.23,582.39,582.40,582.35,582.31,582.31,582.29,582.25,582.20,582.20,582.13,582.17,582.29,582.36,581.98,581.46,580.95,580.49,579.99,578.64,577.15,576.35,577.16,577.69,578.25,578.89,579.56,579.96,580.16,580.35,580.54,580.67,580.64,580.49,580.32,580.15,579.90,579.81,579.73,579.55,579.07,578.63,578.49,578.58,578.70,578.80,578.57,578.17,577.77,577.58,577.49,577.46,577.44,577.43,577.39,577.40,577.49,577.63,577.72,577.61,577.49,577.43,577.36,577.30,577.26,577.27,577.32,577.04,576.54,576.14,576.11,576.25,576.52,576.84,577.18,577.56,577.88,578.24,578.58,578.77,578.78,578.71,578.63,578.53,578.45,578.37,578.30,578.24,578.24,578.24,578.24,578.24,578.24,578.24,578.22,578.20,578.20,578.20,578.16,578.12,578.09,578.04,578.04,578.13,578.36,578.71,579.05,579.40,579.80
569.62,568.58,567.83,568.74,569.67,570.34,570.77,571.19,571.62,572.04,572.47,572.90,573.36,573.77,573.99,573.89,573.81,573.68,573.54,573.38,573.10,572.81,572.55,572.34,572.26,572.18,572.21,572.24,572.12,571.69,571.22,570.77,570.34,570.03,569.83,569.75,569.69,569.61,569.60,569.57,569.58,569.68,569.94,570.38,570.90,571.45,571.96,572.10,571.86,571.48,571.11,570.85,570.71,570.62,570.52,570.38,570.29,570.14,569.99,569.89,569.76,569.65,569.54,569.44,569.45,569.46,569.49,569.58,569.82,570.53,572.22,573.17,571.99,570.13,570.09,570.94,571.95,572.29,572.33,572.34,572.50,572.95,573.36,573.06,572.54,572.04,571.60,571.20,570.81,570.41,569.94,569.48,569.03,568.61,568.22,567.76,567.35,566.95,566.73,567.13,567.57,568.16,568.82,569.50,570.82,572.15,572.91,572.79,572.20,571.86,572.39,573.55,574.37,573.86,573.57,573.94,574.96,575.41,575.74,576.07,576.43,576.76,577.12,577.48,577.85,578.23,578.57,578.75,578.88,579.00,579.11,579.21,579.43,579.74,580.03,580.21,580.37,580.55,580.78,581.01,581.20,581.34,581.46,581.62,581.76,581.94,582.13,582.36,582.60,582.74,582.77,582.70,582.69,582.69,582.65,582.60,582.59,582.52,582.53,582.59,582.58,582.10,581.56,581.04,580.55,580.00,578.64,577.26,576.73,577.93,578.61,579.02,579.41,579.86,580.23,580.51,580.74,580.93,581.06,581.05,580.88,580.67,580.52,580.34,580.27,580.19,579.96,579.45,579.12,579.01,579.05,579.12,579.15,578.88,578.44,578.01,577.88,577.80,577.76,577.76,577.75,577.69,577.71,577.80,577.93,578.04,578.04,578.01,577.99,577.94,577.88,577.85,577.83,577.77,577.38,576.79,576.39,576.39,576.56,576.80,577.09,577.40,577.76,578.08,578.43,578.78,579.00,579.03,578.99,578.93,578.85,578.77,578.70,578.63,578.60,578.59,578.57,578.58,578.60,578.60,578.60,578.60,578.60,578.59,578.56,578.49,578.46,578.44,578.39,578.37,578.35,578.46,578.75,579.09,579.46,579.91
570.06,569.22,568.32,568.74,569.56,570.26,570.66,571.12,571.53,571.97,572.46,572.98,573.57,574.12,574.42,574.29,574.21,574.07,573.95,573.83,573.61,573.37,573.10,572.86,572.77,572.70,572.72,572.65,572.33,571.89,571.43,570.97,570.58,570.41,570.31,570.24,570.18,570.17,570.17,570.12,570.09,570.12,570.30,570.75,571.29,571.85,572.41,572.70,572.51,572.13,571.78,571.60,571.45,571.34,571.24,571.09,571.00,570.84,570.64,570.48,570.27,570.11,569.99,569.90,569.83,569.81,569.80,569.85,570.14,571.37,573.13,573.68,571.89,570.07,570.26,571.21,572.23,572.91,573.11,573.12,573.18,573.50,573.88,573.59,573.08,572.63,572.23,571.84,571.45,571.04,570.59,570.24,569.87,569.49,569.10,568.66,568.26,567.84,567.45,567.25,567.20,567.50,568.02,568.58,569.22,569.82,570.66,571.54,571.18,571.16,572.00,573.36,574.35,574.01,573.71,574.00,574.96,575.40,575.73,576.05,576.38,576.75,577.08,577.48,577.91,578.31,578.68,578.95,579.17,579.37,579.53,579.68,579.84,580.01,580.19,580.35,580.50,580.68,580.91,581.14,581.36,581.55,581.70,581.86,582.02,582.14,582.27,582.50,582.73,582.99,583.13,583.08,583.08,583.08,583.04,582.99,582.97,582.91,582.89,582.87,582.72,582.23,581.70,581.16,580.63,580.02,578.66,577.42,577.17,578.74,579.76,580.04,580.06,580.17,580.46,580.76,581.06,581.31,581.43,581.34,581.15,580.94,580.80,580.69,580.61,580.43,580.12,579.77,579.62,579.56,579.53,579.57,579.50,579.16,578.68,578.24,578.18,578.12,578.09,578.09,578.08,578.01,578.02,578.11,578.20,578.35,578.43,578.43,578.38,578.38,578.36,578.32,578.27,578.21,577.69,577.02,576.63,576.73,576.95,577.13,577.35,577.64,577.96,578.28,578.63,578.99,579.25,579.28,579.28,579.25,579.17,579.10,579.03,578.99,578.98,578.97,578.91,578.93,578.98,578.98,578.98,578.98,578.98,578.96,578.89,578.82,578.80,578.79,578.77,578.71,578.64,578.64,578.79,579.14,579.52,580.03
570.34,569.67,568.91,568.92,569.54,570.19,570.60,571.10,571.59,572.11,572.67,573.22,573.82,574.39,574.75,574.72,574.61,574.50,574.38,574.25,574.11,573.90,573.62,573.36,573.25,573.25,573.18,572.96,572.55,572.13,571.68,571.26,570.95,570.85,570.81,570.75,570.70,570.70,570.70,570.68,570.64,570.62,570.74,571.20,571.74,572.29,572.84,573.28,573.16,572.77,572.43,572.31,572.20,572.09,571.95,571.80,571.71,571.57,571.39,571.23,571.01,570.84,570.69,570.57,570.44,570.34,570.25,570.36,571.17,572.82,573.88,573.49,571.44,570.05,570.43,571.42,572.46,573.34,573.72,573.89,573.99,574.10,574.45,574.17,573.68,573.26,572.83,572.43,572.02,571.58,571.13,570.80,570.47,570.15,569.86,569.54,569.17,568.79,568.44,568.13,567.94,567.90,567.95,568.00,568.35,568.82,569.46,570.11,570.25,570.54,571.50,572.95,574.18,574.19,573.95,574.11,574.92,575.35,575.68,576.01,576.38,576.75,577.12,577.54,577.99,578.42,578.81,579.09,579.32,579.55,579.75,579.91,580.07,580.22,580.38,580.53,580.69,580.85,581.03,581.22,581.44,581.66,581.86,582.06,582.22,582.36,582.50,582.69,582.87,583.14,583.35,583.41,583.41,583.41,583.40,583.36,583.31,583.28,583.27,583.18,582.88,582.40,581.91,581.40,580.85,580.19,578.75,577.65,577.66,579.38,580.33,580.62,580.65,580.69,580.85,581.12,581.43,581.68,581.73,581.61,581.43,581.26,581.11,580.98,580.78,580.52,580.25,580.16,580.23,580.27,580.20,580.03,579.82,579.43,578.95,578.54,578.46,578.46,578.48,578.46,578.41,578.29,578.30,578.39,578.52,578.67,578.77,578.80,578.77,578.77,578.73,578.70,578.67,578.61,578.07,577.33,576.94,577.16,577.39,577.56,577.67,577.81,578.15,578.51,578.86,579.19,579.46,579.54,579.55,579.53,579.50,579.42,579.38,579.35,579.31,579.31,579.28,579.29,579.31,579.31,579.31,579.31,579.31,579.29,579.22,579.18,579.17,579.16,579.12,579.08,578.98,578.92,578.99,579.23,579.59,580.10
570.63,570.05,569.46,569.24,569.64,570.20,570.65,571.20,571.75,572.33,572.93,573.47,574.06,574.63,575.05,575.13,575.02,574.91,574.79,574.65,574.57,574.38,574.13,573.87,573.75,573.77,573.59,573.23,572.77,572.36,571.93,571.58,571.38,571.33,571.32,571.27,571.22,571.22,571.22,571.22,571.18,571.13,571.20,571.63,572.17,572.71,573.27,573.82,573.77,573.44,573.14,573.04,572.94,572.82,572.66,572.52,572.43,572.30,572.15,571.99,571.78,571.60,571.44,571.29,571.12,570.93,570.75,570.89,572.03,573.90,574.46,573.43,571.22,570.26,570.72,571.66,572.68,573.64,574.25,574.57,574.72,574.76,575.03,574.74,574.27,573.85,573.41,573.00,572.56,572.10,571.65,571.30,571.00,570.73,570.50,570.26,569.95,569.65,569.40,569.13,568.92,568.68,568.39,568.09,568.15,568.43,568.75,569.08,569.53,570.00,570.95,572.36,573.80,574.30,574.18,574.21,574.87,575.28,575.63,576.00,576.40,576.78,577.19,577.62,578.07,578.52,578.94,579.23,579.47,579.68,579.91,580.10,580.26,580.42,580.57,580.73,580.88,581.03,581.16,581.32,581.52,581.74,581.97,582.22,582.41,582.57,582.73,582.88,583.04,583.28,583.53,583.67,583.73,583.74,583.74,583.72,583.67,583.64,583.62,583.48,583.08,582.62,582.16,581.64,581.04,580.30,578.80,577.85,578.07,579.80,580.68,581.07,581.24,581.28,581.34,581.56,581.84,582.05,582.00,581.87,581.71,581.55,581.39,581.20,580.90,580.60,580.41,580.50,580.71,580.80,580.70,580.32,580.00,579.60,579.18,578.86,578.78,578.83,578.85,578.81,578.71,578.57,578.55,578.66,578.82,578.97,579.08,579.13,579.13,579.13,579.09,579.06,579.06,578.99,578.42,577.63,577.26,577.62,577.84,578.01,578.05,578.06,578.34,578.71,579.06,579.39,579.68,579.77,579.81,579.84,579.83,579.77,579.75,579.70,579.66,579.66,579.64,579.63,579.63,579.64,579.65,579.68,579.68,579.64,579.55,579.53,579.53,579.52,579.46,579.42,579.31,579.21,579.22,579.39,579.70,580.18
570.96,570.42,569.90,569.69,569.89,570.31,570.85,571.44,572.00,572.58,573.18,573.73,574.28,574.86,575.34,575.52,575.46,575.33,575.18,575.04,574.95,574.81,574.60,574.39,574.26,574.23,573.93,573.48,573.02,572.57,572.17,571.93,571.85,571.83,571.83,571.79,571.73,571.73,571.73,571.73,571.70,571.64,571.67,572.05,572.56,573.12,573.71,574.27,574.32,574.13,573.90,573.81,573.68,573.53,573.38,573.23,573.14,573.01,572.86,572.71,572.54,572.34,572.18,572.06,571.84,571.56,571.31,571.38,572.44,574.29,574.86,573.78,571.51,570.82,571.24,572.03,572.93,573.89,574.71,575.12,575.30,575.48,575.61,575.29,574.83,574.38,573.98,573.54,573.08,572.62,572.16,571.77,571.49,571.24,571.02,570.78,570.54,570.36,570.24,570.07,569.90,569.66,569.36,569.04,568.74,568.56,568.52,568.68,569.10,569.56,570.37,571.60,573.16,574.28,574.37,574.30,574.83,575.23,575.61,576.02,576.46,576.86,577.30,577.72,578.13,578.60,579.05,579.39,579.64,579.82,580.04,580.26,580.46,580.61,580.77,580.92,581.08,581.20,581.31,581.45,581.61,581.81,582.05,582.34,582.57,582.76,582.92,583.08,583.23,583.44,583.68,583.88,584.02,584.06,584.06,584.06,584.04,583.98,583.91,583.73,583.34,582.88,582.41,581.84,581.13,580.26,578.77,577.99,578.37,579.98,580.92,581.47,581.78,581.90,581.92,582.06,582.26,582.41,582.27,582.13,581.97,581.81,581.63,581.35,581.00,580.72,580.62,580.76,580.97,581.07,580.91,580.36,580.01,579.64,579.34,579.18,579.16,579.21,579.21,579.13,578.98,578.82,578.82,578.92,579.08,579.23,579.38,579.46,579.46,579.47,579.47,579.46,579.46,579.37,578.71,577.88,577.59,578.11,578.31,578.47,578.50,578.45,578.53,578.84,579.22,579.59,579.91,579.97,580.08,580.16,580.16,580.14,580.09,580.05,580.04,580.03,579.98,579.96,579.95,579.97,580.03,580.10,580.10,580.01,579.88,579.86,579.87,579.87,579.84,579.71,579.62,579.50,579.43,579.63,579.88,580.30
571.47,570.96,570.45,570.09,570.17,570.53,571.05,571.65,572.20,572.79,573.40,573.98,574.53,575.12,575.65,575.94,575.87,575.72,575.59,575.48,575.36,575.25,575.09,574.91,574.75,574.54,574.16,573.69,573.23,572.82,572.52,572.38,572.35,572.35,572.35,572.30,572.25,572.25,572.25,572.25,572.22,572.15,572.18,572.51,573.00,573.55,574.13,574.71,574.88,574.80,574.63,574.54,574.40,574.25,574.09,573.94,573.85,573.73,573.57,573.42,573.26,573.09,572.92,572.78,572.50,572.20,571.91,571.91,572.85,574.76,575.35,574.53,572.83,572.10,572.43,573.07,573.75,574.49,575.18,575.61,575.87,576.05,576.18,575.87,575.39,574.90,574.51,574.06,573.60,573.13,572.68,572.28,571.97,571.71,571.48,571.30,571.11,570.97,570.87,570.68,570.51,570.30,570.03,569.76,569.47,569.15,568.92,568.85,568.89,569.26,569.87,570.85,572.57,574.04,574.48,574.56,574.89,575.27,575.69,576.12,576.53,576.96,577.39,577.81,578.24,578.66,579.12,579.51,579.78,579.94,580.13,580.38,580.62,580.81,580.96,581.12,581.27,581.41,581.53,581.64,581.79,581.96,582.16,582.42,582.66,582.90,583.12,583.27,583.42,583.60,583.81,584.03,584.23,584.34,584.38,584.37,584.33,584.26,584.17,584.01,583.64,583.15,582.54,581.85,581.11,580.25,578.67,578.20,578.93,580.30,581.23,581.87,582.26,582.39,582.45,582.54,582.65,582.69,582.53,582.38,582.20,581.99,581.73,581.43,581.10,580.88,580.87,581.06,581.28,581.36,581.17,580.62,580.19,579.89,579.69,579.60,579.60,579.59,579.54,579.44,579.25,579.09,579.10,579.24,579.39,579.54,579.70,579.80,579.85,579.89,579.97,580.01,579.98,579.75,578.95,578.09,577.85,578.48,578.79,578.94,578.95,578.90,578.91,579.05,579.32,579.67,579.99,580.18,580.40,580.52,580.48,580.43,580.36,580.32,580.32,580.32,580.30,580.25,580.22,580.24,580.31,580.38,580.41,580.35,580.21,580.22,580.27,580.29,580.27,580.14,580.01,579.87,579.76,579.82,580.08,580.52
572.05,571.57,571.03,570.52,570.48,570.75,571.24,571.84,572.41,572.99,573.60,574.21,574.77,575.36,575.93,576.34,576.26,576.13,576.01,575.91,575.77,575.67,575.55,575.40,575.19,574.82,574.37,573.90,573.46,573.12,572.94,572.87,572.87,572.87,572.87,572.82,572.77,572.77,572.77,572.77,572.74,572.67,572.69,572.97,573.44,574.00,574.54,575.14,575.44,575.49,575.36,575.25,575.11,574.96,574.81,574.67,574.57,574.44,574.29,574.13,574.00,573.85,573.68,573.49,573.20,572.89,572.60,572.54,573.30,575.25,576.03,575.60,574.37,573.55,573.77,574.32,574.86,575.39,575.82,576.16,576.42,576.60,576.75,576.48,576.01,575.48,575.04,574.59,574.12,573.65,573.20,572.79,572.46,572.18,571.97,571.82,571.67,571.54,571.40,571.18,571.00,570.79,570.56,570.33,570.09,569.76,569.45,569.19,568.91,569.12,569.53,570.29,571.96,573.51,574.26,574.58,574.87,575.32,575.79,576.24,576.65,577.11,577.51,577.93,578.36,578.75,579.21,579.62,579.91,580.06,580.22,580.47,580.73,580.96,581.15,581.31,581.46,581.62,581.76,581.86,581.99,582.14,582.30,582.50,582.72,583.00,583.27,583.44,583.63,583.80,583.97,584.17,584.40,584.60,584.68,584.66,584.59,584.51,584.43,584.28,583.94,583.45,582.68,581.83,581.01,580.16,578.50,578.35,579.47,580.62,581.51,582.25,582.73,582.86,582.93,583.00,583.01,582.95,582.80,582.63,582.39,582.12,581.81,581.50,581.20,581.06,581.15,581.38,581.61,581.66,581.46,580.93,580.51,580.30,580.19,580.14,580.12,580.07,580.00,579.86,579.55,579.37,579.39,579.56,579.78,580.00,580.12,580.22,580.32,580.41,580.55,580.60,580.49,580.10,579.23,578.35,578.12,578.81,579.27,579.42,579.42,579.37,579.37,579.39,579.55,579.81,580.08,580.37,580.67,580.83,580.80,580.72,580.64,580.61,580.60,580.59,580.59,580.53,580.48,580.50,580.57,580.66,580.70,580.66,580.55,580.60,580.67,580.73,580.74,580.63,580.48,580.33,580.21,580.13,580.37,580.81
572.69,572.21,571.66,571.07,570.82,570.95,571.44,572.04,572.60,573.18,573.80,574.40,574.96,575.55,576.17,576.66,576.64,576.55,576.44,576.31,576.21,576.08,575.97,575.82,575.51,575.09,574.63,574.16,573.75,573.55,573.44,573.39,573.39,573.39,573.39,573.34,573.29,573.29,573.29,573.29,573.26,573.20,573.21,573.41,573.86,574.45,574.99,575.54,576.00,576.21,576.12,575.98,575.83,575.67,575.54,575.44,575.31,575.15,575.00,574.86,574.76,574.63,574.44,574.22,573.98,573.68,573.41,573.31,573.80,575.75,577.05,577.08,575.85,574.93,575.13,575.68,576.21,576.71,576.81,576.86,576.96,577.17,577.34,577.13,576.71,576.17,575.59,575.10,574.64,574.17,573.71,573.26,572.95,572.70,572.50,572.39,572.25,572.07,571.86,571.63,571.41,571.18,570.95,570.71,570.48,570.19,569.88,569.58,569.28,569.22,569.47,570.11,571.30,572.53,573.40,574.04,574.62,575.31,575.89,576.38,576.84,577.30,577.70,578.10,578.49,578.89,579.34,579.75,580.04,580.19,580.35,580.52,580.76,581.06,581.33,581.50,581.66,581.82,581.97,582.11,582.21,582.33,582.48,582.58,582.79,583.07,583.35,583.58,583.86,584.05,584.18,584.31,584.53,584.81,584.94,584.92,584.85,584.78,584.69,584.54,584.22,583.81,582.88,581.80,580.82,579.96,578.27,578.39,579.82,580.83,581.71,582.63,583.23,583.31,583.38,583.41,583.35,583.21,583.05,582.84,582.53,582.18,581.87,581.56,581.31,581.27,581.47,581.70,581.93,581.99,581.78,581.28,581.04,580.92,580.86,580.84,580.78,580.76,580.71,580.51,579.95,579.72,579.72,579.92,580.33,580.74,580.76,580.79,580.97,581.06,581.20,581.18,580.94,580.35,579.58,578.75,578.47,579.10,579.73,579.89,579.89,579.89,579.89,579.95,580.04,580.15,580.28,580.51,580.80,581.03,581.11,581.04,580.96,580.93,580.91,580.85,580.84,580.80,580.74,580.76,580.83,580.96,581.00,580.94,580.93,580.99,581.06,581.14,581.20,581.18,581.07,580.94,580.84,580.71,580.78,581.13
573.32,572.81,572.26,571.65,571.22,571.17,571.62,572.19,572.77,573.37,573.98,574.57,575.21,575.92,576.61,577.09,577.08,576.97,576.85,576.74,576.62,576.51,576.37,576.15,575.75,575.30,574.84,574.45,574.21,574.09,574.03,574.01,574.00,573.97,573.96,573.94,573.90,573.87,573.86,573.86,573.83,573.76,573.77,573.89,574.28,574.86,575.44,575.99,576.50,576.81,576.80,576.73,576.59,576.44,576.29,576.17,576.06,575.92,575.76,575.61,575.50,575.41,575.35,575.28,575.05,574.79,574.57,574.29,574.09,576.11,577.72,578.16,577.32,576.32,576.50,577.00,577.40,577.58,577.54,577.51,577.58,577.75,577.88,577.77,577.43,576.88,576.31,575.75,575.24,574.73,574.24,573.80,573.48,573.24,573.05,572.89,572.71,572.50,572.26,572.03,571.80,571.57,571.34,571.10,570.87,570.59,570.26,569.92,569.61,569.42,569.52,569.97,570.88,571.96,572.85,573.60,574.30,575.07,575.72,576.35,576.94,577.44,577.88,578.28,578.68,579.11,579.53,579.87,580.12,580.27,580.43,580.58,580.81,581.11,581.38,581.62,581.86,582.05,582.16,582.32,582.44,582.57,582.71,582.80,582.94,583.16,583.42,583.66,583.96,584.19,584.37,584.53,584.72,584.94,585.10,585.13,585.06,585.02,584.95,584.83,584.56,584.15,583.06,581.74,580.50,579.49,578.29,578.70,580.15,581.19,582.17,583.11,583.69,583.76,583.80,583.74,583.63,583.46,583.26,583.00,582.66,582.30,581.98,581.64,581.50,581.56,581.78,581.98,582.21,582.28,582.15,581.79,581.65,581.53,581.46,581.46,581.46,581.49,581.48,581.46,581.57,581.20,581.25,581.54,581.69,581.87,581.78,581.68,581.71,581.72,581.85,581.71,581.31,580.76,580.12,579.44,578.96,579.00,579.72,580.09,580.28,580.41,580.41,580.45,580.45,580.47,580.53,580.70,580.98,581.24,581.38,581.32,581.24,581.20,581.19,581.16,581.12,581.05,581.01,581.02,581.09,581.23,581.28,581.27,581.31,581.38,581.46,581.54,581.65,581.70,581.63,581.52,581.43,581.29,581.26,581.51
573.95,573.40,572.84,572.23,571.67,571.47,571.82,572.35,572.96,573.60,574.24,574.85,575.59,576.41,577.14,577.54,577.52,577.39,577.27,577.17,577.03,576.93,576.74,576.42,575.95,575.49,575.05,574.77,574.75,574.69,574.67,574.67,574.64,574.59,574.58,574.57,574.54,574.48,574.48,574.48,574.44,574.38,574.37,574.38,574.71,575.27,575.88,576.43,576.98,577.35,577.44,577.44,577.34,577.21,577.06,576.91,576.81,576.69,576.54,576.39,576.25,576.22,576.32,576.43,576.24,576.01,575.83,575.37,574.39,576.40,578.22,579.02,578.63,577.70,577.82,578.21,578.42,578.30,578.21,578.17,578.20,578.33,578.42,578.40,578.13,577.60,577.06,576.45,575.88,575.34,574.81,574.37,574.01,573.75,573.57,573.35,573.12,572.88,572.65,572.42,572.19,571.96,571.73,571.49,571.26,570.97,570.63,570.26,569.94,569.67,569.63,569.88,570.59,571.57,572.43,573.19,573.96,574.73,575.45,576.19,576.92,577.50,578.03,578.47,578.88,579.34,579.79,580.09,580.25,580.37,580.51,580.66,580.88,581.16,581.41,581.71,582.01,582.24,582.36,582.52,582.67,582.82,582.96,583.05,583.13,583.28,583.49,583.73,584.02,584.28,584.51,584.75,584.92,585.07,585.23,585.33,585.26,585.25,585.20,585.09,584.88,584.47,583.25,581.72,580.21,579.03,578.41,579.10,580.53,581.69,582.75,583.64,584.15,584.19,584.15,584.02,583.86,583.68,583.44,583.14,582.79,582.42,582.10,581.72,581.71,581.87,582.09,582.26,582.48,582.60,582.57,582.38,582.27,582.13,582.05,582.08,582.14,582.23,582.25,582.43,583.25,582.94,583.07,583.37,583.22,583.10,582.90,582.69,582.53,582.43,582.47,582.18,581.65,581.17,580.64,580.09,579.45,578.92,579.61,580.15,580.55,580.81,580.88,580.88,580.83,580.79,580.81,580.94,581.19,581.45,581.63,581.59,581.51,581.47,581.46,581.45,581.38,581.32,581.26,581.28,581.35,581.49,581.57,581.60,581.67,581.76,581.85,581.94,582.08,582.17,582.16,582.11,582.02,581.88,581.80,581.95
574.59,574.04,573.44,572.82,572.25,571.93,572.03,572.54,573.19,573.94,574.74,575.53,576.30,577.13,577.76,577.95,577.90,577.82,577.70,577.58,577.48,577.35,577.05,576.62,576.15,575.69,575.31,575.20,575.39,575.39,575.39,575.36,575.31,575.29,575.29,575.25,575.20,575.19,575.19,575.19,575.15,575.08,575.01,574.86,575.12,575.72,576.27,576.87,577.43,577.84,578.01,578.02,578.00,577.94,577.84,577.69,577.54,577.43,577.32,577.18,577.07,577.10,577.31,577.60,577.46,577.24,577.12,576.55,574.92,576.66,578.58,579.60,579.42,578.99,579.01,579.10,579.09,579.00,578.92,578.85,578.82,578.86,578.99,579.02,578.80,578.31,577.77,577.17,576.59,576.05,575.51,574.94,574.50,574.19,573.96,573.74,573.50,573.27,573.04,572.81,572.58,572.35,572.11,571.88,571.65,571.36,571.02,570.64,570.27,569.96,569.80,569.92,570.52,571.31,572.10,572.85,573.57,574.34,575.10,575.87,576.63,577.36,578.07,578.63,579.06,579.51,580.23,580.57,580.63,580.56,580.65,580.79,580.96,581.17,581.47,581.77,582.04,582.29,582.55,582.77,582.89,583.02,583.17,583.30,583.39,583.45,583.55,583.79,584.09,584.34,584.60,584.88,585.10,585.27,585.42,585.52,585.45,585.44,585.39,585.26,585.03,584.70,583.51,581.89,580.18,578.85,578.63,579.53,581.02,582.47,583.50,584.25,584.63,584.55,584.38,584.22,584.03,583.81,583.57,583.27,582.92,582.54,582.17,581.84,581.91,582.13,582.36,582.58,582.80,583.01,583.12,583.00,582.87,582.72,582.65,582.72,582.80,582.92,583.02,583.24,584.00,584.38,584.60,584.66,584.50,584.24,584.00,583.75,583.48,583.27,583.01,582.54,581.96,581.44,580.90,580.35,579.76,579.29,579.64,580.09,580.51,580.88,581.22,581.23,581.16,581.13,581.19,581.28,581.44,581.64,581.84,581.89,581.84,581.77,581.72,581.71,581.64,581.57,581.53,581.54,581.61,581.75,581.86,581.92,582.00,582.13,582.23,582.32,582.41,582.55,582.66,582.70,582.61,582.52,582.44,582.48
575.20,574.64,574.02,573.44,572.88,572.42,572.26,573.00,573.75,574.54,575.38,576.19,577.00,577.75,578.26,578.36,578.33,578.24,578.12,578.00,577.88,577.68,577.32,576.86,576.39,575.93,575.72,575.79,576.08,576.10,576.10,576.06,576.00,576.00,576.00,575.96,575.90,575.90,575.90,575.88,575.84,575.77,575.63,575.38,575.57,576.13,576.71,577.32,577.89,578.32,578.55,578.61,578.62,578.59,578.54,578.45,578.31,578.18,578.08,577.99,577.88,577.93,578.23,578.65,578.66,578.53,578.42,577.69,575.63,577.31,579.10,580.02,579.99,579.81,579.76,579.75,579.70,579.62,579.57,579.53,579.49,579.48,579.58,579.64,579.47,579.01,578.41,577.76,577.13,576.52,575.92,575.39,575.01,574.70,574.40,574.13,573.89,573.66,573.43,573.20,572.97,572.75,572.55,572.32,572.09,571.78,571.41,571.02,570.64,570.35,570.14,570.14,570.60,571.29,572.03,572.75,573.45,574.19,574.93,575.66,576.40,577.13,577.88,578.51,579.08,579.70,580.67,581.28,581.47,581.34,581.30,581.30,581.32,581.36,581.51,581.79,582.07,582.34,582.63,582.96,583.12,583.25,583.40,583.52,583.63,583.68,583.73,583.90,584.13,584.39,584.66,584.92,585.15,585.33,585.50,585.65,585.67,585.65,585.54,585.37,585.13,584.89,583.67,582.03,580.34,578.94,578.94,580.01,581.64,583.23,584.20,584.69,584.87,584.81,584.62,584.43,584.22,583.98,583.70,583.37,583.00,582.61,582.26,582.07,582.23,582.46,582.67,582.90,583.13,583.36,583.53,583.55,583.45,583.33,583.29,583.37,583.44,583.58,583.75,584.02,584.56,584.96,585.16,585.21,585.10,584.84,584.63,584.38,584.09,583.84,583.49,582.97,582.35,581.70,581.05,580.50,579.98,579.56,579.71,580.09,580.51,580.93,581.34,581.52,581.52,581.49,581.54,581.61,581.74,581.90,582.05,582.16,582.12,582.06,582.02,581.98,581.90,581.83,581.78,581.79,581.87,582.03,582.18,582.29,582.37,582.48,582.60,582.70,582.78,582.93,583.09,583.22,583.28,583.21,583.14,583.04
575.78,575.25,574.66,574.11,573.57,572.98,572.60,573.45,574.35,575.23,576.09,576.87,577.70,578.34,578.70,578.75,578.76,578.65,578.54,578.43,578.26,577.97,577.57,577.10,576.64,576.23,576.22,576.47,576.78,576.81,576.82,576.78,576.72,576.71,576.71,576.66,576.62,576.62,576.61,576.56,576.51,576.44,576.21,575.92,576.04,576.53,577.15,577.76,578.33,578.79,579.07,579.16,579.19,579.20,579.19,579.18,579.07,578.93,578.84,578.82,578.67,578.74,579.07,579.53,579.67,579.64,579.53,578.70,576.48,578.14,579.66,580.37,580.43,580.37,580.30,580.27,580.25,580.18,580.17,580.17,580.16,580.12,580.16,580.21,580.06,579.60,578.93,578.23,577.55,576.87,576.22,575.82,575.54,575.25,574.88,574.57,574.31,574.07,573.83,573.60,573.37,573.18,572.99,572.76,572.51,572.17,571.79,571.41,571.06,570.80,570.57,570.45,570.75,571.38,572.08,572.80,573.50,574.19,574.88,575.58,576.27,576.97,577.67,578.36,579.08,579.90,581.13,582.08,582.50,582.35,582.17,581.98,581.80,581.64,581.58,581.80,582.10,582.38,582.66,583.09,583.33,583.50,583.64,583.74,583.88,583.94,583.96,584.06,584.20,584.43,584.69,584.92,585.15,585.34,585.53,585.75,585.88,585.84,585.66,585.43,585.21,585.03,583.81,582.22,580.59,579.11,579.28,580.53,582.26,583.89,584.75,584.99,585.00,584.97,584.84,584.64,584.40,584.15,583.84,583.45,583.06,582.68,582.35,582.34,582.58,582.82,583.00,583.22,583.45,583.69,583.90,584.02,583.99,583.93,583.92,584.00,584.09,584.21,584.42,584.71,584.99,585.17,585.34,585.44,585.41,585.21,585.03,584.81,584.53,584.28,583.93,583.43,582.79,582.03,581.26,580.67,580.17,579.78,579.83,580.14,580.55,580.98,581.37,581.75,581.87,581.85,581.86,581.93,582.07,582.19,582.28,582.41,582.38,582.35,582.32,582.25,582.18,582.10,582.05,582.06,582.14,582.33,582.51,582.65,582.74,582.83,582.96,583.09,583.17,583.31,583.47,583.69,583.92,583.91,583.84,583.63
576.35,575.98,575.48,574.94,574.40,573.81,573.28,573.52,574.64,575.83,576.79,577.58,578.41,578.92,579.13,579.15,579.15,579.08,578.97,578.82,578.59,578.21,577.77,577.30,576.88,576.71,576.86,577.16,577.44,577.52,577.53,577.49,577.43,577.42,577.38,577.34,577.33,577.32,577.27,577.24,577.18,577.03,576.74,576.44,576.50,576.92,577.53,578.15,578.76,579.27,579.59,579.69,579.75,579.77,579.77,579.77,579.75,579.71,579.68,579.65,579.46,579.56,579.77,579.95,579.99,579.98,579.92,579.28,577.57,579.08,580.20,580.65,580.76,580.75,580.74,580.73,580.71,580.64,580.68,580.70,580.72,580.75,580.71,580.63,580.36,579.82,579.13,578.44,577.78,577.14,576.56,576.33,576.09,575.78,575.45,575.15,574.85,574.56,574.29,574.05,573.82,573.60,573.38,573.14,572.86,572.50,572.14,571.82,571.55,571.31,571.08,570.89,570.92,571.46,572.21,573.00,573.73,574.38,575.07,575.76,576.45,577.15,577.85,578.54,579.26,580.13,581.62,582.92,583.54,583.36,583.03,582.66,582.30,581.99,581.77,581.85,582.10,582.40,582.71,583.11,583.45,583.70,583.85,583.99,584.13,584.20,584.22,584.30,584.40,584.52,584.69,584.92,585.16,585.37,585.60,585.83,586.01,585.92,585.73,585.50,585.27,585.05,584.03,582.60,580.89,579.10,579.72,581.09,582.64,584.21,584.86,585.04,585.05,585.00,584.96,584.81,584.57,584.28,583.96,583.53,583.13,582.74,582.45,582.62,582.91,583.15,583.32,583.55,583.78,584.01,584.22,584.37,584.47,584.49,584.51,584.60,584.73,584.78,584.90,585.08,585.22,585.37,585.56,585.70,585.68,585.52,585.36,585.16,584.92,584.68,584.37,583.94,583.37,582.60,581.82,581.10,580.45,579.98,580.01,580.29,580.63,580.99,581.37,581.81,582.07,582.18,582.19,582.26,582.39,582.51,582.59,582.68,582.68,582.64,582.59,582.51,582.48,582.42,582.36,582.33,582.45,582.62,582.77,582.93,583.06,583.20,583.35,583.48,583.56,583.65,583.83,584.06,584.32,584.57,584.52,584.22
576.83,576.77,576.35,575.83,575.29,574.67,574.00,573.60,574.58,575.91,577.13,578.20,579.03,579.43,579.54,579.54,579.54,579.49,579.37,579.18,578.86,578.42,577.95,577.52,577.20,577.27,577.51,577.84,578.13,578.23,578.24,578.20,578.14,578.13,578.07,578.04,578.03,578.00,577.95,577.92,577.82,577.61,577.31,577.00,577.00,577.34,577.93,578.54,579.14,579.61,579.87,579.96,580.02,580.04,580.04,580.04,580.04,580.04,580.04,580.02,579.90,579.96,580.06,580.11,580.13,580.09,580.03,579.52,578.10,579.53,580.49,580.88,581.12,581.14,581.16,581.18,581.17,581.13,581.16,581.20,581.24,581.25,581.11,580.88,580.52,579.99,579.36,578.68,578.01,577.41,577.01,576.88,576.66,576.35,576.03,575.70,575.38,575.07,574.77,574.51,574.25,574.00,573.77,573.53,573.23,572.89,572.56,572.29,572.06,571.83,571.59,571.38,571.25,571.53,572.22,573.05,573.84,574.56,575.30,576.02,576.69,577.38,578.08,578.78,579.54,580.56,582.17,583.57,584.23,583.97,583.54,583.13,582.75,582.41,582.12,582.01,582.14,582.41,582.73,583.11,583.50,583.82,584.05,584.20,584.36,584.44,584.49,584.56,584.63,584.74,584.87,585.05,585.25,585.47,585.72,585.97,586.17,586.05,585.83,585.60,585.37,585.13,584.23,582.78,580.97,579.36,580.26,581.69,583.11,584.53,584.93,585.05,585.08,585.04,585.04,584.94,584.72,584.40,584.02,583.60,583.20,582.84,582.64,582.88,583.20,583.46,583.67,583.88,584.10,584.33,584.54,584.70,584.85,584.92,584.97,585.06,585.17,585.20,585.28,585.42,585.50,585.62,585.79,585.93,585.93,585.80,585.64,585.47,585.26,585.03,584.76,584.41,583.92,583.17,582.41,581.61,580.89,580.40,580.35,580.49,580.74,581.07,581.45,581.88,582.20,582.41,582.50,582.58,582.69,582.80,582.88,582.95,582.96,582.91,582.85,582.80,582.77,582.70,582.63,582.59,582.73,582.88,583.03,583.20,583.38,583.54,583.70,583.84,583.94,584.02,584.21,584.44,584.70,585.03,585.15,585.00
577.21,577.51,577.22,576.73,576.19,575.56,574.75,573.80,574.37,575.65,577.17,578.64,579.52,579.87,579.94,579.93,579.93,579.87,579.75,579.54,579.10,578.64,578.18,577.78,577.63,577.86,578.17,578.51,578.83,578.94,578.96,578.92,578.86,578.85,578.79,578.75,578.73,578.67,578.65,578.59,578.43,578.18,577.89,577.59,577.55,577.82,578.36,578.94,579.48,579.85,579.99,580.07,580.10,580.11,580.11,580.11,580.11,580.11,580.11,580.10,580.09,580.10,580.11,580.13,580.18,580.08,580.00,579.59,578.40,579.72,580.61,581.07,581.43,581.51,581.59,581.63,581.63,581.63,581.64,581.69,581.72,581.64,581.37,581.01,580.61,580.13,579.60,578.93,578.27,577.73,577.57,577.47,577.24,576.92,576.60,576.24,575.91,575.60,575.29,574.99,574.68,574.41,574.16,573.92,573.63,573.32,573.05,572.81,572.57,572.34,572.10,571.87,571.67,571.64,572.18,573.00,573.85,574.68,575.52,576.27,576.93,577.64,578.34,579.03,579.87,581.10,582.66,583.98,584.60,584.33,583.84,583.48,583.16,582.86,582.55,582.26,582.24,582.42,582.73,583.11,583.50,583.88,584.21,584.39,584.55,584.66,584.75,584.84,584.92,585.04,585.16,585.27,585.42,585.63,585.88,586.16,586.35,586.20,585.97,585.74,585.50,585.26,584.46,582.94,580.99,579.80,580.83,582.27,583.59,584.80,585.00,585.06,585.11,585.11,585.10,585.03,584.83,584.49,584.05,583.65,583.26,582.96,582.89,583.15,583.46,583.77,584.04,584.21,584.43,584.66,584.87,585.03,585.18,585.28,585.35,585.42,585.51,585.53,585.60,585.73,585.82,585.90,586.03,586.15,586.19,586.07,585.91,585.75,585.58,585.35,585.11,584.84,584.43,583.75,582.98,582.16,581.43,580.97,580.79,580.75,580.89,581.20,581.58,581.97,582.31,582.59,582.80,582.90,582.98,583.05,583.13,583.20,583.22,583.18,583.13,583.11,583.05,582.97,582.90,582.85,582.98,583.14,583.30,583.48,583.69,583.86,584.01,584.17,584.31,584.41,584.59,584.82,585.08,585.39,585.73,585.82
577.40,577.96,577.92,577.60,577.11,576.47,575.63,574.56,574.41,575.27,576.87,578.57,579.70,580.23,580.37,580.33,580.32,580.26,580.12,579.87,579.42,578.95,578.48,578.14,578.18,578.54,578.88,579.20,579.50,579.64,579.67,579.63,579.57,579.56,579.50,579.47,579.44,579.37,579.31,579.20,579.00,578.72,578.46,578.21,578.22,578.49,578.92,579.38,579.74,579.96,580.01,580.08,580.14,580.17,580.17,580.17,580.17,580.17,580.17,580.17,580.17,580.17,580.17,580.17,580.19,580.12,580.01,579.77,579.33,580.11,580.72,581.13,581.51,581.79,581.99,582.09,582.09,582.09,582.14,582.17,582.10,581.82,581.47,581.09,580.69,580.28,579.84,579.20,578.65,578.29,578.14,578.05,577.79,577.45,577.13,576.81,576.49,576.18,575.87,575.56,575.20,574.88,574.60,574.32,574.06,573.81,573.56,573.32,573.04,572.80,572.57,572.33,572.11,571.93,572.26,572.94,573.79,574.64,575.49,576.31,577.09,577.88,578.60,579.29,580.19,581.54,582.73,583.75,584.43,584.58,584.20,583.86,583.59,583.32,583.01,582.70,582.48,582.46,582.74,583.11,583.50,583.88,584.25,584.56,584.75,584.89,585.03,585.21,585.29,585.39,585.50,585.63,585.73,585.89,586.09,586.29,586.49,586.38,586.16,585.91,585.63,585.39,585.01,583.61,581.38,580.33,581.26,582.61,583.87,584.86,585.05,585.13,585.17,585.16,585.11,585.04,584.84,584.51,584.10,583.71,583.32,583.09,583.19,583.47,583.78,584.09,584.37,584.53,584.75,584.98,585.21,585.40,585.52,585.60,585.68,585.76,585.83,585.85,585.90,586.01,586.13,586.22,586.31,586.40,586.46,586.38,586.23,586.06,585.84,585.61,585.38,585.14,584.82,584.30,583.52,582.68,581.97,581.54,581.36,581.20,581.19,581.38,581.72,582.09,582.43,582.75,583.06,583.22,583.27,583.32,583.39,583.46,583.47,583.47,583.44,583.38,583.36,583.30,583.20,583.11,583.19,583.38,583.58,583.78,583.96,584.12,584.31,584.50,584.65,584.78,584.95,585.17,585.46,585.78,586.10,586.34
577.54,578.22,578.45,578.37,577.98,577.37,576.50,575.39,574.71,575.16,576.69,578.50,579.80,580.45,580.69,580.74,580.72,580.63,580.46,580.17,579.80,579.46,579.11,578.85,578.88,579.12,579.38,579.69,580.07,580.36,580.50,580.50,580.41,580.35,580.25,580.18,580.11,580.01,579.90,579.78,579.61,579.37,579.10,578.94,579.09,579.42,579.65,579.87,580.04,580.11,580.05,580.12,580.17,580.21,580.24,580.24,580.24,580.24,580.24,580.24,580.24,580.24,580.25,580.26,580.24,580.14,580.00,579.86,579.90,580.36,580.79,581.18,581.56,581.92,582.25,582.47,582.58,582.58,582.62,582.56,582.36,581.99,581.61,581.24,580.87,580.49,580.09,579.59,579.16,578.88,578.72,578.62,578.34,578.00,577.69,577.38,577.07,576.75,576.42,576.11,575.73,575.39,575.08,574.78,574.46,574.25,574.05,573.80,573.53,573.28,573.05,572.82,572.59,572.36,572.46,572.92,573.73,574.54,575.39,576.24,577.09,577.93,578.70,579.45,580.34,581.55,582.50,583.36,584.12,584.60,584.52,584.27,584.02,583.77,583.46,583.13,582.81,582.63,582.75,583.11,583.50,583.88,584.26,584.65,584.90,585.11,585.32,585.55,585.68,585.76,585.87,586.01,586.10,586.21,586.36,586.51,586.66,586.56,586.34,586.07,585.79,585.50,585.28,583.70,581.09,580.59,581.58,582.92,584.12,584.90,585.10,585.19,585.23,585.19,585.12,585.04,584.85,584.56,584.19,583.81,583.42,583.24,583.47,583.76,584.09,584.42,584.71,584.92,585.12,585.34,585.57,585.75,585.85,585.93,586.00,586.08,586.15,586.17,586.21,586.31,586.46,586.55,586.62,586.68,586.68,586.57,586.40,586.19,585.97,585.76,585.54,585.32,585.08,584.68,583.86,583.08,582.50,582.14,581.95,581.73,581.60,581.63,581.87,582.22,582.58,582.92,583.26,583.46,583.52,583.57,583.65,583.72,583.73,583.73,583.72,583.68,583.65,583.59,583.49,583.39,583.43,583.63,583.86,584.07,584.23,584.38,584.58,584.78,584.95,585.12,585.29,585.51,585.82,586.13,586.46,586.78
577.64,578.35,578.83,579.00,578.79,578.25,577.39,576.27,575.25,575.33,576.61,578.47,579.83,580.53,580.88,581.13,581.12,580.99,580.77,580.49,580.26,580.13,579.99,579.83,579.70,579.65,579.75,580.03,580.53,581.03,581.38,581.45,581.30,581.16,581.01,580.87,580.72,580.57,580.43,580.34,580.24,580.08,579.75,579.72,580.07,580.48,580.44,580.40,580.40,580.33,580.16,580.19,580.21,580.25,580.30,580.30,580.30,580.30,580.30,580.30,580.30,580.30,580.33,580.37,580.30,580.17,579.97,579.86,580.08,580.46,580.85,581.24,581.61,581.94,582.36,582.76,583.04,583.08,583.07,582.85,582.51,582.19,581.81,581.48,581.13,580.75,580.37,580.08,579.76,579.45,579.30,579.15,578.89,578.57,578.26,577.95,577.64,577.30,576.93,576.62,576.24,575.90,575.59,575.29,574.86,574.63,574.46,574.25,574.03,573.80,573.57,573.34,573.11,572.88,572.76,572.98,573.66,574.43,575.26,576.12,576.97,577.82,578.67,579.51,580.36,581.23,582.07,582.92,583.73,584.39,584.71,584.63,584.44,584.21,583.90,583.53,583.19,582.92,582.81,583.12,583.50,583.88,584.26,584.65,585.01,585.29,585.55,585.84,586.02,586.13,586.24,586.38,586.47,586.55,586.67,586.81,586.88,586.76,586.51,586.22,585.94,585.57,585.26,583.27,580.26,580.61,581.81,583.19,584.37,584.94,585.15,585.25,585.27,585.20,585.12,585.04,584.88,584.62,584.30,583.93,583.56,583.41,583.71,584.01,584.37,584.72,585.03,585.33,585.53,585.73,585.93,586.09,586.17,586.25,586.33,586.40,586.47,586.50,586.54,586.63,586.78,586.87,586.94,586.95,586.85,586.65,586.43,586.20,585.98,585.81,585.59,585.40,585.21,584.89,584.03,583.41,583.01,582.77,582.54,582.31,582.09,581.94,582.02,582.35,582.74,583.10,583.41,583.65,583.76,583.84,583.91,583.98,583.99,583.99,583.99,583.98,583.93,583.86,583.77,583.70,583.69,583.87,584.11,584.32,584.49,584.64,584.85,585.05,585.22,585.43,585.60,585.83,586.14,586.45,586.82,587.15
577.71,578.46,579.09,579.36,579.39,579.15,578.51,577.48,576.23,575.71,576.34,578.24,579.72,580.51,580.96,581.37,581.52,581.40,581.19,580.99,580.82,580.80,580.75,580.63,580.49,580.40,580.38,580.51,580.89,581.41,581.85,581.97,581.82,581.66,581.51,581.36,581.20,581.05,580.94,580.86,580.74,580.54,580.28,580.28,580.61,580.97,580.89,580.81,580.79,580.70,580.48,580.36,580.29,580.30,580.36,580.37,580.37,580.37,580.37,580.37,580.37,580.37,580.40,580.44,580.32,580.17,579.94,579.81,580.10,580.48,580.86,581.25,581.62,581.99,582.43,582.85,583.22,583.48,583.37,583.06,582.70,582.38,582.05,581.70,581.35,581.01,580.68,580.43,580.19,579.99,579.88,579.73,579.44,579.10,578.78,578.43,578.11,577.76,577.39,577.08,576.70,576.34,576.05,575.89,575.42,574.98,574.67,574.55,574.46,574.30,574.09,573.86,573.63,573.39,573.20,573.19,573.57,574.35,575.19,576.04,576.89,577.75,578.73,579.60,580.36,581.01,581.71,582.55,583.36,583.97,584.32,584.52,584.63,584.61,584.29,583.92,583.55,583.24,583.07,583.17,583.50,583.88,584.26,584.60,584.93,585.24,585.54,585.89,586.20,586.38,586.52,586.66,586.75,586.82,586.94,587.07,587.13,586.97,586.70,586.34,585.92,585.53,585.20,583.08,579.96,580.75,582.03,583.40,584.54,585.01,585.17,585.29,585.33,585.25,585.13,585.04,584.88,584.63,584.32,583.99,583.71,583.64,583.91,584.22,584.54,584.89,585.26,585.65,585.90,586.09,586.26,586.41,586.50,586.57,586.65,586.72,586.75,586.80,586.86,586.96,587.10,587.19,587.21,587.12,586.89,586.66,586.43,586.22,586.03,585.82,585.60,585.38,585.19,584.94,584.31,583.87,583.59,583.36,583.13,582.89,582.64,582.37,582.20,582.48,582.87,583.25,583.59,583.88,584.01,584.09,584.16,584.24,584.26,584.26,584.26,584.25,584.23,584.17,584.07,583.96,583.91,584.08,584.31,584.53,584.74,584.94,585.13,585.33,585.52,585.71,585.87,586.12,586.46,586.77,587.11,587.45
577.80,578.58,579.32,579.68,579.90,579.89,579.48,578.55,577.14,576.08,576.09,578.00,579.61,580.46,580.95,581.46,581.83,581.81,581.67,581.54,581.45,581.49,581.48,581.39,581.26,581.17,581.10,581.10,581.28,581.75,582.24,582.42,582.30,582.15,581.99,581.84,581.68,581.54,581.45,581.36,581.20,580.97,580.78,580.80,581.08,581.38,581.28,581.20,581.17,581.09,580.86,580.62,580.46,580.39,580.40,580.42,580.45,580.46,580.45,580.43,580.43,580.44,580.48,580.47,580.32,580.17,579.96,579.83,580.13,580.52,580.93,581.34,581.75,582.16,582.61,583.05,583.46,583.85,583.65,583.30,582.94,582.62,582.30,581.95,581.61,581.31,581.02,580.78,580.59,580.45,580.35,580.20,579.92,579.59,579.27,578.89,578.56,578.22,577.84,577.50,577.13,576.78,576.57,576.49,575.99,575.41,574.96,574.77,574.75,574.65,574.50,574.32,574.11,573.88,573.65,573.52,573.66,574.31,575.13,575.98,576.84,577.77,578.80,579.70,580.42,580.94,581.50,582.25,582.97,583.52,583.87,584.24,584.59,584.76,584.55,584.22,583.87,583.56,583.33,583.25,583.51,583.87,584.23,584.53,584.84,585.15,585.48,585.88,586.30,586.59,586.78,586.92,587.00,587.08,587.19,587.34,587.38,587.20,586.88,586.45,585.94,585.50,584.89,582.71,579.89,580.99,582.38,583.72,584.75,585.07,585.20,585.33,585.40,585.31,585.16,585.05,584.87,584.61,584.32,584.04,583.86,583.87,584.13,584.42,584.70,585.05,585.47,585.92,586.23,586.45,586.61,586.74,586.82,586.90,586.96,587.02,587.04,587.11,587.19,587.27,587.39,587.45,587.38,587.21,586.92,586.66,586.43,586.23,586.06,585.83,585.60,585.37,585.17,585.03,584.66,584.39,584.17,583.94,583.71,583.50,583.22,582.88,582.52,582.66,583.00,583.38,583.76,584.08,584.25,584.36,584.42,584.50,584.51,584.51,584.51,584.51,584.51,584.46,584.36,584.22,584.14,584.30,584.54,584.79,585.02,585.26,585.44,585.61,585.82,586.00,586.16,586.40,586.76,587.10,587.42,587.77
577.94,578.72,579.52,580.02,580.31,580.40,580.15,579.34,577.86,576.42,575.93,577.77,579.49,580.40,580.89,581.44,582.00,582.21,582.21,582.15,582.14,582.20,582.19,582.11,582.03,581.95,581.87,581.78,581.76,582.11,582.60,582.86,582.81,582.66,582.51,582.36,582.20,582.06,581.97,581.84,581.65,581.44,581.28,581.32,581.57,581.82,581.68,581.59,581.56,581.48,581.24,581.01,580.74,580.53,580.44,580.49,580.55,580.58,580.56,580.51,580.50,580.55,580.56,580.47,580.32,580.17,580.01,579.96,580.23,580.66,581.12,581.57,582.03,582.48,582.94,583.40,583.84,584.17,583.93,583.59,583.25,582.88,582.57,582.25,581.94,581.64,581.40,581.17,580.98,580.83,580.68,580.53,580.31,580.04,579.72,579.35,579.01,578.66,578.28,577.90,577.52,577.27,577.15,577.07,576.53,575.96,575.40,574.95,574.89,574.82,574.76,574.71,574.54,574.33,574.11,573.94,573.95,574.33,575.07,575.91,576.81,577.84,578.88,579.79,580.52,581.00,581.47,582.04,582.61,583.12,583.49,583.88,584.29,584.63,584.65,584.39,584.12,583.85,583.57,583.36,583.55,583.86,584.17,584.48,584.79,585.09,585.42,585.83,586.33,586.75,587.03,587.18,587.26,587.34,587.45,587.59,587.64,587.45,587.04,586.53,586.05,585.53,584.36,582.18,580.02,581.27,582.89,584.20,584.99,585.11,585.25,585.40,585.46,585.37,585.22,585.07,584.85,584.57,584.33,584.09,583.99,584.08,584.37,584.61,584.86,585.20,585.65,586.12,586.50,586.80,586.98,587.07,587.15,587.22,587.27,587.29,587.36,587.43,587.51,587.59,587.65,587.61,587.45,587.22,586.97,586.68,586.43,586.23,586.06,585.83,585.60,585.38,585.22,585.19,585.09,584.93,584.75,584.53,584.30,584.11,583.83,583.44,583.03,582.92,583.14,583.51,583.89,584.21,584.46,584.62,584.69,584.76,584.79,584.79,584.79,584.79,584.79,584.73,584.62,584.47,584.40,584.57,584.83,585.12,585.35,585.58,585.76,585.92,586.09,586.31,586.48,586.71,587.04,587.41,587.79,588.14
578.08,578.75,579.75,580.29,580.69,580.79,580.44,579.85,578.51,576.98,576.18,577.64,579.38,580.36,580.88,581.43,582.00,582.44,582.70,582.79,582.80,582.94,582.94,582.83,582.75,582.67,582.60,582.50,582.44,582.54,582.95,583.26,583.33,583.18,583.03,582.88,582.72,582.57,582.44,582.30,582.11,581.89,581.75,581.82,582.06,582.27,582.12,581.99,581.95,581.87,581.63,581.40,581.11,580.86,580.68,580.58,580.59,580.63,580.65,580.62,580.57,580.62,580.61,580.48,580.33,580.21,580.12,580.17,580.55,581.00,581.47,581.93,582.39,582.86,583.32,583.78,584.21,584.46,584.23,583.88,583.53,583.19,582.88,582.57,582.28,582.02,581.79,581.56,581.37,581.22,581.06,580.86,580.64,580.40,580.12,579.79,579.44,579.07,578.68,578.29,577.95,577.83,577.82,577.66,577.10,576.51,575.91,575.36,575.07,574.96,574.92,574.89,574.78,574.69,574.56,574.41,574.29,574.43,575.05,575.85,576.72,577.68,578.86,579.84,580.54,581.00,581.47,582.12,582.72,583.13,583.36,583.74,584.16,584.55,584.75,584.57,584.30,584.01,583.72,583.52,583.68,583.94,584.21,584.52,584.79,585.05,585.37,585.81,586.34,586.80,587.18,587.43,587.53,587.59,587.72,587.86,587.90,587.63,587.17,586.64,586.13,585.59,584.56,582.44,580.16,581.26,583.54,584.83,585.14,585.23,585.37,585.49,585.51,585.38,585.23,585.08,584.88,584.67,584.43,584.20,584.12,584.21,584.47,584.70,584.97,585.33,585.80,586.31,586.75,587.10,587.32,587.39,587.47,587.51,587.55,587.61,587.68,587.76,587.83,587.89,587.86,587.72,587.49,587.22,586.98,586.68,586.43,586.23,586.06,585.83,585.60,585.47,585.45,585.48,585.46,585.38,585.26,585.10,584.88,584.63,584.32,583.93,583.57,583.29,583.35,583.64,584.02,584.38,584.68,584.89,585.00,585.08,585.13,585.18,585.22,585.21,585.17,585.04,584.86,584.69,584.70,584.88,585.15,585.44,585.67,585.90,586.09,586.24,586.40,586.59,586.78,587.03,587.35,587.74,588.12,588.49
578.61,579.01,579.93,580.48,580.98,581.14,580.75,580.30,579.24,577.78,576.68,577.41,579.04,580.14,580.77,581.33,581.87,582.47,582.95,583.24,583.40,583.65,583.69,583.57,583.49,583.41,583.32,583.23,583.15,583.09,583.34,583.65,583.83,583.68,583.52,583.37,583.21,583.06,582.92,582.76,582.57,582.37,582.23,582.32,582.56,582.73,582.59,582.40,582.35,582.25,582.02,581.77,581.49,581.23,581.00,580.78,580.69,580.68,580.71,580.72,580.66,580.68,580.63,580.48,580.35,580.27,580.28,580.44,580.92,581.39,581.85,582.32,582.78,583.25,583.71,584.17,584.58,584.73,584.51,584.17,583.82,583.49,583.20,582.91,582.64,582.41,582.18,581.95,581.76,581.60,581.44,581.22,580.98,580.73,580.49,580.19,579.83,579.46,579.07,578.69,578.44,578.44,578.48,578.23,577.67,577.06,576.45,575.86,575.36,575.13,575.05,575.03,574.96,574.95,574.90,574.78,574.64,574.64,575.07,575.66,576.39,577.40,578.77,579.84,580.54,581.02,581.58,582.37,583.08,583.45,583.58,583.89,584.24,584.55,584.83,584.70,584.44,584.14,583.87,583.71,583.81,584.01,584.25,584.56,584.79,585.02,585.34,585.80,586.34,586.83,587.27,587.62,587.77,587.86,587.98,588.11,588.13,587.77,587.28,586.75,586.22,585.68,584.93,583.07,580.92,582.11,584.34,585.33,585.29,585.38,585.49,585.56,585.54,585.40,585.25,585.13,584.97,584.78,584.58,584.39,584.32,584.38,584.56,584.77,585.10,585.51,586.01,586.54,587.02,587.39,587.64,587.72,587.80,587.83,587.88,587.95,588.03,588.11,588.14,588.12,588.00,587.79,587.50,587.22,586.98,586.70,586.44,586.23,586.06,585.84,585.68,585.66,585.74,585.81,585.82,585.78,585.68,585.51,585.25,584.95,584.61,584.24,583.93,583.62,583.58,583.78,584.12,584.50,584.84,585.10,585.26,585.40,585.51,585.62,585.68,585.65,585.56,585.36,585.14,585.00,585.05,585.22,585.47,585.76,586.00,586.23,586.41,586.58,586.75,586.94,587.13,587.36,587.65,588.04,588.42,588.81
579.73,579.70,580.02,580.53,581.15,581.47,581.23,580.73,580.09,578.90,577.47,577.01,578.31,579.58,580.46,581.06,581.61,582.21,582.80,583.36,583.88,584.29,584.40,584.34,584.26,584.18,584.06,583.95,583.87,583.80,583.83,584.04,584.28,584.13,583.98,583.83,583.67,583.53,583.43,583.24,583.04,582.88,582.75,582.84,583.04,583.20,583.09,582.83,582.73,582.64,582.40,582.11,581.85,581.62,581.38,581.15,580.95,580.79,580.73,580.78,580.78,580.74,580.63,580.50,580.41,580.38,580.49,580.78,581.30,581.78,582.24,582.71,583.17,583.63,584.10,584.56,584.94,585.02,584.78,584.46,584.13,583.77,583.51,583.27,583.03,582.80,582.57,582.34,582.14,581.99,581.83,581.61,581.34,581.06,580.81,580.51,580.19,579.84,579.46,579.11,579.07,579.12,579.10,578.76,578.19,577.62,577.03,576.42,575.83,575.38,575.18,575.16,575.09,575.08,575.02,574.97,574.95,575.02,575.16,575.29,575.67,577.03,578.58,579.76,580.54,581.07,581.88,582.84,583.65,584.17,584.34,584.47,584.59,584.73,584.87,584.75,584.53,584.29,584.07,583.90,583.89,584.01,584.26,584.55,584.75,584.99,585.34,585.80,586.34,586.83,587.28,587.71,587.99,588.12,588.24,588.36,588.32,587.88,587.35,586.83,586.34,585.81,585.28,583.99,582.71,584.47,585.32,585.51,585.49,585.55,585.58,585.59,585.57,585.47,585.33,585.28,585.13,584.89,584.79,584.68,584.64,584.66,584.72,584.87,585.29,585.80,586.34,586.87,587.35,587.73,587.97,588.05,588.12,588.19,588.26,588.34,588.41,588.49,588.42,588.23,588.01,587.78,587.50,587.22,586.99,586.75,586.47,586.23,586.06,585.86,585.90,585.99,586.07,586.13,586.14,586.13,585.99,585.64,585.27,584.95,584.61,584.25,583.96,583.81,583.82,583.93,584.15,584.50,584.88,585.18,585.42,585.69,585.92,586.09,586.18,586.11,585.91,585.69,585.52,585.45,585.50,585.60,585.80,586.09,586.32,586.55,586.74,586.92,587.15,587.43,587.58,587.71,587.92,588.30,588.68,589.07
580.25,579.98,580.12,580.67,581.31,581.75,581.72,581.18,580.57,579.61,578.34,577.31,577.87,579.00,580.06,580.75,581.34,581.95,582.55,583.12,583.66,584.31,584.75,584.92,584.88,584.80,584.73,584.67,584.63,584.56,584.51,584.60,584.74,584.63,584.49,584.33,584.18,584.03,583.90,583.70,583.50,583.36,583.26,583.36,583.53,583.65,583.55,583.27,583.12,582.98,582.74,582.47,582.24,582.00,581.77,581.54,581.31,581.10,580.94,580.87,580.86,580.79,580.70,580.61,580.56,580.53,580.73,581.15,581.65,582.12,582.61,583.10,583.56,584.02,584.49,584.95,585.32,585.33,585.05,584.73,584.42,584.13,583.88,583.65,583.42,583.19,582.96,582.73,582.51,582.34,582.21,581.96,581.69,581.42,581.14,580.84,580.49,580.14,579.84,579.67,579.70,579.75,579.67,579.29,578.74,578.16,577.56,576.95,576.33,575.80,575.47,575.29,575.22,575.20,575.15,575.15,575.28,575.44,575.47,575.33,575.42,576.85,578.47,579.70,580.59,581.40,582.35,583.34,584.25,584.91,585.07,585.15,585.23,585.29,585.24,584.93,584.66,584.44,584.25,584.05,584.04,584.13,584.29,584.52,584.72,584.95,585.29,585.80,586.30,586.80,587.29,587.75,588.21,588.38,588.47,588.58,588.59,588.05,587.46,586.95,586.48,585.98,585.51,584.69,583.99,585.07,585.46,585.58,585.59,585.54,585.47,585.52,585.59,585.53,585.44,585.61,585.59,585.35,585.24,585.12,585.05,585.08,585.23,585.36,585.70,586.19,586.75,587.25,587.72,588.12,588.38,588.42,588.50,588.58,588.65,588.72,588.75,588.70,588.51,588.24,587.97,587.73,587.48,587.22,586.99,586.76,586.47,586.27,586.19,586.14,586.22,586.31,586.40,586.50,586.52,586.44,586.18,585.71,585.25,584.93,584.69,584.49,584.35,584.29,584.28,584.31,584.43,584.61,584.88,585.19,585.50,585.81,586.12,586.37,586.52,586.50,586.34,586.14,586.01,585.99,586.02,586.09,586.22,586.41,586.64,586.88,587.11,587.36,587.64,587.95,588.02,588.05,588.18,588.56,588.94,589.33
580.54,580.18,580.27,580.85,581.49,582.01,582.19,581.63,580.95,580.15,579.13,577.85,577.63,578.49,579.65,580.41,581.04,581.64,582.22,582.76,583.31,584.18,584.94,585.39,585.40,585.35,585.33,585.33,585.32,585.26,585.20,585.20,585.22,585.13,584.99,584.83,584.68,584.52,584.37,584.17,583.97,583.82,583.77,583.88,584.03,584.12,584.01,583.74,583.52,583.32,583.09,582.86,582.63,582.39,582.16,581.93,581.69,581.45,581.22,581.01,580.93,580.87,580.80,580.74,580.74,580.72,581.00,581.51,581.98,582.45,582.96,583.46,583.93,584.40,584.87,585.33,585.68,585.65,585.34,585.01,584.74,584.50,584.27,584.04,583.81,583.58,583.35,583.12,582.88,582.68,582.57,582.31,582.05,581.78,581.47,581.14,580.80,580.46,580.22,580.23,580.28,580.25,580.06,579.64,579.13,578.57,577.99,577.42,576.84,576.29,575.81,575.46,575.36,575.33,575.33,575.40,575.64,575.87,575.83,575.49,575.35,576.63,578.08,579.51,580.80,581.84,582.86,583.87,584.86,585.64,585.79,585.87,585.94,585.94,585.69,585.17,584.80,584.58,584.42,584.21,584.21,584.29,584.38,584.54,584.72,584.93,585.25,585.77,586.26,586.78,587.29,587.80,588.39,588.62,588.71,588.81,588.87,588.22,587.59,587.12,586.75,586.27,585.75,585.22,584.86,585.18,585.45,585.60,585.62,585.47,585.34,585.47,585.62,585.64,585.77,586.08,586.14,585.95,585.81,585.66,585.61,585.73,586.04,586.13,586.38,586.78,587.26,587.66,588.11,588.54,588.83,588.83,588.89,588.97,589.03,589.06,589.02,588.82,588.54,588.23,587.93,587.68,587.45,587.22,586.98,586.74,586.50,586.38,586.42,586.48,586.57,586.65,586.75,586.87,586.88,586.68,586.31,585.81,585.30,585.02,584.87,584.81,584.81,584.81,584.77,584.75,584.80,584.81,584.96,585.23,585.58,585.89,586.27,586.58,586.79,586.88,586.77,586.63,586.53,586.55,586.56,586.62,586.69,586.79,587.01,587.25,587.54,587.85,588.15,588.45,588.46,588.40,588.45,588.82,589.20,589.60
580.73,580.45,580.57,581.08,581.72,582.34,582.63,582.03,581.34,580.58,579.69,578.52,577.66,578.16,579.28,580.08,580.66,581.21,581.76,582.35,583.14,584.09,585.04,585.74,585.79,585.79,585.78,585.78,585.78,585.76,585.75,585.75,585.73,585.59,585.44,585.29,585.13,584.97,584.82,584.66,584.47,584.29,584.27,584.40,584.55,584.63,584.47,584.24,583.97,583.71,583.48,583.25,583.02,582.78,582.55,582.32,582.03,581.77,581.54,581.31,581.05,580.97,580.93,580.87,580.88,581.02,581.36,581.84,582.31,582.82,583.32,583.79,584.25,584.72,585.23,585.70,585.99,585.92,585.64,585.37,585.13,584.89,584.66,584.43,584.20,583.97,583.74,583.50,583.27,583.07,582.91,582.68,582.40,582.10,581.78,581.42,581.13,580.85,580.62,580.67,580.69,580.43,579.98,579.53,579.05,578.61,578.18,577.76,577.33,576.81,576.25,575.75,575.50,575.46,575.59,575.80,576.09,576.32,576.12,575.66,575.38,576.20,576.92,579.00,581.42,582.38,583.38,584.42,585.46,586.29,586.49,586.58,586.65,586.60,586.11,585.47,585.00,584.71,584.56,584.39,584.41,584.49,584.58,584.72,584.78,584.93,585.24,585.72,586.25,586.78,587.32,587.86,588.46,588.80,588.97,589.07,589.12,588.39,587.72,587.40,587.40,586.82,586.12,585.45,585.04,585.33,585.63,585.65,585.49,585.35,585.31,585.51,585.68,585.84,586.63,586.79,586.71,586.61,586.51,586.37,586.51,586.88,587.32,587.38,587.61,587.83,587.94,588.10,588.50,588.96,589.28,589.28,589.30,589.35,589.38,589.30,589.12,588.84,588.54,588.23,587.93,587.68,587.45,587.20,586.92,586.68,586.58,586.63,586.79,586.82,586.94,587.04,587.13,587.20,587.15,586.80,586.37,586.00,585.61,585.38,585.26,585.20,585.20,585.20,585.19,585.19,585.20,585.20,585.27,585.45,585.71,586.02,586.39,586.73,587.02,587.25,587.21,587.08,587.01,587.07,587.13,587.16,587.20,587.30,587.47,587.75,588.06,588.37,588.66,588.91,588.88,588.74,588.72,589.07,589.46,589.92
581.16,580.95,581.09,581.56,582.13,582.70,583.03,582.42,581.66,580.88,580.00,578.93,577.95,578.13,578.96,579.67,580.23,580.79,581.40,582.11,583.03,584.02,585.02,585.85,586.14,586.19,586.19,586.19,586.19,586.19,586.19,586.21,586.21,586.09,585.94,585.79,585.63,585.48,585.28,585.12,584.95,584.79,584.79,584.92,585.05,585.11,584.97,584.72,584.43,584.15,583.91,583.61,583.36,583.11,582.85,582.61,582.35,582.08,581.82,581.58,581.28,581.14,581.08,581.04,581.02,581.29,581.69,582.17,582.67,583.18,583.65,584.12,584.58,585.08,585.59,586.05,586.35,586.24,585.99,585.75,585.52,585.28,585.05,584.82,584.59,584.36,584.13,583.89,583.66,583.44,583.24,583.02,582.73,582.42,582.11,581.77,581.48,581.21,581.00,581.02,580.91,580.50,579.95,579.44,578.91,578.48,578.09,577.70,577.32,576.87,576.38,575.93,575.70,575.78,575.99,576.24,576.50,576.73,576.55,576.17,575.88,576.07,576.60,578.81,581.53,582.88,583.94,584.97,586.00,586.88,587.22,587.34,587.32,587.12,586.63,585.94,585.36,584.96,584.75,584.62,584.62,584.70,584.84,585.05,585.09,585.18,585.39,585.76,586.25,586.81,587.37,587.92,588.53,588.99,589.24,589.32,589.35,588.64,587.97,587.84,588.33,587.70,586.76,585.79,585.13,585.51,585.73,585.63,585.35,585.21,585.38,585.63,586.00,586.59,587.39,587.48,587.39,587.30,587.19,587.11,587.39,587.92,588.43,588.66,588.80,588.82,588.71,588.67,588.97,589.38,589.69,589.68,589.65,589.64,589.57,589.37,589.10,588.80,588.49,588.20,587.92,587.65,587.41,587.16,586.91,586.77,586.83,586.99,587.18,587.24,587.34,587.43,587.51,587.56,587.40,587.05,586.67,586.35,585.97,585.79,585.68,585.58,585.55,585.54,585.54,585.54,585.55,585.58,585.64,585.76,585.94,586.21,586.54,586.87,587.18,587.47,587.60,587.58,587.55,587.59,587.63,587.63,587.67,587.77,587.93,588.15,588.48,588.85,589.16,589.35,589.27,589.12,589.07,589.39,589.83,590.34
581.69,581.56,581.67,582.14,582.63,583.11,583.38,582.76,581.95,581.10,580.21,579.23,578.33,578.23,578.66,579.25,579.80,580.41,581.12,581.96,582.95,583.96,584.96,585.87,586.46,586.58,586.59,586.59,586.59,586.59,586.59,586.63,586.67,586.59,586.44,586.30,586.13,585.97,585.76,585.58,585.42,585.30,585.30,585.42,585.54,585.57,585.46,585.19,584.88,584.62,584.39,584.03,583.70,583.40,583.12,582.87,582.64,582.37,582.09,581.85,581.55,581.33,581.23,581.21,581.20,581.56,582.03,582.52,583.04,583.51,583.98,584.45,584.93,585.49,586.01,586.47,586.73,586.59,586.37,586.14,585.90,585.67,585.44,585.21,584.98,584.75,584.51,584.28,584.05,583.82,583.59,583.35,583.06,582.75,582.44,582.14,581.84,581.56,581.37,581.34,581.05,580.53,579.92,579.37,578.77,578.30,577.90,577.51,577.13,576.74,576.37,576.06,575.95,576.19,576.45,576.69,576.92,577.13,577.10,576.94,576.69,576.30,576.67,578.73,581.46,583.28,584.49,585.56,586.56,587.44,587.94,588.10,587.99,587.67,587.22,586.52,585.87,585.36,585.04,584.92,584.91,585.01,585.21,585.50,585.58,585.62,585.71,585.93,586.30,586.85,587.44,587.99,588.60,589.15,589.47,589.57,589.59,589.04,588.35,588.33,589.24,588.56,587.35,586.07,585.18,585.62,585.81,585.64,585.33,585.23,585.55,585.91,586.55,587.53,588.10,588.17,588.10,588.01,587.89,587.86,588.20,588.78,589.38,589.81,589.87,589.74,589.50,589.32,589.50,589.83,590.10,590.10,590.00,589.88,589.68,589.37,589.06,588.75,588.44,588.15,587.90,587.61,587.36,587.13,586.96,586.95,587.13,587.37,587.58,587.66,587.74,587.82,587.89,587.92,587.68,587.37,587.06,586.74,586.38,586.23,586.11,585.98,585.89,585.87,585.87,585.87,585.89,585.96,586.04,586.11,586.21,586.42,586.71,587.01,587.31,587.62,587.92,588.04,588.08,588.09,588.09,588.09,588.13,588.23,588.38,588.54,588.84,589.25,589.63,589.78,589.67,589.50,589.45,589.75,590.26,590.80
582.29,582.25,582.26,582.67,583.18,583.60,583.66,582.97,582.14,581.27,580.36,579.49,578.78,578.40,578.43,578.94,579.48,580.12,580.92,581.88,582.88,583.89,584.89,585.88,586.71,586.99,587.04,587.04,587.04,587.04,587.04,587.09,587.12,587.04,586.90,586.75,586.59,586.43,586.26,586.06,585.88,585.75,585.75,585.88,585.99,586.02,585.92,585.64,585.33,585.13,585.02,584.71,584.14,583.69,583.43,583.14,582.90,582.66,582.41,582.17,581.87,581.54,581.36,581.38,581.49,581.88,582.38,582.89,583.37,583.84,584.34,584.84,585.34,585.98,586.72,587.13,587.13,586.97,586.76,586.52,586.29,586.06,585.83,585.60,585.37,585.13,584.90,584.67,584.44,584.21,583.97,583.69,583.38,583.08,582.77,582.52,582.22,581.92,581.70,581.65,581.19,580.53,579.86,579.30,578.70,578.16,577.70,577.32,576.93,576.55,576.25,576.15,576.35,576.64,576.93,577.21,577.43,577.61,577.93,578.12,578.00,577.45,577.05,578.67,581.34,583.29,584.94,586.24,587.27,588.05,588.63,588.82,588.75,588.47,587.90,587.26,586.67,586.12,585.62,585.39,585.44,585.63,585.91,586.21,586.41,586.43,586.35,586.36,586.44,586.91,587.50,588.06,588.66,589.22,589.61,589.84,589.94,589.77,589.06,588.85,589.75,588.93,587.39,586.00,585.22,585.35,585.86,585.92,585.73,585.85,585.96,586.61,587.58,588.51,588.82,588.86,588.82,588.75,588.71,588.65,588.80,589.21,589.92,590.45,590.61,590.50,590.23,590.08,590.14,590.35,590.57,590.65,590.39,590.03,589.68,589.37,589.06,588.75,588.44,588.14,587.85,587.59,587.36,587.18,587.14,587.20,587.43,587.72,587.97,588.06,588.13,588.21,588.27,588.26,588.05,587.75,587.45,587.13,586.81,586.68,586.57,586.41,586.28,586.21,586.19,586.20,586.27,586.35,586.42,586.47,586.52,586.69,586.92,587.17,587.44,587.75,588.06,588.32,588.49,588.54,588.54,588.54,588.58,588.69,588.89,589.01,589.14,589.44,589.96,590.25,590.08,589.85,589.84,590.20,590.75,591.29
582.93,582.91,582.92,583.26,583.74,584.02,583.85,583.10,582.28,581.42,580.56,579.79,579.17,578.73,578.58,578.85,579.30,579.91,580.73,581.73,582.74,583.74,584.78,585.87,586.92,587.38,587.50,587.50,587.50,587.50,587.50,587.54,587.58,587.50,587.36,587.20,587.05,586.89,586.74,586.55,586.37,586.25,586.25,586.35,586.46,586.51,586.38,586.10,585.77,585.56,585.54,585.46,584.94,584.38,583.89,583.46,583.17,582.92,582.70,582.46,582.19,581.78,581.51,581.53,581.79,582.23,582.74,583.24,583.71,584.32,584.95,585.58,586.18,586.84,587.34,587.55,587.49,587.36,587.14,586.91,586.68,586.45,586.22,585.99,585.75,585.52,585.29,585.06,584.83,584.59,584.32,584.01,583.73,583.44,583.14,582.87,582.60,582.30,582.02,581.79,581.22,580.51,579.83,579.25,578.63,578.07,577.57,577.13,576.74,576.46,576.37,576.48,576.82,577.13,577.42,577.69,577.93,578.08,578.47,578.86,579.04,578.69,577.48,578.47,581.07,583.54,585.84,587.30,588.27,588.94,589.35,589.46,589.43,589.23,588.64,588.03,587.44,586.85,586.29,586.02,586.09,586.30,586.59,586.92,587.20,587.26,587.17,587.09,586.93,587.09,587.49,588.08,588.69,589.32,589.83,590.14,590.23,590.11,589.41,589.16,590.03,589.59,588.33,586.70,585.27,585.28,586.42,587.32,587.74,587.76,587.26,587.56,588.43,589.39,589.55,589.59,589.59,589.54,589.51,589.44,589.49,589.79,590.45,591.04,591.16,591.01,590.75,590.66,590.74,590.88,591.01,591.01,590.59,590.10,589.67,589.33,589.05,588.75,588.44,588.13,587.83,587.59,587.42,587.34,587.39,587.52,587.78,588.09,588.36,588.44,588.52,588.60,588.64,588.56,588.41,588.14,587.82,587.50,587.28,587.15,587.02,586.87,586.72,586.60,586.56,586.58,586.66,586.74,586.79,586.83,586.88,587.00,587.18,587.40,587.64,587.92,588.23,588.53,588.78,588.91,588.98,589.00,589.05,589.19,589.41,589.51,589.61,589.84,590.30,590.66,590.57,590.38,590.37,590.77,591.29,591.81
583.58,583.58,583.61,583.87,584.28,584.43,583.99,583.18,582.39,581.59,580.79,580.11,579.54,579.15,578.93,578.94,579.24,579.76,580.54,581.54,582.56,583.60,584.71,585.92,587.13,587.76,587.93,587.94,587.95,587.95,587.95,587.99,588.03,587.95,587.81,587.65,587.50,587.36,587.19,587.04,586.88,586.75,586.76,586.82,586.93,587.00,586.84,586.55,586.19,585.94,585.97,586.15,585.89,585.29,584.54,583.92,583.51,583.21,582.96,582.73,582.49,582.04,581.71,581.72,582.11,582.64,583.17,583.67,584.21,585.00,585.78,586.53,587.22,587.76,587.87,587.84,587.81,587.72,587.53,587.30,587.07,586.84,586.61,586.38,586.14,585.91,585.68,585.44,585.20,584.95,584.64,584.33,584.07,583.79,583.49,583.19,582.93,582.65,582.29,581.83,581.18,580.48,579.81,579.20,578.58,578.01,577.46,576.96,576.61,576.50,576.64,576.96,577.32,577.65,577.91,578.17,578.43,578.54,578.84,579.32,579.81,579.77,577.95,578.30,580.72,583.84,586.85,588.45,589.31,589.85,589.98,590.00,590.00,589.85,589.34,588.75,588.14,587.53,586.99,586.74,586.81,587.00,587.25,587.62,587.95,588.09,588.08,587.97,587.63,587.40,587.53,588.09,588.72,589.45,590.06,590.43,590.47,590.21,589.57,589.38,590.20,590.31,589.62,587.76,585.41,585.37,587.04,588.89,590.11,589.96,588.88,588.52,589.04,590.08,590.26,590.34,590.38,590.35,590.28,590.21,590.25,590.48,591.02,591.61,591.63,591.41,591.17,591.18,591.29,591.40,591.43,591.24,590.70,590.13,589.65,589.31,589.05,588.75,588.45,588.16,587.88,587.65,587.55,587.56,587.67,587.88,588.16,588.47,588.74,588.84,588.92,588.98,588.98,588.85,588.76,588.53,588.20,587.88,587.76,587.63,587.47,587.32,587.16,587.00,586.95,586.98,587.06,587.14,587.16,587.20,587.28,587.35,587.48,587.66,587.89,588.13,588.42,588.73,589.01,589.22,589.38,589.43,589.51,589.68,589.89,590.00,590.12,590.32,590.65,591.02,591.10,591.01,590.98,591.40,591.87,592.37
584.22,584.22,584.25,584.47,584.83,584.82,584.14,583.31,582.52,581.79,581.11,580.43,579.91,579.57,579.38,579.32,579.36,579.71,580.38,581.37,582.48,583.68,584.94,586.22,587.44,588.09,588.30,588.35,588.40,588.40,588.40,588.44,588.49,588.40,588.27,588.11,587.97,587.86,587.66,587.49,587.34,587.23,587.27,587.30,587.39,587.46,587.29,587.00,586.61,586.31,586.31,586.57,586.62,586.27,585.56,584.79,584.12,583.60,583.22,582.99,582.75,582.34,582.00,582.01,582.53,583.21,583.90,584.59,585.29,586.12,586.92,587.60,588.08,588.23,588.24,588.18,588.07,587.99,587.88,587.69,587.46,587.23,587.00,586.77,586.53,586.30,586.07,585.79,585.53,585.27,584.91,584.59,584.30,584.00,583.70,583.45,583.16,582.81,582.37,581.84,581.17,580.48,579.81,579.19,578.58,577.97,577.38,576.86,576.69,576.81,577.10,577.46,577.79,578.15,578.43,578.67,578.89,578.99,579.17,579.61,580.16,580.13,578.55,578.53,580.42,583.75,587.31,589.14,589.92,590.18,590.27,590.28,590.23,590.08,589.79,589.22,588.64,588.08,587.59,587.48,587.59,587.75,587.96,588.29,588.64,588.89,588.99,588.87,588.47,588.07,587.90,588.13,588.87,589.61,590.22,590.63,590.66,590.27,589.73,589.62,590.28,590.70,590.36,588.54,585.91,585.58,586.79,588.76,590.46,590.63,589.89,589.03,589.07,590.28,590.88,591.06,591.10,591.08,591.00,590.97,591.05,591.27,591.66,592.15,592.08,591.82,591.64,591.74,591.84,591.92,591.85,591.36,590.76,590.16,589.67,589.35,589.05,588.75,588.50,588.32,588.17,588.00,587.86,587.83,587.99,588.26,588.52,588.80,589.09,589.27,589.37,589.36,589.26,589.16,589.09,588.89,588.61,588.32,588.22,588.08,587.93,587.77,587.61,587.41,587.37,587.43,587.50,587.59,587.64,587.71,587.78,587.81,587.84,587.96,588.15,588.38,588.64,588.92,589.20,589.43,589.64,589.78,589.91,590.07,590.24,590.33,590.46,590.66,590.97,591.30,591.58,591.65,591.62,592.05,592.51,592.99
584.87,584.87,584.89,585.04,585.25,585.06,584.26,583.50,582.77,582.11,581.48,580.83,580.36,580.05,579.85,579.72,579.61,579.81,580.40,581.42,582.62,583.92,585.23,586.54,587.77,588.44,588.67,588.75,588.82,588.85,588.86,588.88,588.91,588.86,588.72,588.58,588.46,588.34,588.12,587.94,587.80,587.71,587.75,587.78,587.87,587.92,587.74,587.43,587.03,586.71,586.65,586.92,587.15,587.08,586.61,585.81,585.00,584.31,583.73,583.30,583.02,582.61,582.55,583.01,583.42,584.12,584.89,585.67,586.48,587.29,587.95,588.41,588.62,588.60,588.59,588.51,588.37,588.29,588.21,588.06,587.84,587.58,587.35,587.12,586.88,586.65,586.42,586.13,585.84,585.56,585.20,584.89,584.58,584.27,583.96,583.64,583.26,582.81,582.29,581.77,581.15,580.48,579.81,579.19,578.58,577.95,577.35,576.87,576.83,577.14,577.55,577.94,578.28,578.64,578.93,579.17,579.36,579.44,579.62,580.10,580.68,580.58,579.22,578.80,580.07,583.36,587.28,589.36,590.18,590.35,590.48,590.49,590.39,590.24,590.05,589.65,589.16,588.66,588.25,588.18,588.31,588.50,588.70,588.98,589.30,589.55,589.68,589.59,589.20,588.68,588.27,588.23,588.96,589.65,590.26,590.75,590.90,590.50,590.04,589.92,590.41,590.94,590.77,589.37,587.06,585.74,586.13,588.20,590.55,591.14,590.56,589.56,589.33,590.33,591.14,591.60,591.80,591.83,591.79,591.78,591.90,592.11,592.39,592.66,592.49,592.24,592.13,592.21,592.29,592.37,592.23,591.53,590.85,590.19,589.69,589.41,589.16,588.93,588.76,588.65,588.60,588.48,588.34,588.24,588.28,588.48,588.75,589.08,589.42,589.67,589.76,589.70,589.56,589.49,589.41,589.25,589.01,588.77,588.67,588.54,588.37,588.18,588.00,587.77,587.77,587.88,587.96,588.04,588.12,588.19,588.25,588.23,588.22,588.28,588.41,588.64,588.88,589.15,589.42,589.63,589.86,590.05,590.24,590.42,590.56,590.65,590.78,590.99,591.29,591.60,591.94,592.15,592.26,592.70,593.14,593.58
