788.21,782.33,776.37,770.25,764.96,763.64,767.86,772.45,777.00,781.57,786.03,790.18,795.45,800.95,806.44,811.97,817.69,823.65,828.75,832.08,832.71,829.22,824.99,820.86,816.59,813.23,812.89,814.71,817.88,821.06,823.22,824.62,825.46,825.77,824.60,822.51,819.23,814.05,808.24,803.10,797.53,791.40,786.36,781.41,776.58,771.88,767.22,761.90,755.60,749.20,743.47,738.43,736.21,737.77,742.41,747.38,750.84,752.19,753.39,756.81,761.19,766.01,770.31,773.77,777.15,780.80,783.97,786.50,788.03,787.08,783.91,779.62,775.16,771.81,768.00,763.40,758.12,753.02,751.63,756.21,763.46,769.19,773.66,772.99,768.03,760.10,752.97,745.20,737.28,732.24,735.84,740.94,745.00,748.13,751.16,755.50,760.05,764.32,768.64,774.13,779.21,781.75,781.67,779.48,778.31,777.56,775.53,771.45,766.56,760.32,754.01,748.67,746.00,747.16,750.73,754.94,757.85,756.60,754.26,753.04,753.46,754.56,754.93,756.14,758.37,761.15,763.18,761.62,758.93,757.50,759.38,761.41,763.16,763.00,757.36,749.22,740.92,733.68,728.30,724.18,725.94,731.35,738.65,745.50,751.89,756.19,757.85,756.46,754.63,751.87,747.32,740.95,735.52,731.42,730.75,733.22,736.80,739.84,742.59,743.03,740.33,742.73,746.66,750.33,752.91,753.91,754.97,753.73,750.24,745.38,741.08,737.98,735.25,732.23,728.42,721.86,716.65,715.30,719.60,721.36,719.36,716.17,715.22,719.04,724.27,726.21,725.06,728.08,732.29,737.04,742.20,747.16,747.65,744.33,740.03,736.64,734.75,735.60,736.55,736.90,737.50,739.01,741.82,743.53,741.45,737.77,733.83,729.15,723.35,716.89,711.28,709.33,710.88,714.89,719.14,724.08,729.29,734.20,737.96,738.37,736.66,733.63,729.97,726.20,727.00,730.01,731.69,732.85,734.47,737.15,741.35,746.68,745.80,741.86,736.68,731.51,729.51,728.93,728.97,729.43,730.12,732.44,735.62,739.07,742.20,745.27,748.40,750.63,750.34,747.15,742.89,738.86,735.43,732.27,729.95,728.28
790.75,785.35,779.79,774.07,768.67,765.98,767.74,772.03,776.92,781.85,786.46,790.35,795.34,800.68,806.13,811.69,817.45,823.60,828.96,832.98,835.67,832.93,828.87,824.73,820.48,817.71,817.58,819.29,822.20,825.36,828.07,829.92,830.60,829.53,826.40,821.70,816.37,811.12,805.76,800.28,794.13,787.71,783.17,778.36,773.40,768.48,763.63,758.54,752.70,747.21,742.81,738.41,737.27,739.70,744.82,750.07,753.40,754.82,755.55,757.25,761.41,767.06,772.22,776.16,779.80,783.58,787.17,790.10,791.31,790.20,786.78,782.18,777.38,773.84,769.43,764.13,758.49,754.15,754.87,759.76,766.19,771.51,775.45,773.62,767.91,760.06,752.85,744.90,737.84,734.41,739.11,744.37,748.90,752.45,755.16,758.34,762.41,766.48,770.82,776.92,781.50,784.25,785.14,783.92,782.20,779.06,775.16,770.74,765.47,759.41,753.53,749.16,748.81,751.30,756.02,760.29,761.27,757.73,756.30,756.02,756.50,758.43,759.98,761.62,763.35,764.86,765.56,763.61,761.44,761.01,762.99,764.61,765.00,763.02,756.41,748.16,740.05,733.11,728.54,727.50,730.83,736.66,743.77,750.43,756.69,760.89,762.48,760.89,757.98,753.67,748.34,742.39,737.20,733.89,734.67,738.63,742.41,745.20,747.20,746.90,744.09,747.12,750.92,753.95,755.87,756.99,756.94,754.39,750.12,745.58,741.39,738.10,735.07,731.66,727.16,720.26,716.82,718.17,722.03,721.73,718.60,716.39,718.47,722.05,727.00,729.04,728.31,731.71,735.39,739.36,744.18,749.90,750.24,746.80,742.28,738.52,736.87,737.90,738.96,739.41,740.23,742.12,745.28,746.57,742.83,738.69,734.63,729.85,723.91,717.25,711.71,709.61,710.96,715.19,719.61,724.34,729.49,734.90,739.21,740.15,738.29,734.62,730.88,727.15,728.27,731.60,733.36,734.84,736.25,738.96,743.54,748.55,747.20,743.07,737.96,732.88,730.33,729.66,729.88,730.50,731.37,733.18,735.77,738.87,742.07,745.48,748.85,751.20,751.00,748.09,743.93,739.90,736.55,733.60,730.94,728.96
794.10,788.33,783.27,778.30,773.14,769.00,767.78,771.94,777.02,782.04,786.91,791.75,796.59,801.18,805.84,811.07,817.05,823.27,829.11,834.06,837.27,835.51,832.29,828.80,825.15,822.59,822.85,824.61,826.89,829.55,832.00,833.09,832.46,830.09,826.11,820.77,814.90,809.20,803.60,797.30,791.01,785.28,780.28,775.20,769.74,764.24,759.32,754.39,749.67,745.17,741.10,738.04,738.24,741.78,747.56,752.75,756.24,757.80,758.10,758.44,762.35,768.30,773.85,778.13,782.29,786.31,790.49,794.21,795.63,793.70,789.56,784.26,778.61,774.23,769.35,763.85,758.63,756.29,758.97,764.50,770.21,773.77,776.48,773.85,767.81,759.99,752.72,744.60,738.22,736.06,741.57,747.38,752.91,757.12,759.36,761.50,764.90,768.98,773.72,779.54,783.65,786.77,788.45,787.45,784.60,780.28,775.53,770.67,765.27,759.65,754.36,751.21,753.71,757.60,761.15,763.15,762.34,758.76,758.89,759.29,759.28,761.71,764.78,767.30,768.99,769.50,768.29,766.28,765.28,766.20,767.88,768.39,766.36,761.79,755.07,746.75,739.31,733.43,730.12,731.07,734.57,739.96,746.79,753.79,760.08,764.74,766.64,764.10,759.54,754.00,747.95,741.85,737.13,735.84,738.38,743.27,747.31,751.26,752.30,750.99,749.38,753.17,756.73,758.67,759.06,759.19,757.63,754.45,750.37,746.22,742.00,738.02,734.30,730.42,724.74,717.74,716.73,721.27,724.12,721.19,718.72,718.88,722.28,725.76,730.14,732.10,731.73,734.61,738.14,742.22,747.05,752.09,751.56,748.05,743.61,739.75,738.68,740.05,741.53,742.67,744.44,747.41,749.01,747.93,743.43,738.86,734.69,729.78,723.66,717.28,712.12,709.97,711.23,716.14,720.84,725.39,730.31,735.73,740.30,740.92,738.78,735.05,731.21,727.92,728.99,732.20,734.41,736.39,737.97,741.57,747.30,750.57,748.69,744.24,739.01,734.53,731.56,730.94,731.64,732.90,734.16,734.91,736.25,738.58,741.84,745.72,749.31,751.74,751.75,748.87,744.75,740.79,737.58,734.89,732.13,729.90
797.13,791.66,786.42,781.78,777.06,772.64,769.86,771.81,776.55,782.02,787.52,792.99,797.93,802.31,806.63,811.44,817.05,823.04,829.07,834.69,838.73,838.23,835.80,832.68,829.42,827.02,827.70,829.95,832.55,834.89,835.74,834.35,831.11,827.63,824.34,819.24,813.06,807.05,801.62,795.35,788.91,782.83,777.35,771.57,765.54,759.77,755.05,750.90,747.02,743.39,740.29,738.64,740.53,745.00,750.76,755.63,759.63,761.86,762.45,762.28,765.53,770.71,775.87,780.35,784.87,789.63,794.31,798.02,798.81,796.29,791.75,785.89,779.23,773.58,768.38,763.20,759.06,759.04,763.35,768.64,773.31,776.29,777.72,774.46,768.07,760.00,752.78,744.41,738.89,738.21,744.17,751.40,757.21,761.28,763.77,766.14,769.17,772.74,777.01,782.33,786.36,789.57,791.31,790.05,786.30,781.24,776.04,771.00,765.47,760.10,756.31,755.25,758.58,762.50,765.62,766.38,763.88,761.82,762.99,763.84,763.90,766.31,769.19,771.75,773.38,773.23,771.36,770.04,769.88,770.75,771.07,769.88,766.30,760.63,753.61,744.88,738.31,734.00,732.09,733.84,738.06,744.13,751.41,758.12,763.94,768.25,769.97,767.05,760.55,753.75,747.06,740.95,737.60,738.22,742.20,747.81,752.08,756.42,756.85,755.54,755.65,758.52,761.13,762.43,762.28,761.46,759.07,755.30,750.89,746.58,741.75,737.30,733.07,728.45,722.23,717.96,719.33,724.16,724.71,721.26,721.30,724.21,727.73,730.62,734.84,736.42,735.32,737.91,741.43,745.38,749.78,754.11,753.34,749.49,744.89,741.28,740.62,742.09,743.97,745.83,748.07,750.92,750.75,747.71,742.72,738.09,733.86,728.91,722.97,717.20,712.64,710.78,712.20,717.46,722.56,727.12,731.79,736.92,741.56,741.74,739.17,735.21,731.35,728.46,729.81,733.35,736.21,738.34,740.91,744.95,749.91,752.02,749.89,745.33,740.08,736.05,732.89,732.25,733.28,735.15,736.87,737.36,737.78,739.04,742.21,746.30,750.10,752.52,752.18,749.10,745.04,741.27,738.25,735.73,733.06,730.83
800.00,795.08,789.50,784.88,780.53,776.27,772.66,771.88,776.00,781.87,788.02,793.86,798.95,803.36,807.56,812.06,817.18,822.88,828.95,835.03,839.91,840.85,839.20,836.31,833.39,831.24,832.28,835.07,838.11,839.67,838.25,834.00,828.16,823.60,820.97,816.38,810.31,804.38,799.40,793.69,787.25,780.51,774.59,767.83,761.16,755.27,751.00,747.71,744.77,742.21,740.48,740.28,743.69,748.73,754.12,758.79,763.37,766.42,767.68,767.61,770.06,773.95,778.27,782.72,787.50,793.13,798.11,801.36,801.26,798.29,793.44,787.14,779.68,772.88,767.46,762.88,760.13,762.34,767.60,772.27,775.97,778.84,779.11,775.28,768.55,760.15,752.98,744.52,739.97,740.67,746.77,755.30,761.11,764.90,768.00,771.13,774.08,777.09,780.60,785.32,789.37,792.57,794.09,792.37,787.87,782.19,776.63,771.54,766.02,760.93,758.85,759.95,763.30,766.88,769.61,769.49,765.94,765.86,767.64,768.66,768.93,771.09,773.25,775.52,777.07,776.53,774.76,774.27,774.43,774.32,772.86,769.89,765.32,759.32,751.95,742.98,737.36,734.71,734.32,736.44,741.45,748.37,756.08,762.26,767.53,771.35,772.72,769.45,761.44,753.72,746.54,740.47,738.72,741.13,746.22,752.16,756.25,760.55,760.92,760.22,761.70,763.28,764.88,765.77,765.48,763.84,760.95,756.70,751.73,746.74,741.11,736.31,731.61,726.18,719.89,719.43,722.98,726.81,724.77,722.29,725.21,730.42,733.76,735.96,739.97,740.98,738.87,741.28,744.84,748.64,752.62,756.27,755.29,750.98,746.18,743.00,742.68,744.17,746.38,748.87,751.34,753.42,751.43,746.66,741.27,736.83,732.55,727.59,721.97,717.06,713.16,711.91,713.77,719.09,724.65,729.29,733.67,738.42,743.21,742.76,739.61,735.38,731.43,728.94,730.66,734.65,738.25,740.73,744.39,748.46,751.96,753.34,750.99,746.34,741.10,737.33,734.13,733.49,734.73,737.06,739.26,740.01,739.97,740.32,743.27,747.26,751.14,753.45,752.43,749.04,745.09,741.52,738.68,736.30,733.84,731.81
802.85,798.31,792.77,787.72,783.17,778.88,775.01,772.74,776.03,781.62,787.80,793.66,798.72,803.14,807.41,812.02,817.17,822.80,828.84,835.04,840.33,842.85,842.08,839.36,836.84,835.36,836.60,839.38,841.88,840.66,836.53,830.75,824.25,818.44,814.04,809.57,804.82,800.11,796.10,791.57,785.69,778.66,772.49,764.51,756.92,750.95,747.64,744.67,743.34,742.88,742.91,744.22,747.95,752.55,757.42,762.66,767.54,771.15,773.38,774.35,776.03,778.44,781.49,785.33,790.26,796.35,801.07,803.48,802.80,799.52,794.22,787.73,780.51,773.55,768.12,764.30,763.07,766.67,770.91,774.92,778.49,781.08,780.75,776.29,769.14,760.63,753.37,745.55,742.03,743.50,749.14,757.26,763.11,767.36,771.28,775.16,778.61,781.64,784.72,788.83,792.62,795.83,797.30,795.12,790.06,783.55,777.39,772.24,767.25,762.81,761.85,764.07,767.48,771.52,772.87,771.59,769.11,770.42,772.01,772.58,772.64,774.53,776.60,778.77,780.16,779.58,778.83,778.60,777.70,775.35,772.15,768.04,763.15,757.26,749.69,741.62,736.94,735.54,736.90,739.61,744.88,751.54,758.55,764.29,769.44,773.46,774.65,770.19,762.74,755.38,748.19,742.12,741.38,745.29,750.81,755.87,758.43,762.32,764.10,764.64,765.45,767.00,768.36,769.06,768.63,766.50,763.34,758.93,753.32,746.59,740.38,735.26,730.03,723.96,718.28,721.27,726.36,728.91,725.18,725.88,730.21,735.53,739.41,741.31,744.29,744.44,742.00,744.31,747.80,751.85,756.06,759.25,757.22,752.34,747.58,744.95,744.99,746.54,748.90,751.67,754.22,754.96,751.19,745.02,739.23,735.17,730.90,725.88,720.57,716.84,713.56,713.46,716.41,721.35,727.38,732.03,736.02,740.48,746.00,744.44,740.38,735.97,731.67,729.48,731.41,735.66,740.07,744.20,748.03,751.33,753.78,754.98,752.16,747.19,741.83,737.89,734.95,734.42,735.65,738.03,740.61,742.31,742.95,743.41,745.91,749.11,752.58,754.45,752.47,748.79,744.99,741.57,738.76,736.66,734.49,732.94
805.57,801.21,796.00,790.66,785.86,781.39,777.23,773.99,776.78,782.16,788.21,793.83,798.67,803.01,807.28,811.94,817.29,823.02,829.08,835.24,840.70,844.21,844.61,842.84,840.77,839.82,841.09,842.68,842.57,839.28,833.57,826.97,820.23,814.03,808.94,804.46,800.27,796.28,792.59,788.59,783.33,776.64,769.85,760.69,753.13,748.13,745.61,744.49,744.72,745.33,745.98,747.75,751.52,756.05,761.03,766.74,771.26,774.88,777.85,780.11,781.50,782.83,784.84,788.22,793.69,799.29,803.62,805.66,803.88,800.19,794.54,788.02,781.39,774.82,769.30,766.00,765.87,769.74,773.41,777.32,781.16,783.67,782.35,777.67,770.63,762.05,754.20,747.06,744.28,746.20,752.03,759.53,765.24,769.87,774.51,779.11,782.97,786.16,789.11,792.79,796.16,798.87,799.75,797.00,791.98,785.23,778.63,773.12,768.28,765.10,765.21,768.24,772.65,776.67,776.64,774.45,772.86,774.73,775.94,776.12,776.13,778.20,780.55,782.41,783.13,782.00,780.99,779.83,777.73,774.24,769.98,765.14,759.92,753.95,746.38,740.11,737.48,737.72,740.17,744.32,749.90,756.50,763.18,767.85,773.08,776.54,776.70,771.86,765.35,757.99,750.57,744.73,744.65,749.26,754.88,759.61,762.19,765.55,767.81,768.96,769.51,770.83,772.20,772.93,772.37,769.62,765.80,760.58,754.04,746.42,739.62,734.07,728.23,721.90,718.62,723.58,729.14,730.86,726.25,727.63,732.31,737.95,742.87,745.85,747.70,747.05,745.00,747.45,751.23,755.38,759.41,762.02,758.76,753.68,749.20,746.84,747.33,749.11,751.64,754.56,757.04,756.47,751.67,745.02,739.21,734.99,730.42,725.03,719.50,716.33,714.46,715.38,718.95,724.52,730.42,735.04,739.56,744.66,748.46,746.07,741.85,737.47,732.90,730.34,731.96,736.08,740.70,745.46,749.63,753.11,755.65,756.66,753.20,747.90,742.48,738.43,735.67,735.38,736.70,739.03,741.98,744.74,746.35,747.20,749.05,751.55,754.44,755.58,752.54,748.68,744.97,741.63,738.84,736.92,735.25,734.36
808.15,803.88,799.07,793.61,788.64,783.98,779.44,775.45,777.99,783.25,789.11,794.43,799.05,803.29,807.53,812.19,817.67,823.56,829.60,835.59,841.03,845.09,846.85,846.59,845.08,844.51,845.60,845.22,841.29,836.60,830.11,823.16,816.43,810.42,805.41,800.85,796.63,792.85,789.00,784.95,780.10,774.02,766.63,756.76,749.94,746.49,744.87,746.24,747.95,749.17,749.91,751.49,754.92,759.47,764.83,770.81,774.82,778.30,781.84,785.23,786.55,787.12,788.35,791.42,797.36,802.10,806.05,807.98,804.94,800.61,794.58,788.12,782.08,776.04,770.58,767.84,768.56,772.02,775.43,779.65,783.98,786.48,784.06,779.37,772.70,764.13,755.44,748.77,746.59,749.02,755.52,762.32,767.81,772.77,777.99,783.15,787.27,790.62,793.62,796.93,799.74,801.62,801.60,798.27,793.62,787.14,780.34,774.21,769.36,767.67,768.79,772.34,778.01,781.90,781.02,778.40,777.37,779.01,779.83,779.90,780.14,782.35,784.73,785.74,785.20,783.22,781.17,778.63,775.55,771.76,767.00,761.61,756.03,750.00,743.11,739.50,739.59,741.49,744.30,749.90,755.67,762.31,769.03,772.58,777.71,779.93,778.50,773.84,768.28,760.72,752.99,747.57,748.12,753.02,758.66,763.50,766.79,769.74,771.86,773.16,773.82,774.82,776.23,777.03,776.27,772.81,768.06,761.66,754.13,746.28,738.87,732.78,726.41,720.22,720.17,726.21,731.65,732.84,727.69,728.15,732.52,738.61,744.74,749.48,750.47,749.27,748.00,750.88,755.11,759.29,762.89,764.58,760.15,755.15,751.13,748.99,750.03,752.01,754.61,757.49,759.52,757.64,752.38,745.94,740.31,735.56,730.38,724.49,718.70,715.88,715.76,717.64,721.56,728.08,733.45,738.17,743.61,749.46,750.51,747.67,743.73,739.50,734.81,731.53,732.55,736.28,740.63,745.34,749.93,754.18,757.48,758.24,754.06,748.40,743.00,738.91,736.37,736.42,737.94,740.21,743.39,747.04,749.65,751.06,752.36,754.32,756.44,756.62,752.67,748.77,745.16,741.84,739.04,737.28,736.23,736.02
810.50,806.39,801.57,796.24,791.59,787.02,781.97,776.94,779.41,784.67,790.40,795.83,800.63,804.98,809.27,813.93,819.00,824.68,830.44,835.99,841.19,845.59,848.74,850.25,849.60,849.27,849.73,846.98,839.29,834.02,827.25,820.24,813.76,808.17,803.28,798.59,794.04,789.75,785.44,780.60,775.20,769.17,762.36,753.81,748.26,746.14,746.39,748.83,751.94,754.69,756.51,757.62,759.70,763.41,768.62,774.33,778.93,783.11,787.10,790.42,791.33,791.39,792.32,795.19,800.38,805.10,808.97,810.58,806.97,801.30,794.58,787.93,781.88,775.62,771.13,769.74,771.37,774.36,777.47,782.21,787.13,789.28,786.47,781.50,774.91,766.58,757.25,750.17,748.78,752.78,760.22,766.30,771.78,777.17,782.62,787.73,791.63,794.97,798.01,800.67,802.64,803.71,803.00,799.24,794.81,789.35,782.79,775.80,771.24,770.64,772.41,775.94,781.33,786.15,786.66,785.07,783.88,783.90,784.63,785.68,786.88,787.90,788.18,786.38,783.42,780.70,777.75,775.00,772.06,768.53,764.02,757.91,751.87,746.59,742.80,743.49,746.24,748.82,750.54,755.21,760.33,766.83,773.99,778.09,781.86,781.89,778.81,774.39,769.16,761.61,754.01,749.23,751.01,756.49,762.64,767.79,770.57,773.82,775.88,777.08,778.02,779.06,780.18,780.50,779.15,775.09,769.39,761.95,753.81,746.29,738.25,731.52,725.04,719.79,722.04,729.07,734.63,735.30,729.08,728.45,732.37,738.63,745.48,751.31,752.75,751.93,751.36,755.28,759.72,764.07,767.21,766.83,761.98,757.30,753.88,752.50,754.36,755.98,758.02,760.20,760.58,757.20,752.06,746.36,740.72,735.37,729.03,722.90,718.19,716.40,717.52,720.52,725.01,730.93,735.77,741.15,746.76,751.26,751.71,749.23,745.61,741.49,737.11,733.33,733.88,737.10,740.74,745.24,749.93,754.82,758.97,759.28,754.42,748.43,743.00,739.04,737.22,737.76,739.55,741.92,744.70,748.36,751.48,753.62,755.24,757.15,758.02,756.88,753.00,749.40,746.05,742.74,739.78,738.33,737.87,738.07
812.88,808.42,803.61,798.89,794.70,790.14,784.54,778.60,780.86,786.21,792.01,797.14,801.72,806.09,810.64,815.66,820.60,826.03,831.47,836.70,841.86,846.70,850.65,853.22,853.63,853.47,852.60,847.75,838.08,832.38,825.34,818.44,812.45,807.29,802.39,797.45,792.41,787.29,782.05,776.37,770.65,764.97,758.86,751.97,747.60,746.34,748.11,751.54,755.73,759.71,762.63,764.01,765.35,768.12,772.60,778.11,783.45,788.78,793.39,796.02,796.28,795.59,795.85,798.24,803.03,807.79,811.42,812.55,808.63,801.97,794.63,787.75,781.79,776.00,773.57,773.72,775.57,777.96,781.50,786.31,790.80,792.25,788.93,783.53,776.98,769.21,760.07,752.47,751.98,757.67,765.08,770.97,776.38,781.75,787.02,791.60,795.25,798.58,801.65,804.04,805.59,805.84,804.28,800.26,796.01,791.60,786.09,779.83,776.44,776.23,777.62,780.22,784.60,789.53,791.19,790.80,789.89,789.15,789.48,790.49,791.38,790.57,788.56,784.87,780.62,777.25,773.80,771.01,768.36,765.25,761.00,754.86,749.52,746.12,745.76,750.07,754.05,756.32,757.25,760.74,765.15,771.27,778.38,782.78,785.20,783.38,778.90,774.34,769.00,761.74,755.37,752.68,755.57,761.34,767.23,772.02,775.07,778.33,780.29,781.45,782.52,783.47,783.65,782.63,780.06,775.72,770.06,762.44,754.08,746.59,737.51,729.94,723.72,720.13,724.19,732.12,737.38,737.04,730.13,728.96,733.09,739.72,746.48,752.34,755.02,755.72,756.01,759.07,763.38,767.76,770.45,768.65,763.87,759.52,756.72,756.27,758.60,760.07,761.45,762.12,759.47,754.63,749.38,744.12,738.74,733.01,726.47,721.02,717.92,717.63,719.92,723.56,728.08,733.30,737.89,743.67,749.29,752.86,752.77,750.30,746.69,742.56,738.54,734.99,735.43,738.41,741.87,746.12,750.86,756.03,760.26,759.18,754.10,748.34,743.18,739.39,737.99,738.82,740.90,743.62,746.25,749.64,752.92,755.66,757.67,759.39,759.31,757.25,753.38,749.84,746.85,743.83,741.04,740.05,739.95,740.27
815.16,809.96,805.32,801.56,797.87,793.29,787.18,780.50,782.45,787.90,793.85,798.42,802.46,806.73,811.63,817.25,822.34,827.51,832.62,837.67,843.02,848.35,852.62,855.60,857.09,856.96,854.35,847.82,837.72,831.73,824.58,818.03,812.70,807.88,802.82,797.53,791.92,785.83,779.25,772.76,766.99,761.93,756.45,751.14,747.76,747.07,749.93,754.36,759.32,764.06,767.88,770.16,771.57,773.61,777.05,782.31,788.13,794.57,799.85,801.61,801.25,799.71,799.05,800.72,805.45,810.26,813.50,814.03,809.89,802.68,794.88,787.82,782.20,777.56,777.82,779.47,781.03,782.84,787.23,791.67,794.90,795.42,791.42,785.50,778.98,771.94,763.70,755.73,756.19,763.37,769.97,776.04,781.32,786.29,791.10,794.89,798.28,801.56,804.66,807.19,808.69,808.12,805.59,801.45,797.35,793.87,789.98,785.78,784.13,783.80,784.11,785.27,788.33,792.51,794.75,795.39,795.12,794.36,793.90,793.74,793.17,790.33,786.30,781.83,777.42,773.52,769.89,767.06,764.64,762.01,758.06,752.73,749.15,748.43,751.24,758.11,762.09,763.48,764.15,766.61,770.37,775.85,782.31,786.59,787.70,784.46,778.94,773.94,768.31,761.62,757.40,758.06,761.80,767.43,772.31,776.15,780.04,783.06,784.95,786.19,787.16,787.68,786.29,783.35,779.26,774.95,770.04,762.93,754.63,746.73,736.44,728.29,722.94,721.65,726.92,735.34,739.74,737.89,730.90,729.91,734.59,741.48,747.64,752.82,757.08,760.05,761.59,762.51,766.30,770.48,772.73,770.35,765.99,761.91,759.62,760.11,762.53,764.05,764.57,762.91,756.44,750.37,744.83,739.72,734.80,729.08,723.31,719.26,718.01,719.47,722.88,726.73,730.80,735.50,740.16,745.99,751.47,754.63,753.75,750.93,747.09,742.85,739.17,736.48,737.23,740.28,744.02,748.00,752.71,757.79,761.26,758.17,753.25,748.22,743.61,740.01,738.74,739.64,741.92,745.04,747.85,750.97,754.26,757.40,759.73,761.06,760.33,757.75,753.74,750.08,747.47,745.02,742.75,742.30,742.35,742.49
816.40,811.07,807.06,804.07,800.75,796.22,789.97,782.99,784.88,790.09,795.69,800.44,804.33,808.33,813.13,819.06,824.15,828.96,833.71,838.68,844.48,849.98,854.53,857.99,859.88,859.06,855.49,848.30,838.08,832.20,826.19,820.69,815.88,811.10,805.69,800.01,794.04,787.35,779.11,771.85,765.98,761.20,756.06,751.17,748.52,748.83,752.81,757.86,763.09,767.89,771.82,774.87,777.53,780.22,783.31,787.38,791.90,797.43,802.56,805.16,805.32,803.83,802.77,803.75,808.07,813.14,816.14,815.94,811.36,803.92,796.11,789.30,784.38,781.15,782.71,785.12,786.93,788.93,793.01,796.75,799.09,798.74,794.18,787.88,781.26,774.58,767.21,760.03,761.15,768.70,774.97,780.56,785.69,790.57,795.10,798.74,801.60,804.54,807.76,810.70,812.00,810.65,807.39,803.25,799.27,796.16,793.37,790.94,790.00,789.98,790.22,791.11,793.87,797.11,798.95,799.64,799.39,797.85,795.87,793.85,791.61,788.21,783.67,779.17,774.94,770.84,766.87,763.76,761.23,758.87,755.83,752.64,751.32,752.48,756.61,764.11,768.17,769.76,771.07,773.18,776.55,780.93,785.85,789.75,789.05,784.71,778.90,773.81,768.64,762.88,760.96,764.93,769.02,773.67,777.33,780.16,783.67,786.93,789.14,790.53,791.07,789.93,786.30,782.00,777.83,773.81,768.80,761.89,753.54,744.44,734.25,727.90,725.50,727.11,731.85,738.68,740.94,737.50,731.74,732.33,736.00,741.36,747.87,753.00,757.52,762.16,766.31,767.59,770.13,773.39,775.44,773.32,769.52,765.34,762.95,763.71,765.92,767.26,765.86,760.90,752.31,745.95,740.62,735.74,731.16,726.50,721.99,719.25,719.24,721.79,726.25,730.22,733.96,738.96,743.90,749.35,754.23,756.76,754.57,751.48,747.61,743.25,739.56,738.03,739.66,743.21,747.24,750.87,755.28,759.52,761.49,757.28,752.63,748.33,744.37,740.94,739.93,740.75,742.54,745.03,748.36,752.27,756.07,759.35,761.58,762.16,760.81,757.95,754.01,750.34,747.81,745.99,744.83,744.84,744.97,744.28
818.06,812.96,809.40,806.52,803.12,798.56,792.40,785.57,787.30,792.34,797.84,802.45,806.43,810.53,815.31,821.05,826.09,830.50,834.82,839.66,845.94,851.61,856.41,860.29,862.43,860.90,856.91,850.18,841.03,834.40,829.19,824.54,820.00,815.00,809.00,802.70,796.28,789.29,780.30,772.39,766.29,761.78,756.94,751.69,749.39,750.74,755.70,761.14,766.42,771.17,775.22,779.09,783.11,786.75,789.83,792.55,795.48,799.77,804.49,808.03,809.55,808.63,807.56,808.25,812.56,817.11,819.08,817.79,812.85,805.63,798.05,791.53,787.17,784.96,787.54,790.53,792.53,794.68,798.09,801.12,802.74,801.64,797.25,790.51,783.51,777.05,770.51,764.80,766.47,773.65,779.59,784.80,790.11,795.19,799.47,802.93,805.34,808.04,811.39,814.58,815.60,813.61,809.79,805.66,801.86,798.93,796.74,795.31,794.71,794.84,795.31,796.43,799.13,801.64,802.79,802.68,801.34,798.93,795.89,792.69,789.43,785.83,781.38,776.99,772.68,768.19,763.89,761.31,759.46,757.64,755.77,754.58,754.68,756.48,760.94,768.19,772.57,774.83,776.75,779.51,782.64,785.83,789.08,792.12,789.44,784.15,778.26,773.10,768.68,764.55,764.86,771.06,775.55,779.39,782.22,784.58,787.97,791.47,793.31,793.72,792.87,790.27,785.36,780.42,776.34,772.48,766.94,759.96,751.81,742.53,732.98,729.31,729.99,733.49,737.71,741.58,741.19,737.08,733.99,736.25,739.61,743.70,749.11,753.83,758.40,764.00,769.86,772.20,773.94,776.40,778.08,775.84,771.91,768.07,766.13,767.10,768.93,769.38,766.09,758.91,749.65,743.21,737.75,732.77,728.41,724.49,721.87,720.94,721.89,724.27,728.95,733.15,737.03,742.22,747.41,752.78,757.05,758.43,755.42,752.02,747.98,743.60,740.58,740.76,743.43,747.23,751.00,754.18,758.25,761.31,761.39,756.69,752.22,748.47,745.26,742.68,742.54,743.50,744.71,746.11,748.81,752.88,757.01,760.48,762.70,763.28,761.70,758.62,754.76,751.10,748.61,747.23,746.94,747.37,747.39,745.25
820.45,815.84,812.35,808.83,804.93,800.25,794.46,788.14,789.60,794.65,800.38,804.41,808.65,813.29,818.19,823.23,828.14,832.15,836.02,840.65,847.38,853.25,858.31,862.48,864.79,862.68,858.76,853.54,846.69,838.49,833.35,829.09,824.52,819.07,812.20,805.04,798.02,791.03,782.50,774.18,767.76,763.48,758.88,752.68,750.28,752.46,758.20,763.90,769.13,773.86,778.21,782.97,788.17,792.79,796.14,797.71,799.20,802.25,806.35,810.54,814.13,814.25,813.61,814.54,819.18,822.20,822.19,819.43,814.34,807.81,800.62,794.32,790.31,788.71,792.17,795.63,797.59,799.72,802.34,804.72,805.75,803.99,800.47,793.22,785.58,779.26,773.47,769.82,771.95,778.16,783.72,788.81,794.63,800.12,804.17,807.40,809.60,812.28,815.74,818.84,819.47,817.03,812.91,808.76,805.13,802.34,800.30,799.07,798.60,798.68,799.48,801.11,803.69,805.68,805.85,804.11,800.63,797.45,794.10,790.69,787.23,783.53,779.47,775.16,770.50,765.44,761.14,760.14,759.88,758.93,758.33,758.58,759.03,760.22,764.11,770.51,775.48,778.67,780.94,785.31,788.41,790.51,792.15,793.59,789.02,782.95,777.04,771.86,768.28,766.44,768.80,775.88,780.99,784.59,787.21,789.71,793.39,796.76,797.20,795.38,792.23,788.72,783.81,779.01,774.92,770.93,764.56,757.28,749.63,741.55,733.15,732.64,736.04,740.11,743.97,743.79,740.60,737.04,737.94,741.53,745.64,749.20,751.91,755.61,760.24,766.02,772.21,775.90,777.57,779.52,780.54,777.48,772.82,769.93,769.13,770.15,771.31,770.06,765.30,757.57,749.12,742.62,736.58,731.10,726.83,723.11,722.95,724.41,726.14,727.10,730.93,735.42,739.99,745.06,750.32,755.96,759.69,759.50,756.26,752.53,748.17,744.01,742.66,745.00,748.67,752.31,755.19,757.84,761.55,763.20,761.09,756.46,752.05,748.60,746.24,745.35,746.74,748.17,748.90,748.92,749.61,752.78,756.75,760.44,762.88,764.47,763.18,759.94,756.17,752.55,750.12,748.95,749.07,749.83,749.44,745.31
822.96,818.26,814.40,810.50,806.54,802.31,797.31,790.87,792.49,797.47,802.98,807.32,811.52,816.15,820.96,825.55,830.01,833.71,837.55,842.40,849.19,855.16,860.53,864.93,866.84,864.31,860.46,855.72,849.75,842.76,837.32,832.61,827.86,821.94,814.16,806.25,798.80,791.88,784.10,776.55,770.21,765.25,760.42,754.15,751.22,752.88,759.15,765.44,771.15,776.32,781.08,786.11,792.02,797.20,800.99,803.33,804.68,806.36,809.06,813.34,818.18,819.86,820.56,822.02,825.12,826.26,824.55,820.67,815.77,809.92,802.95,796.68,793.13,793.22,796.84,800.07,801.98,804.18,806.66,808.48,808.73,806.26,802.01,794.64,787.02,780.67,775.32,773.73,776.65,782.32,787.63,793.09,798.52,803.50,807.71,811.69,814.68,817.66,820.79,823.16,822.79,820.38,816.78,812.62,808.74,806.31,804.99,804.51,804.53,805.06,805.89,807.00,808.41,808.85,807.03,803.55,799.22,795.86,792.54,789.00,785.26,781.50,776.75,772.17,767.78,763.61,761.84,762.34,762.88,762.43,762.15,763.09,764.16,765.36,768.03,774.25,779.48,782.92,785.30,790.23,794.04,796.13,796.31,794.47,789.50,783.28,777.22,772.57,768.98,768.34,772.04,779.90,785.99,790.94,794.40,796.81,799.15,799.69,798.03,795.06,791.40,787.24,782.42,777.78,773.53,768.94,761.97,754.58,747.36,740.37,734.08,736.07,741.46,746.03,747.83,744.94,740.80,738.50,741.91,745.72,749.38,752.87,756.09,758.51,762.83,768.54,774.76,779.58,781.71,782.97,782.69,778.78,775.16,773.68,772.99,772.07,771.03,768.39,763.46,756.77,749.99,743.08,736.73,731.12,726.62,723.82,725.34,728.57,731.51,732.17,734.27,738.42,743.70,748.63,753.22,758.10,761.20,760.54,756.72,752.68,748.53,745.56,747.03,750.30,753.86,757.02,759.45,761.75,765.03,765.23,761.00,756.36,752.14,748.98,747.34,748.14,750.58,752.81,753.85,753.24,752.18,753.42,756.07,759.34,762.31,765.17,764.74,761.83,758.12,754.88,752.63,751.58,751.75,752.11,750.64,745.38
825.19,820.23,815.89,811.72,807.83,804.11,799.96,793.91,795.72,800.50,805.70,810.35,814.49,818.95,823.55,827.86,831.81,835.30,839.35,844.66,851.28,857.18,862.86,867.43,868.57,865.74,861.90,857.43,852.10,846.49,840.63,835.24,830.08,823.74,815.55,807.15,799.28,792.23,785.03,778.25,772.07,766.58,761.44,755.53,752.24,753.15,759.66,766.72,773.00,778.54,783.59,788.88,795.24,800.77,804.96,808.37,810.30,811.54,813.43,817.35,822.48,825.09,826.68,828.28,829.88,829.47,826.54,821.97,817.14,811.62,804.82,798.63,795.48,797.34,801.09,804.14,806.13,808.30,810.67,811.76,811.04,807.90,802.88,795.65,788.13,781.55,776.80,777.04,780.85,786.39,791.58,797.07,801.83,806.35,811.14,815.97,819.85,823.13,825.83,827.37,826.19,823.80,820.71,816.97,813.34,811.40,810.59,810.50,810.79,811.27,811.71,811.94,811.59,810.24,806.78,802.14,797.43,793.95,790.68,787.12,783.18,779.01,773.82,769.44,765.92,763.25,763.65,765.17,766.40,766.80,766.95,768.08,769.22,770.27,772.37,778.63,783.95,787.41,789.82,794.91,799.11,800.69,799.05,794.83,789.90,784.44,778.98,774.32,770.46,770.68,775.56,784.44,791.89,797.55,801.25,803.26,803.78,801.26,797.90,794.41,790.72,786.07,781.28,776.67,772.11,766.75,759.37,751.93,745.04,739.10,735.42,739.46,746.05,750.54,749.95,745.64,741.97,741.43,746.02,750.01,753.05,756.06,759.64,761.78,765.81,771.04,776.85,782.45,785.42,786.23,784.82,780.72,777.89,776.44,774.71,771.77,768.86,765.36,760.93,755.83,750.67,743.65,737.20,731.57,726.91,724.85,727.50,732.14,736.51,737.64,738.15,741.70,747.34,752.04,756.17,760.28,762.75,761.77,757.24,752.83,749.13,747.57,751.27,755.16,758.65,761.54,763.69,765.66,768.00,766.78,761.18,756.67,752.73,750.04,749.10,750.81,753.85,756.80,758.29,757.44,755.49,754.90,756.12,758.89,762.19,765.79,766.47,764.43,760.72,757.54,755.53,754.67,754.59,753.65,750.96,745.27
826.90,821.61,816.87,812.52,808.75,805.38,801.98,797.41,799.27,803.69,808.62,813.22,817.41,821.66,825.95,830.07,833.58,837.00,841.53,847.49,853.67,859.30,865.20,869.86,869.84,866.87,862.98,858.74,854.14,849.12,842.80,836.63,830.81,824.20,816.40,807.94,799.58,792.01,785.04,778.53,772.54,767.07,761.77,756.61,753.37,753.69,759.98,768.00,774.81,780.45,785.54,791.28,797.81,803.45,807.94,812.19,815.40,817.84,820.20,823.27,827.34,829.66,831.00,831.99,832.88,831.60,828.22,823.51,818.45,812.69,806.04,800.08,797.24,800.55,804.62,807.84,810.10,812.10,814.08,814.14,812.23,808.45,803.22,796.41,788.87,781.82,778.15,779.83,784.55,790.44,795.65,800.39,804.43,808.98,814.85,820.33,824.84,828.29,830.53,831.33,829.94,827.41,824.52,821.86,819.46,818.07,817.20,816.68,816.68,816.08,815.54,814.65,812.00,808.89,804.77,800.01,795.22,791.52,788.20,784.77,780.81,775.68,770.97,767.76,765.86,765.04,766.00,767.78,769.83,771.76,772.87,773.65,773.83,774.24,777.18,783.57,788.78,792.15,794.56,799.56,803.20,802.98,798.94,794.56,789.88,786.41,782.84,777.07,772.93,774.05,780.18,790.30,799.40,804.04,806.62,807.78,806.30,801.45,797.34,794.03,790.40,785.40,780.51,775.72,770.66,764.42,756.88,749.43,742.71,737.83,737.25,742.76,749.40,752.78,749.98,746.06,744.59,746.27,750.29,754.75,757.36,759.14,761.68,765.31,769.24,773.45,778.25,784.04,788.18,788.89,786.88,783.60,780.41,776.60,772.39,768.15,764.49,760.88,757.51,754.24,750.22,743.79,737.55,731.99,727.47,725.65,728.77,734.42,740.37,742.87,742.47,745.23,750.57,754.89,759.16,762.90,764.82,763.37,758.14,753.21,750.07,749.90,754.38,758.81,762.73,765.85,767.82,769.42,770.02,767.46,761.77,757.66,754.12,752.23,752.00,753.26,756.25,759.63,761.57,760.89,759.36,757.50,757.63,760.07,763.24,766.55,768.47,767.96,764.21,760.51,758.75,758.13,757.34,753.91,750.05,744.79
828.57,823.60,819.49,815.45,811.51,807.87,804.47,800.69,802.52,806.79,811.66,816.18,820.73,825.03,828.99,832.48,835.72,839.53,844.38,850.16,855.70,861.26,866.93,871.10,870.67,867.44,863.52,859.23,854.44,849.42,843.00,836.59,830.49,823.98,816.39,808.13,799.31,790.36,784.21,778.18,772.32,766.99,762.42,758.09,754.59,754.05,760.36,769.03,776.27,782.09,787.25,793.43,799.67,805.05,809.81,815.10,819.19,822.45,825.31,828.14,831.25,833.46,834.85,835.50,835.57,833.29,829.46,824.82,819.86,813.93,807.43,802.05,800.17,804.12,808.17,811.55,814.26,816.42,817.86,816.42,812.89,808.45,803.17,796.45,788.88,782.20,781.04,784.50,789.33,794.33,799.18,803.27,807.34,812.46,819.11,825.01,829.31,832.39,834.36,835.01,833.97,831.76,829.04,826.42,824.37,822.73,821.55,820.83,820.06,818.36,816.33,813.86,810.22,806.48,802.09,797.21,792.30,788.72,785.43,782.00,778.00,772.99,770.18,768.85,767.93,766.87,768.07,770.39,773.06,775.66,777.70,778.50,777.91,777.85,782.41,788.82,793.80,797.08,799.59,804.64,806.38,804.04,798.76,794.66,791.42,789.02,785.54,779.00,776.50,782.37,790.97,798.61,805.13,808.55,810.52,811.07,808.36,802.00,797.33,794.00,790.34,785.06,779.94,775.14,769.92,762.46,755.27,748.03,741.61,738.37,740.56,746.57,751.97,753.37,749.55,748.10,748.82,750.89,753.39,756.37,759.42,762.40,765.49,769.60,774.03,778.55,783.16,787.84,789.83,788.56,785.16,781.19,776.88,773.09,769.28,765.00,760.41,755.84,751.83,748.27,744.38,739.34,734.49,730.17,726.97,726.70,730.56,736.44,742.64,746.46,747.57,749.75,753.38,757.31,761.32,765.21,767.54,766.43,760.66,755.37,752.06,751.88,756.51,761.31,765.64,769.03,770.99,772.44,771.63,768.31,763.10,758.99,756.47,755.51,755.64,756.42,758.15,761.20,763.73,764.08,762.26,759.84,760.02,762.99,766.04,768.43,769.89,769.88,767.66,764.66,762.41,760.26,757.36,752.77,748.61,743.92
830.45,825.87,822.41,818.61,814.43,810.42,806.87,803.59,805.42,809.72,814.80,819.41,824.33,828.60,832.13,835.13,838.47,842.78,847.71,852.87,857.68,863.13,868.48,872.10,871.29,867.78,863.77,859.24,853.89,848.57,842.22,835.80,829.62,823.32,815.93,807.98,798.94,788.95,783.63,778.41,772.94,767.67,763.53,759.55,755.77,754.73,761.20,769.97,777.25,783.16,788.52,794.87,800.76,805.91,810.86,816.99,821.85,825.86,829.30,832.21,834.73,836.93,838.40,838.81,838.06,834.94,830.70,826.05,821.24,815.21,808.84,804.23,803.69,807.81,811.78,815.35,818.52,820.86,821.20,818.13,813.16,808.15,802.89,796.23,788.98,783.36,784.64,789.31,793.96,798.05,802.42,806.22,810.92,816.86,823.80,829.60,833.46,836.26,838.23,839.00,838.38,836.48,833.76,830.83,828.73,826.62,824.88,823.62,821.83,819.06,815.72,811.96,807.71,803.58,798.88,793.89,789.20,785.80,782.55,779.19,775.62,771.96,771.11,770.91,770.32,769.21,770.46,773.17,776.33,779.43,782.19,783.03,782.14,782.06,787.69,794.08,798.98,802.26,804.71,809.42,808.93,804.75,799.09,795.89,794.03,791.82,787.93,782.18,782.84,792.01,801.39,806.30,810.09,812.55,813.68,813.05,809.26,802.28,797.37,794.01,790.30,784.71,779.34,774.53,769.34,761.14,754.26,747.26,741.35,739.94,744.62,750.58,754.46,754.08,749.74,750.66,753.23,755.41,756.45,757.80,760.95,765.01,768.97,773.34,778.29,783.43,788.16,791.14,790.31,786.90,782.18,777.23,772.13,768.77,765.76,761.73,756.35,750.98,746.13,741.75,737.55,733.98,731.02,728.53,727.04,728.64,733.29,739.08,744.86,749.42,752.25,754.25,756.43,759.94,763.55,767.40,769.99,769.24,763.34,757.75,754.28,754.09,758.65,763.42,767.87,771.49,773.72,775.17,773.41,769.88,765.65,762.00,760.45,759.96,760.00,760.31,760.72,763.07,765.88,767.15,765.06,762.73,763.20,766.34,768.86,770.28,770.96,771.00,770.13,767.83,764.85,760.98,756.14,751.06,746.92,742.84
832.83,828.40,824.91,820.84,816.43,812.28,808.74,805.73,807.62,812.32,818.10,823.22,828.36,832.15,835.10,838.20,842.48,847.25,851.75,855.76,859.82,864.89,870.02,873.29,871.70,867.91,863.67,858.62,852.42,846.45,840.35,834.18,828.06,822.01,814.96,807.39,798.73,789.11,784.28,780.56,776.11,770.65,765.57,760.71,756.80,756.26,763.17,770.86,777.27,783.02,788.83,794.74,800.50,805.64,810.65,817.03,822.58,827.48,831.71,834.99,837.77,840.08,841.53,841.73,840.33,836.79,832.19,827.28,822.47,816.45,810.20,806.59,807.85,811.54,815.51,819.38,822.89,825.15,823.20,818.49,812.79,807.49,802.28,795.86,789.83,786.39,788.94,793.16,797.45,801.45,805.31,809.66,815.98,823.00,829.21,833.75,837.21,840.28,842.82,843.95,843.55,841.58,838.54,835.12,832.61,829.99,827.25,824.44,821.35,817.60,813.75,809.73,804.89,800.21,794.79,789.75,786.16,782.88,779.59,776.61,774.59,774.63,774.88,773.50,771.97,772.76,773.84,776.38,779.84,783.63,786.61,787.25,787.11,788.03,792.79,799.14,804.46,807.94,809.78,813.13,810.58,805.46,800.73,799.67,798.20,794.62,790.35,789.04,795.27,801.46,806.55,810.75,814.39,816.67,816.04,812.67,807.68,801.60,797.21,793.88,790.11,784.11,778.51,773.63,768.61,761.15,754.15,747.33,742.35,742.85,749.48,754.81,757.31,756.26,751.81,753.36,756.94,759.85,760.25,760.91,762.72,765.86,770.38,775.13,780.25,785.87,790.88,791.66,788.64,783.99,778.66,773.13,768.54,765.02,761.77,757.88,752.17,746.94,741.96,736.95,732.06,729.60,728.92,728.91,729.29,732.62,738.08,743.49,747.98,751.98,755.34,758.00,760.45,763.45,766.51,769.51,771.33,770.39,765.26,759.45,756.33,757.09,761.50,765.38,769.21,772.92,776.02,777.67,775.90,773.14,770.76,769.00,767.80,766.56,765.56,765.53,765.34,766.63,768.70,770.11,768.33,767.14,767.72,769.56,770.53,771.30,771.55,771.24,770.14,767.74,763.91,759.12,753.77,748.93,745.02,741.49
835.36,831.02,827.20,822.75,818.38,814.38,810.90,807.93,809.95,814.90,821.05,826.39,831.11,834.83,838.30,842.34,846.87,851.03,854.85,858.54,862.61,867.23,871.98,874.85,872.55,868.54,864.09,858.82,852.47,846.59,840.83,834.94,828.80,822.31,814.55,806.49,797.67,788.33,784.56,781.83,777.64,771.58,765.73,760.22,757.48,758.96,766.12,772.71,778.29,783.55,788.96,794.28,799.76,804.99,810.24,816.51,822.82,828.49,833.32,837.11,840.42,843.03,844.51,844.36,842.31,838.50,833.68,828.55,823.77,818.18,812.17,809.04,811.29,815.23,819.73,823.96,827.20,828.00,824.03,818.27,812.29,806.82,801.45,796.23,791.95,789.98,792.61,796.59,800.67,804.63,808.83,814.77,821.37,827.86,833.55,837.63,841.20,844.48,847.18,848.36,847.49,844.91,841.37,837.63,834.41,830.94,827.16,823.19,819.42,815.40,811.27,806.84,801.55,795.87,790.62,786.28,783.14,780.38,778.14,776.91,776.96,778.06,777.22,775.53,775.02,777.52,778.25,780.23,783.72,788.10,790.99,791.89,792.17,793.21,797.25,804.17,809.55,812.93,814.66,815.80,812.52,808.77,806.43,805.19,802.07,798.41,795.91,797.04,802.57,807.15,811.06,814.90,818.04,818.85,816.48,811.56,805.94,800.57,796.56,793.21,789.21,782.60,777.22,772.59,767.59,760.48,753.23,746.85,743.15,745.35,752.40,757.92,759.58,756.90,754.02,755.25,758.38,761.62,763.16,763.88,765.28,767.95,772.28,777.27,783.38,789.18,792.94,791.85,787.79,782.69,777.27,771.84,767.32,763.31,759.31,754.84,749.49,744.60,739.87,735.15,730.78,729.18,730.78,732.98,733.62,735.78,740.66,745.74,749.90,753.64,757.25,761.12,764.95,768.07,770.68,772.76,773.37,771.29,766.31,760.29,757.73,759.39,762.89,766.14,769.70,773.72,777.85,779.89,778.92,777.00,775.16,773.53,772.46,771.39,770.47,770.23,769.96,770.62,771.82,772.67,771.40,770.66,770.91,771.77,772.17,772.14,771.74,771.08,769.73,765.87,761.13,756.04,750.91,746.49,742.88,739.92
837.92,833.63,829.55,825.01,820.85,817.05,813.56,810.50,812.46,817.45,823.69,829.13,833.46,837.42,841.70,846.64,851.01,854.38,857.70,861.47,865.74,869.97,874.22,876.63,873.83,869.57,864.95,859.69,853.64,848.03,842.28,836.36,830.13,823.05,814.00,804.65,795.21,786.51,783.75,781.50,777.26,770.75,764.56,759.28,758.48,762.26,769.27,774.80,779.64,784.35,789.14,793.93,799.07,804.34,809.81,815.91,822.83,829.15,834.52,838.87,842.83,845.88,847.42,846.88,844.18,840.13,835.15,829.88,825.09,820.02,814.44,811.79,814.69,819.08,824.06,828.42,831.04,829.93,824.36,817.84,811.68,806.28,801.30,797.67,794.98,793.77,796.02,799.84,803.90,808.07,813.13,820.27,826.57,832.20,837.48,841.45,845.19,848.58,851.20,852.17,850.55,847.24,843.22,839.24,835.28,830.92,826.14,821.17,816.95,812.81,808.43,803.61,798.04,792.11,787.88,784.64,781.71,779.52,778.14,778.52,780.33,780.89,778.73,777.64,779.01,782.79,783.15,784.27,787.41,792.20,795.15,796.75,797.46,798.43,802.24,809.52,814.62,817.64,819.22,818.29,814.93,813.02,812.88,810.36,805.41,802.24,801.87,804.41,807.86,811.58,815.29,818.64,820.78,819.66,815.76,810.04,804.09,799.29,795.55,792.04,787.59,780.57,775.44,771.12,766.42,759.84,752.21,746.76,744.91,748.25,754.99,760.35,761.18,757.27,756.51,757.09,759.19,762.42,765.51,766.83,768.38,770.96,775.05,780.08,786.81,792.36,794.59,791.94,787.38,782.15,776.71,771.35,766.77,762.32,757.61,752.57,747.71,743.12,738.75,734.62,731.07,730.56,734.15,738.10,738.76,739.70,743.50,747.98,751.97,755.60,759.59,764.54,769.59,772.98,774.98,775.85,775.03,771.83,766.97,761.05,759.14,761.48,763.99,766.73,770.32,774.83,779.76,782.17,782.06,780.84,779.11,777.21,776.18,775.47,774.82,774.26,773.90,774.02,774.36,774.50,773.72,773.19,772.99,773.06,773.15,772.46,771.49,770.32,768.30,763.10,757.80,752.74,747.99,743.94,740.76,738.43
840.43,836.06,832.35,828.78,825.12,821.36,817.57,814.20,815.45,819.82,825.72,831.15,835.95,840.66,845.49,850.30,853.92,857.09,860.73,865.04,869.29,873.30,876.97,878.79,875.99,871.33,866.64,861.90,856.75,851.28,844.23,837.30,830.78,823.39,812.35,799.99,789.03,782.29,779.72,776.89,772.44,766.44,761.11,758.75,760.93,766.26,771.93,776.56,780.90,785.23,789.66,794.31,799.12,804.15,809.55,815.65,822.67,829.37,835.27,840.13,844.99,848.65,850.32,849.35,846.00,841.65,836.61,831.32,826.44,821.61,817.02,815.39,818.77,823.51,828.17,831.86,833.40,830.54,824.35,817.35,810.89,806.16,803.68,801.77,799.51,797.59,799.26,802.95,807.44,812.69,819.32,825.16,830.82,836.27,841.24,845.30,848.90,852.05,854.33,854.66,852.11,848.26,844.03,839.81,835.38,830.44,824.85,818.97,814.35,809.75,805.03,800.00,794.58,791.43,789.98,788.38,785.55,783.63,781.19,781.28,783.15,780.90,779.14,780.69,784.61,788.39,788.53,788.16,790.02,794.73,798.60,801.89,803.41,804.67,809.64,815.96,820.02,822.19,822.93,821.34,818.58,817.44,817.17,812.40,807.41,805.10,805.58,808.44,812.28,816.08,819.30,821.31,821.27,818.09,813.43,807.97,802.00,797.53,793.85,789.79,784.33,777.86,772.49,768.41,765.04,760.14,751.79,748.58,750.06,752.92,758.66,761.77,761.31,758.52,759.68,759.67,760.49,763.02,766.99,769.88,772.39,775.59,780.23,784.68,789.87,794.12,795.61,792.12,787.50,782.27,776.50,770.35,765.76,761.34,756.73,751.93,747.24,742.57,738.42,734.80,731.80,733.37,738.05,742.54,744.32,747.06,749.78,752.64,755.87,759.56,764.67,769.72,774.19,777.59,778.34,777.02,774.62,771.47,767.29,762.56,761.35,763.66,765.76,768.14,772.38,777.67,782.45,785.02,785.03,783.91,782.38,780.82,779.84,779.06,778.11,776.63,775.56,775.02,774.70,774.33,773.74,773.38,772.95,772.42,771.97,771.28,770.20,768.06,764.01,759.31,754.73,750.13,745.48,741.36,738.94,737.52
843.11,838.94,835.44,832.47,829.35,825.87,822.02,818.28,818.25,822.00,828.19,833.93,838.68,843.58,848.58,853.09,856.54,860.30,864.49,868.94,873.07,876.78,879.81,880.98,878.05,873.18,868.27,863.42,858.31,852.41,844.39,836.35,828.91,821.09,809.44,796.61,785.71,779.56,775.62,771.60,767.11,762.53,759.38,760.56,765.05,770.77,775.11,778.77,782.52,786.48,790.67,795.09,799.72,804.54,809.72,815.68,822.76,829.60,835.71,841.02,846.82,850.83,852.34,851.01,847.70,843.24,838.18,832.96,828.01,823.48,819.99,819.43,823.15,827.61,831.69,834.37,834.63,830.85,824.19,817.12,811.16,807.83,807.50,806.01,803.28,800.85,802.72,806.79,812.09,818.13,824.39,829.75,835.13,840.32,844.90,848.97,852.61,855.62,857.49,857.10,853.12,848.58,844.24,839.88,835.08,829.69,823.72,817.46,812.21,807.36,802.56,798.13,795.26,794.99,795.06,794.48,792.84,790.76,786.87,784.49,783.95,782.17,782.72,786.13,790.77,793.94,793.17,791.40,792.16,796.86,802.25,806.84,809.94,812.78,818.17,823.20,825.77,826.63,826.32,824.38,822.61,821.09,818.65,812.74,808.97,808.49,810.53,813.96,817.09,820.17,822.39,822.72,820.22,815.81,811.00,806.05,800.65,796.14,791.96,787.38,781.83,775.94,770.73,766.27,762.34,758.01,752.57,752.40,756.02,759.28,763.72,764.24,762.82,761.95,764.06,763.70,763.57,765.05,768.63,772.57,776.14,779.98,784.73,789.03,793.34,795.83,795.20,791.13,786.13,780.97,775.58,769.74,765.28,760.33,755.23,750.48,746.13,741.80,737.96,735.07,734.02,736.40,741.42,746.41,749.24,752.65,755.28,757.67,760.30,763.57,768.73,773.70,777.70,780.04,779.11,776.49,773.42,770.29,766.50,764.31,764.66,766.99,769.22,771.76,776.15,781.44,785.88,787.68,787.73,786.84,785.07,782.19,779.83,777.82,775.91,773.98,772.66,772.02,771.69,771.43,771.06,770.70,770.25,769.66,768.92,767.83,766.00,763.17,759.09,755.12,751.49,747.66,743.54,739.88,738.12,737.66
846.08,842.25,838.79,836.03,833.33,830.20,826.38,822.31,821.08,824.38,831.01,837.06,841.49,846.25,851.13,855.44,859.25,863.87,868.57,872.94,876.94,880.26,882.58,883.00,879.75,874.75,869.49,864.21,858.64,852.02,843.30,834.32,825.80,817.35,805.79,794.05,784.36,778.26,772.22,766.68,762.29,759.68,759.47,764.08,770.17,775.63,778.77,781.48,784.54,788.05,792.03,796.13,800.63,805.27,810.17,815.94,823.02,829.83,835.97,841.64,848.28,852.56,853.92,852.33,849.32,844.89,839.94,834.83,829.78,825.54,823.14,823.62,827.56,831.59,835.03,836.53,835.37,831.02,824.03,817.38,812.63,811.15,811.96,809.96,806.47,803.88,806.44,811.16,817.25,823.63,828.78,834.10,839.34,844.22,848.51,852.55,856.26,859.08,860.41,859.17,853.67,848.46,844.13,839.71,834.56,828.87,822.80,816.55,810.76,805.72,800.97,797.56,798.15,800.39,801.17,800.97,800.28,797.57,792.33,787.44,784.63,785.17,788.50,792.91,797.06,799.25,797.33,794.42,794.29,798.85,805.76,811.38,816.22,821.00,826.31,830.07,831.34,831.00,829.74,827.66,826.49,823.80,818.71,812.83,810.78,812.34,816.02,819.94,821.98,823.78,824.50,822.89,818.25,813.23,808.57,804.19,799.60,795.00,790.27,785.35,780.16,774.41,769.42,764.42,759.36,755.32,754.38,757.21,761.94,765.81,768.62,766.86,764.94,766.01,768.69,768.39,767.71,768.21,771.07,775.73,780.27,784.61,789.08,793.29,796.92,797.58,794.54,790.07,784.57,779.58,774.93,769.82,765.23,759.47,753.60,748.62,744.55,740.77,737.56,735.76,737.04,739.67,744.50,749.73,753.44,757.05,760.25,762.82,764.93,767.71,772.40,777.08,780.46,780.88,778.34,775.04,771.85,768.94,765.87,766.50,768.55,770.97,773.57,776.55,780.76,785.46,789.12,789.83,789.86,788.97,786.44,781.73,777.56,774.00,771.03,768.86,767.42,766.80,766.65,766.69,766.49,766.08,765.68,765.23,764.35,762.74,760.12,757.02,753.96,750.82,748.09,745.17,741.88,739.05,738.02,738.73
849.98,846.31,842.69,839.33,836.51,833.43,829.54,825.45,824.60,827.96,834.27,840.03,844.19,848.52,853.13,857.78,862.92,867.87,872.48,876.73,880.68,883.48,884.88,884.28,880.36,874.98,869.27,863.46,857.28,849.93,840.93,831.79,822.82,813.22,801.65,792.00,784.89,779.54,771.70,764.48,760.28,760.15,763.16,769.63,776.03,780.86,783.25,785.25,787.45,790.23,793.77,797.44,801.73,806.15,810.80,816.49,823.45,830.10,836.14,841.95,848.92,853.73,855.51,854.04,850.84,846.69,842.16,837.28,831.96,827.86,826.31,827.54,831.56,835.93,838.90,839.21,836.50,831.17,824.12,819.01,816.81,817.41,816.13,812.68,808.99,807.22,810.65,816.23,822.15,827.78,832.87,837.99,842.90,847.62,852.11,856.17,859.61,861.86,862.29,859.76,853.42,848.03,843.88,839.54,833.85,828.24,822.49,816.54,811.11,805.69,800.99,798.62,801.41,804.63,805.63,804.49,801.45,797.02,791.60,788.47,788.96,792.47,796.63,800.21,802.84,803.69,800.99,797.96,797.35,800.94,808.26,814.62,820.38,825.82,830.64,833.91,835.39,835.36,833.94,832.02,829.00,824.33,818.75,815.36,814.52,816.85,820.91,824.47,826.33,826.36,824.51,820.64,815.65,810.73,806.29,802.26,798.28,794.11,789.68,785.14,780.16,772.84,767.40,762.54,757.97,755.46,757.88,761.97,766.23,769.64,770.03,767.86,766.50,768.18,771.91,772.75,772.51,772.97,776.39,781.60,786.59,790.85,794.37,797.81,800.06,799.49,795.80,791.17,785.40,780.78,776.84,771.76,765.83,759.27,752.76,746.97,742.47,739.31,737.75,737.99,740.24,743.49,747.64,752.01,756.04,760.51,764.92,767.83,769.37,772.46,776.71,780.67,782.47,779.61,776.65,773.24,770.27,768.59,768.17,770.02,772.56,775.22,778.09,781.45,785.39,788.76,790.11,790.29,790.17,788.16,783.65,778.48,773.68,769.75,766.63,764.12,762.03,760.79,760.20,760.02,759.68,759.43,758.96,758.23,757.44,755.57,753.36,751.17,749.13,746.77,744.50,742.29,740.18,738.52,738.76,741.32
854.00,850.62,847.21,843.74,840.50,836.95,832.63,828.06,827.88,831.62,837.58,842.67,846.76,851.12,855.91,861.11,866.82,871.71,876.20,880.48,884.35,886.75,886.95,884.88,880.25,874.32,868.50,862.64,856.14,848.28,839.61,830.91,821.74,810.50,798.98,790.65,784.99,780.14,772.12,764.71,760.95,762.14,766.80,773.87,780.05,784.43,786.96,789.04,791.13,793.73,797.04,800.18,804.13,808.20,812.34,817.36,823.98,830.40,836.36,842.30,849.44,854.96,857.48,856.44,853.12,848.99,844.58,839.87,834.66,830.43,829.57,831.61,835.81,839.82,842.34,841.73,837.75,831.68,825.11,821.79,821.39,822.02,819.13,815.03,812.04,811.88,815.70,821.10,826.49,831.56,836.57,841.51,846.31,851.08,855.78,859.75,862.92,864.16,862.96,859.30,852.81,847.33,842.85,837.96,831.85,826.58,821.54,816.34,811.41,805.78,801.85,801.05,804.78,808.10,808.14,805.63,801.54,797.41,793.76,792.65,794.76,799.03,803.24,806.63,808.68,808.42,805.75,802.61,801.30,803.77,810.90,817.76,824.00,829.66,834.51,837.93,839.65,839.72,837.90,834.98,830.42,824.92,819.98,818.88,819.25,821.73,825.33,828.27,829.10,827.25,823.46,818.39,813.66,808.40,803.75,799.88,796.23,792.54,788.44,784.18,779.62,773.13,767.38,761.80,757.33,757.88,761.97,766.45,770.44,773.29,771.38,769.13,768.80,771.14,774.00,776.41,777.53,778.46,782.26,786.96,791.72,795.85,798.83,801.56,802.33,800.72,796.77,791.90,786.79,782.59,778.37,772.24,765.99,759.36,752.39,745.58,740.86,739.16,738.94,740.09,743.63,747.55,751.32,755.00,758.92,763.56,768.39,771.97,774.24,777.47,781.18,782.99,782.11,778.34,775.75,773.14,771.04,770.34,771.49,773.88,776.37,778.74,781.50,784.60,787.49,789.57,790.18,789.93,789.03,785.82,780.06,774.77,770.15,766.29,763.04,760.32,758.14,756.47,755.32,754.71,754.11,753.69,753.07,752.27,751.60,750.19,748.56,746.98,745.43,743.41,741.73,740.46,739.91,740.82,742.62,745.73
857.97,854.89,851.93,848.74,845.04,840.79,835.84,830.55,831.14,835.34,840.92,845.21,849.38,854.09,859.39,865.18,870.76,875.42,879.87,884.26,887.90,889.75,888.51,884.78,879.57,873.23,867.58,861.97,855.42,847.35,839.31,831.32,822.18,809.52,798.24,790.50,785.20,780.48,773.39,766.78,763.37,764.56,769.49,776.30,782.10,786.43,789.72,792.40,794.95,797.82,801.08,803.83,807.42,811.09,814.65,818.71,824.73,830.78,836.59,842.64,849.92,856.13,859.55,859.23,855.99,851.70,847.25,842.72,837.83,833.37,833.09,835.89,840.21,843.46,845.37,843.96,839.03,832.60,827.09,825.56,826.04,825.15,821.23,817.16,815.46,817.24,821.05,825.60,830.32,835.11,839.98,844.81,849.66,854.59,859.41,863.27,866.09,865.97,862.71,858.14,851.94,846.32,841.16,835.48,829.21,824.29,819.96,815.63,811.19,805.80,803.30,804.40,808.12,810.65,809.01,805.29,801.79,799.50,798.69,799.42,801.71,805.23,809.03,812.51,814.53,813.51,811.40,808.20,806.21,807.66,814.12,821.07,827.37,833.02,838.33,842.38,844.17,843.88,841.33,836.73,831.16,825.92,822.43,823.08,824.47,826.67,829.26,831.20,830.35,826.78,821.76,816.30,811.99,806.14,801.09,797.25,793.68,790.30,786.40,782.25,778.16,773.92,768.08,761.64,757.44,761.49,766.18,770.64,774.61,776.88,773.18,771.05,771.92,774.98,775.64,779.41,782.30,784.16,788.23,791.84,796.03,800.02,802.71,804.51,803.74,801.21,797.24,792.31,788.38,784.47,779.34,771.77,765.80,759.45,752.09,744.35,739.99,740.52,741.35,742.32,747.00,751.65,755.39,758.71,762.31,766.56,771.15,775.52,779.35,782.48,785.14,784.01,780.33,777.55,775.96,774.70,773.77,773.64,775.28,777.67,779.68,781.32,783.49,785.74,787.11,788.04,788.89,788.20,785.98,781.77,775.90,770.98,767.03,763.46,760.13,757.35,755.45,753.66,752.10,751.01,750.20,749.42,748.65,747.90,747.33,746.69,745.68,744.44,743.12,741.25,740.35,740.33,741.62,745.43,748.57,751.21
861.43,858.25,855.38,852.46,849.16,844.92,839.49,834.29,835.40,839.47,844.34,848.45,852.73,857.72,863.39,869.42,874.43,879.22,883.96,888.30,891.06,890.97,888.13,883.50,878.26,872.80,867.52,861.89,855.37,848.00,839.96,831.95,823.32,812.08,801.88,794.26,788.36,782.88,776.38,770.11,765.64,764.59,768.57,774.93,781.21,786.63,790.80,793.71,796.81,800.11,803.43,806.83,810.38,813.94,817.52,821.48,826.36,831.45,836.74,842.75,850.34,856.70,860.76,861.65,858.92,854.81,850.72,846.55,841.58,837.37,837.57,840.50,844.36,847.58,848.18,845.57,840.19,834.21,831.01,830.55,830.46,827.82,823.02,819.30,818.58,821.34,825.03,829.19,833.67,838.38,843.25,848.10,853.09,858.04,862.65,866.64,868.54,866.87,862.03,856.81,850.84,844.72,838.92,833.76,828.03,822.63,817.76,813.39,809.10,805.44,805.10,807.77,811.00,810.94,808.00,805.29,804.96,804.40,804.92,806.90,810.21,813.91,817.13,819.23,820.00,819.15,817.37,814.58,812.97,814.40,819.57,825.19,830.76,836.44,842.48,847.49,848.73,847.02,843.14,837.88,832.11,828.07,826.77,827.86,829.09,830.80,832.27,831.97,829.47,825.31,820.04,814.23,809.38,803.55,798.69,794.96,791.22,787.22,783.03,778.77,774.53,770.21,764.58,760.15,759.11,763.60,769.35,774.45,778.31,779.89,776.44,774.74,776.25,779.72,778.71,781.52,785.17,788.81,793.53,797.14,801.33,805.19,807.02,806.41,803.81,800.52,796.98,793.14,789.59,785.27,779.70,772.55,765.78,758.62,750.60,742.91,740.98,744.65,746.50,746.24,749.63,755.08,759.53,763.17,766.87,770.55,774.73,779.41,784.02,786.65,786.04,783.13,779.81,778.58,778.66,778.38,777.70,777.25,778.59,780.26,781.32,781.75,782.30,783.09,783.45,783.50,783.25,781.75,777.83,773.68,770.37,767.49,764.15,760.86,757.80,755.10,753.28,752.03,750.95,749.95,749.32,748.69,747.96,747.16,746.45,745.60,744.90,744.35,743.77,742.69,743.03,744.90,748.08,751.40,753.87,755.80
864.89,861.58,858.56,855.64,852.59,848.60,843.36,838.57,839.91,843.75,848.11,852.10,856.43,861.67,867.49,873.30,878.16,883.16,887.84,891.48,892.97,891.18,886.95,881.53,876.31,871.64,866.81,861.36,854.96,847.88,839.76,831.82,823.93,814.89,806.64,799.70,793.45,787.25,780.93,774.57,769.18,766.12,767.40,772.13,778.64,785.20,789.68,792.84,796.25,799.71,803.00,806.86,810.78,814.69,818.65,822.86,827.35,831.92,836.82,842.72,850.58,857.01,861.60,863.61,861.62,857.94,854.18,850.35,845.79,841.90,842.19,844.90,848.29,851.34,850.64,847.14,842.04,837.63,836.13,835.25,833.44,829.51,824.67,821.68,821.64,824.63,828.16,832.25,836.75,841.55,846.57,851.46,856.43,861.26,865.63,869.42,869.93,867.02,861.52,855.84,849.84,843.50,837.53,832.72,827.35,821.80,816.74,812.34,808.01,806.17,807.54,810.94,813.30,810.83,807.87,807.10,809.51,810.91,812.46,814.78,817.98,821.54,824.41,825.35,825.09,824.63,823.20,821.25,820.27,821.46,824.97,829.21,833.92,839.34,845.93,851.23,852.04,849.54,844.96,839.42,834.32,831.42,831.17,832.22,833.20,833.96,833.83,831.59,827.91,823.38,817.97,811.91,806.88,801.44,796.85,793.12,789.29,785.06,780.70,776.27,771.71,766.74,762.31,760.72,762.35,764.80,770.51,776.19,780.58,782.56,779.60,777.81,779.28,783.40,783.97,786.48,789.97,794.02,798.76,802.21,805.88,808.94,809.73,807.53,803.99,800.30,796.81,793.22,789.54,784.83,779.11,772.62,765.09,757.15,749.16,742.86,743.63,749.76,752.46,751.25,752.75,758.38,763.26,767.12,770.82,774.21,778.39,783.21,787.71,789.17,786.52,783.35,781.24,781.06,781.92,781.65,780.72,780.06,780.80,781.51,781.54,780.68,779.02,777.92,777.19,776.65,776.10,774.73,771.01,767.69,765.90,764.17,761.50,758.62,755.98,754.06,753.45,753.30,752.80,751.63,750.75,750.08,749.17,748.08,747.29,746.47,746.07,746.00,746.06,745.92,747.01,749.61,753.30,756.12,758.55,760.77
868.47,865.01,861.67,858.48,855.38,851.73,847.23,843.19,844.58,848.17,852.25,856.11,860.40,865.80,871.54,876.78,881.99,887.13,891.30,893.70,893.61,890.54,885.22,879.03,873.77,869.56,865.12,859.93,853.65,846.34,838.26,830.65,823.74,817.11,811.39,805.74,799.69,793.06,786.61,779.85,773.97,769.65,766.88,768.83,774.95,782.29,786.58,790.06,793.53,796.91,800.19,804.19,808.69,813.27,817.84,822.54,827.54,832.16,836.84,842.61,850.64,857.11,862.12,865.12,864.14,861.07,857.50,853.90,850.25,846.73,846.79,849.05,852.03,854.60,852.80,848.88,844.75,842.76,841.93,839.22,834.93,830.28,826.17,824.24,824.66,827.31,830.71,835.01,839.73,844.72,849.97,854.88,859.66,864.26,868.39,871.44,870.25,866.52,861.25,855.28,849.05,842.86,837.18,832.38,827.08,821.83,817.02,812.66,808.30,808.14,810.65,813.90,814.94,810.90,809.22,810.86,815.02,818.33,820.67,822.61,824.68,827.73,830.44,830.81,830.03,830.01,829.01,828.11,827.76,828.30,830.00,833.13,837.05,842.00,848.76,853.63,854.19,851.65,847.13,841.66,837.88,835.85,835.43,836.11,836.68,835.96,833.83,830.23,825.85,821.00,815.42,809.35,804.63,799.81,795.47,791.63,787.81,783.84,779.53,774.98,770.13,764.54,762.28,763.83,767.06,765.66,769.88,775.75,781.29,784.81,782.58,780.32,781.13,785.89,790.81,794.10,796.80,799.79,803.91,806.90,809.46,811.07,810.61,807.94,804.39,800.64,796.76,792.45,788.29,783.35,777.78,771.83,763.69,755.24,748.08,744.42,747.63,755.09,758.47,757.02,756.51,761.71,766.52,770.27,773.82,777.28,781.94,786.79,790.38,790.13,787.11,785.04,784.51,784.78,785.32,784.16,782.58,781.80,781.77,781.45,780.39,778.11,774.01,770.87,769.06,768.36,768.46,768.12,766.44,764.48,762.72,761.02,759.05,756.76,754.73,754.30,755.88,757.25,757.36,755.86,754.40,753.42,752.04,750.38,749.64,749.17,749.01,749.16,749.65,750.45,751.67,753.63,756.39,759.23,762.51,765.94
872.38,868.68,865.14,861.59,858.18,854.32,850.08,847.65,849.48,852.88,856.62,860.40,864.58,869.63,875.05,880.31,885.90,890.36,893.81,895.62,893.89,889.48,883.24,876.51,871.05,866.88,862.02,856.04,848.98,841.95,834.42,827.75,822.16,816.97,812.37,807.80,802.76,796.90,790.87,784.08,778.27,773.85,769.15,768.57,772.56,778.82,783.75,787.47,791.14,794.93,798.89,803.44,807.52,811.80,816.54,821.69,827.56,832.45,837.00,842.73,850.64,857.01,862.28,866.27,867.29,864.69,860.74,856.72,853.52,850.83,851.18,853.34,855.91,857.43,855.12,851.52,848.43,847.47,845.53,841.32,835.92,831.04,827.38,826.48,827.57,830.26,833.99,838.53,843.55,848.70,853.51,858.21,862.82,867.32,871.12,872.24,869.68,865.75,861.07,855.09,848.93,842.99,837.58,832.89,827.78,822.49,817.26,812.48,809.11,810.65,814.12,816.86,815.65,812.86,812.95,815.75,820.10,823.08,825.29,827.74,830.71,833.82,835.99,836.59,836.40,836.43,835.90,835.16,834.51,834.32,835.25,837.87,841.77,846.77,852.76,857.35,857.38,854.42,850.10,845.40,842.21,840.46,840.08,840.52,838.70,835.85,832.34,827.93,823.11,817.68,812.10,806.85,802.48,797.91,793.60,789.62,785.69,781.71,777.69,773.58,769.28,764.88,764.95,768.50,772.35,769.35,770.04,774.49,780.75,785.85,786.62,785.29,785.27,788.62,794.24,798.86,801.85,804.23,808.25,810.96,812.74,812.99,810.80,807.68,804.08,800.23,796.12,791.71,787.38,782.66,777.51,771.51,762.21,753.76,748.20,747.17,750.96,757.54,761.70,762.03,760.34,765.45,769.50,772.31,775.75,779.62,784.91,789.77,792.43,791.00,788.34,787.29,787.82,788.57,788.02,786.36,784.24,782.32,781.56,780.56,777.90,773.54,768.65,764.74,763.30,763.47,763.97,763.92,762.82,761.29,759.66,758.06,756.50,755.17,754.59,755.72,757.93,760.20,761.38,760.85,760.19,758.82,756.61,754.31,753.76,753.18,752.76,752.78,753.60,755.05,755.71,756.54,758.37,761.42,765.00,768.90
876.32,872.47,868.72,864.85,861.10,857.04,853.09,852.07,854.32,857.86,861.68,865.17,868.85,873.38,878.53,883.98,889.62,893.67,896.52,897.47,894.22,888.76,881.94,874.91,869.25,864.88,859.28,852.58,845.33,838.72,831.76,825.70,820.63,815.69,811.54,807.73,803.65,798.66,792.80,786.75,781.72,777.64,772.35,769.48,771.54,776.94,782.15,785.86,789.58,793.66,798.24,803.44,807.68,811.92,816.63,821.89,827.89,832.77,837.24,842.93,850.67,856.93,862.34,867.08,869.84,868.16,864.35,860.02,856.60,854.63,855.37,857.60,859.95,860.52,858.13,855.09,852.65,851.33,848.16,842.94,837.01,832.17,829.05,828.99,830.64,833.47,837.55,842.37,847.46,852.44,856.86,861.47,866.03,870.40,873.58,872.38,868.82,864.78,860.28,854.09,848.30,842.74,837.36,832.30,827.38,822.47,817.28,812.47,810.83,813.72,817.66,819.75,816.91,816.36,817.61,820.51,824.78,827.59,829.78,832.73,836.46,839.36,840.97,841.69,841.95,842.01,841.86,841.29,840.55,840.08,840.96,843.57,847.73,852.76,857.43,861.49,861.11,858.01,854.16,849.99,847.00,845.31,844.67,843.90,839.68,834.89,830.19,825.12,819.85,813.99,808.42,803.71,799.33,794.70,790.36,786.48,782.97,779.07,775.27,771.54,768.23,767.12,769.13,773.67,777.82,774.09,772.10,774.89,780.83,786.64,790.22,790.36,790.58,793.31,797.92,802.87,806.30,808.67,812.20,814.54,815.29,814.20,811.00,807.59,803.82,799.78,795.51,791.14,786.47,781.82,776.88,770.52,761.00,753.15,749.48,751.29,755.71,760.90,765.28,767.20,764.90,768.90,772.08,774.33,777.62,782.11,787.55,792.26,794.52,792.27,790.31,790.09,791.12,791.89,790.40,788.58,786.19,783.12,781.16,778.90,774.80,769.15,764.16,761.46,760.55,760.55,760.74,760.50,759.68,758.70,757.74,756.73,755.45,754.71,755.06,757.15,759.61,762.43,764.64,765.56,766.05,764.61,761.89,759.20,758.82,757.60,756.59,756.43,757.68,759.73,759.83,759.70,760.76,763.79,767.48,771.52
880.19,876.34,872.35,868.22,864.15,860.06,856.64,856.48,859.07,863.17,867.56,870.46,873.18,877.11,882.13,887.84,893.07,897.24,899.66,899.29,894.83,888.76,881.79,874.78,868.91,864.10,857.66,850.70,844.31,838.17,831.63,825.55,819.84,813.76,809.40,805.87,802.37,798.02,792.00,787.62,784.11,780.60,776.04,771.26,772.21,777.57,782.48,785.85,789.25,793.19,798.00,803.75,809.27,814.20,818.73,823.60,828.67,833.12,837.56,843.20,850.79,856.94,862.38,867.47,871.26,871.20,868.48,864.24,859.84,858.29,859.40,861.86,864.23,864.13,862.07,859.65,857.18,854.00,849.98,844.37,838.36,833.86,831.55,832.09,834.05,837.00,841.35,846.42,851.23,855.64,859.97,864.73,869.42,873.52,875.52,871.89,867.76,863.49,858.48,851.81,846.75,841.67,836.06,830.07,825.37,821.47,817.10,813.02,813.86,817.61,821.24,822.49,819.36,821.57,822.92,824.72,828.93,832.40,835.04,838.23,841.90,844.16,845.33,845.82,845.99,846.15,846.29,846.23,846.00,846.01,847.49,850.53,855.02,859.82,862.77,865.85,865.29,862.62,859.48,855.30,852.19,850.30,848.87,845.53,839.51,833.31,827.51,821.86,816.08,810.02,804.39,799.51,794.58,789.58,785.20,781.77,779.43,775.88,772.23,768.82,766.95,771.29,774.61,779.08,783.32,779.64,776.81,778.09,782.44,787.62,792.86,794.75,796.68,800.48,802.88,806.61,810.31,813.40,815.80,817.55,816.87,814.52,811.42,807.89,803.78,799.43,795.05,790.75,785.47,780.55,775.45,768.49,760.19,753.74,752.22,757.04,762.64,766.39,770.12,772.75,770.55,771.96,774.22,776.65,779.78,785.09,790.00,794.32,796.80,794.14,793.22,793.58,794.38,794.49,792.48,790.81,788.45,784.48,780.63,776.26,771.18,765.76,761.53,762.38,761.76,759.93,758.88,758.00,757.37,757.28,757.70,757.81,756.63,755.77,756.07,758.21,760.80,763.82,766.85,769.42,771.19,770.25,767.72,765.11,764.78,762.28,760.38,760.07,761.86,764.50,764.24,763.52,764.16,766.84,770.49,774.35
883.87,880.01,875.89,871.39,867.00,862.88,859.95,860.95,864.61,868.57,871.95,874.57,877.18,881.06,886.13,891.87,896.71,899.73,901.22,900.70,896.82,889.81,882.59,875.87,869.56,864.57,858.61,852.18,845.98,840.00,833.54,827.47,821.77,815.67,810.16,805.74,801.86,797.83,793.59,790.01,786.52,782.79,778.88,773.67,773.68,778.84,785.65,788.59,790.53,792.99,796.72,801.36,808.16,814.14,818.75,823.60,828.67,833.31,838.01,843.81,851.11,857.21,862.65,867.73,871.91,873.38,872.10,868.75,864.58,862.95,864.43,867.06,868.92,868.26,865.81,862.83,859.56,855.46,850.99,845.30,839.41,835.44,835.47,836.57,838.30,841.04,845.41,850.12,854.59,859.00,863.94,869.15,873.88,876.64,875.68,871.02,866.22,861.03,855.26,849.38,844.81,839.98,834.83,830.08,827.00,822.88,818.44,815.72,818.90,823.58,825.29,824.20,823.50,826.88,827.89,828.73,832.22,835.69,838.97,842.54,846.27,849.03,850.28,850.71,850.91,851.37,852.06,853.26,854.62,855.87,857.09,859.14,862.08,865.54,868.69,870.31,869.45,867.01,863.75,860.14,856.77,853.70,850.39,845.30,838.46,831.60,825.16,819.08,812.84,806.08,799.52,793.64,788.13,783.15,778.91,775.69,773.86,771.25,769.33,768.29,768.96,774.39,779.02,783.87,787.97,786.38,782.94,783.56,787.31,790.93,795.11,797.41,799.94,803.95,807.27,810.04,813.14,816.51,819.08,819.90,818.43,815.54,811.91,807.58,802.90,798.37,794.09,789.68,784.44,779.39,774.08,767.24,759.66,755.50,756.59,763.09,768.63,771.52,774.58,777.48,777.00,776.43,776.95,779.00,783.12,788.86,794.06,797.68,798.78,796.55,796.51,797.22,797.61,796.66,794.13,791.83,788.44,782.98,777.46,772.04,767.35,764.47,765.45,767.55,766.94,764.69,762.83,761.29,760.13,760.23,761.27,760.41,758.34,756.69,756.46,758.58,761.23,764.32,767.56,770.71,773.53,774.39,773.63,772.08,771.13,767.44,765.07,764.69,766.23,769.33,768.59,767.57,768.67,771.85,775.28,778.27
887.51,883.44,879.25,874.48,869.86,865.87,863.63,865.64,869.87,873.42,875.87,878.54,881.34,885.43,890.54,895.93,899.93,901.88,902.53,901.85,898.79,890.85,883.21,876.59,869.93,864.79,859.35,853.47,847.41,841.62,835.38,829.48,823.97,818.16,812.01,806.96,802.61,798.40,794.87,791.48,787.85,784.09,780.83,775.80,775.23,780.09,788.53,791.98,793.24,794.49,796.92,800.40,807.31,813.79,818.75,823.48,828.60,833.43,838.40,844.40,851.44,857.52,862.96,868.02,872.55,875.36,875.44,873.17,869.68,867.98,869.59,872.20,873.47,872.08,868.99,865.20,861.01,856.30,851.63,846.08,840.61,837.50,839.66,841.23,842.67,845.12,849.31,853.60,858.06,862.86,868.23,873.69,877.93,879.09,875.70,870.51,865.14,859.25,853.05,847.80,843.46,838.98,834.64,831.40,829.45,824.60,820.02,819.02,824.08,828.89,828.67,825.66,826.96,830.85,832.11,832.68,835.14,838.47,842.21,846.18,850.29,854.17,855.84,856.32,856.52,857.24,858.60,860.86,863.38,865.54,866.64,867.87,869.40,871.51,874.34,874.51,873.00,870.31,866.66,863.27,859.47,855.26,850.42,844.25,837.13,829.95,823.03,816.38,809.63,802.39,795.26,788.66,782.59,777.88,774.31,772.08,771.71,770.24,770.01,770.96,773.05,777.42,782.40,787.47,791.70,792.58,788.57,788.52,792.02,795.05,797.77,800.50,803.52,807.03,811.04,813.36,816.02,819.41,822.22,821.75,819.40,815.98,811.68,806.67,801.70,797.19,793.10,788.70,783.71,778.52,772.95,766.39,759.15,757.13,760.40,767.70,773.20,776.08,778.89,781.81,782.83,780.94,780.61,782.75,787.41,792.85,797.81,800.59,800.53,799.00,799.36,799.90,799.46,797.03,794.07,790.99,786.64,780.28,773.76,768.37,765.31,765.65,770.43,772.99,772.55,770.45,768.10,765.84,764.55,764.88,765.92,763.42,760.04,757.62,756.93,758.68,761.19,764.23,767.50,770.92,774.61,777.26,778.45,778.29,777.15,773.39,771.06,770.72,772.03,774.14,772.58,771.61,773.59,777.03,779.98,781.68
891.17,886.50,882.29,877.47,872.81,869.29,868.17,870.72,874.11,877.06,879.66,882.85,886.07,890.52,895.56,899.95,902.23,903.88,904.14,902.65,900.02,891.32,882.91,875.92,869.15,863.83,858.33,852.61,846.94,841.53,835.99,830.56,825.23,819.78,814.55,809.98,805.48,800.26,794.30,790.26,787.02,783.99,781.40,777.01,776.52,780.99,789.32,795.26,798.02,799.31,800.70,803.85,808.46,814.09,819.85,824.03,828.77,833.52,838.64,844.80,851.69,857.79,863.27,868.41,873.57,877.34,878.48,877.26,874.72,873.26,874.52,876.68,877.53,875.00,871.13,866.65,861.76,856.54,851.90,846.80,842.27,840.64,843.67,845.52,846.90,849.01,852.78,856.89,862.01,867.69,872.66,877.83,880.52,880.15,876.35,870.95,865.27,859.51,853.71,848.11,843.62,839.78,836.58,834.23,831.66,825.66,821.35,822.44,828.46,831.79,830.46,827.18,828.14,831.97,834.92,836.60,837.79,841.04,844.70,849.00,854.15,859.73,862.28,862.95,863.06,863.91,866.05,868.50,870.78,872.74,874.43,875.90,877.33,878.58,879.06,878.08,875.25,871.40,867.27,863.14,858.58,853.86,848.78,842.50,835.71,828.54,821.14,813.65,806.23,799.31,792.79,786.48,779.86,775.74,773.84,774.32,777.68,777.44,778.00,779.09,779.72,780.94,784.32,789.00,793.99,796.94,792.44,791.27,794.65,799.56,801.48,805.40,809.18,811.26,813.83,816.63,819.65,822.77,825.21,822.92,819.16,814.86,809.97,804.91,800.30,796.17,792.34,788.28,783.63,778.22,772.27,765.97,758.54,757.88,762.21,769.19,775.35,779.66,783.06,785.75,786.90,784.78,785.82,789.27,792.98,796.83,800.07,801.87,801.93,801.18,801.04,800.46,798.41,793.86,790.65,786.96,782.34,776.62,770.40,766.69,767.10,770.76,774.16,776.76,776.97,775.45,773.01,769.94,769.72,770.76,770.88,766.44,761.55,758.68,757.87,758.55,760.54,763.41,766.70,770.30,774.54,778.24,780.91,782.33,782.21,780.66,779.23,779.09,780.56,778.81,775.85,775.49,778.73,781.47,783.53,783.46
894.70,889.63,884.94,880.24,875.80,872.85,872.64,875.26,878.33,881.43,884.56,887.93,891.46,895.59,899.77,903.09,904.84,905.71,905.12,903.00,900.32,891.26,882.47,875.44,869.32,863.69,858.20,852.68,846.92,840.35,834.99,829.89,824.68,819.51,814.72,810.27,805.74,800.60,794.76,791.25,788.82,786.47,783.23,778.51,777.56,781.55,789.91,796.82,801.05,803.52,805.30,808.42,812.25,816.91,821.93,826.02,830.51,835.04,839.84,845.47,852.02,858.22,863.79,868.93,874.60,878.95,880.99,880.88,879.22,878.25,878.89,880.03,880.14,877.28,873.06,868.01,862.41,856.92,852.19,847.44,844.29,845.20,848.16,850.10,851.55,853.41,856.89,861.99,867.35,872.38,876.71,880.60,881.97,880.70,876.74,871.42,866.21,861.29,856.40,850.90,846.16,842.37,839.20,836.14,832.24,826.00,822.86,825.77,831.24,834.76,834.10,831.05,830.46,834.13,837.90,840.30,841.25,843.42,846.40,850.93,857.00,863.05,867.12,868.62,869.09,870.66,873.44,875.64,877.31,878.74,880.30,881.09,881.61,881.84,881.10,879.24,875.33,870.76,866.77,862.89,858.15,852.92,847.29,841.04,834.40,826.86,819.08,812.08,805.00,798.55,792.43,786.35,780.13,776.43,775.87,778.41,783.34,784.41,785.06,785.99,786.99,787.90,790.00,793.45,797.72,800.29,796.01,794.66,797.78,803.20,805.56,809.28,812.80,814.88,817.30,820.85,824.28,826.80,827.31,823.62,819.11,814.52,809.76,805.11,800.77,796.63,792.57,788.33,783.68,778.13,771.78,764.90,758.14,759.35,764.96,771.63,777.41,781.87,785.70,788.91,790.62,789.06,790.02,793.08,796.53,800.04,802.37,803.16,802.47,801.43,800.25,798.20,794.87,790.01,786.48,782.65,778.15,772.87,767.11,767.15,770.19,774.17,777.30,780.56,781.31,779.95,777.52,775.31,775.76,776.11,774.45,770.13,765.22,761.51,759.31,758.73,759.90,762.55,765.88,769.51,773.65,777.69,780.96,783.27,784.71,785.38,785.63,785.93,785.90,781.64,778.50,778.59,781.90,784.65,785.70,784.62
897.89,892.62,887.63,883.08,878.91,876.52,877.08,879.61,882.63,886.06,889.74,893.21,896.75,900.29,903.52,905.98,907.56,907.41,905.85,903.26,900.39,891.13,882.31,875.55,870.04,864.14,858.65,853.33,847.49,839.86,834.49,829.63,824.60,819.65,815.11,810.81,806.46,801.79,796.81,793.79,791.67,789.28,785.03,779.79,778.36,781.95,790.47,797.66,802.97,806.74,809.41,812.64,816.12,819.87,823.89,828.15,832.69,837.22,841.80,846.78,852.81,858.90,864.43,869.58,875.75,880.44,883.31,884.36,883.54,883.02,883.04,883.04,882.16,879.14,874.74,869.25,863.08,857.36,852.55,848.51,846.98,850.02,852.76,854.77,856.42,858.30,861.79,867.49,872.63,876.69,880.28,882.90,882.99,880.89,876.83,871.77,867.14,863.04,858.88,853.40,848.55,844.74,841.30,837.23,831.98,826.01,824.26,828.65,833.35,837.49,838.20,835.95,833.83,836.55,840.38,843.35,844.72,846.21,848.64,853.34,860.03,866.12,871.41,873.72,874.64,876.91,880.17,882.17,883.30,884.10,885.10,884.89,884.26,883.38,881.81,879.00,874.16,869.11,865.47,862.13,857.60,852.11,845.90,839.38,832.79,825.10,817.31,811.06,804.22,798.22,792.73,787.47,782.58,778.81,778.56,782.06,787.89,790.68,791.56,792.29,793.97,795.12,796.45,798.94,802.14,803.02,799.08,798.32,801.59,806.67,809.60,812.75,815.86,818.59,821.54,825.50,828.72,830.11,828.31,823.63,818.77,814.20,809.75,805.49,801.23,796.88,792.43,787.98,783.44,777.87,771.07,763.41,758.31,761.59,768.32,774.58,779.56,783.69,787.80,791.77,794.28,793.62,794.07,796.21,799.55,802.66,803.87,803.53,802.07,800.56,798.28,794.93,790.68,785.97,781.93,778.00,773.88,769.42,765.12,768.56,773.32,777.01,780.55,784.52,785.60,784.37,782.30,781.30,781.74,780.86,777.56,773.58,768.90,764.60,761.22,759.41,759.52,761.83,765.17,768.81,772.74,776.94,780.51,783.36,786.11,788.48,790.31,790.99,789.15,783.64,781.13,781.78,784.76,787.37,787.44,785.81
900.19,895.11,890.78,886.37,882.39,880.43,881.52,883.89,887.13,890.80,894.65,898.28,901.11,903.85,906.57,908.98,910.24,908.85,906.41,903.73,900.63,891.28,883.18,877.31,871.61,865.65,860.07,854.82,849.41,842.51,837.05,832.27,827.65,822.87,818.43,814.63,811.03,807.10,802.73,798.99,795.15,790.72,785.54,780.16,778.64,782.23,791.16,797.87,803.15,807.56,811.29,814.74,817.71,820.83,824.56,829.36,834.65,840.07,845.20,849.79,854.94,860.19,865.25,870.50,877.29,881.96,885.51,887.84,887.83,887.43,887.08,886.10,883.75,880.37,875.80,870.20,863.91,857.88,853.09,850.92,851.38,854.30,857.24,859.50,861.61,864.27,868.49,872.48,876.36,879.98,882.79,885.11,883.84,880.43,876.29,871.71,867.33,863.23,858.78,852.63,848.26,844.75,841.20,836.72,830.77,825.70,825.21,830.27,834.96,839.42,841.91,841.84,839.33,838.78,841.19,844.58,847.38,850.42,853.31,858.01,864.60,870.53,875.55,878.01,879.27,881.60,885.01,887.33,888.48,888.63,888.45,887.18,885.39,883.34,880.95,876.79,871.22,866.06,862.79,859.90,856.23,851.22,844.63,836.87,830.14,823.33,816.65,810.60,802.81,797.00,792.97,790.41,788.82,783.68,780.84,782.63,789.30,795.05,797.17,797.95,799.53,799.84,801.73,804.80,807.25,804.88,800.93,802.18,806.97,810.48,813.22,815.92,819.13,823.13,827.50,830.54,831.63,830.51,826.85,821.97,817.41,813.20,808.98,804.52,799.90,795.11,790.29,786.01,782.22,776.89,769.53,761.22,759.97,765.48,772.66,778.18,782.02,785.53,789.73,794.44,798.14,798.64,798.64,799.83,802.84,804.20,802.90,801.08,799.62,798.10,795.07,791.24,786.89,781.96,776.92,772.62,769.19,767.03,767.01,770.82,775.37,779.78,784.80,788.92,789.86,788.99,788.26,787.99,786.70,784.27,780.60,775.66,770.53,766.83,764.13,761.25,759.89,761.56,764.82,768.55,772.54,777.06,780.85,783.76,786.58,789.13,791.44,792.05,789.07,784.88,784.32,786.01,788.53,789.94,789.23,787.65
902.59,898.28,894.90,890.53,886.93,885.38,886.44,888.26,891.71,895.56,899.19,902.23,904.76,907.45,910.19,912.42,913.02,910.57,907.36,904.36,900.85,891.27,883.32,877.56,871.29,865.73,860.38,855.30,850.36,844.48,839.26,834.62,830.20,825.40,820.70,816.94,813.69,810.27,806.28,802.18,797.18,791.10,785.11,780.09,779.15,782.61,789.70,795.48,800.57,805.37,809.95,813.99,817.72,821.62,825.92,830.78,836.65,842.71,848.13,852.38,857.12,861.79,866.54,871.92,879.03,884.37,888.47,891.31,892.05,891.70,890.73,888.92,885.86,881.96,877.19,871.56,865.31,859.43,856.61,856.28,857.60,860.02,862.52,864.91,867.36,870.17,873.69,876.73,879.82,882.93,885.38,886.36,884.09,880.17,875.97,871.58,867.07,862.56,857.75,852.10,848.15,845.00,841.72,837.26,830.99,826.15,826.02,831.27,836.06,841.53,845.59,847.02,844.66,842.53,843.19,845.65,849.09,854.16,858.90,864.02,869.63,874.84,879.17,881.64,883.41,886.08,888.43,889.94,890.51,890.10,889.22,887.25,884.85,882.21,878.91,873.72,867.81,862.78,859.71,856.96,853.87,849.27,842.78,835.19,828.62,822.47,816.78,811.68,804.97,799.59,796.12,794.68,794.14,789.29,785.22,784.61,789.31,796.56,801.38,804.09,805.57,805.36,806.29,808.87,811.10,807.31,804.88,807.37,812.25,814.97,817.79,820.94,824.39,828.13,831.77,833.11,832.36,829.75,825.23,820.24,815.75,811.55,807.16,802.53,797.51,792.44,787.58,783.22,779.27,773.76,766.81,760.80,764.06,770.94,777.44,781.71,784.91,788.34,792.76,797.85,801.98,803.02,803.18,803.67,804.60,803.09,800.82,798.72,797.04,795.50,792.25,787.94,783.12,778.15,773.02,769.34,767.27,767.03,768.49,773.00,778.09,783.04,788.26,792.43,793.53,792.85,792.15,791.63,789.63,786.45,782.26,777.19,772.43,769.25,766.82,763.37,760.79,761.91,764.99,768.64,772.95,777.80,781.73,784.55,787.35,790.29,792.61,792.76,789.36,786.81,787.15,788.87,790.79,791.66,790.84,789.62
905.32,901.76,899.18,894.99,892.09,891.06,891.85,892.95,896.36,900.19,903.50,905.91,908.48,911.43,914.31,916.18,915.70,912.25,908.34,904.95,901.02,891.08,882.84,876.73,870.02,865.06,860.11,855.24,850.59,845.28,840.34,835.81,831.42,826.57,821.54,817.57,814.42,811.49,807.85,803.75,798.03,790.67,784.14,780.16,780.29,783.54,788.00,792.88,797.88,802.94,807.98,812.50,817.18,822.28,827.61,832.69,838.93,845.26,850.73,854.71,859.21,863.51,868.15,873.78,881.00,887.16,891.80,894.92,896.18,895.81,894.19,891.67,888.20,883.82,878.87,873.19,867.09,862.05,861.60,862.78,864.44,866.34,868.35,870.75,873.31,875.86,878.23,880.64,883.18,885.80,887.96,887.25,884.17,880.07,875.80,871.44,866.76,861.84,856.85,852.21,848.63,845.85,842.93,838.48,831.95,826.93,826.70,831.92,836.89,843.64,849.10,851.60,849.62,846.95,845.99,847.11,850.85,857.81,864.42,869.92,874.42,878.82,882.43,884.91,887.13,889.92,890.79,891.10,890.83,889.82,888.35,885.96,883.30,880.27,876.00,870.09,864.22,859.51,856.57,853.82,850.89,846.56,840.56,834.17,828.31,822.85,818.00,813.99,808.95,804.26,801.13,799.98,798.97,794.64,789.94,787.17,789.36,796.68,803.88,808.91,810.75,811.00,810.93,812.67,814.67,810.45,809.73,812.89,817.36,819.88,822.88,826.55,830.10,832.89,834.78,834.06,831.68,828.06,823.28,818.36,813.90,809.61,805.03,800.20,794.83,789.63,784.89,780.35,775.77,770.00,764.21,762.05,769.34,776.76,782.09,785.26,788.34,791.93,796.55,801.74,805.67,806.67,806.79,806.44,804.98,801.02,798.52,796.58,794.66,793.00,789.66,785.03,779.84,774.87,770.07,767.66,767.45,768.93,770.52,775.47,781.20,786.59,791.51,795.54,796.66,795.85,794.49,793.23,790.93,787.45,782.95,778.51,774.74,771.86,769.15,765.40,761.92,762.53,765.34,768.86,773.61,778.76,782.84,785.74,788.63,792.05,794.15,793.78,790.48,789.40,790.00,791.23,792.50,793.05,792.28,791.31
909.16,905.31,902.49,899.14,897.85,897.84,898.28,898.66,901.11,904.33,907.57,910.33,913.53,916.73,919.39,920.38,917.86,913.28,908.82,905.15,901.02,890.55,881.21,874.27,868.31,863.90,859.37,854.75,849.81,842.93,837.78,833.20,828.58,823.81,818.82,814.44,811.09,808.88,805.94,802.49,796.85,788.98,782.66,781.49,783.41,786.39,788.84,793.62,799.15,804.38,808.79,812.68,817.09,822.69,829.36,836.01,842.18,847.85,852.79,856.75,860.95,865.18,870.19,876.41,883.40,889.92,895.33,899.06,900.02,899.59,897.59,894.50,890.56,886.03,881.05,875.15,869.37,866.92,867.33,868.86,870.70,872.61,874.84,877.08,879.12,880.90,882.66,884.45,886.60,888.93,890.38,888.31,884.53,880.21,875.84,871.40,866.90,862.29,857.85,854.33,850.98,848.45,845.63,840.61,833.37,827.73,827.11,832.26,837.55,845.47,851.98,855.11,853.48,851.42,849.88,850.26,854.27,861.90,868.27,873.37,877.64,881.73,885.25,887.93,890.06,891.73,891.47,890.90,889.87,887.99,885.44,883.20,880.61,877.08,871.75,865.78,860.62,856.65,853.90,851.03,847.23,842.66,837.88,834.23,830.65,826.36,821.96,818.43,814.07,810.63,808.49,807.04,803.48,797.84,792.61,789.70,791.64,796.18,802.35,808.15,812.10,815.81,817.01,818.32,819.24,815.26,814.67,817.63,822.05,825.31,828.43,831.50,834.25,836.06,835.80,833.09,829.21,824.80,820.31,816.04,811.81,807.62,803.34,798.20,792.76,787.73,783.21,778.40,772.89,767.29,763.83,766.65,775.16,781.41,785.58,788.96,793.10,796.85,801.42,806.28,808.83,808.70,807.04,804.91,802.75,799.57,797.14,795.14,793.25,791.11,787.35,783.00,778.30,773.18,768.82,768.59,770.96,774.04,775.21,779.17,784.66,790.48,795.20,798.53,798.73,796.87,794.37,792.15,789.42,786.00,782.30,779.96,778.08,774.82,770.55,766.69,763.10,763.15,765.46,769.02,774.21,779.49,784.05,787.81,791.27,795.16,796.98,796.41,794.01,793.35,793.46,793.95,794.54,794.51,793.28,791.80
913.08,908.44,905.32,902.82,902.67,903.35,903.74,904.03,905.27,908.20,912.27,915.64,918.78,921.57,923.22,922.41,918.73,913.62,908.91,905.14,900.94,890.38,880.86,873.79,868.03,863.66,859.19,854.61,849.59,842.61,837.21,832.32,827.36,822.22,816.60,811.66,808.00,805.88,803.04,799.37,793.93,787.32,783.58,783.50,786.07,789.61,792.26,796.34,801.67,807.00,811.45,815.34,819.64,824.89,831.11,837.81,843.71,849.17,854.25,858.78,863.17,867.63,872.88,879.24,886.17,892.82,898.40,902.25,903.15,902.48,900.20,896.88,892.77,888.10,883.24,877.89,873.23,872.56,873.53,875.20,877.11,879.05,880.96,882.71,884.18,885.43,886.93,888.57,890.26,891.73,892.08,889.64,885.56,881.00,876.72,872.85,868.98,864.90,860.92,857.92,854.49,851.28,847.48,841.59,834.12,828.50,827.81,832.80,838.36,846.77,854.04,858.12,857.47,856.36,855.27,855.63,859.02,865.34,870.80,875.46,879.74,884.17,887.82,890.53,892.07,891.92,890.68,889.17,887.33,884.96,882.05,879.70,876.85,873.01,867.77,861.62,856.76,852.92,849.49,846.02,841.77,837.40,833.61,831.36,829.06,825.85,822.45,819.95,816.53,813.38,810.83,808.31,803.36,797.96,794.20,793.12,795.82,799.79,804.68,809.33,813.09,817.92,821.44,823.47,823.10,818.63,818.30,821.52,826.17,829.89,832.96,835.60,837.58,838.10,835.57,831.16,826.22,821.27,816.60,812.81,809.23,805.56,801.53,796.75,791.65,786.55,781.52,776.33,770.46,767.08,767.32,772.13,779.32,784.49,788.72,793.30,798.41,802.53,806.32,809.42,810.09,808.47,805.55,802.48,800.04,797.51,795.15,793.36,791.96,789.61,785.73,781.52,777.14,772.42,769.05,771.35,776.02,779.81,780.98,784.19,789.21,794.88,798.83,800.03,798.92,796.69,794.28,791.93,789.78,787.35,784.66,782.66,780.59,776.57,771.41,767.41,763.93,763.71,765.68,769.21,774.62,780.13,785.06,789.51,794.14,797.79,799.12,798.69,797.47,797.05,796.44,795.77,795.11,794.23,792.64,790.60
916.95,911.51,908.06,906.46,907.20,908.38,908.91,909.48,909.74,912.50,917.43,921.29,923.99,925.90,926.05,923.10,918.84,913.55,908.77,904.98,900.78,890.41,881.25,874.50,868.67,864.02,859.36,854.61,849.55,843.13,837.52,832.09,826.54,820.93,814.58,809.18,805.22,802.73,799.72,795.41,790.36,786.08,786.13,786.13,788.51,792.75,796.74,800.02,804.78,810.12,815.01,819.37,823.79,828.35,833.30,839.13,844.63,850.19,855.71,860.96,865.78,870.61,875.96,882.13,889.03,895.67,901.17,904.92,905.87,904.79,902.29,898.94,894.89,890.10,885.45,881.16,878.15,878.52,879.86,881.58,883.49,885.43,886.78,887.94,888.97,889.97,891.39,892.96,893.99,894.19,893.20,890.94,886.90,882.33,878.36,875.31,872.16,868.68,865.04,861.89,858.03,853.63,848.39,841.66,834.27,829.27,828.82,833.49,839.25,847.62,855.29,860.37,861.13,861.20,861.23,862.00,864.38,868.63,872.97,877.17,881.47,886.38,890.16,892.54,893.04,890.96,888.93,886.53,883.91,881.17,878.30,875.73,872.54,868.57,863.90,857.33,852.28,848.17,843.94,839.98,835.76,831.86,828.75,826.82,824.73,822.11,819.65,818.27,815.97,812.69,809.25,805.70,800.69,796.89,795.58,796.92,800.73,805.65,809.66,812.44,814.55,818.85,824.63,827.84,826.45,821.34,821.31,824.89,829.82,833.77,836.66,838.89,840.04,839.03,834.35,828.64,823.02,817.70,812.71,809.25,806.42,803.37,799.52,795.44,790.88,785.57,779.66,774.15,768.96,768.87,772.85,777.67,782.39,786.79,791.82,797.95,803.75,808.02,810.55,811.26,809.97,806.84,803.15,799.78,797.26,795.04,792.56,790.92,790.06,787.82,784.27,780.24,776.02,772.02,770.50,775.24,781.57,785.57,787.17,789.99,794.37,799.30,801.97,800.66,798.41,796.35,794.69,792.74,791.52,790.29,788.42,785.63,782.21,777.38,771.94,767.79,764.53,764.22,766.01,769.48,775.03,780.78,785.96,790.96,796.88,799.88,800.67,800.49,800.27,799.88,798.35,796.38,794.41,792.69,790.86,788.37
920.52,915.55,911.54,911.25,913.14,915.02,915.82,916.46,917.32,919.49,922.84,926.11,928.62,929.48,928.08,923.83,919.06,913.52,908.60,904.71,900.40,890.21,881.25,874.76,869.33,864.40,859.39,854.21,848.50,841.20,835.49,829.17,822.28,816.98,811.40,806.44,802.42,799.43,796.62,792.49,788.49,786.50,789.19,789.93,791.57,794.79,799.09,803.04,807.80,812.87,817.82,823.02,827.83,832.54,837.45,842.84,847.91,853.37,858.88,863.85,868.71,873.69,878.97,884.78,891.42,897.97,903.80,907.96,908.57,906.91,904.13,900.84,897.03,892.09,887.81,884.77,883.38,884.15,885.61,887.30,889.12,891.01,892.41,893.51,894.66,895.96,897.18,897.71,897.36,896.08,893.70,891.29,887.93,884.32,881.13,878.23,875.03,871.79,868.34,863.82,858.74,853.46,847.73,840.93,833.67,830.08,830.36,834.32,840.06,847.86,855.07,860.39,862.72,864.30,865.57,866.97,869.13,873.15,876.97,880.60,884.36,888.69,892.15,893.01,891.71,889.10,886.54,883.87,880.67,876.98,873.94,871.46,868.53,864.73,859.57,851.89,845.72,841.33,838.28,835.59,832.15,828.69,825.66,823.09,819.47,815.50,812.18,810.57,809.21,806.83,804.29,802.09,799.51,798.66,798.67,799.86,804.05,810.04,815.14,817.99,818.50,821.83,827.14,830.37,829.60,825.53,825.30,828.28,832.83,836.99,839.51,840.87,840.62,837.79,831.78,825.78,819.97,814.50,809.90,806.64,803.86,800.80,796.98,793.25,788.99,783.58,777.23,771.98,770.65,772.89,777.18,781.63,785.35,789.82,795.52,802.23,807.81,810.78,811.79,811.15,808.82,804.91,801.04,797.70,795.03,792.54,789.20,786.52,785.04,783.66,781.65,778.41,774.29,770.92,773.55,779.48,785.56,789.88,792.75,795.89,799.33,802.32,803.11,801.52,799.82,798.39,796.96,795.26,793.81,792.16,789.83,786.34,782.29,777.37,772.21,768.17,765.03,764.77,766.53,769.99,775.91,781.63,787.00,792.46,798.57,801.11,801.70,801.40,800.67,799.65,796.81,794.02,792.16,790.33,788.39,786.09
923.80,919.52,916.08,917.16,919.33,920.96,921.56,922.09,923.36,925.25,927.65,930.44,932.73,932.40,929.51,924.49,919.43,913.60,908.28,903.85,898.98,889.76,881.61,875.52,870.56,865.75,860.50,854.96,848.98,841.55,835.43,828.53,821.10,815.77,810.53,805.83,801.64,797.88,794.34,790.27,787.87,788.68,792.61,794.00,794.98,797.07,801.52,805.91,810.56,815.45,820.63,826.38,831.55,836.78,842.21,847.41,852.17,857.28,862.48,867.33,872.52,877.37,882.24,887.55,893.75,900.30,906.30,910.60,911.10,909.14,906.19,902.89,899.23,894.58,890.80,888.71,888.41,889.41,890.91,892.53,894.24,896.00,897.44,898.53,899.48,900.37,901.14,900.77,899.32,896.98,893.88,891.10,887.98,884.83,881.95,878.95,875.41,872.07,868.75,864.07,858.62,852.87,846.75,839.97,832.66,830.64,832.00,835.48,840.73,847.90,854.48,859.55,862.80,865.41,867.83,870.16,872.60,876.12,879.46,882.88,886.57,890.43,893.30,892.84,890.19,887.36,884.55,881.18,877.12,872.73,869.81,867.59,864.83,860.77,854.42,846.76,840.76,836.54,833.71,830.97,827.85,825.00,822.43,819.10,814.59,811.43,809.63,808.36,806.98,805.75,804.57,803.46,802.80,804.81,805.91,806.32,809.53,814.93,820.27,823.84,824.88,827.02,830.85,833.41,833.06,829.88,829.38,831.66,835.53,839.40,841.64,841.81,840.07,836.05,829.49,823.12,817.29,812.11,807.88,804.50,801.39,798.03,794.10,790.41,786.47,781.50,775.80,771.86,773.28,777.57,782.76,787.21,790.43,794.83,800.40,806.43,810.67,812.40,812.31,810.78,807.95,803.86,799.87,796.29,793.17,790.53,786.92,783.83,781.88,780.20,778.45,775.83,772.60,770.67,776.18,782.81,788.53,792.78,796.33,799.59,802.49,804.46,804.17,802.57,801.28,800.25,798.91,797.14,795.14,792.95,790.30,786.55,782.12,777.34,772.64,768.72,765.63,765.36,767.06,770.55,776.80,782.69,788.46,794.32,799.87,801.92,802.08,801.32,799.92,797.86,794.40,791.39,789.53,787.60,785.59,783.50
926.96,923.37,921.59,923.84,925.47,926.10,926.15,926.44,927.80,929.75,932.03,934.47,936.41,934.73,930.44,925.08,919.93,913.79,907.88,902.58,896.86,889.26,882.44,876.93,872.38,867.92,862.44,856.61,850.74,843.89,837.19,830.08,822.90,817.05,811.63,806.86,802.35,797.66,792.77,788.96,788.66,792.39,796.44,798.26,798.75,799.86,804.20,808.62,813.00,817.78,823.34,829.33,834.87,840.83,847.06,852.26,856.88,861.51,866.33,871.44,877.13,881.61,885.83,890.56,896.18,902.74,908.68,912.85,913.53,911.58,908.51,905.09,901.51,897.46,894.35,892.92,893.17,894.36,895.88,897.46,899.07,900.66,902.06,903.01,903.37,903.22,903.23,902.12,899.88,896.89,893.62,890.27,886.93,883.70,880.61,877.34,873.38,869.76,866.58,862.80,857.80,851.91,845.50,838.79,831.75,831.37,833.88,837.00,841.29,847.68,853.52,858.11,861.73,864.89,868.29,871.64,874.60,877.35,880.29,883.82,887.86,891.53,893.72,892.27,888.80,885.87,882.99,878.69,873.71,869.11,866.58,864.60,861.78,857.09,849.35,842.70,837.91,834.15,830.58,826.50,823.18,820.87,818.86,814.95,810.64,810.32,812.16,812.04,809.98,809.75,809.75,809.09,809.91,814.31,816.31,815.73,817.00,820.45,825.00,829.45,832.65,833.81,835.75,837.17,836.88,834.25,833.54,835.13,838.15,841.25,842.99,841.72,838.60,834.05,827.51,820.78,815.10,810.54,806.52,802.78,799.09,795.21,791.08,787.21,783.55,779.47,775.37,773.62,776.64,782.63,789.30,794.08,797.26,801.37,806.10,810.43,812.47,813.10,812.28,810.19,807.24,803.44,799.34,795.36,791.92,789.31,786.21,783.58,781.45,778.34,775.74,773.44,771.51,771.23,777.76,784.54,789.98,793.98,797.93,801.15,804.00,805.94,805.31,803.74,802.55,801.58,800.23,798.15,795.55,792.91,790.20,786.59,781.94,777.43,773.34,769.59,766.55,766.00,767.51,771.15,777.71,784.01,790.34,796.47,801.00,802.40,801.83,800.30,798.20,794.96,791.66,788.90,786.80,784.69,782.58,780.61
930.81,927.33,927.86,929.89,930.89,931.10,931.04,931.29,932.67,934.73,937.01,938.78,939.79,936.71,931.19,925.52,920.59,914.23,907.81,901.93,895.89,889.52,884.08,879.43,874.77,869.93,863.66,857.21,851.31,844.70,838.05,831.19,824.17,817.44,811.74,806.42,801.23,796.16,791.31,790.13,792.40,797.17,801.08,802.92,803.22,803.63,806.60,810.59,814.70,819.27,824.80,831.09,837.35,843.91,850.39,855.52,860.37,865.10,870.34,876.63,882.14,886.22,890.00,894.22,899.19,905.31,911.01,915.19,916.33,914.60,911.19,907.39,903.86,900.34,898.09,897.21,897.66,899.19,900.94,902.74,904.45,905.93,907.21,907.39,906.89,905.92,904.40,902.20,899.19,895.67,892.09,887.89,884.17,880.74,877.22,873.46,869.72,866.44,863.50,859.95,855.18,849.49,843.22,837.00,833.24,834.56,837.10,838.99,841.85,846.50,851.44,856.09,860.32,864.09,867.82,871.28,874.17,876.94,880.06,883.74,887.93,891.97,893.79,891.79,887.89,884.77,881.75,877.39,873.00,869.60,867.22,864.54,861.09,856.21,848.87,842.75,838.07,834.17,830.35,825.45,821.51,818.25,815.19,811.83,809.99,812.19,816.43,818.70,816.96,815.99,814.74,813.50,817.43,822.84,824.85,823.87,824.14,826.29,829.49,833.40,837.59,839.80,840.97,841.45,840.96,838.92,838.19,839.26,841.49,843.57,842.87,840.06,836.28,831.66,825.19,819.15,814.03,809.71,805.74,801.78,797.50,793.06,788.72,784.75,780.88,777.50,775.40,776.08,781.33,787.91,794.16,799.05,803.22,807.14,810.72,813.28,813.43,812.48,810.82,808.51,805.39,802.07,797.91,794.37,792.81,790.33,788.89,787.87,785.98,781.10,778.40,776.10,773.54,771.73,776.27,781.55,786.42,791.29,797.65,801.65,804.88,807.13,806.20,804.77,803.40,802.08,800.52,798.40,795.72,792.93,790.09,786.75,782.10,777.95,774.58,771.51,768.69,766.85,767.49,772.00,778.99,785.86,792.50,798.52,802.40,802.46,800.85,798.38,795.18,791.83,789.32,787.01,784.54,782.10,779.66,777.49
935.00,932.03,934.19,935.76,936.27,936.26,936.21,936.65,938.22,940.39,942.34,942.68,941.96,937.54,931.29,925.66,921.05,914.75,908.22,902.15,896.05,890.28,885.40,880.97,876.00,870.66,864.00,857.23,851.13,844.70,838.36,831.82,824.94,817.84,811.63,806.17,800.96,795.67,790.84,792.01,796.35,801.68,805.54,807.40,807.75,807.77,809.29,812.29,815.84,820.14,825.63,832.10,838.93,845.86,852.42,857.67,862.94,868.12,873.85,880.70,886.24,890.21,893.80,897.70,902.28,907.90,913.46,917.81,919.11,917.63,914.07,909.95,906.31,903.35,901.98,901.68,902.36,904.19,906.21,908.12,909.78,911.02,911.69,910.95,909.54,907.73,905.11,901.96,898.01,893.66,889.71,885.09,880.91,877.07,873.25,869.21,865.72,862.80,860.07,856.49,851.91,846.68,841.00,835.83,836.08,838.93,841.33,842.24,843.48,846.51,850.69,855.41,860.07,864.80,868.81,872.03,874.57,877.22,880.67,884.51,888.62,892.76,894.09,891.75,887.68,884.34,881.06,877.32,873.96,871.46,869.12,866.01,862.34,857.67,850.92,845.22,840.37,836.28,832.75,828.07,823.88,819.80,815.72,812.26,811.90,815.48,821.03,825.03,824.04,821.89,819.10,817.34,822.70,828.38,830.95,830.85,831.00,832.24,834.35,837.59,842.01,844.93,845.72,845.66,845.04,843.50,842.89,843.18,843.91,844.09,841.55,837.75,833.53,828.86,823.00,817.72,813.01,808.73,804.75,800.64,796.11,791.38,786.79,782.60,778.97,776.82,777.12,780.75,786.62,792.60,798.20,803.50,808.15,811.79,813.96,814.17,812.75,810.63,808.32,805.84,802.91,800.65,798.24,796.46,795.99,794.00,793.59,792.84,790.12,784.66,781.88,779.41,776.22,772.86,775.34,779.45,783.99,789.39,797.33,802.63,806.23,808.12,806.96,805.46,803.81,802.16,800.50,798.52,795.90,793.26,790.84,788.13,783.19,778.88,775.73,773.14,770.49,767.67,767.71,773.00,780.49,787.81,794.61,800.28,803.19,801.98,799.36,796.12,792.37,789.46,787.49,785.51,783.02,780.21,777.01,774.37
939.55,937.62,940.41,941.50,941.70,941.63,941.69,942.51,944.44,946.54,947.62,945.74,942.61,937.01,930.63,925.47,921.19,915.27,909.09,903.27,897.27,891.41,886.07,880.98,875.54,869.77,863.35,856.75,850.30,844.02,838.22,832.07,825.43,818.68,811.82,806.71,802.19,796.78,791.71,794.15,799.73,805.50,809.47,811.46,812.12,812.18,812.55,814.03,816.66,820.53,825.94,832.37,839.47,846.52,853.08,858.73,864.58,870.45,876.56,883.02,888.97,893.23,896.90,900.78,905.32,910.50,916.08,920.72,921.77,920.54,917.14,912.91,909.02,906.66,906.10,906.46,907.51,909.54,911.72,913.53,914.90,915.66,915.20,913.47,911.14,908.48,905.40,901.61,896.62,891.16,886.81,882.32,877.65,873.21,869.25,865.19,861.86,859.16,856.56,852.82,848.40,843.77,839.15,835.95,840.18,844.16,846.42,846.87,846.48,848.32,851.97,856.60,861.39,867.25,871.58,874.53,876.65,878.85,882.64,886.62,890.32,894.06,894.76,892.34,888.45,884.95,881.41,878.79,876.51,874.18,871.75,868.72,865.42,861.30,855.05,849.75,844.73,840.59,837.84,834.37,830.41,826.02,821.26,816.67,816.12,819.81,825.60,830.18,830.30,827.02,822.97,820.93,825.24,830.63,834.48,836.46,837.38,838.13,839.69,842.45,846.37,849.09,849.66,849.43,848.79,847.53,846.99,846.17,844.65,842.11,838.85,834.85,830.42,825.74,821.04,816.27,811.66,807.33,803.30,799.06,794.63,790.00,785.17,780.70,778.24,778.13,781.11,787.75,792.18,796.54,801.70,807.68,811.98,814.99,815.50,812.88,810.43,807.89,805.33,802.85,800.67,800.07,801.17,802.23,801.48,800.27,799.65,797.35,792.70,788.08,785.06,782.26,778.75,774.62,775.88,779.60,784.08,789.34,797.41,804.37,808.24,808.88,807.58,805.74,803.78,801.94,800.34,798.61,796.10,793.90,792.43,790.67,785.20,780.15,776.60,774.10,771.54,768.40,768.33,774.18,782.18,789.77,796.54,801.69,803.08,800.86,797.44,793.75,790.26,788.15,786.22,784.33,782.23,779.00,774.63,771.37
945.06,943.44,946.06,946.69,946.75,946.88,947.32,948.17,949.52,950.34,949.68,946.30,942.16,935.97,929.59,925.14,921.05,915.45,909.55,903.88,898.02,891.77,885.72,879.82,873.83,868.14,862.25,856.00,849.42,843.25,838.27,833.23,827.64,821.58,815.18,809.62,804.39,798.89,794.02,795.75,801.27,808.00,812.08,814.45,815.80,816.60,817.28,818.13,819.55,822.01,826.14,832.00,839.08,846.24,852.96,859.02,865.39,871.58,877.67,883.88,890.05,894.87,899.16,903.47,908.03,913.51,918.93,923.13,924.23,923.19,920.45,916.84,913.21,911.31,911.28,912.27,913.88,915.83,917.53,918.81,919.61,919.58,917.93,915.32,912.36,909.18,905.55,901.44,896.31,890.76,886.20,881.82,876.89,872.05,867.78,863.08,859.87,857.35,854.80,851.22,846.62,841.35,837.99,840.09,845.30,848.89,850.59,850.66,850.02,851.42,854.77,859.15,863.23,868.03,872.72,876.93,880.18,881.93,885.72,889.34,892.06,894.76,895.76,894.08,891.05,888.50,885.85,883.21,880.34,877.22,874.41,871.30,867.88,863.87,858.72,854.11,849.88,846.33,843.55,839.75,835.56,830.96,825.63,819.58,819.17,823.36,829.33,833.71,835.56,833.20,829.24,826.51,828.93,834.16,838.02,840.02,841.80,842.86,844.92,847.76,850.61,852.52,852.11,851.00,849.75,847.82,845.92,843.96,841.54,838.05,834.17,830.66,827.26,823.59,819.38,813.99,809.12,805.06,800.97,796.30,791.83,787.34,782.74,779.44,780.28,783.42,787.80,792.42,796.13,800.74,806.23,811.49,815.36,816.21,814.64,811.60,809.83,808.43,807.08,805.98,805.83,805.91,806.69,807.25,806.43,804.69,802.04,798.63,794.53,790.23,786.60,782.77,778.58,775.15,777.50,781.11,784.95,789.76,797.94,805.62,809.48,809.44,808.02,806.07,803.99,801.97,800.14,798.46,796.01,793.67,791.99,790.62,785.60,780.61,776.86,774.38,771.80,768.87,769.22,775.59,783.79,791.48,798.38,803.06,802.07,799.17,795.86,792.63,789.70,787.48,785.03,782.81,780.58,776.66,772.27,769.19
951.16,950.03,951.71,951.77,951.71,951.98,952.67,953.32,953.55,952.68,950.24,945.67,940.83,934.54,928.50,924.56,920.46,915.15,909.52,903.93,898.01,891.52,885.17,878.92,872.56,867.06,861.69,855.96,849.78,843.94,839.40,834.91,829.90,824.21,818.26,812.36,806.53,800.91,796.25,797.06,802.13,809.44,813.89,816.93,819.15,820.87,822.27,823.23,824.27,825.86,828.54,832.97,839.00,845.65,852.41,858.90,865.81,872.14,878.10,884.20,890.54,895.91,900.86,905.73,910.47,916.18,921.61,925.65,926.74,925.80,923.62,920.74,917.76,916.39,916.67,917.95,919.76,921.50,922.82,923.73,924.03,923.12,920.35,917.00,913.54,909.97,905.93,901.65,896.55,891.01,886.14,881.66,876.93,872.46,868.51,863.72,860.28,857.51,854.75,850.93,845.10,839.99,838.74,844.33,849.39,852.55,854.08,854.24,853.92,854.74,857.46,861.32,864.60,868.18,872.93,878.06,882.48,885.09,888.76,891.84,893.84,895.78,897.03,896.17,894.16,892.51,890.61,888.05,884.69,880.66,877.04,873.70,870.15,866.22,861.85,857.83,854.33,851.27,848.43,844.70,840.45,835.70,830.01,822.98,821.90,825.96,832.12,836.90,839.88,838.94,835.85,832.74,833.43,837.94,841.64,843.85,846.29,847.76,850.09,852.56,853.98,854.32,852.87,850.79,848.50,845.83,842.83,840.00,837.00,833.13,829.16,826.28,823.83,821.08,817.35,811.75,806.61,802.52,798.78,794.14,789.75,785.41,781.36,780.87,784.35,789.19,793.76,796.53,800.35,805.59,811.16,815.18,817.53,816.50,814.03,811.84,811.04,810.67,810.30,810.18,811.06,811.33,811.33,811.09,810.24,808.08,804.20,800.06,796.05,791.30,786.99,782.30,777.89,776.09,779.62,783.19,786.53,791.06,799.24,806.73,810.26,809.90,808.39,806.41,804.28,802.13,800.06,798.16,795.44,792.72,790.60,789.14,785.00,780.54,776.83,774.30,771.67,769.25,770.41,777.39,785.30,792.93,800.00,804.32,800.98,797.82,795.11,792.70,790.38,787.80,784.27,781.07,778.28,773.92,770.14,767.53
