1543.61,1535.33,1525.08,1517.26,1511.66,1506.32,1498.69,1484.86,1471.79,1463.91,1462.48,1467.28,1472.95,1475.07,1475.02,1474.81,1473.20,1469.35,1464.24,1458.55,1453.16,1447.16,1441.30,1436.08,1431.84,1426.63,1420.91,1415.18,1409.59,1403.75,1398.19,1392.63,1386.88,1380.88,1375.17,1369.74,1364.45,1359.24,1354.35,1349.79,1344.94,1339.88,1335.98,1332.18,1327.91,1323.26,1318.43,1312.63,1307.70,1303.08,1298.33,1294.24,1291.59,1290.27,1289.39,1286.95,1283.91,1281.28,1279.26,1277.85,1276.78,1275.37,1273.58,1271.55,1269.68,1267.62,1266.61,1266.18,1264.46,1259.84,1255.53,1252.68,1251.11,1247.64,1242.02,1237.40,1235.03,1234.68,1234.78,1235.01,1235.10,1234.45,1231.82,1227.94,1223.30,1218.84,1217.34,1217.62,1218.34,1218.90,1218.99,1218.56,1218.22,1217.93,1217.27,1215.21,1212.30,1209.53,1207.32,1205.75,1204.84,1204.13,1203.35,1202.20,1199.98,1197.33,1194.43,1191.01,1186.22,1180.30,1174.27,1168.56,1163.24,1156.93,1150.94,1145.67,1141.23,1136.91,1133.90,1130.99,1127.76,1124.80,1123.46,1121.58,1118.59,1114.71,1112.09,1110.07,1108.44,1107.20,1105.95,1102.18,1097.06,1092.08,1089.46,1088.22,1087.60,1086.82,1085.35,1083.57,1081.25,1078.62,1076.42,1076.50,1078.15,1078.84,1077.45,1073.15,1068.13,1063.09,1058.17,1053.66,1050.33,1047.99,1046.05,1043.60,1038.86,1032.30,1028.26,1026.67,1026.86,1028.03,1028.63,1028.80,1028.68,1028.22,1027.58,1027.10,1027.02,1027.65,1028.84,1029.94,1030.65,1030.56,1029.04,1026.81,1025.91,1026.80,1028.63,1028.11,1028.13,1028.54,1028.17,1025.86,1024.07,1022.75,1021.53,1019.75,1018.25,1016.80,1015.38,1014.15,1013.11,1012.50,1011.87,1010.82,1009.17,1007.25,1005.35,1003.47,1001.41,999.32,997.58,996.38,995.83,995.51,995.25,995.27,995.53,995.46,995.48,994.86,993.58,991.90,989.81,987.14,984.20,981.16,977.84,974.29,971.07,968.18,965.30,962.57,960.23,958.63,958.80,962.62,967.93,972.37,974.86,975.64,973.92,971.30,968.04,963.88,961.66,963.23,964.86,963.65,961.18,957.74,954.21,951.21,949.85,952.29,958.06,965.30,972.19,977.95,982.69,987.15,991.77,996.65,999.65,1001.14
1542.60,1534.43,1522.18,1513.41,1507.77,1502.32,1494.61,1483.44,1476.07,1475.48,1480.14,1484.33,1484.41,1482.73,1480.59,1478.20,1474.07,1469.65,1464.71,1459.14,1453.63,1447.48,1441.43,1436.08,1431.88,1426.88,1421.24,1415.54,1409.97,1403.81,1398.35,1393.12,1387.59,1381.11,1375.16,1369.80,1364.71,1359.44,1353.38,1348.62,1344.38,1340.17,1336.06,1332.04,1327.08,1321.39,1315.86,1310.49,1305.70,1300.89,1295.69,1290.77,1288.10,1286.64,1285.43,1283.18,1280.08,1277.22,1274.92,1273.30,1272.27,1270.95,1269.02,1266.57,1264.53,1262.01,1260.21,1259.14,1257.86,1254.26,1250.32,1247.08,1244.77,1241.58,1236.55,1231.61,1228.01,1226.86,1226.65,1226.91,1227.24,1227.07,1225.59,1222.92,1218.19,1211.93,1208.57,1208.57,1209.94,1211.34,1211.55,1211.60,1211.77,1211.99,1211.82,1209.98,1206.94,1204.23,1202.27,1200.60,1199.72,1199.03,1198.28,1197.32,1195.78,1193.75,1191.73,1189.62,1186.19,1181.07,1175.43,1170.01,1165.36,1160.65,1154.76,1148.93,1144.43,1140.56,1137.99,1135.23,1131.88,1128.92,1128.07,1126.81,1124.21,1120.13,1117.00,1115.56,1114.50,1113.11,1111.57,1107.62,1103.02,1098.77,1095.57,1093.24,1092.29,1091.92,1091.13,1089.12,1085.98,1082.79,1080.67,1081.32,1082.94,1082.42,1079.40,1074.33,1069.77,1065.32,1060.82,1056.56,1053.67,1051.55,1049.50,1046.64,1041.42,1035.37,1032.84,1033.01,1034.28,1035.05,1034.79,1034.16,1033.51,1032.86,1032.25,1032.19,1032.78,1034.02,1035.25,1035.97,1036.29,1036.16,1035.06,1032.18,1030.29,1030.54,1032.78,1032.14,1031.72,1031.57,1030.77,1028.81,1026.36,1023.70,1021.05,1018.89,1017.13,1015.62,1014.22,1012.89,1011.81,1011.20,1010.60,1009.43,1006.98,1004.90,1002.98,1001.06,999.07,997.12,995.26,993.76,992.90,992.21,991.56,991.24,991.35,991.59,991.89,991.82,991.36,990.49,988.54,985.93,983.07,980.02,976.35,972.66,969.46,966.68,963.75,961.06,959.45,959.64,962.77,968.50,973.13,976.55,978.41,977.53,975.37,972.83,969.93,966.40,964.43,965.61,966.43,964.51,962.99,960.36,957.27,954.25,952.07,952.77,956.60,962.61,969.76,975.75,980.74,985.32,990.07,995.91,1000.07,1003.18
1541.30,1533.11,1521.57,1511.49,1504.84,1499.82,1494.92,1489.50,1491.22,1495.19,1497.95,1496.21,1492.67,1488.46,1484.39,1480.64,1475.53,1470.28,1464.99,1459.60,1453.98,1447.63,1441.49,1436.17,1432.08,1427.22,1421.59,1415.90,1410.42,1404.27,1398.78,1393.34,1387.61,1381.53,1375.70,1370.33,1365.29,1360.20,1354.31,1349.15,1344.41,1339.89,1335.66,1331.43,1326.28,1320.34,1314.28,1308.78,1303.92,1299.44,1295.22,1291.28,1287.38,1284.35,1282.03,1279.34,1276.84,1274.20,1271.46,1268.88,1266.90,1265.12,1263.17,1261.00,1259.07,1257.23,1255.77,1254.55,1253.03,1250.20,1246.83,1243.38,1240.06,1236.92,1232.53,1227.76,1223.55,1221.11,1219.46,1218.71,1218.23,1217.32,1216.35,1214.63,1210.79,1204.90,1200.81,1200.32,1201.19,1202.39,1203.42,1203.65,1203.47,1203.38,1203.47,1202.75,1200.70,1198.41,1196.35,1194.69,1193.96,1193.44,1192.80,1191.82,1190.30,1188.51,1186.87,1185.41,1183.37,1180.40,1176.31,1171.65,1167.58,1163.63,1159.01,1153.97,1149.05,1145.32,1142.76,1140.19,1137.24,1134.42,1133.10,1131.72,1129.46,1125.86,1122.74,1121.45,1120.45,1118.70,1116.29,1112.52,1108.25,1104.07,1100.61,1098.00,1097.33,1097.52,1097.07,1094.35,1089.98,1087.11,1086.70,1087.26,1086.70,1083.90,1079.81,1075.98,1072.44,1068.30,1063.93,1059.93,1057.12,1054.47,1051.37,1047.59,1043.02,1038.91,1038.05,1039.04,1040.09,1040.48,1039.88,1038.93,1038.04,1037.47,1037.14,1037.40,1038.18,1039.31,1040.41,1040.99,1041.05,1040.58,1039.59,1037.72,1036.35,1035.92,1036.17,1035.13,1034.19,1033.21,1031.67,1029.60,1026.94,1024.26,1021.83,1019.71,1017.76,1015.66,1013.43,1011.25,1009.63,1008.65,1007.79,1006.44,1003.93,1001.81,999.99,998.31,996.61,994.97,993.12,991.35,990.04,988.78,987.62,987.10,987.35,987.73,988.09,988.15,987.97,987.52,985.95,983.82,981.12,977.81,974.54,971.10,967.98,965.28,962.83,961.13,961.18,963.12,967.18,972.33,976.45,979.37,980.57,978.89,976.47,973.97,971.45,968.88,967.00,967.61,967.89,966.31,966.80,964.28,960.59,957.04,954.70,953.81,955.92,960.56,966.90,972.87,978.12,982.93,987.63,992.92,997.68,1002.25
1539.94,1531.86,1521.73,1511.94,1505.41,1501.65,1500.58,1502.30,1508.65,1512.62,1511.46,1505.04,1499.25,1492.95,1487.02,1482.42,1476.86,1470.84,1465.09,1459.75,1454.11,1447.74,1441.69,1436.51,1432.44,1427.55,1421.89,1416.21,1410.81,1404.88,1399.41,1393.83,1388.02,1382.34,1376.56,1371.10,1366.05,1361.30,1355.88,1350.37,1345.06,1340.13,1335.66,1331.10,1325.82,1319.90,1313.76,1308.08,1303.05,1298.61,1294.74,1291.04,1286.03,1281.47,1277.80,1274.33,1271.82,1269.56,1267.09,1264.17,1261.28,1258.88,1256.89,1255.21,1253.57,1252.50,1251.52,1250.38,1248.78,1246.65,1243.73,1239.98,1235.66,1232.27,1228.30,1223.90,1219.50,1215.92,1212.99,1211.22,1209.83,1207.96,1206.92,1205.88,1203.09,1198.15,1193.73,1192.53,1192.64,1193.46,1195.18,1195.41,1195.11,1194.87,1194.94,1194.98,1193.87,1192.03,1189.89,1188.22,1187.62,1187.35,1186.96,1186.05,1184.34,1182.45,1180.76,1179.52,1178.81,1178.12,1176.24,1173.22,1169.76,1166.47,1163.01,1158.86,1153.89,1150.06,1147.35,1144.88,1142.33,1139.78,1137.93,1136.40,1134.57,1131.71,1128.59,1127.23,1126.12,1124.10,1121.08,1117.38,1113.39,1109.34,1105.56,1102.75,1102.17,1102.43,1101.72,1098.65,1094.16,1092.09,1092.97,1093.01,1090.35,1085.82,1081.22,1078.44,1075.55,1071.58,1067.33,1063.54,1060.65,1057.06,1052.79,1048.36,1044.79,1042.75,1043.20,1044.56,1045.22,1045.35,1044.77,1043.86,1042.92,1042.35,1042.14,1042.43,1043.09,1043.97,1044.96,1045.44,1045.19,1044.13,1042.84,1041.68,1040.52,1039.19,1037.48,1036.10,1034.87,1033.55,1031.91,1029.88,1027.38,1025.01,1022.99,1021.06,1019.11,1016.75,1014.03,1011.27,1009.08,1007.48,1006.01,1004.26,1001.80,999.74,998.18,996.90,995.45,994.15,992.43,990.63,989.14,987.66,986.16,985.11,984.61,984.15,984.27,984.32,984.23,984.03,982.80,981.03,978.46,975.05,972.31,969.46,967.00,965.06,963.54,962.91,964.17,967.04,971.11,975.29,978.99,981.31,981.63,980.05,977.54,975.05,972.87,971.03,969.32,969.68,969.68,968.25,970.17,968.17,964.53,960.80,957.97,955.73,956.02,958.82,963.84,969.66,975.16,980.24,984.94,989.45,994.27,999.48
1538.60,1531.01,1522.31,1516.36,1512.84,1511.87,1515.15,1524.94,1524.83,1520.81,1515.85,1510.22,1504.01,1495.87,1488.17,1483.32,1477.54,1471.07,1464.90,1459.34,1453.79,1447.85,1442.28,1437.34,1433.02,1427.83,1422.08,1416.38,1411.04,1405.60,1400.30,1395.02,1389.60,1383.83,1377.83,1372.13,1367.06,1362.79,1357.79,1352.12,1346.68,1341.76,1336.78,1331.64,1326.07,1320.33,1314.92,1309.28,1303.94,1298.66,1293.07,1287.14,1281.92,1276.77,1271.63,1267.09,1262.88,1261.03,1260.33,1258.75,1255.58,1252.53,1250.40,1249.27,1248.15,1247.38,1246.63,1245.77,1244.74,1243.32,1240.46,1236.20,1231.01,1226.89,1222.92,1219.00,1215.03,1210.79,1207.52,1205.31,1203.30,1200.68,1198.79,1197.96,1196.04,1192.05,1187.56,1185.34,1184.72,1185.33,1186.96,1187.08,1187.58,1187.96,1187.56,1187.14,1186.24,1184.74,1182.75,1180.92,1180.36,1180.49,1180.63,1180.06,1178.06,1175.60,1173.25,1171.69,1172.16,1173.22,1174.36,1174.49,1171.78,1169.37,1166.23,1162.48,1158.35,1154.18,1151.16,1148.60,1146.20,1144.08,1142.14,1140.76,1139.51,1137.54,1134.17,1132.45,1131.16,1129.19,1126.43,1122.42,1118.72,1115.25,1110.92,1107.63,1106.39,1105.58,1103.63,1101.19,1099.08,1098.36,1098.70,1097.66,1094.25,1089.80,1085.49,1082.32,1079.04,1075.11,1071.09,1067.46,1064.32,1059.27,1054.15,1049.95,1047.47,1046.95,1047.90,1049.18,1049.84,1049.92,1049.82,1049.44,1048.73,1047.79,1047.21,1047.00,1047.17,1047.86,1048.80,1049.17,1048.45,1046.43,1044.15,1042.14,1039.79,1037.13,1034.83,1033.34,1032.36,1031.86,1031.64,1030.24,1028.36,1026.32,1024.28,1022.59,1021.01,1019.29,1017.33,1014.95,1012.40,1009.87,1007.29,1004.64,1002.11,1000.30,999.26,998.56,997.15,996.13,994.76,993.34,992.32,991.44,990.03,987.70,984.45,981.23,980.63,980.55,980.40,980.30,979.21,977.34,974.82,971.85,969.50,967.74,967.06,967.26,967.34,967.49,968.48,970.53,973.81,977.55,980.84,982.07,981.17,981.08,978.70,976.26,974.30,972.52,971.23,972.16,972.22,970.06,971.58,971.32,969.64,966.74,962.40,959.21,957.40,957.50,960.63,966.16,971.83,977.20,982.08,986.13,990.23,994.52
1537.81,1531.91,1526.26,1522.93,1524.33,1528.05,1532.20,1535.36,1531.16,1525.05,1519.19,1513.42,1506.97,1498.34,1489.77,1483.67,1477.71,1471.33,1465.04,1459.15,1453.65,1448.14,1442.88,1437.91,1433.12,1427.84,1422.15,1416.51,1411.21,1406.24,1401.36,1396.24,1390.83,1385.26,1379.65,1373.77,1368.34,1364.09,1359.36,1353.69,1348.16,1343.20,1338.18,1333.00,1327.20,1321.15,1315.67,1310.29,1304.92,1299.33,1293.30,1286.95,1281.43,1276.20,1271.07,1266.14,1261.10,1257.22,1254.31,1251.82,1249.19,1246.70,1244.89,1243.81,1242.65,1241.95,1241.30,1240.58,1239.75,1238.74,1236.30,1232.19,1226.69,1222.37,1219.09,1216.17,1212.63,1206.93,1202.57,1199.27,1196.62,1194.53,1193.19,1192.28,1190.39,1186.87,1182.72,1179.35,1177.20,1176.47,1177.47,1178.29,1178.84,1179.27,1179.69,1179.78,1178.49,1176.69,1174.82,1173.13,1172.78,1173.94,1175.30,1175.00,1172.99,1170.26,1167.98,1166.79,1166.74,1168.36,1170.89,1172.87,1171.87,1170.65,1168.19,1164.92,1161.28,1157.39,1154.55,1152.13,1149.87,1147.80,1145.63,1143.67,1141.87,1139.84,1136.57,1134.13,1132.13,1130.11,1127.85,1124.83,1122.18,1119.58,1115.64,1111.79,1109.30,1107.45,1105.48,1103.70,1102.52,1101.98,1101.66,1100.15,1097.53,1093.57,1089.13,1085.43,1082.33,1079.27,1075.97,1072.15,1067.50,1061.50,1056.49,1053.29,1052.15,1053.05,1054.17,1054.98,1055.38,1055.50,1055.51,1055.39,1054.89,1053.57,1052.02,1051.16,1050.84,1050.56,1050.81,1050.47,1049.04,1046.35,1043.42,1040.23,1036.63,1033.07,1030.66,1029.00,1028.28,1028.37,1029.02,1029.01,1028.36,1027.22,1025.70,1024.14,1022.68,1021.21,1019.63,1017.79,1015.22,1012.57,1009.84,1007.02,1004.60,1003.35,1002.78,1002.29,1001.04,1000.12,998.83,997.38,996.10,994.85,993.06,990.47,986.74,981.86,979.84,978.92,978.28,977.66,976.88,975.93,974.57,972.72,970.97,970.13,970.33,971.26,972.04,972.37,972.95,974.31,976.95,980.32,981.35,980.78,979.95,981.28,979.65,977.48,975.61,973.98,973.07,974.18,975.03,974.27,974.63,974.95,974.57,972.91,969.31,965.54,962.14,959.86,959.91,962.85,968.05,973.58,978.47,982.59,986.58,990.86
1538.98,1535.06,1532.96,1532.17,1537.11,1543.42,1546.13,1540.46,1533.73,1527.47,1521.66,1515.61,1509.05,1500.53,1491.52,1483.95,1477.81,1471.69,1465.38,1459.10,1453.55,1448.40,1443.38,1438.38,1433.26,1427.97,1422.32,1416.75,1411.65,1407.01,1402.52,1397.55,1392.10,1386.72,1381.52,1375.57,1369.78,1365.26,1360.65,1355.07,1349.52,1344.47,1339.48,1334.41,1328.46,1322.04,1316.27,1311.16,1305.78,1300.03,1293.97,1287.84,1282.15,1277.01,1272.20,1267.14,1261.67,1255.80,1250.34,1246.39,1243.67,1240.93,1238.90,1237.81,1236.48,1235.80,1235.26,1234.61,1233.74,1232.78,1230.80,1227.28,1222.19,1218.07,1215.49,1213.68,1210.86,1203.69,1198.15,1193.84,1190.73,1189.29,1188.45,1187.12,1184.93,1181.88,1178.54,1174.66,1170.99,1168.34,1168.03,1169.11,1169.81,1170.69,1172.31,1173.05,1171.27,1168.98,1166.99,1165.26,1164.93,1166.64,1168.69,1168.69,1167.23,1165.01,1163.37,1162.67,1161.56,1163.23,1166.42,1169.47,1170.15,1170.04,1168.39,1165.73,1162.47,1158.92,1156.27,1153.95,1151.70,1149.48,1147.05,1144.48,1141.92,1139.45,1136.34,1133.47,1130.93,1128.69,1126.66,1124.81,1123.28,1121.52,1118.19,1113.94,1110.41,1107.92,1106.53,1105.32,1104.41,1103.66,1102.79,1101.29,1099.85,1096.71,1092.39,1088.37,1085.66,1083.48,1080.82,1076.83,1070.91,1064.42,1059.93,1057.96,1058.13,1059.94,1060.82,1060.89,1060.85,1060.84,1060.66,1060.40,1059.86,1058.20,1055.78,1054.30,1053.45,1052.27,1051.79,1050.69,1048.63,1045.57,1042.31,1038.20,1033.63,1029.30,1026.47,1024.42,1023.79,1024.27,1025.56,1026.95,1027.46,1027.29,1026.53,1025.29,1024.08,1022.79,1021.45,1020.06,1017.76,1015.26,1012.62,1009.90,1007.79,1007.10,1006.89,1006.52,1005.44,1004.48,1003.04,1001.32,999.64,997.88,995.59,992.94,989.48,984.08,980.88,979.08,977.93,976.97,976.46,976.46,976.32,975.56,974.44,974.20,974.74,975.77,976.76,977.10,977.35,978.12,979.98,982.20,980.76,978.88,978.82,981.32,980.52,978.69,976.88,975.53,974.94,975.99,977.56,978.53,978.13,978.64,979.02,978.51,976.37,972.74,968.46,964.40,961.71,961.70,965.41,970.15,974.57,978.82,983.09,987.75
1545.62,1543.44,1544.93,1547.56,1549.91,1550.65,1548.14,1540.95,1534.18,1528.14,1522.48,1516.58,1510.16,1502.27,1493.35,1484.50,1478.26,1472.37,1465.97,1459.21,1453.47,1448.40,1443.57,1438.79,1433.93,1428.72,1422.85,1417.40,1412.98,1408.28,1403.84,1399.09,1393.85,1388.26,1383.06,1377.28,1371.42,1366.28,1361.37,1356.02,1350.60,1345.36,1340.23,1335.17,1329.27,1322.80,1316.78,1311.76,1306.19,1300.21,1294.18,1288.40,1283.12,1278.10,1273.17,1268.11,1262.64,1257.19,1251.96,1246.98,1241.49,1234.83,1230.52,1229.63,1228.33,1227.76,1227.40,1226.82,1225.54,1223.80,1222.02,1219.81,1216.81,1213.60,1211.05,1210.26,1209.01,1201.16,1194.87,1190.37,1187.39,1185.76,1183.95,1181.34,1178.71,1176.62,1175.05,1172.77,1168.43,1163.15,1159.98,1159.18,1161.09,1164.17,1166.92,1167.78,1165.76,1162.98,1160.24,1157.60,1156.56,1156.70,1157.27,1157.65,1158.19,1158.49,1158.63,1158.17,1155.93,1157.29,1160.35,1163.44,1164.81,1165.23,1164.44,1162.64,1159.82,1156.14,1153.33,1150.75,1148.08,1145.39,1142.88,1140.23,1137.37,1134.21,1131.09,1129.06,1126.97,1124.14,1121.23,1119.84,1118.94,1117.64,1114.74,1110.68,1107.25,1105.33,1105.14,1104.24,1103.05,1101.92,1101.02,1100.41,1099.84,1098.10,1095.16,1091.51,1089.32,1087.20,1084.50,1080.72,1075.50,1069.52,1065.81,1064.98,1066.20,1067.41,1067.15,1066.10,1065.20,1064.56,1063.48,1062.21,1060.80,1058.97,1056.60,1054.66,1053.24,1052.12,1051.42,1049.93,1047.69,1044.90,1041.97,1038.05,1033.41,1028.41,1023.67,1020.67,1019.57,1020.01,1021.80,1023.92,1024.81,1025.18,1025.36,1025.19,1024.89,1023.98,1022.68,1021.42,1019.93,1017.63,1014.91,1012.38,1011.04,1010.66,1010.53,1010.21,1009.33,1008.12,1006.05,1003.73,1001.88,1000.09,997.36,994.33,991.24,987.78,984.84,982.70,981.44,981.16,980.63,980.72,980.89,980.59,979.94,979.48,979.51,980.05,980.73,981.14,981.35,981.72,982.25,980.86,978.15,977.02,978.71,981.67,981.39,979.79,978.15,977.39,976.98,977.59,978.95,980.61,981.44,981.99,982.23,982.10,981.48,979.84,976.37,972.15,968.79,967.04,966.78,967.86,970.47,974.61,979.69,985.11
1558.73,1555.87,1555.65,1555.68,1554.90,1552.89,1548.74,1540.98,1534.24,1528.19,1522.40,1516.52,1510.17,1502.74,1494.17,1484.97,1478.42,1472.50,1466.33,1459.79,1453.55,1448.49,1443.94,1439.45,1434.67,1429.43,1423.23,1417.46,1412.97,1408.25,1403.94,1399.35,1394.23,1388.74,1383.63,1378.00,1372.15,1366.67,1361.61,1356.30,1350.96,1345.71,1340.50,1335.42,1329.47,1322.95,1316.88,1311.83,1306.09,1299.81,1293.52,1287.96,1282.99,1278.23,1273.45,1268.35,1262.73,1257.73,1253.28,1248.78,1242.73,1235.55,1229.88,1226.38,1222.29,1219.43,1218.09,1217.40,1215.94,1214.45,1212.81,1210.98,1208.91,1206.74,1205.22,1205.78,1206.09,1199.18,1192.79,1188.03,1184.56,1181.81,1178.56,1175.19,1172.29,1170.46,1170.22,1169.72,1166.25,1160.61,1155.86,1153.08,1154.33,1157.85,1161.49,1162.25,1160.01,1156.78,1153.36,1150.01,1148.63,1148.37,1148.62,1149.18,1150.54,1152.58,1154.05,1153.65,1150.26,1150.88,1153.32,1155.87,1156.97,1157.50,1157.29,1156.36,1154.59,1151.98,1149.20,1146.37,1143.40,1140.21,1137.94,1135.62,1132.59,1128.42,1124.88,1123.48,1122.01,1119.20,1116.12,1114.44,1113.37,1112.12,1109.54,1105.60,1103.13,1102.36,1102.78,1102.15,1100.70,1099.07,1097.72,1097.14,1096.82,1096.02,1094.51,1092.28,1090.76,1088.87,1086.23,1082.66,1078.50,1073.97,1071.10,1070.10,1070.01,1069.81,1068.24,1066.13,1064.47,1063.28,1061.73,1060.06,1058.45,1056.94,1054.60,1052.26,1050.49,1049.82,1049.37,1048.06,1046.00,1043.26,1039.89,1035.99,1031.91,1027.55,1022.52,1018.65,1016.59,1016.46,1018.44,1021.00,1022.24,1022.95,1023.50,1023.84,1024.15,1023.88,1023.12,1022.22,1021.00,1019.25,1017.13,1015.02,1013.99,1013.34,1012.64,1011.76,1010.62,1008.96,1006.50,1004.09,1002.50,1000.72,998.28,995.69,993.18,990.74,988.28,986.17,984.63,983.85,983.47,983.91,984.37,984.22,983.58,982.74,982.41,982.60,982.57,982.34,982.04,981.60,980.62,978.21,975.53,975.27,978.23,981.47,982.38,981.61,980.36,980.14,979.99,980.12,981.19,983.31,984.21,984.74,985.04,985.22,985.43,984.80,982.38,978.74,974.90,972.50,970.77,970.04,970.86,973.70,977.70,982.71
1571.88,1567.47,1563.84,1559.68,1556.20,1552.99,1548.77,1540.82,1534.11,1527.97,1521.92,1515.81,1509.43,1502.36,1494.26,1485.26,1478.42,1472.39,1466.54,1460.45,1453.66,1448.55,1444.24,1440.01,1435.24,1429.93,1423.44,1417.24,1412.34,1407.64,1403.41,1398.87,1393.84,1388.59,1383.60,1378.07,1372.26,1366.70,1361.55,1356.22,1350.91,1345.73,1340.52,1335.37,1329.37,1322.81,1316.64,1311.41,1305.56,1299.11,1292.59,1287.15,1282.37,1277.83,1273.25,1268.22,1262.75,1258.24,1254.53,1250.76,1245.17,1238.95,1232.72,1226.35,1219.07,1213.35,1210.18,1208.50,1206.32,1204.93,1203.45,1201.89,1200.48,1199.47,1199.20,1200.81,1202.15,1196.91,1191.06,1186.25,1182.08,1177.72,1172.97,1169.00,1165.76,1163.82,1164.83,1165.95,1163.85,1158.89,1153.38,1148.99,1149.08,1152.24,1156.24,1157.00,1154.64,1151.01,1146.94,1143.03,1141.25,1140.90,1141.24,1141.91,1143.62,1146.80,1149.14,1148.67,1144.67,1144.47,1146.20,1148.21,1148.95,1149.51,1149.67,1149.47,1148.84,1147.61,1145.07,1141.88,1138.28,1134.38,1132.05,1129.87,1126.74,1121.97,1118.19,1117.13,1116.15,1113.74,1111.00,1108.90,1107.41,1106.03,1103.68,1099.97,1098.69,1099.14,1099.84,1099.41,1097.77,1095.64,1093.63,1092.68,1092.31,1092.13,1091.79,1090.92,1089.84,1088.34,1086.12,1083.09,1080.01,1076.88,1074.45,1072.61,1070.65,1068.98,1066.37,1063.48,1061.28,1059.68,1057.88,1056.00,1054.37,1053.38,1051.07,1048.34,1046.32,1046.20,1046.20,1045.25,1043.45,1040.73,1036.70,1032.71,1029.25,1025.91,1021.58,1017.27,1014.17,1013.20,1015.17,1017.89,1019.37,1020.33,1021.20,1022.00,1022.74,1023.03,1022.92,1022.52,1021.49,1020.37,1018.97,1017.29,1016.25,1015.10,1013.62,1011.88,1010.05,1007.72,1005.11,1002.95,1001.80,1000.24,998.38,996.44,994.48,992.54,990.58,988.73,987.00,985.58,985.59,986.50,987.26,987.10,986.02,984.60,983.85,983.64,982.85,981.81,980.87,979.56,977.31,974.98,973.00,973.72,977.58,981.06,983.23,983.62,983.11,983.31,983.58,983.43,984.10,986.11,986.55,986.92,987.28,987.69,988.38,988.46,987.17,984.50,980.75,978.18,976.17,974.68,974.13,975.25,977.11,980.86
1574.93,1569.59,1564.70,1560.07,1556.37,1553.05,1548.80,1540.63,1533.93,1527.76,1521.35,1514.33,1507.71,1500.87,1493.31,1485.01,1478.24,1472.28,1466.60,1460.67,1453.60,1448.35,1443.98,1439.76,1435.07,1429.78,1423.30,1416.92,1411.62,1406.97,1402.50,1397.76,1392.72,1387.75,1382.89,1377.34,1371.58,1366.30,1361.17,1355.85,1350.55,1345.40,1340.36,1335.03,1329.10,1322.59,1315.85,1310.04,1304.28,1298.24,1292.01,1286.61,1281.70,1276.98,1272.37,1267.90,1263.93,1260.05,1255.99,1251.52,1246.61,1241.37,1236.07,1230.33,1222.86,1216.03,1209.82,1204.04,1198.79,1195.25,1194.14,1194.06,1194.06,1194.51,1194.72,1195.66,1196.23,1192.71,1188.71,1184.76,1180.10,1173.81,1168.04,1163.24,1159.17,1156.90,1159.48,1161.42,1160.11,1155.95,1150.72,1146.21,1146.34,1148.98,1151.77,1153.19,1151.06,1147.12,1142.43,1138.12,1135.22,1134.08,1134.13,1134.94,1137.14,1140.54,1142.69,1142.06,1139.39,1138.80,1140.26,1142.66,1144.16,1145.09,1145.41,1145.44,1145.31,1144.62,1142.71,1138.81,1133.16,1127.76,1123.74,1120.41,1117.22,1113.90,1111.16,1109.74,1108.55,1106.96,1105.19,1103.49,1101.99,1100.43,1098.17,1095.19,1094.65,1095.57,1096.36,1095.90,1094.28,1091.77,1088.97,1087.50,1086.99,1087.05,1086.89,1085.51,1083.72,1082.91,1082.34,1081.13,1078.49,1075.09,1071.65,1068.60,1066.40,1064.35,1061.82,1059.23,1057.12,1055.55,1053.52,1051.18,1049.14,1048.61,1046.32,1043.23,1040.88,1041.08,1041.63,1040.70,1038.92,1036.44,1032.26,1027.98,1024.34,1021.42,1018.82,1015.56,1011.85,1009.85,1011.63,1013.97,1015.21,1016.49,1018.36,1020.36,1021.30,1021.61,1021.70,1021.84,1021.58,1020.81,1019.58,1017.99,1016.48,1014.89,1012.82,1010.14,1006.82,1003.33,1000.98,999.57,998.72,998.15,996.76,994.96,993.04,991.24,989.60,988.14,986.91,986.18,987.16,988.68,989.77,989.50,987.03,984.55,982.84,981.84,980.80,979.49,978.10,976.37,974.01,971.68,970.89,972.65,976.86,980.73,983.28,985.15,986.38,986.67,987.81,988.15,988.15,988.29,988.22,988.03,988.08,988.53,989.48,990.64,990.41,989.09,987.21,984.59,982.57,981.33,980.83,980.58,979.49,980.66
1575.87,1570.32,1564.94,1560.14,1556.42,1553.07,1548.68,1540.37,1533.79,1527.53,1520.53,1512.34,1505.62,1498.54,1491.08,1483.67,1476.54,1470.82,1465.52,1459.89,1453.39,1447.92,1443.27,1438.92,1434.23,1428.80,1422.47,1416.23,1410.84,1406.09,1401.38,1396.40,1391.27,1386.55,1381.79,1376.15,1370.36,1365.39,1360.53,1355.01,1349.59,1344.58,1339.57,1334.19,1328.43,1322.27,1315.71,1309.73,1303.91,1297.87,1291.60,1286.11,1281.21,1276.61,1272.27,1268.37,1264.49,1260.27,1255.63,1250.66,1246.23,1241.99,1237.69,1232.92,1226.68,1219.23,1211.97,1205.11,1198.48,1193.07,1190.66,1189.62,1188.83,1189.32,1189.71,1190.10,1189.97,1187.75,1185.15,1182.04,1177.67,1171.15,1164.77,1159.17,1154.49,1151.90,1154.13,1156.57,1156.43,1153.35,1147.92,1143.09,1142.65,1144.68,1147.07,1148.80,1147.23,1143.62,1138.90,1134.24,1130.45,1128.55,1128.09,1128.60,1130.68,1133.59,1135.46,1135.25,1133.68,1133.49,1135.01,1137.47,1139.32,1140.32,1140.60,1140.68,1140.74,1139.89,1137.97,1134.08,1128.32,1122.44,1117.55,1113.26,1109.41,1106.21,1104.21,1102.64,1101.41,1100.47,1099.34,1097.97,1096.36,1094.50,1092.37,1090.30,1090.67,1092.00,1092.52,1092.20,1090.34,1087.27,1083.72,1081.60,1081.10,1081.15,1080.77,1079.11,1078.02,1077.55,1077.35,1076.95,1075.53,1072.78,1069.41,1065.92,1062.82,1060.03,1057.30,1054.84,1053.00,1051.57,1049.39,1046.57,1043.87,1043.12,1041.39,1038.52,1035.98,1035.87,1036.07,1034.86,1033.09,1031.07,1027.51,1023.60,1020.26,1017.77,1016.01,1013.56,1009.88,1007.24,1007.99,1009.67,1010.75,1012.39,1014.99,1017.52,1018.87,1019.51,1019.98,1020.75,1021.02,1020.44,1019.10,1017.17,1015.47,1014.12,1012.11,1008.93,1004.26,999.71,996.88,995.51,995.10,995.09,994.38,993.07,991.19,988.77,987.48,986.60,985.76,985.16,986.37,988.08,989.38,989.27,986.26,983.21,980.95,979.44,978.13,976.71,975.08,973.11,970.89,969.71,970.77,973.66,977.80,981.49,984.24,986.69,988.53,988.80,989.68,990.00,989.80,989.33,989.01,988.54,988.48,988.98,989.91,991.61,992.63,992.73,991.93,990.17,988.46,987.25,986.71,986.44,984.92,984.58
1575.77,1570.44,1565.03,1560.15,1556.38,1552.87,1548.20,1539.97,1533.64,1527.14,1519.40,1510.41,1503.71,1496.11,1488.37,1481.80,1474.16,1468.76,1463.94,1458.74,1453.18,1447.46,1442.35,1437.68,1432.75,1427.20,1421.20,1415.35,1410.06,1405.20,1400.27,1395.02,1389.72,1385.16,1380.40,1374.64,1368.86,1364.22,1359.66,1353.89,1348.30,1343.46,1338.45,1333.12,1327.61,1321.91,1315.95,1310.02,1303.99,1297.67,1291.15,1285.55,1280.71,1276.31,1272.30,1268.69,1264.05,1259.11,1254.03,1248.92,1244.76,1241.26,1237.75,1233.92,1229.50,1221.95,1215.09,1209.24,1202.77,1196.02,1191.71,1188.54,1185.69,1184.94,1184.73,1184.44,1183.78,1182.46,1180.76,1178.37,1174.74,1169.18,1162.74,1156.59,1151.53,1148.59,1149.21,1151.89,1153.05,1151.18,1145.40,1140.06,1138.49,1139.58,1141.90,1143.55,1142.57,1139.71,1135.55,1130.95,1126.65,1124.01,1122.84,1122.81,1124.27,1126.28,1127.79,1128.21,1127.76,1128.36,1130.02,1132.28,1134.17,1135.07,1135.21,1135.20,1135.16,1133.85,1131.48,1128.02,1123.38,1117.79,1112.88,1108.15,1103.61,1099.79,1097.97,1096.19,1094.92,1094.46,1093.70,1092.54,1090.75,1088.54,1086.49,1085.24,1086.33,1087.87,1088.00,1087.92,1085.90,1082.37,1078.18,1075.36,1074.76,1074.78,1074.22,1072.42,1072.70,1072.38,1071.74,1071.32,1071.13,1069.58,1067.22,1064.19,1060.24,1056.64,1053.44,1050.87,1049.18,1047.71,1045.38,1042.19,1038.89,1037.51,1036.48,1034.16,1031.58,1030.78,1030.07,1028.43,1026.70,1025.19,1022.59,1019.45,1016.73,1014.67,1013.11,1011.11,1007.80,1004.87,1004.29,1005.19,1006.21,1008.20,1011.27,1013.84,1015.65,1016.78,1017.75,1019.16,1019.79,1019.32,1017.71,1015.17,1013.36,1012.62,1011.16,1008.03,1002.57,997.15,993.33,991.38,991.30,991.44,991.38,990.69,988.85,985.54,984.59,984.27,983.79,983.07,984.07,985.69,987.13,987.39,984.58,981.38,978.77,976.84,975.20,973.67,971.89,969.86,968.15,968.94,972.11,976.02,979.81,982.99,985.84,988.20,989.71,989.75,989.65,989.68,989.65,989.39,988.96,988.41,988.39,988.98,989.82,991.74,993.94,995.43,995.35,994.97,993.87,992.80,992.33,992.67,992.01,991.03
1575.20,1570.07,1564.88,1560.03,1555.98,1551.80,1546.45,1539.13,1533.33,1526.18,1517.57,1510.04,1503.67,1495.40,1487.01,1480.62,1472.97,1467.78,1463.36,1458.63,1453.30,1447.47,1441.77,1436.14,1430.26,1425.10,1419.85,1414.59,1409.52,1404.77,1399.72,1394.14,1388.50,1383.82,1378.64,1372.88,1367.46,1363.21,1358.63,1352.79,1347.18,1342.38,1337.52,1332.55,1327.26,1321.70,1315.97,1309.85,1303.44,1296.78,1290.14,1284.59,1279.54,1274.89,1270.52,1266.08,1261.01,1256.35,1251.99,1247.57,1243.38,1239.37,1235.67,1232.29,1228.74,1222.47,1216.86,1212.41,1207.74,1201.07,1196.82,1193.43,1189.24,1185.34,1181.59,1179.36,1178.57,1177.47,1175.97,1173.82,1170.85,1166.74,1161.73,1156.04,1150.94,1147.46,1146.37,1148.77,1150.62,1149.81,1144.60,1138.75,1135.26,1134.29,1135.42,1136.22,1135.12,1133.10,1130.64,1127.79,1123.87,1120.41,1118.18,1117.83,1118.18,1119.28,1120.08,1120.47,1122.18,1123.20,1124.53,1126.42,1128.44,1129.26,1129.36,1129.05,1128.35,1127.07,1124.15,1120.86,1117.26,1112.31,1108.63,1105.14,1101.50,1097.77,1094.73,1091.64,1089.75,1089.57,1089.11,1087.90,1085.95,1083.47,1081.12,1079.97,1080.25,1080.95,1081.26,1081.36,1080.33,1077.36,1072.86,1069.49,1067.88,1068.36,1068.74,1066.51,1066.99,1066.97,1066.19,1064.91,1063.73,1063.02,1062.56,1061.78,1059.46,1055.81,1052.14,1048.93,1046.34,1043.89,1041.24,1038.23,1035.17,1033.10,1031.97,1030.09,1027.82,1026.33,1024.71,1022.79,1021.14,1019.85,1017.57,1015.09,1012.94,1011.19,1009.55,1007.43,1004.24,1001.41,1000.56,1000.77,1001.87,1004.14,1007.31,1009.71,1011.50,1012.94,1014.40,1016.20,1017.18,1016.92,1015.08,1011.81,1009.54,1009.11,1008.60,1006.77,1002.38,996.75,991.74,988.49,987.80,987.59,987.43,986.76,985.00,981.64,980.66,980.55,980.56,980.58,981.55,983.06,984.60,985.38,983.58,980.57,977.40,974.61,972.57,970.50,968.31,966.62,966.68,969.88,974.51,978.74,981.96,984.84,987.67,989.36,989.70,988.78,987.76,987.86,988.25,988.10,987.36,986.82,986.94,987.75,989.04,991.22,993.83,996.27,997.91,998.75,998.80,999.00,999.62,999.74,998.45,997.60
1574.69,1569.59,1564.43,1559.49,1555.11,1550.37,1544.55,1537.91,1532.08,1524.75,1516.39,1510.13,1504.05,1495.60,1487.03,1480.84,1473.77,1468.58,1464.07,1459.34,1453.68,1447.84,1442.19,1436.53,1430.57,1425.42,1420.20,1414.90,1409.73,1404.91,1399.79,1394.12,1388.33,1383.49,1378.00,1372.23,1367.02,1362.96,1358.09,1352.11,1346.42,1341.59,1336.84,1332.08,1326.87,1321.31,1315.71,1309.65,1303.25,1296.70,1290.24,1284.58,1279.41,1274.76,1270.59,1266.50,1261.22,1256.53,1252.34,1248.08,1243.91,1239.72,1235.41,1231.08,1226.98,1221.84,1217.28,1213.69,1210.59,1205.49,1201.57,1198.13,1194.01,1188.82,1183.06,1178.60,1175.78,1173.43,1171.11,1168.64,1166.09,1163.44,1160.21,1155.51,1150.39,1145.92,1143.64,1145.56,1147.38,1146.84,1142.10,1135.82,1131.09,1128.60,1128.45,1128.95,1128.22,1127.04,1125.77,1124.14,1120.48,1116.84,1114.17,1112.98,1111.88,1111.97,1112.37,1113.02,1115.43,1116.90,1118.55,1120.64,1122.74,1123.96,1124.39,1124.05,1122.72,1120.49,1117.52,1114.75,1112.01,1107.97,1104.86,1101.97,1098.95,1095.65,1092.25,1088.12,1085.43,1085.19,1084.86,1083.58,1081.44,1078.76,1076.11,1074.56,1074.11,1074.44,1075.26,1075.55,1075.00,1072.03,1067.08,1063.79,1061.61,1062.22,1063.18,1061.05,1060.71,1060.39,1059.41,1057.76,1056.64,1056.54,1057.09,1057.64,1056.99,1054.80,1051.97,1049.01,1046.08,1043.17,1040.30,1037.10,1033.63,1030.74,1028.89,1026.64,1024.15,1022.20,1020.21,1018.25,1016.58,1015.17,1013.27,1011.42,1009.82,1008.47,1007.29,1006.03,1003.96,1001.80,1000.38,999.22,998.86,1000.28,1003.33,1005.64,1007.26,1008.87,1010.79,1013.12,1014.28,1014.41,1013.03,1009.75,1005.89,1004.90,1004.88,1004.32,1001.53,996.59,991.34,987.17,985.07,983.63,983.11,982.58,981.20,978.11,976.67,976.31,976.47,976.91,978.08,980.25,982.36,983.30,982.34,979.59,976.13,972.67,969.82,966.66,964.88,964.78,966.85,971.57,976.82,981.02,983.81,986.43,988.90,989.69,988.77,986.79,985.38,985.62,986.29,986.30,985.52,985.05,985.36,986.47,988.09,990.49,993.32,996.22,998.80,1000.51,1001.88,1003.46,1005.19,1006.03,1005.62,1005.67
1574.19,1569.05,1563.57,1558.36,1553.64,1548.57,1542.59,1536.39,1529.98,1522.91,1515.79,1510.32,1504.47,1496.33,1488.07,1482.11,1476.00,1470.66,1465.71,1460.58,1454.33,1448.57,1443.40,1438.44,1433.10,1427.63,1421.84,1416.01,1410.47,1405.46,1400.37,1394.80,1389.05,1384.05,1378.45,1372.62,1367.35,1363.15,1357.86,1351.71,1345.95,1341.03,1336.36,1331.63,1326.35,1320.71,1315.18,1309.39,1303.28,1297.07,1290.96,1285.17,1280.06,1275.67,1272.16,1269.45,1264.21,1259.11,1254.43,1249.80,1245.72,1241.71,1236.69,1230.49,1224.92,1220.41,1216.41,1213.07,1210.97,1208.28,1204.82,1201.50,1198.57,1193.93,1187.87,1181.34,1175.15,1170.48,1166.38,1162.99,1160.56,1159.36,1157.98,1154.65,1149.62,1143.94,1140.88,1141.99,1143.10,1142.21,1137.74,1131.36,1126.13,1122.64,1121.23,1121.83,1121.86,1121.41,1120.70,1119.67,1116.26,1113.13,1110.66,1108.31,1105.65,1104.71,1104.99,1106.13,1107.79,1109.69,1112.22,1115.01,1117.10,1118.92,1119.89,1119.75,1118.01,1114.31,1111.69,1109.71,1107.70,1104.74,1101.55,1098.50,1095.62,1092.77,1089.80,1085.21,1081.80,1081.05,1080.61,1079.16,1076.91,1074.14,1071.31,1069.01,1068.03,1068.43,1069.97,1070.64,1069.98,1066.45,1060.90,1057.97,1055.81,1056.34,1057.52,1055.94,1054.06,1052.85,1051.58,1050.11,1049.96,1050.21,1050.88,1051.83,1052.63,1052.96,1052.02,1050.04,1047.30,1044.50,1041.59,1038.06,1034.01,1030.51,1027.66,1024.51,1021.36,1019.12,1017.19,1015.42,1013.69,1012.00,1010.59,1009.33,1008.20,1007.29,1006.90,1007.14,1006.84,1005.61,1003.22,1000.31,997.42,996.99,999.35,1001.45,1002.80,1004.46,1006.83,1009.80,1011.08,1011.75,1011.36,1008.75,1002.77,1000.55,1000.45,1000.84,999.65,996.02,991.45,986.93,983.10,979.89,978.70,978.24,977.37,974.73,972.58,971.57,971.51,972.05,973.58,976.95,979.99,980.96,980.59,978.17,974.78,970.91,966.79,962.53,962.00,964.40,968.38,973.66,978.78,982.68,985.20,987.65,989.50,989.27,987.15,984.16,982.80,983.16,983.96,984.17,983.64,983.28,983.79,985.21,987.03,989.61,992.50,995.39,998.07,1000.30,1002.92,1005.73,1008.50,1010.89,1012.73,1014.31
1573.25,1568.26,1561.83,1555.86,1550.82,1545.80,1540.24,1534.76,1527.52,1520.56,1514.67,1509.74,1504.14,1496.59,1488.78,1482.65,1476.96,1471.78,1466.63,1461.24,1455.45,1449.76,1444.32,1439.00,1433.55,1427.97,1422.14,1416.26,1410.63,1405.83,1401.10,1395.60,1389.66,1384.70,1379.39,1373.22,1367.18,1362.24,1356.57,1350.74,1345.32,1340.50,1335.84,1330.94,1325.55,1319.91,1314.43,1308.65,1302.19,1295.49,1289.16,1284.12,1279.41,1275.20,1271.87,1269.75,1265.09,1259.47,1253.95,1249.20,1244.93,1241.09,1236.15,1229.82,1224.13,1218.88,1214.08,1210.22,1208.11,1205.59,1203.40,1201.55,1199.47,1195.32,1189.50,1182.62,1175.46,1169.39,1162.61,1157.20,1154.39,1154.90,1154.63,1152.97,1148.94,1142.87,1138.77,1137.60,1137.45,1136.47,1132.32,1127.21,1121.82,1117.11,1114.25,1114.09,1113.99,1113.67,1113.24,1112.78,1110.93,1109.05,1107.12,1104.56,1101.18,1099.65,1099.64,1100.59,1101.32,1102.99,1106.07,1109.56,1111.26,1112.43,1113.14,1113.07,1111.68,1108.90,1106.39,1104.74,1103.61,1101.54,1098.65,1095.46,1092.12,1088.57,1085.19,1081.63,1078.50,1076.33,1075.00,1073.05,1071.05,1068.93,1066.07,1063.27,1061.49,1061.47,1063.64,1065.74,1064.96,1061.02,1055.02,1050.87,1049.16,1050.56,1052.49,1051.17,1048.07,1045.77,1044.13,1042.90,1042.27,1042.24,1043.03,1044.64,1046.90,1048.67,1048.73,1047.11,1044.10,1041.66,1039.07,1036.91,1035.23,1033.17,1030.47,1027.28,1023.99,1021.17,1019.09,1017.75,1016.45,1014.98,1014.03,1013.12,1012.16,1011.25,1010.71,1010.78,1010.45,1008.87,1005.46,1002.15,998.78,996.23,995.19,995.92,996.81,998.64,1001.41,1004.69,1006.75,1007.85,1007.94,1006.16,1000.96,997.75,996.89,997.17,995.81,992.90,989.46,985.77,981.85,978.11,975.14,973.31,972.25,969.94,967.44,965.71,965.06,965.78,967.66,971.26,974.98,977.28,977.36,975.72,972.88,968.76,963.10,960.14,961.43,965.33,970.11,975.39,979.76,983.11,985.63,988.09,989.57,988.64,985.66,982.01,980.46,980.75,981.56,981.95,981.66,981.53,982.11,983.59,985.90,988.55,990.99,993.34,995.89,998.26,1001.01,1004.31,1008.08,1011.69,1015.09,1018.15
1572.41,1567.59,1560.78,1553.99,1548.16,1542.61,1536.93,1531.53,1524.40,1518.05,1513.03,1508.31,1502.82,1495.79,1488.52,1482.41,1476.84,1471.67,1466.42,1461.00,1455.75,1450.25,1444.58,1438.91,1433.42,1427.78,1421.91,1415.97,1410.31,1405.72,1401.26,1395.77,1389.67,1384.84,1379.66,1373.21,1366.55,1360.85,1354.80,1349.42,1344.52,1339.89,1335.14,1329.99,1324.44,1318.74,1313.18,1307.08,1300.15,1293.12,1286.81,1282.05,1277.58,1273.30,1269.63,1267.22,1262.95,1257.44,1251.76,1246.85,1242.43,1238.25,1233.61,1228.53,1224.27,1219.19,1213.95,1209.38,1206.48,1203.05,1200.28,1198.20,1196.31,1192.88,1188.05,1181.94,1174.91,1167.59,1158.54,1151.89,1149.02,1150.30,1150.61,1149.88,1146.90,1141.58,1137.06,1134.10,1132.48,1130.98,1127.34,1122.19,1115.61,1109.84,1106.89,1106.00,1105.53,1105.39,1105.55,1105.81,1105.61,1105.02,1103.83,1101.45,1097.54,1095.41,1094.99,1095.68,1095.89,1097.11,1100.15,1103.73,1105.04,1106.06,1107.03,1107.31,1106.22,1104.11,1101.41,1099.38,1098.25,1097.14,1095.14,1092.26,1088.62,1084.40,1080.81,1077.99,1075.15,1072.07,1069.57,1067.12,1065.27,1063.61,1060.93,1057.99,1054.86,1054.08,1057.60,1060.66,1060.13,1056.19,1049.93,1044.71,1043.17,1044.89,1047.00,1045.63,1042.02,1039.15,1037.25,1036.08,1034.89,1034.38,1034.96,1036.67,1039.45,1042.30,1043.18,1042.11,1039.53,1037.28,1034.94,1033.87,1034.12,1033.66,1032.07,1029.89,1027.49,1025.12,1023.20,1021.90,1020.71,1019.48,1018.76,1017.98,1017.09,1016.16,1015.38,1014.92,1013.95,1011.67,1007.68,1004.30,1000.99,997.44,994.18,992.98,992.40,993.42,995.93,999.34,1002.00,1003.42,1003.78,1002.63,998.74,995.13,993.55,993.38,991.92,989.00,986.16,983.20,979.63,976.18,972.38,969.49,967.78,965.69,963.37,961.56,960.57,960.80,962.36,965.62,969.53,972.82,973.50,972.67,970.36,966.21,960.18,958.89,961.61,966.27,971.26,976.27,980.04,983.00,985.51,987.90,988.62,987.11,983.91,980.26,978.37,978.48,979.27,979.76,979.67,979.85,980.56,981.99,984.43,986.97,989.14,991.25,993.77,996.39,999.16,1002.58,1006.76,1010.82,1014.80,1018.54
1571.80,1567.12,1560.76,1553.30,1546.08,1539.18,1532.61,1526.56,1520.65,1515.43,1510.79,1505.93,1500.35,1493.71,1487.00,1481.20,1475.49,1470.14,1464.90,1459.72,1454.84,1449.67,1444.03,1438.26,1432.95,1427.27,1421.26,1415.17,1409.48,1405.04,1400.62,1395.06,1388.92,1384.28,1378.95,1372.34,1365.40,1359.14,1352.74,1347.84,1343.53,1339.16,1334.24,1328.76,1322.96,1317.08,1311.30,1304.64,1297.31,1290.34,1284.46,1279.23,1274.68,1270.10,1265.61,1262.03,1257.83,1253.20,1248.33,1243.36,1238.92,1233.97,1229.70,1226.96,1225.47,1221.84,1216.81,1211.51,1207.18,1201.90,1196.19,1191.49,1188.73,1186.17,1182.99,1178.57,1172.45,1164.05,1153.88,1147.32,1144.82,1145.52,1145.87,1145.08,1142.92,1139.38,1135.30,1131.63,1128.62,1126.04,1122.95,1116.13,1107.61,1101.37,1099.89,1098.59,1097.64,1097.61,1098.47,1099.33,1100.35,1100.86,1100.55,1098.74,1094.53,1091.73,1090.79,1091.31,1091.50,1092.21,1094.55,1097.52,1098.58,1100.20,1102.11,1103.10,1102.05,1099.77,1096.67,1093.65,1091.50,1091.26,1090.63,1088.57,1085.10,1080.60,1077.21,1074.43,1071.60,1068.34,1064.63,1061.87,1059.95,1058.26,1055.64,1052.66,1047.89,1046.31,1051.82,1055.13,1055.30,1051.99,1045.84,1040.11,1038.08,1039.18,1040.65,1038.98,1035.71,1033.03,1031.13,1029.76,1028.22,1027.02,1027.01,1028.23,1030.47,1034.08,1035.67,1035.51,1034.22,1031.95,1029.66,1028.89,1029.82,1030.62,1030.88,1030.65,1030.15,1029.50,1028.22,1026.57,1025.10,1024.12,1023.38,1022.58,1021.75,1020.94,1020.07,1019.04,1017.13,1014.15,1010.13,1006.71,1003.63,1000.46,997.08,993.71,990.66,989.67,990.91,994.11,996.96,998.53,998.99,998.17,995.59,992.29,990.25,989.49,988.34,984.75,981.74,979.09,975.97,973.51,970.28,967.16,964.69,962.89,961.38,960.24,959.23,958.15,958.44,960.75,964.20,967.72,969.13,969.01,967.09,963.25,958.29,958.60,962.11,966.86,971.59,976.11,979.65,982.51,984.89,987.02,986.49,984.50,981.79,978.84,976.53,976.38,977.13,977.65,977.75,978.30,979.22,980.54,982.63,984.86,987.15,989.55,992.16,995.15,997.93,1001.17,1005.06,1008.65,1012.19,1015.65
1571.15,1566.62,1560.58,1553.51,1544.92,1536.37,1529.13,1523.32,1517.77,1512.69,1507.97,1502.99,1497.07,1490.72,1484.41,1478.45,1472.63,1467.61,1462.77,1457.87,1453.26,1448.13,1442.61,1437.11,1432.04,1426.08,1419.97,1414.00,1408.43,1403.84,1399.03,1393.51,1387.79,1383.23,1377.55,1370.93,1364.10,1357.63,1351.18,1346.60,1342.54,1338.16,1333.12,1327.34,1321.13,1314.83,1308.76,1302.61,1295.63,1288.97,1283.47,1277.93,1273.07,1268.39,1263.73,1259.32,1255.23,1251.29,1247.72,1244.73,1240.82,1236.56,1232.65,1229.80,1228.68,1224.76,1219.52,1214.07,1208.87,1201.31,1193.53,1185.96,1179.28,1175.90,1173.15,1169.44,1163.97,1156.15,1149.00,1144.01,1141.10,1140.11,1139.72,1138.77,1136.51,1132.95,1129.78,1127.07,1124.44,1121.32,1116.69,1111.07,1106.02,1102.62,1101.43,1100.51,1099.03,1097.01,1094.77,1093.20,1093.41,1094.01,1094.41,1094.02,1091.26,1088.45,1086.95,1087.01,1087.08,1087.92,1089.98,1092.55,1093.96,1094.76,1096.60,1097.88,1096.76,1094.03,1091.73,1089.30,1086.78,1085.27,1084.58,1083.37,1081.03,1077.31,1074.18,1071.01,1067.42,1063.41,1059.84,1057.36,1055.49,1052.80,1046.74,1041.24,1037.94,1038.24,1042.99,1047.23,1048.58,1047.12,1042.88,1036.58,1032.31,1031.77,1032.71,1031.55,1029.11,1027.35,1026.14,1024.92,1022.52,1019.92,1019.63,1021.67,1024.44,1027.69,1029.34,1029.70,1029.10,1027.09,1024.47,1023.31,1024.07,1025.07,1025.26,1025.38,1025.73,1026.28,1025.99,1025.19,1024.57,1024.44,1024.30,1024.19,1024.05,1023.87,1023.56,1022.29,1020.28,1017.47,1013.59,1009.39,1006.13,1003.13,999.95,996.50,992.88,989.90,988.34,989.28,991.82,993.12,993.32,992.62,990.96,988.59,986.69,985.52,984.35,980.92,977.63,974.61,971.53,969.14,966.71,965.09,964.65,964.75,964.55,963.75,962.13,959.44,957.56,957.90,959.94,962.81,964.26,964.33,962.97,960.06,956.05,957.59,961.57,966.35,971.18,975.49,979.10,982.03,984.14,985.21,983.90,981.75,979.40,976.99,974.74,974.40,974.99,975.62,976.26,977.21,978.32,979.60,981.28,983.58,986.44,989.41,991.93,994.05,996.22,999.07,1002.63,1005.61,1008.75,1011.93
1570.38,1565.98,1560.18,1553.81,1545.13,1535.91,1527.78,1521.52,1515.70,1510.35,1505.29,1499.95,1493.59,1487.31,1481.27,1475.34,1469.67,1465.00,1460.46,1455.75,1451.22,1446.11,1440.81,1435.62,1430.64,1424.35,1418.36,1412.69,1407.31,1402.52,1397.23,1391.77,1386.59,1382.10,1375.83,1369.28,1362.74,1356.16,1349.89,1345.51,1341.43,1336.79,1331.70,1325.99,1319.63,1313.03,1306.84,1301.04,1294.33,1287.97,1282.84,1277.32,1272.44,1267.85,1263.38,1259.12,1255.57,1252.24,1249.64,1248.14,1244.95,1241.16,1237.18,1233.53,1231.32,1226.78,1221.44,1216.03,1210.20,1200.88,1192.35,1182.96,1172.14,1166.80,1163.56,1159.99,1155.04,1148.43,1144.24,1140.77,1137.65,1135.30,1134.05,1132.74,1130.19,1126.47,1124.06,1122.22,1120.22,1117.41,1113.06,1109.88,1108.32,1107.28,1105.95,1105.02,1102.95,1099.50,1095.12,1091.38,1089.77,1089.09,1088.98,1089.21,1087.85,1085.43,1083.58,1083.01,1082.88,1083.80,1085.53,1087.64,1089.37,1089.63,1091.06,1092.20,1091.11,1088.33,1086.77,1085.03,1082.50,1079.81,1078.57,1077.71,1076.30,1073.55,1070.67,1067.17,1062.81,1057.99,1054.82,1051.60,1047.38,1041.76,1034.62,1028.96,1027.60,1029.70,1034.31,1039.35,1041.29,1041.07,1038.65,1033.03,1027.05,1024.26,1023.59,1022.48,1021.04,1020.25,1019.78,1018.90,1016.17,1012.90,1012.45,1014.91,1018.28,1021.82,1023.94,1024.80,1024.39,1021.97,1018.90,1017.38,1017.88,1018.69,1018.11,1017.92,1018.57,1019.83,1020.54,1020.93,1021.40,1022.09,1022.67,1023.16,1023.63,1024.12,1024.49,1023.75,1022.59,1020.61,1017.05,1012.40,1008.76,1005.67,1002.72,999.61,995.97,991.73,987.85,986.18,986.90,987.45,987.43,986.88,985.96,984.46,982.85,981.34,979.90,976.95,973.72,970.78,968.49,966.99,965.85,965.67,966.72,968.32,969.15,968.48,966.17,962.16,958.29,956.50,956.67,958.28,959.39,959.47,958.63,956.69,953.79,956.13,960.17,964.87,970.10,974.50,978.33,981.39,983.22,983.11,981.33,979.18,977.07,975.00,972.88,972.59,973.25,974.08,975.16,976.35,977.58,978.82,980.14,982.28,985.32,988.35,990.31,991.43,993.00,995.50,998.80,1001.73,1004.79,1007.80
1569.44,1565.13,1559.44,1553.84,1547.30,1539.26,1529.86,1521.65,1514.90,1508.93,1503.24,1497.19,1490.29,1483.75,1477.78,1472.37,1467.29,1462.70,1458.13,1453.40,1448.69,1443.71,1438.72,1433.77,1428.58,1422.05,1416.47,1411.36,1406.19,1401.23,1395.48,1390.10,1385.46,1381.03,1373.91,1367.48,1361.45,1354.81,1348.96,1344.65,1340.19,1334.96,1329.92,1324.88,1318.88,1312.33,1306.34,1300.23,1293.43,1287.24,1282.49,1277.48,1273.15,1268.88,1264.90,1262.42,1260.00,1257.24,1254.72,1253.03,1250.58,1246.32,1241.57,1236.93,1232.16,1227.17,1222.07,1216.78,1210.53,1200.56,1193.18,1183.88,1169.89,1161.35,1156.57,1152.50,1147.99,1143.03,1140.03,1137.39,1134.64,1131.96,1129.99,1127.98,1125.22,1121.88,1119.79,1117.99,1116.35,1115.12,1114.88,1115.04,1114.85,1113.98,1112.27,1110.33,1107.59,1104.53,1101.13,1096.85,1092.59,1088.86,1086.24,1085.36,1084.42,1082.75,1080.94,1079.56,1079.17,1079.76,1080.90,1082.39,1084.09,1084.77,1085.63,1086.08,1085.21,1083.19,1081.80,1080.27,1078.11,1075.27,1073.26,1071.92,1070.64,1068.70,1065.96,1062.41,1057.62,1052.13,1049.03,1043.05,1032.62,1021.64,1018.74,1017.80,1017.86,1020.50,1027.01,1032.36,1033.76,1033.29,1031.79,1028.96,1022.95,1017.37,1013.29,1011.11,1010.65,1010.62,1010.64,1010.31,1008.36,1005.97,1005.44,1007.18,1010.81,1016.09,1019.61,1021.10,1020.30,1016.24,1012.68,1011.08,1011.48,1011.90,1010.11,1009.16,1009.56,1010.85,1012.43,1014.11,1015.58,1016.76,1018.06,1018.74,1019.46,1020.42,1021.46,1022.38,1023.30,1022.98,1020.02,1015.83,1011.69,1008.17,1005.30,1002.42,999.04,994.79,990.14,986.08,982.77,981.87,981.81,981.46,981.04,980.05,978.61,976.86,974.91,972.66,970.18,968.38,968.35,969.45,970.25,970.70,971.23,972.96,974.15,973.35,970.47,965.75,960.60,956.88,954.86,954.53,954.85,954.80,954.28,953.19,951.69,954.20,957.75,962.21,968.16,973.07,977.23,980.46,982.06,980.91,979.01,976.97,974.95,972.93,970.91,971.03,972.21,973.41,974.57,975.73,976.93,978.11,979.16,980.59,982.90,985.06,985.76,986.18,987.45,989.68,992.91,996.82,1000.31,1003.31
1568.63,1564.17,1558.80,1553.50,1547.98,1541.54,1533.62,1524.80,1517.60,1511.19,1505.00,1498.54,1491.49,1484.84,1478.67,1472.88,1467.24,1461.79,1456.60,1451.63,1446.63,1441.71,1436.98,1432.23,1427.05,1421.06,1415.83,1410.91,1405.87,1400.85,1394.84,1389.38,1384.86,1380.41,1373.26,1367.13,1361.66,1355.68,1350.25,1345.45,1340.22,1334.46,1329.51,1324.67,1319.18,1313.30,1307.82,1302.41,1296.71,1290.97,1285.53,1280.64,1276.79,1272.68,1268.89,1267.80,1265.20,1261.75,1258.20,1255.12,1251.99,1247.44,1242.48,1237.60,1232.55,1227.72,1222.85,1217.70,1211.34,1201.06,1194.02,1185.19,1170.97,1160.52,1154.70,1150.46,1146.60,1143.15,1140.80,1138.27,1135.35,1132.27,1129.84,1127.87,1125.69,1123.18,1121.20,1119.64,1118.91,1119.05,1120.05,1121.13,1121.38,1120.46,1118.22,1115.56,1112.40,1109.54,1106.66,1102.18,1097.41,1093.43,1090.20,1087.26,1083.44,1080.99,1079.33,1078.05,1077.29,1076.50,1076.54,1077.40,1078.51,1078.69,1078.84,1078.83,1078.21,1076.84,1075.51,1074.11,1072.44,1070.30,1068.33,1066.80,1065.18,1062.46,1058.45,1054.45,1050.26,1044.94,1036.65,1027.71,1019.09,1012.45,1010.86,1010.53,1010.58,1012.61,1018.18,1023.77,1026.30,1026.73,1025.83,1024.21,1019.38,1013.33,1007.67,1004.08,1003.17,1002.91,1002.85,1002.71,1001.52,1000.05,999.76,1001.20,1004.68,1009.80,1013.85,1016.28,1016.15,1011.44,1007.16,1004.72,1004.32,1004.81,1003.31,1002.47,1002.72,1003.71,1005.47,1007.36,1009.08,1010.66,1012.65,1014.10,1015.42,1016.80,1018.31,1019.73,1021.20,1022.14,1021.49,1018.52,1014.60,1010.94,1007.90,1005.05,1002.10,998.78,994.77,989.73,984.96,982.78,981.52,980.00,978.76,977.01,975.00,973.00,971.39,970.08,969.41,969.67,971.15,972.81,974.24,975.38,976.33,977.43,978.06,976.78,973.53,968.66,963.48,959.39,956.56,954.82,952.75,951.77,951.12,950.52,950.44,953.07,956.56,960.92,966.62,971.59,975.77,979.00,980.57,979.08,977.03,974.93,972.88,970.97,969.15,969.93,971.65,972.86,973.99,975.13,976.29,977.19,977.26,977.63,979.11,980.63,980.91,981.29,982.65,985.22,988.90,992.66,996.49,1000.03
1567.79,1563.12,1558.08,1553.00,1547.96,1542.61,1536.33,1528.24,1520.94,1514.30,1507.96,1501.48,1494.62,1487.88,1481.35,1475.01,1468.79,1462.50,1456.68,1451.36,1445.76,1440.63,1435.89,1431.26,1426.26,1421.06,1416.14,1411.30,1406.33,1401.33,1395.19,1389.53,1384.85,1380.46,1373.76,1367.95,1362.80,1357.34,1352.21,1347.02,1341.32,1335.36,1330.56,1325.77,1320.60,1315.24,1310.20,1305.43,1300.83,1295.73,1289.92,1284.95,1281.32,1277.40,1273.71,1272.81,1269.56,1265.31,1260.80,1256.46,1252.50,1247.86,1242.93,1238.02,1233.42,1229.06,1224.30,1218.98,1212.56,1202.42,1195.32,1187.20,1174.61,1163.37,1156.32,1151.60,1148.18,1145.46,1143.56,1141.25,1138.40,1135.30,1132.72,1130.83,1129.10,1127.29,1125.56,1124.51,1124.44,1125.19,1126.43,1127.61,1127.81,1126.61,1123.80,1120.66,1117.32,1114.48,1111.73,1107.32,1102.78,1099.16,1095.82,1091.44,1085.44,1081.95,1079.92,1078.47,1077.15,1075.12,1074.13,1074.11,1073.66,1072.61,1071.67,1071.01,1070.54,1069.72,1068.63,1067.49,1066.36,1065.04,1063.29,1061.65,1059.64,1056.17,1051.26,1046.99,1042.53,1035.95,1024.03,1014.41,1009.54,1008.19,1007.12,1006.51,1006.22,1006.94,1009.69,1014.38,1017.96,1019.67,1019.63,1018.79,1015.34,1010.00,1004.18,999.76,997.96,997.10,996.63,996.32,995.59,994.80,994.78,996.07,999.38,1003.80,1007.95,1011.06,1011.74,1007.21,1002.39,998.98,997.52,997.69,996.70,996.17,996.34,996.98,998.54,1000.26,1002.03,1004.01,1006.50,1008.83,1011.03,1013.15,1015.14,1016.73,1018.31,1020.06,1021.51,1020.45,1017.32,1013.80,1010.57,1007.66,1005.03,1002.55,999.47,994.64,989.84,986.85,984.47,981.83,979.50,976.70,973.94,971.63,970.21,969.67,970.64,972.57,974.75,976.36,977.92,979.48,980.79,981.15,980.96,979.30,976.02,971.22,966.70,962.98,960.02,957.38,953.58,951.53,950.23,949.33,949.46,952.01,955.62,959.97,965.16,970.12,974.26,977.41,978.85,977.19,975.05,972.63,970.24,968.50,967.54,969.08,971.18,972.32,973.41,974.53,975.48,975.86,974.99,974.36,975.06,976.18,976.67,977.78,979.75,982.85,986.92,990.53,994.72,998.68
1566.82,1561.89,1557.11,1552.32,1547.20,1541.41,1535.15,1530.27,1523.44,1516.91,1511.23,1505.46,1499.43,1492.56,1485.43,1478.78,1472.70,1466.31,1460.29,1454.52,1447.62,1441.56,1436.26,1431.45,1426.94,1422.59,1417.99,1413.16,1408.19,1403.36,1397.26,1391.22,1386.02,1381.89,1376.28,1370.72,1365.19,1359.40,1354.27,1349.36,1344.19,1338.87,1334.33,1329.56,1324.11,1318.43,1313.40,1308.38,1304.09,1299.94,1295.30,1289.99,1286.05,1282.45,1278.84,1275.44,1271.22,1266.76,1262.28,1257.87,1253.76,1249.43,1244.68,1239.79,1235.86,1232.36,1227.33,1221.04,1214.50,1205.39,1197.76,1190.66,1182.43,1172.28,1163.05,1156.83,1153.19,1149.32,1147.80,1146.49,1144.75,1142.58,1140.52,1138.23,1136.04,1134.27,1133.35,1133.32,1132.89,1132.45,1133.45,1134.42,1134.02,1132.07,1128.71,1125.47,1122.40,1119.30,1115.97,1112.07,1108.13,1104.41,1100.85,1097.24,1093.26,1089.16,1085.41,1082.36,1080.13,1077.91,1076.49,1074.92,1070.88,1067.40,1064.52,1062.60,1061.96,1061.56,1061.20,1060.73,1060.13,1059.41,1057.78,1055.93,1053.76,1050.71,1046.95,1043.07,1035.40,1023.40,1015.50,1011.18,1009.20,1008.54,1008.10,1007.93,1007.55,1005.95,1003.15,1004.15,1007.41,1010.46,1012.19,1012.18,1009.76,1006.41,1002.77,999.20,996.40,994.69,993.43,992.25,991.24,990.56,990.61,991.88,995.20,999.01,1002.69,1005.64,1006.68,1003.78,999.03,994.83,992.15,990.77,989.70,989.35,989.55,989.97,990.86,992.21,994.08,996.51,999.07,1002.10,1005.70,1009.40,1012.00,1013.77,1015.43,1017.14,1018.94,1021.00,1019.57,1016.67,1013.44,1010.36,1007.64,1005.12,1002.64,1000.04,996.93,994.23,991.77,989.17,985.98,982.26,978.91,976.15,973.90,973.54,974.94,976.87,978.28,979.75,981.14,982.37,983.19,983.07,982.11,980.56,977.93,973.41,970.32,967.78,965.36,962.85,960.02,957.15,954.25,951.24,948.49,950.51,954.43,958.93,963.63,968.71,972.90,975.83,976.81,974.91,972.80,969.59,966.09,964.66,966.15,968.56,970.60,971.74,972.83,973.87,974.22,973.67,972.40,971.22,971.38,972.50,974.22,977.54,981.17,984.86,988.71,992.99,997.61,1001.31
1565.45,1560.40,1555.93,1551.38,1546.16,1540.52,1534.98,1530.62,1524.21,1517.81,1512.09,1506.58,1501.23,1494.34,1487.01,1480.80,1475.11,1469.29,1463.73,1458.14,1451.06,1444.94,1439.74,1434.91,1429.85,1424.78,1420.02,1415.33,1410.61,1406.03,1400.38,1394.11,1388.13,1383.98,1378.81,1373.10,1367.12,1361.11,1355.96,1351.55,1347.18,1342.63,1338.20,1333.55,1328.38,1322.86,1317.28,1311.67,1307.14,1303.24,1299.29,1294.33,1289.62,1285.49,1281.77,1277.81,1273.57,1269.27,1264.80,1260.02,1255.61,1251.55,1247.33,1242.89,1238.79,1234.32,1228.74,1222.53,1216.62,1209.51,1201.48,1194.30,1188.80,1182.06,1174.39,1167.72,1161.99,1155.66,1154.14,1153.12,1151.57,1149.74,1147.86,1145.60,1143.33,1141.60,1141.23,1141.39,1140.92,1140.15,1140.36,1141.01,1140.24,1138.80,1137.12,1133.63,1129.12,1124.70,1120.78,1117.39,1114.11,1110.80,1107.41,1103.70,1098.81,1094.16,1089.89,1086.25,1083.92,1082.10,1080.48,1078.00,1072.66,1067.72,1063.75,1060.94,1059.47,1058.58,1057.81,1057.01,1056.16,1055.38,1053.97,1052.35,1050.41,1047.89,1045.67,1043.43,1038.77,1031.59,1027.81,1026.08,1025.07,1024.20,1022.73,1017.21,1013.45,1010.21,1005.67,1002.60,1002.72,1003.93,1005.07,1005.26,1004.11,1002.41,1000.27,997.71,996.60,995.94,995.05,993.62,991.91,990.38,989.32,989.13,990.57,992.91,995.61,998.47,1000.75,999.81,996.03,991.82,988.35,985.99,984.52,984.03,984.23,984.72,985.45,986.47,987.99,990.08,992.30,995.07,998.78,1003.06,1006.79,1009.94,1012.27,1014.11,1015.94,1018.61,1019.60,1018.79,1016.36,1013.29,1010.32,1007.66,1005.36,1003.46,1001.28,998.73,996.00,993.18,990.09,986.65,983.55,981.04,979.23,978.79,979.80,981.28,982.34,983.30,984.25,984.60,984.05,982.86,981.68,980.30,978.24,974.96,972.80,970.91,968.91,966.51,963.29,959.61,955.37,950.86,947.48,949.70,954.00,958.71,963.22,967.89,971.75,974.31,974.90,972.80,969.35,965.48,962.62,963.08,965.40,967.81,969.71,970.94,971.96,972.62,972.50,971.57,970.22,969.21,969.52,971.13,974.02,978.12,982.72,987.27,991.69,996.37,1000.47,1003.82
1563.83,1558.86,1554.64,1550.20,1544.89,1539.55,1534.76,1529.96,1523.86,1517.65,1511.83,1506.46,1501.48,1494.58,1487.35,1481.80,1476.47,1471.25,1466.27,1461.14,1454.63,1448.96,1444.09,1439.32,1433.61,1427.64,1422.43,1417.75,1413.32,1408.92,1403.74,1397.44,1390.95,1386.52,1381.43,1375.44,1369.04,1362.85,1357.52,1353.52,1349.94,1346.20,1341.79,1337.28,1332.58,1327.46,1321.57,1315.47,1310.35,1306.18,1302.57,1298.19,1292.87,1288.04,1284.04,1280.19,1276.18,1272.11,1267.68,1262.60,1257.85,1254.01,1250.34,1246.35,1241.63,1235.85,1229.81,1224.00,1218.78,1213.55,1205.86,1198.60,1194.23,1190.75,1185.80,1179.77,1172.61,1164.40,1162.68,1161.31,1159.16,1156.95,1155.01,1152.93,1150.79,1149.03,1148.73,1148.79,1148.44,1147.67,1146.97,1147.31,1146.51,1145.92,1146.03,1142.39,1136.55,1130.91,1126.38,1122.92,1119.99,1117.08,1113.81,1109.50,1103.22,1098.05,1093.77,1090.40,1088.84,1087.57,1085.51,1082.12,1076.72,1070.98,1066.57,1063.30,1060.83,1058.87,1057.09,1055.61,1054.45,1053.48,1052.29,1050.99,1049.43,1047.44,1046.46,1045.86,1045.28,1044.66,1044.17,1043.72,1042.95,1041.76,1039.22,1029.10,1022.51,1017.75,1011.40,1005.25,1002.04,1000.43,999.75,999.74,999.57,999.12,998.17,996.83,998.12,999.15,999.02,997.46,995.02,992.44,990.04,988.11,987.20,987.54,988.93,991.41,994.62,995.35,992.88,989.12,985.20,982.16,980.39,979.70,979.69,980.09,980.73,981.51,982.63,984.25,986.16,988.44,991.75,996.02,1000.62,1005.31,1008.53,1010.73,1012.72,1015.24,1018.32,1019.81,1018.82,1016.23,1013.14,1010.31,1007.97,1006.25,1004.70,1002.18,999.10,995.94,993.19,990.39,987.86,985.84,984.62,984.00,984.49,985.54,986.43,986.78,986.77,985.82,983.79,981.63,980.36,979.02,977.31,975.28,973.75,972.24,970.52,968.23,964.51,960.07,954.80,949.47,946.55,949.23,953.97,958.98,963.50,967.74,971.05,973.00,972.98,970.31,965.40,961.44,960.03,962.41,964.70,966.61,968.21,969.53,970.51,970.83,970.36,969.31,968.38,968.19,969.17,971.45,975.17,979.30,984.26,989.42,994.46,999.40,1002.88,1005.98
1561.83,1557.49,1553.25,1548.57,1543.22,1537.97,1533.14,1527.86,1521.73,1515.90,1510.63,1505.52,1499.99,1493.14,1486.44,1481.44,1476.05,1470.82,1466.00,1461.54,1456.76,1452.25,1447.73,1442.98,1437.71,1431.94,1425.98,1420.67,1416.38,1411.88,1406.72,1400.93,1394.97,1389.79,1384.28,1378.06,1371.51,1365.13,1359.09,1354.86,1351.76,1348.86,1344.34,1339.91,1335.59,1331.21,1326.44,1320.58,1314.36,1308.98,1305.08,1301.25,1296.36,1291.26,1286.62,1282.93,1278.88,1274.80,1270.55,1265.79,1260.78,1256.95,1253.49,1249.45,1243.55,1237.46,1231.63,1226.09,1220.85,1215.95,1210.93,1204.94,1198.24,1194.76,1192.05,1189.11,1184.93,1178.26,1176.10,1173.12,1168.77,1164.47,1162.08,1160.23,1158.37,1156.44,1154.81,1154.71,1154.72,1154.12,1152.69,1152.91,1152.95,1152.91,1152.56,1149.35,1144.44,1139.20,1133.92,1128.43,1124.79,1121.68,1117.90,1112.40,1106.51,1100.84,1096.79,1095.42,1096.55,1095.70,1092.11,1087.08,1083.04,1077.63,1073.95,1071.15,1067.89,1064.03,1060.58,1058.45,1057.63,1056.83,1055.68,1054.61,1053.41,1051.79,1050.61,1050.19,1050.03,1049.85,1049.77,1049.36,1048.73,1047.82,1045.93,1040.53,1036.80,1030.15,1017.35,1011.78,1007.94,1003.88,1000.10,999.20,998.83,998.70,998.68,999.09,1001.94,1004.58,1005.23,1003.21,1000.43,997.22,994.08,991.17,988.56,986.15,985.67,986.83,988.85,989.84,988.79,986.14,982.42,979.02,977.67,976.87,976.09,975.45,975.61,976.40,977.60,979.21,981.32,983.57,986.29,989.61,993.64,999.01,1003.16,1006.34,1009.26,1012.07,1015.26,1018.07,1019.67,1018.92,1016.35,1013.38,1010.78,1009.21,1008.16,1005.47,1001.91,998.39,995.68,993.33,991.42,989.85,988.29,987.49,988.03,989.17,989.94,989.80,987.49,984.44,981.55,979.46,977.87,976.09,974.11,972.28,970.91,969.49,967.76,965.51,962.61,957.57,951.97,947.28,945.89,949.15,954.39,959.93,964.79,969.10,971.59,972.34,970.89,966.36,961.16,958.84,959.59,962.15,963.44,964.12,964.96,966.31,967.48,967.90,967.32,966.42,967.21,969.18,971.70,974.69,978.24,981.53,985.59,990.18,995.14,1000.17,1003.81,1007.07
1558.68,1555.49,1551.37,1546.53,1541.20,1535.86,1530.66,1525.08,1519.23,1513.76,1508.72,1503.62,1497.15,1490.60,1484.75,1479.89,1474.25,1469.12,1464.44,1460.07,1455.89,1452.20,1448.16,1443.64,1438.78,1433.40,1427.95,1423.05,1418.91,1414.31,1409.08,1403.19,1397.16,1392.12,1386.50,1380.09,1373.38,1366.66,1358.90,1352.43,1347.98,1345.07,1340.85,1337.57,1334.67,1331.92,1329.08,1324.78,1318.85,1312.91,1308.19,1304.18,1299.68,1294.66,1289.59,1285.53,1281.44,1277.41,1273.31,1268.84,1263.75,1259.45,1255.66,1251.74,1246.36,1240.64,1234.96,1229.36,1223.89,1219.05,1214.90,1210.00,1203.75,1198.99,1196.30,1194.21,1191.55,1187.04,1184.62,1180.52,1175.57,1172.11,1170.17,1167.67,1165.08,1163.10,1162.35,1162.23,1161.55,1160.29,1159.24,1159.55,1159.76,1159.26,1157.42,1153.61,1148.25,1142.40,1136.47,1130.73,1126.28,1122.37,1117.91,1112.04,1107.39,1104.26,1102.68,1102.75,1103.62,1101.99,1098.07,1093.29,1089.90,1085.57,1081.99,1078.59,1074.47,1069.42,1065.89,1064.09,1063.38,1061.93,1060.60,1059.20,1057.80,1056.63,1055.74,1055.41,1055.18,1054.88,1054.76,1054.32,1053.66,1052.40,1049.51,1046.17,1044.37,1039.65,1028.27,1018.31,1013.16,1009.16,1005.45,1004.14,1003.58,1003.21,1003.11,1003.88,1006.36,1009.63,1011.47,1010.27,1006.40,1001.85,997.65,994.05,991.01,987.91,985.93,984.82,984.31,984.50,983.95,982.45,980.66,980.65,981.07,980.22,978.51,977.16,976.28,975.64,975.06,974.80,976.04,978.11,980.93,984.38,988.28,993.46,998.16,1002.18,1005.66,1008.76,1012.07,1015.39,1018.17,1019.13,1017.75,1015.36,1012.90,1011.18,1009.90,1007.63,1005.01,1002.38,998.95,996.54,994.98,993.83,992.38,991.41,991.52,992.18,992.47,991.17,987.20,982.91,979.57,977.45,975.54,973.37,970.94,968.53,966.84,965.34,963.64,961.50,958.95,954.28,949.26,945.52,945.48,949.18,954.64,960.35,965.07,968.49,970.58,970.49,967.47,962.08,957.21,955.68,956.98,959.09,960.37,960.84,961.40,962.60,963.76,964.66,965.32,966.18,968.42,971.78,975.15,978.22,980.93,983.51,986.80,991.02,996.05,1000.91,1004.70,1008.35
1554.36,1552.73,1548.96,1544.08,1538.76,1533.30,1527.72,1521.91,1516.44,1511.31,1506.37,1501.09,1493.80,1487.67,1482.61,1477.61,1471.78,1466.86,1462.26,1457.65,1453.23,1449.73,1446.07,1442.00,1437.55,1432.73,1428.32,1424.27,1420.25,1415.62,1410.38,1404.27,1398.03,1393.43,1387.88,1381.40,1374.58,1367.39,1357.19,1347.45,1340.84,1337.59,1333.88,1332.00,1330.66,1329.52,1328.58,1326.36,1321.84,1316.45,1311.38,1307.07,1302.87,1298.07,1292.83,1288.21,1284.02,1279.99,1275.94,1271.62,1266.59,1261.73,1257.42,1253.61,1249.36,1244.38,1239.03,1233.43,1227.67,1222.65,1218.40,1214.37,1209.83,1203.78,1200.04,1197.38,1195.01,1192.36,1189.59,1185.04,1180.69,1179.29,1178.04,1174.68,1171.22,1169.36,1170.11,1169.81,1168.27,1166.51,1166.41,1166.72,1166.39,1164.66,1160.89,1155.81,1149.37,1142.62,1136.29,1131.10,1126.08,1121.47,1116.66,1111.18,1107.88,1108.21,1109.77,1110.79,1109.92,1107.03,1103.35,1099.68,1096.75,1093.68,1089.80,1085.35,1080.44,1074.89,1071.92,1070.61,1069.78,1067.59,1066.00,1064.10,1062.28,1061.47,1061.04,1060.76,1060.50,1060.23,1060.02,1059.38,1058.39,1056.35,1051.98,1049.19,1048.57,1047.18,1040.97,1026.91,1020.21,1016.90,1014.72,1013.76,1012.67,1011.28,1010.10,1010.00,1011.01,1014.26,1017.22,1017.23,1012.08,1006.16,1001.01,996.97,993.94,991.22,988.29,985.15,982.21,981.05,980.49,980.23,981.14,985.32,987.52,986.65,984.20,982.33,980.19,977.54,974.54,971.85,971.53,972.65,975.40,979.39,983.63,988.46,993.45,998.14,1002.07,1005.53,1008.93,1012.28,1015.37,1017.62,1017.69,1016.13,1013.84,1011.82,1010.01,1008.17,1006.71,1005.32,1001.58,999.46,998.43,997.75,996.59,995.52,995.00,994.78,994.12,991.44,986.29,981.36,977.93,975.74,973.52,971.00,968.09,964.91,962.74,961.15,959.40,957.06,954.43,950.57,946.56,943.90,945.20,949.25,954.73,960.26,964.45,966.64,968.37,967.50,963.11,957.59,953.52,952.32,953.24,954.67,956.35,957.28,958.07,959.25,960.58,962.19,964.45,967.40,970.77,974.90,978.61,981.46,983.32,985.39,988.14,992.09,997.17,1001.73,1005.69,1009.78
1547.60,1548.20,1545.35,1540.64,1535.34,1530.03,1524.66,1518.57,1513.10,1508.30,1503.66,1497.99,1491.12,1485.35,1480.21,1474.78,1469.40,1464.72,1460.13,1455.19,1449.57,1444.41,1440.51,1437.25,1433.36,1429.37,1425.63,1421.92,1417.95,1413.50,1408.54,1403.06,1397.46,1392.65,1387.13,1380.99,1374.40,1366.41,1352.99,1340.06,1331.78,1328.67,1325.46,1323.68,1322.21,1320.85,1319.99,1319.25,1317.78,1315.88,1313.58,1310.02,1305.80,1301.26,1296.46,1291.49,1286.98,1282.68,1278.36,1273.76,1268.86,1264.13,1259.69,1255.47,1251.17,1247.03,1242.95,1238.38,1232.38,1226.61,1222.34,1218.76,1214.94,1210.08,1205.59,1201.51,1197.85,1194.62,1190.79,1187.33,1185.02,1184.32,1182.80,1179.68,1176.90,1175.64,1175.61,1174.25,1173.36,1173.50,1174.35,1173.88,1171.51,1167.57,1162.05,1155.19,1148.15,1141.60,1135.71,1130.36,1125.91,1122.27,1118.81,1114.97,1111.80,1112.98,1115.57,1116.93,1114.69,1111.05,1107.33,1104.29,1102.61,1099.96,1095.68,1090.54,1085.31,1080.62,1077.24,1075.10,1073.78,1072.18,1070.53,1068.58,1066.72,1065.64,1065.09,1064.97,1065.51,1066.62,1066.90,1065.58,1063.27,1060.07,1055.86,1053.81,1053.59,1053.18,1050.38,1044.28,1036.57,1031.21,1029.84,1031.28,1028.19,1023.68,1019.37,1016.36,1015.58,1018.14,1021.00,1021.12,1015.55,1009.66,1004.73,1000.68,996.91,994.35,992.06,989.78,987.46,984.90,984.17,985.44,988.57,992.35,993.55,992.63,990.57,988.17,985.03,981.09,977.08,973.66,971.28,968.58,969.02,972.97,978.39,983.86,989.05,994.07,998.89,1002.88,1006.16,1009.26,1012.17,1014.34,1015.44,1014.20,1011.50,1009.15,1007.10,1004.41,1002.05,1000.76,999.90,1000.52,1001.31,1001.45,1000.33,999.34,998.45,997.02,994.23,990.62,984.80,979.86,977.02,974.72,972.39,969.59,966.37,963.12,960.87,959.45,957.20,953.32,949.95,946.68,943.53,941.89,944.89,949.29,954.51,959.32,962.35,964.06,964.50,962.46,957.73,952.88,950.34,949.38,949.52,950.65,952.28,954.14,956.16,958.39,960.95,963.39,966.00,969.01,972.74,976.84,980.34,983.15,985.40,987.41,990.13,993.85,998.46,1002.90,1007.00,1011.30
1538.49,1541.56,1540.63,1536.86,1532.03,1526.94,1521.55,1514.89,1509.71,1505.29,1500.69,1494.69,1488.55,1483.08,1477.76,1472.08,1467.19,1462.65,1458.02,1452.91,1446.65,1440.23,1435.63,1432.24,1428.38,1424.76,1421.43,1417.98,1414.11,1409.94,1405.15,1400.05,1395.01,1390.55,1385.46,1379.70,1373.40,1365.56,1352.18,1337.87,1327.35,1322.08,1318.66,1316.13,1313.85,1311.88,1310.76,1310.22,1310.01,1309.83,1309.27,1307.74,1305.29,1302.56,1299.33,1294.55,1289.70,1285.13,1280.80,1276.57,1271.84,1267.19,1262.72,1258.34,1253.71,1249.39,1245.72,1242.06,1237.07,1231.14,1226.43,1222.76,1219.63,1216.14,1211.97,1207.51,1203.12,1199.14,1194.66,1191.63,1190.06,1189.28,1186.84,1184.47,1182.82,1181.84,1180.38,1178.51,1178.01,1178.88,1179.83,1178.56,1174.61,1169.07,1162.51,1154.61,1147.95,1142.50,1137.75,1132.73,1128.36,1125.03,1122.17,1119.13,1116.17,1117.51,1120.54,1122.35,1119.26,1114.87,1111.14,1108.74,1107.74,1104.58,1099.91,1094.84,1090.18,1085.97,1082.28,1079.50,1077.68,1076.30,1074.82,1073.37,1072.13,1071.27,1070.51,1069.95,1070.45,1072.07,1072.57,1070.53,1067.09,1062.99,1059.16,1058.66,1058.96,1058.59,1056.66,1053.53,1046.57,1041.54,1040.59,1041.19,1037.01,1031.59,1026.43,1022.31,1020.52,1022.75,1025.37,1025.07,1019.48,1014.43,1009.86,1005.43,1001.17,998.81,997.01,995.30,993.40,990.48,989.69,991.64,995.58,998.06,998.34,996.93,994.36,990.81,986.71,981.99,977.50,973.77,970.25,965.92,964.37,966.80,972.89,979.11,984.65,989.75,994.63,998.71,1001.93,1004.88,1007.83,1010.77,1012.69,1012.17,1009.78,1006.80,1004.07,1000.75,997.73,996.08,996.38,998.17,999.89,1000.79,1000.52,1000.28,999.73,998.05,994.40,990.33,984.43,979.60,976.95,974.76,972.71,970.43,967.90,965.32,962.99,961.16,958.22,953.19,948.29,944.33,941.47,940.83,944.85,949.44,954.25,958.00,959.26,959.91,959.26,956.80,952.71,949.33,947.78,947.35,947.74,949.10,951.00,953.46,956.14,958.99,962.43,965.54,968.92,972.71,976.52,979.85,982.87,985.52,987.66,989.65,992.36,995.80,999.86,1004.04,1008.04,1011.72
1527.82,1533.05,1534.58,1532.45,1528.49,1523.69,1518.05,1510.98,1506.34,1502.22,1497.43,1491.31,1485.95,1480.65,1475.14,1469.58,1465.16,1460.67,1455.97,1450.78,1444.41,1437.24,1431.68,1427.46,1423.22,1419.58,1416.39,1413.12,1409.44,1405.62,1400.86,1395.87,1391.21,1387.47,1383.01,1377.67,1371.74,1364.81,1354.03,1340.24,1327.53,1318.41,1313.63,1309.71,1306.32,1303.61,1302.05,1300.86,1300.34,1300.15,1300.22,1301.07,1301.38,1301.42,1300.51,1296.61,1291.91,1287.32,1283.24,1279.72,1275.23,1270.63,1266.22,1261.86,1256.88,1251.80,1247.83,1244.77,1241.46,1236.08,1230.91,1226.79,1224.03,1221.64,1218.49,1214.60,1210.18,1205.69,1200.98,1197.73,1195.87,1194.50,1190.93,1189.37,1188.77,1187.81,1184.95,1183.03,1182.53,1182.99,1183.22,1181.16,1176.25,1169.96,1163.10,1154.89,1149.09,1144.95,1141.49,1137.22,1132.82,1129.41,1126.59,1123.64,1120.99,1122.17,1125.19,1127.26,1123.64,1118.58,1114.94,1113.10,1111.95,1107.78,1102.98,1098.67,1095.14,1091.12,1087.20,1084.02,1081.77,1080.23,1079.02,1078.35,1078.03,1077.72,1076.91,1075.76,1075.63,1076.88,1077.26,1074.62,1070.29,1065.53,1062.35,1063.72,1064.54,1063.67,1060.89,1056.51,1051.38,1048.23,1047.17,1044.76,1040.36,1035.87,1031.74,1028.10,1026.00,1027.91,1030.00,1028.99,1023.77,1019.84,1015.59,1010.69,1006.37,1004.33,1002.92,1001.42,999.43,996.77,996.07,998.04,1001.63,1002.46,1001.83,999.54,995.81,990.90,986.26,981.31,976.75,972.94,968.99,964.67,961.51,961.49,967.68,974.36,980.21,985.22,989.51,993.25,996.38,999.31,1002.53,1006.74,1009.36,1010.04,1008.70,1005.00,1001.36,997.64,994.22,991.88,991.86,993.50,995.38,996.91,997.93,998.80,999.02,997.94,994.82,990.73,985.26,980.63,977.78,975.84,974.33,973.01,971.71,970.08,967.62,964.95,961.17,955.42,948.64,943.29,940.27,940.42,945.01,949.68,953.89,956.28,955.49,954.69,953.32,951.05,948.24,946.71,945.93,946.30,947.62,949.46,951.86,954.58,957.44,960.58,964.55,968.23,972.60,977.47,981.20,983.59,986.06,988.43,990.13,992.12,994.78,997.90,1001.36,1004.94,1008.39,1010.78
1517.28,1522.36,1525.45,1525.68,1523.09,1518.54,1512.66,1507.19,1503.06,1498.63,1493.47,1488.05,1483.11,1477.35,1471.69,1467.35,1463.41,1458.95,1454.12,1448.83,1442.51,1435.01,1428.78,1423.83,1419.23,1415.24,1411.75,1408.45,1405.12,1401.57,1396.72,1391.74,1387.28,1383.63,1379.37,1374.51,1369.26,1363.47,1355.76,1345.53,1333.38,1320.61,1311.08,1305.28,1301.22,1298.08,1295.85,1294.22,1292.64,1291.43,1291.08,1291.71,1292.91,1294.59,1295.86,1294.56,1292.45,1289.25,1285.53,1281.88,1277.84,1273.58,1269.30,1264.96,1260.14,1255.18,1250.93,1247.49,1244.61,1241.03,1236.90,1232.40,1228.03,1225.59,1223.10,1220.30,1217.05,1213.01,1208.35,1204.89,1202.59,1200.64,1197.06,1194.95,1193.88,1192.91,1190.53,1188.54,1187.49,1186.86,1185.36,1182.35,1177.60,1172.13,1166.29,1158.68,1152.53,1147.68,1143.80,1140.40,1137.64,1135.34,1133.02,1130.20,1127.52,1128.66,1130.93,1131.54,1127.44,1122.11,1118.85,1117.09,1113.76,1109.17,1105.62,1102.90,1100.26,1096.80,1092.47,1088.79,1086.31,1084.70,1083.44,1082.85,1082.71,1082.67,1082.67,1082.49,1082.35,1082.37,1082.25,1079.41,1074.36,1069.13,1067.65,1069.61,1070.11,1068.63,1065.41,1061.08,1056.84,1053.54,1050.91,1047.20,1043.19,1039.95,1037.25,1034.62,1032.80,1032.93,1033.06,1031.48,1027.36,1023.40,1019.22,1014.93,1011.57,1010.21,1009.73,1008.63,1005.81,1002.63,1002.26,1004.17,1006.71,1005.89,1003.23,999.60,995.18,990.12,987.16,983.37,979.28,975.43,971.04,965.95,961.13,959.17,964.85,970.24,975.63,980.55,984.29,987.07,989.72,992.78,996.50,1000.73,1004.16,1006.92,1007.58,1003.68,999.77,995.61,991.45,988.16,987.82,989.26,991.20,993.07,994.42,995.64,996.34,996.50,995.64,992.29,987.86,983.59,980.24,978.60,977.42,976.37,975.18,973.42,970.80,967.21,962.47,956.21,948.68,943.01,939.68,939.73,945.17,950.08,953.04,953.57,951.37,949.72,948.32,946.63,944.85,944.50,945.60,947.16,948.79,950.51,953.01,955.74,958.81,962.53,966.92,971.38,975.74,979.87,983.49,986.52,988.98,991.01,992.83,995.04,997.53,1000.30,1003.08,1004.82,1006.22,1007.17
1508.17,1512.70,1516.13,1517.54,1516.15,1512.52,1507.33,1502.92,1498.77,1493.95,1488.55,1483.57,1478.41,1473.02,1468.24,1464.85,1461.27,1457.06,1452.26,1446.80,1440.48,1433.28,1426.66,1420.97,1416.25,1412.00,1408.25,1404.85,1401.57,1397.71,1392.48,1387.20,1382.53,1378.70,1374.84,1370.85,1366.63,1361.82,1355.64,1348.25,1338.03,1324.60,1310.99,1302.33,1296.92,1293.20,1290.06,1287.45,1285.13,1283.43,1282.79,1283.05,1284.36,1286.28,1288.11,1288.41,1288.03,1286.35,1283.75,1280.72,1277.38,1273.90,1269.91,1265.32,1260.84,1256.23,1252.28,1248.93,1245.87,1243.80,1241.25,1237.62,1233.08,1229.97,1227.36,1224.98,1222.52,1219.24,1215.42,1211.98,1209.18,1206.85,1203.49,1200.59,1198.75,1197.82,1196.07,1194.24,1192.67,1190.99,1188.16,1184.30,1179.79,1175.01,1169.83,1163.10,1156.70,1151.17,1146.97,1144.88,1143.33,1141.54,1139.41,1137.09,1135.16,1135.92,1136.54,1134.85,1130.36,1125.46,1122.74,1121.08,1116.86,1112.33,1109.52,1107.53,1105.15,1101.84,1097.48,1093.77,1091.29,1089.52,1088.17,1087.45,1087.20,1087.29,1087.87,1088.56,1088.81,1088.33,1087.42,1084.32,1079.10,1074.00,1073.67,1075.58,1075.87,1074.15,1070.70,1066.76,1062.79,1058.80,1054.71,1050.49,1046.87,1044.27,1042.23,1040.12,1038.45,1037.37,1036.11,1034.02,1030.78,1027.19,1023.58,1020.31,1018.17,1017.46,1017.34,1016.30,1013.16,1009.59,1009.43,1010.56,1010.94,1007.93,1003.76,999.49,995.38,991.69,989.82,986.70,982.83,978.59,973.36,967.50,961.62,958.15,961.98,966.29,970.91,975.19,978.33,980.61,983.47,986.98,991.06,995.38,999.57,1003.66,1005.80,1002.87,998.83,994.33,989.43,984.86,983.81,984.87,986.89,989.11,990.68,992.16,993.19,994.03,994.62,993.13,990.48,987.35,984.34,982.64,981.38,979.97,978.25,976.06,972.93,968.60,963.39,957.15,949.17,943.18,939.17,938.45,944.13,949.50,951.59,950.78,948.05,945.83,944.39,943.16,942.34,943.45,946.39,948.81,950.43,952.03,954.23,956.72,960.11,964.85,969.74,974.73,979.02,982.58,986.07,989.23,991.59,993.36,994.91,996.68,998.64,1000.47,1001.71,1001.64,1001.49,1001.40
1500.34,1504.36,1507.16,1508.45,1507.93,1505.77,1502.06,1497.76,1492.97,1487.64,1482.17,1477.35,1471.75,1467.72,1464.78,1461.89,1458.58,1454.84,1450.22,1444.53,1438.21,1431.84,1425.15,1418.83,1414.17,1409.80,1405.90,1402.30,1398.61,1393.83,1387.94,1382.14,1377.01,1372.92,1369.70,1366.89,1363.87,1359.74,1353.54,1347.70,1340.27,1329.26,1313.47,1301.32,1293.63,1288.82,1284.56,1280.53,1277.88,1276.26,1275.46,1275.56,1276.40,1277.36,1278.18,1278.73,1278.79,1278.37,1277.45,1275.77,1273.22,1270.80,1267.24,1262.34,1258.30,1254.15,1250.99,1248.25,1244.73,1243.58,1242.68,1241.05,1238.18,1234.40,1231.22,1228.68,1226.54,1224.24,1221.81,1218.64,1215.40,1212.89,1209.88,1206.22,1203.63,1202.63,1201.29,1199.79,1197.88,1195.37,1191.85,1187.27,1182.86,1178.42,1173.41,1167.50,1161.23,1155.42,1151.29,1150.70,1149.58,1147.54,1145.28,1143.85,1143.37,1143.43,1141.78,1137.52,1132.86,1128.89,1126.71,1125.22,1121.73,1117.63,1114.76,1112.46,1109.74,1106.10,1102.13,1098.91,1096.67,1094.74,1093.36,1092.42,1091.91,1092.00,1092.78,1093.94,1094.78,1094.60,1092.74,1089.34,1084.53,1080.19,1080.21,1081.61,1081.79,1080.12,1076.54,1073.04,1068.92,1064.16,1059.14,1054.95,1051.57,1048.88,1046.56,1044.32,1042.56,1041.12,1039.35,1036.89,1034.18,1031.49,1028.97,1026.93,1026.08,1025.91,1025.51,1024.19,1021.36,1017.69,1017.43,1017.02,1014.34,1008.97,1004.16,1000.15,997.22,995.88,993.94,990.77,986.75,981.83,975.37,968.96,962.75,958.20,958.78,962.27,965.91,969.06,971.68,974.07,977.84,982.12,986.52,991.18,995.98,1000.48,1003.43,1002.51,998.44,993.74,988.16,982.19,979.99,980.34,982.29,984.92,986.83,988.56,989.76,990.65,991.56,992.73,992.39,991.15,989.38,987.42,985.73,983.50,980.84,978.07,974.12,969.29,964.15,958.39,950.20,943.82,938.89,936.87,941.83,947.61,949.25,947.80,945.35,942.86,941.50,940.72,940.84,943.63,948.01,950.90,952.35,953.94,955.53,957.68,961.50,967.50,972.99,978.11,982.33,985.73,989.03,991.46,993.44,994.92,995.65,996.26,997.22,997.47,996.46,994.94,994.09,993.66
1491.09,1495.63,1498.71,1500.19,1499.83,1498.01,1494.67,1489.81,1483.69,1477.25,1471.41,1467.61,1464.46,1462.18,1460.19,1457.85,1455.09,1451.61,1447.03,1441.30,1435.30,1429.47,1423.38,1417.39,1412.36,1407.84,1403.71,1399.48,1394.61,1388.62,1382.25,1376.47,1371.72,1368.29,1365.59,1363.20,1360.39,1356.26,1350.80,1345.81,1340.01,1331.68,1318.77,1305.43,1294.43,1286.25,1280.92,1276.55,1273.29,1270.72,1268.83,1268.23,1268.49,1268.91,1269.26,1269.57,1269.74,1269.45,1268.58,1266.85,1264.29,1261.80,1258.71,1254.88,1251.37,1247.68,1244.55,1241.76,1238.87,1237.74,1236.71,1235.82,1235.22,1234.21,1232.75,1231.48,1230.43,1228.97,1226.58,1223.70,1220.85,1218.43,1215.85,1212.37,1209.23,1207.12,1205.51,1203.90,1202.00,1199.49,1195.73,1190.28,1185.81,1181.97,1177.57,1171.06,1165.13,1159.85,1155.89,1154.92,1153.64,1151.84,1150.08,1149.20,1149.14,1148.78,1146.58,1142.22,1138.31,1134.22,1131.52,1129.80,1127.23,1123.37,1119.89,1116.87,1113.85,1109.99,1106.49,1103.88,1102.18,1100.83,1099.90,1099.05,1098.35,1098.23,1099.05,1100.15,1100.80,1100.34,1098.11,1094.91,1090.98,1087.56,1087.26,1088.16,1087.61,1085.17,1081.00,1077.03,1073.30,1069.18,1064.61,1060.23,1056.91,1053.65,1050.37,1047.49,1045.66,1044.06,1042.26,1040.13,1037.95,1035.74,1034.02,1033.03,1032.95,1033.14,1032.65,1031.28,1028.78,1025.30,1024.01,1021.63,1017.00,1011.97,1008.00,1004.97,1002.57,1000.31,997.03,993.39,989.29,984.12,976.72,970.45,964.70,959.45,956.05,957.18,959.55,962.32,965.50,968.43,972.59,977.75,983.39,988.30,993.18,997.90,1001.59,1002.28,998.50,993.54,987.70,981.41,977.90,976.39,977.12,979.70,982.85,984.53,985.68,986.79,988.13,989.75,990.79,991.15,990.76,989.57,988.00,985.59,982.59,979.37,974.75,969.71,964.67,959.22,951.50,945.47,940.42,937.32,939.47,943.52,944.46,942.89,940.64,938.65,939.12,940.22,941.48,944.53,949.01,952.36,954.38,955.89,957.33,959.80,964.06,970.33,976.23,980.62,984.22,987.33,989.79,991.10,991.74,991.86,991.37,990.74,989.76,988.25,986.23,984.47,983.68,984.57
1481.41,1485.94,1489.16,1490.77,1490.67,1489.18,1485.95,1480.26,1473.30,1466.38,1460.53,1457.28,1455.52,1454.29,1453.05,1451.45,1449.51,1446.33,1442.39,1437.69,1431.78,1426.30,1420.83,1415.32,1410.04,1405.48,1401.02,1396.19,1390.53,1383.87,1377.40,1371.89,1367.58,1364.45,1361.61,1359.11,1356.27,1352.33,1347.77,1343.31,1338.46,1332.18,1322.48,1309.88,1297.20,1286.20,1278.82,1273.82,1269.71,1265.71,1261.95,1260.13,1259.74,1260.01,1260.54,1261.02,1261.19,1260.70,1259.53,1257.56,1255.03,1252.47,1249.82,1247.04,1244.17,1241.01,1237.81,1234.78,1232.31,1230.85,1229.55,1228.90,1229.44,1230.37,1230.95,1231.81,1233.01,1233.75,1232.13,1229.15,1225.92,1223.35,1221.07,1218.17,1215.18,1212.53,1210.41,1208.23,1205.99,1203.43,1199.78,1194.22,1189.43,1185.48,1181.48,1175.02,1169.88,1165.65,1162.36,1160.67,1158.32,1156.22,1154.68,1153.98,1153.89,1153.21,1150.96,1147.09,1143.77,1139.65,1136.63,1134.77,1132.75,1128.93,1125.13,1121.72,1118.53,1114.80,1111.64,1109.34,1107.88,1106.92,1106.20,1105.52,1104.95,1104.81,1105.57,1106.16,1106.32,1105.66,1103.49,1100.32,1097.16,1094.83,1094.30,1094.43,1092.97,1089.86,1085.43,1080.94,1077.15,1073.40,1069.30,1064.88,1061.68,1058.25,1054.50,1051.09,1048.90,1046.99,1045.16,1043.39,1041.69,1040.07,1039.07,1038.80,1039.07,1039.17,1038.52,1037.18,1035.15,1032.13,1029.56,1025.73,1020.43,1015.94,1012.79,1010.31,1007.76,1004.21,999.68,995.57,991.51,986.46,978.63,972.51,966.85,960.92,954.93,952.87,953.12,955.35,959.69,963.56,968.30,974.18,980.69,985.84,990.80,995.63,999.81,1001.74,998.57,993.66,987.80,981.50,977.08,974.03,973.01,974.34,977.83,979.91,981.51,983.09,984.79,986.43,988.13,989.39,989.86,989.31,987.99,986.08,983.62,980.33,975.50,970.33,965.26,959.96,952.86,947.17,942.11,937.96,936.67,938.88,939.29,938.21,937.39,937.01,938.91,941.16,943.06,945.80,949.91,953.70,956.49,957.85,959.17,961.87,966.40,972.76,978.75,982.22,984.72,986.85,988.24,988.46,987.93,986.91,985.49,983.97,981.68,979.03,976.47,974.69,974.05,975.89
1471.39,1474.89,1477.82,1479.53,1480.11,1479.27,1476.13,1469.55,1462.62,1456.29,1451.00,1447.40,1444.69,1443.33,1442.64,1441.87,1440.97,1438.19,1435.78,1433.55,1427.58,1422.24,1417.20,1412.12,1406.95,1402.46,1397.59,1392.35,1386.72,1380.33,1374.27,1369.19,1365.10,1361.44,1357.62,1354.40,1351.44,1348.15,1344.43,1340.24,1335.74,1330.45,1322.93,1313.06,1301.52,1289.39,1278.68,1272.19,1266.93,1261.12,1254.71,1251.01,1249.86,1250.35,1251.80,1253.16,1253.30,1252.51,1251.06,1249.02,1246.82,1244.50,1242.22,1240.07,1237.91,1235.35,1232.19,1228.83,1226.15,1224.14,1222.83,1222.09,1222.00,1222.66,1224.92,1228.51,1233.12,1237.87,1238.64,1235.40,1230.82,1227.71,1225.45,1223.34,1221.29,1219.19,1216.52,1213.32,1210.23,1207.27,1203.99,1199.45,1194.03,1189.01,1184.98,1179.89,1176.06,1173.32,1171.25,1168.89,1164.53,1161.29,1159.44,1158.43,1158.01,1157.01,1154.88,1151.58,1148.36,1144.65,1141.88,1140.05,1137.99,1134.09,1130.54,1127.37,1124.18,1121.07,1118.10,1115.68,1113.99,1112.88,1111.91,1111.43,1111.32,1111.45,1112.00,1111.59,1110.95,1110.34,1108.57,1105.05,1102.42,1101.22,1100.70,1099.64,1097.23,1093.88,1089.88,1085.15,1080.67,1076.57,1072.63,1068.42,1065.47,1062.52,1059.21,1055.62,1052.69,1050.28,1048.28,1046.65,1045.33,1044.55,1044.21,1044.18,1044.26,1043.69,1042.64,1041.38,1039.92,1037.61,1033.78,1029.41,1024.94,1020.55,1017.71,1014.89,1011.50,1007.16,1001.93,997.53,993.62,989.12,981.60,975.38,969.13,962.49,956.09,950.19,947.23,948.42,954.37,959.61,965.21,971.49,978.09,983.59,988.72,993.55,997.89,1000.65,998.47,994.11,988.50,982.28,977.63,973.82,970.79,969.38,971.52,974.62,977.42,979.73,981.61,983.34,984.93,986.13,986.64,986.25,985.21,984.58,983.73,980.96,976.53,971.32,966.03,960.70,954.25,948.63,943.46,938.34,933.51,934.25,934.47,934.65,936.96,939.43,941.65,943.59,945.40,947.63,951.11,955.20,958.68,959.80,960.92,963.54,968.09,974.49,980.11,982.57,983.46,983.73,983.91,983.25,982.08,980.56,978.71,976.78,974.36,971.59,968.84,967.02,966.45,968.12
1459.85,1462.41,1465.84,1469.13,1471.16,1471.38,1468.83,1462.68,1456.03,1450.10,1445.16,1441.17,1437.84,1435.50,1433.57,1431.58,1430.03,1427.84,1426.62,1426.28,1423.61,1418.59,1413.37,1408.51,1403.93,1399.42,1394.49,1389.39,1384.22,1378.53,1372.89,1367.72,1363.16,1359.14,1354.41,1350.30,1346.89,1343.86,1340.45,1336.48,1332.37,1327.81,1321.32,1313.05,1304.10,1294.11,1282.10,1272.46,1265.49,1258.24,1249.48,1243.73,1241.37,1241.39,1242.88,1244.42,1244.94,1244.70,1243.81,1242.19,1240.28,1238.07,1236.08,1234.50,1232.80,1230.39,1227.18,1223.62,1220.64,1218.36,1216.80,1215.75,1215.20,1215.35,1217.41,1220.90,1225.62,1231.57,1237.28,1238.90,1237.50,1235.00,1231.91,1228.56,1225.84,1223.94,1221.58,1218.97,1216.01,1212.51,1208.06,1203.66,1198.54,1193.63,1189.75,1185.99,1182.82,1180.13,1177.65,1174.68,1170.68,1167.60,1165.61,1164.49,1163.77,1161.98,1159.23,1155.82,1152.66,1149.32,1146.47,1144.11,1141.73,1138.75,1135.80,1132.86,1129.91,1127.53,1125.44,1123.59,1121.97,1120.57,1119.48,1118.51,1117.82,1117.74,1117.59,1116.09,1114.09,1112.10,1109.81,1106.72,1104.19,1102.39,1100.75,1098.56,1095.90,1092.95,1089.76,1086.25,1082.93,1079.77,1076.51,1072.66,1069.43,1066.35,1063.28,1060.36,1057.62,1055.27,1053.11,1051.09,1049.64,1049.37,1049.22,1048.78,1047.93,1046.03,1044.19,1042.61,1041.04,1038.72,1034.84,1030.56,1026.42,1022.39,1019.11,1015.90,1012.43,1008.39,1003.61,999.29,995.33,991.09,984.99,978.40,971.90,965.44,958.45,950.19,944.45,943.98,950.44,956.05,961.40,967.57,974.57,980.64,985.79,990.59,995.19,998.77,997.81,994.21,989.06,983.04,978.07,974.10,970.56,967.81,967.46,970.09,973.07,975.66,977.81,979.76,981.24,982.24,982.66,982.38,981.77,981.86,982.10,980.80,977.21,972.27,966.97,961.59,955.58,949.87,944.46,939.04,933.45,931.83,932.03,934.09,938.54,941.42,943.63,945.63,948.02,952.18,955.70,958.55,960.65,961.66,962.77,965.35,969.61,975.23,979.72,980.78,980.35,979.51,978.84,977.76,976.27,974.25,971.49,968.51,965.90,963.53,961.40,959.83,959.21,959.88
1450.08,1451.93,1455.37,1459.42,1462.64,1463.98,1462.31,1457.05,1451.07,1445.63,1440.90,1436.54,1432.70,1429.32,1426.06,1422.84,1420.36,1418.47,1417.67,1417.94,1417.66,1413.30,1408.37,1403.99,1399.98,1395.56,1391.21,1386.84,1382.24,1377.18,1371.92,1366.64,1361.59,1357.08,1351.69,1346.75,1342.67,1339.47,1335.97,1332.34,1328.79,1324.92,1319.26,1312.20,1305.53,1297.99,1286.35,1273.79,1264.65,1255.72,1245.09,1237.58,1233.93,1232.96,1233.87,1235.67,1237.19,1237.81,1237.54,1236.31,1234.43,1232.16,1230.28,1229.04,1227.66,1225.37,1222.24,1218.70,1215.51,1213.10,1211.27,1209.93,1209.14,1208.93,1210.42,1213.11,1217.01,1222.79,1231.92,1238.26,1241.06,1240.73,1238.40,1234.62,1231.19,1228.80,1226.31,1224.05,1221.30,1217.62,1212.58,1207.97,1203.21,1198.69,1195.00,1192.27,1189.47,1186.54,1183.35,1179.52,1176.32,1173.89,1172.13,1170.92,1169.58,1166.96,1163.53,1159.82,1156.54,1153.41,1150.43,1147.58,1144.94,1142.84,1140.59,1138.10,1135.60,1133.83,1132.53,1131.16,1129.56,1127.83,1126.31,1124.55,1122.93,1122.05,1120.82,1118.31,1115.20,1111.99,1109.09,1106.31,1103.64,1101.03,1098.31,1095.34,1092.62,1090.08,1087.61,1085.30,1083.18,1080.83,1077.90,1074.09,1070.68,1067.53,1064.84,1063.02,1061.08,1059.31,1057.46,1055.44,1053.81,1053.39,1052.81,1051.59,1049.62,1046.50,1043.90,1041.90,1040.09,1037.68,1034.29,1030.35,1026.15,1022.13,1018.14,1014.28,1010.65,1007.25,1003.65,1000.12,996.51,992.57,987.81,980.90,974.19,967.86,960.23,951.02,943.31,940.85,946.52,952.49,957.55,963.47,970.59,976.98,982.24,987.09,991.81,995.96,996.82,994.19,989.50,983.76,978.54,974.44,970.75,967.27,964.74,966.12,968.68,971.31,973.64,975.70,977.13,978.14,978.66,978.50,978.20,978.73,979.73,979.85,977.20,972.87,967.80,962.38,956.67,950.88,945.25,939.69,934.04,930.35,930.74,934.51,940.15,942.95,945.17,947.66,951.21,957.00,960.24,961.78,962.61,963.67,964.81,967.01,970.76,975.63,977.83,977.38,975.92,974.26,972.87,971.25,969.56,967.37,964.11,960.65,958.13,956.14,954.43,952.91,951.81,951.44
1444.76,1446.32,1448.40,1450.82,1454.18,1456.57,1456.06,1451.93,1447.31,1442.66,1437.98,1433.31,1429.00,1424.93,1421.09,1417.64,1414.57,1412.29,1410.50,1409.03,1407.57,1404.42,1401.10,1397.80,1394.02,1390.04,1387.36,1384.61,1380.59,1375.83,1370.86,1365.73,1360.47,1355.16,1349.54,1344.00,1339.05,1335.04,1330.82,1327.78,1325.11,1321.95,1317.32,1311.28,1305.48,1299.34,1290.31,1276.29,1264.30,1253.05,1241.41,1232.86,1228.02,1225.38,1224.83,1227.38,1230.88,1232.60,1232.62,1231.45,1229.07,1226.50,1224.43,1223.06,1221.85,1219.84,1217.12,1213.97,1210.83,1208.39,1206.41,1204.95,1204.21,1204.13,1205.23,1207.25,1210.15,1214.42,1222.48,1230.51,1237.15,1241.58,1243.71,1242.25,1238.95,1234.85,1230.86,1227.64,1224.71,1221.68,1218.01,1212.93,1208.20,1204.00,1200.47,1198.23,1195.49,1192.44,1188.78,1183.63,1180.85,1179.43,1178.49,1177.21,1174.56,1171.26,1167.51,1163.44,1159.71,1156.47,1153.44,1150.51,1147.86,1146.00,1144.46,1142.88,1141.12,1139.70,1138.56,1137.13,1135.25,1133.25,1130.50,1127.72,1125.03,1122.35,1119.55,1116.28,1112.86,1109.52,1106.33,1103.17,1100.13,1097.14,1094.01,1090.97,1088.22,1085.79,1083.71,1081.71,1079.88,1077.41,1073.86,1069.36,1066.24,1063.51,1061.50,1061.18,1060.80,1060.33,1059.74,1058.86,1057.21,1055.47,1053.47,1051.08,1048.08,1044.29,1041.15,1038.75,1036.78,1034.51,1032.10,1028.62,1023.90,1018.97,1014.11,1009.16,1004.75,1002.10,1000.61,999.02,996.69,993.34,989.17,982.19,975.19,968.44,960.20,952.08,943.88,939.12,941.93,948.70,954.03,959.63,966.19,972.23,977.89,982.91,987.44,991.68,995.38,994.05,989.79,984.45,979.15,974.68,970.76,967.10,963.65,962.90,964.36,966.75,969.00,970.88,972.45,973.92,975.06,975.03,974.71,975.39,976.80,977.66,975.97,972.70,968.28,962.85,957.27,951.52,945.79,940.08,934.32,929.64,930.56,935.32,940.78,943.74,946.20,949.92,955.36,960.88,962.89,963.77,964.65,966.01,967.21,968.32,971.25,975.74,973.71,971.79,969.76,967.48,965.47,962.87,961.04,959.33,956.69,954.29,952.37,950.43,948.30,946.30,943.87,942.88
1439.94,1441.99,1443.94,1445.97,1448.43,1450.17,1449.96,1447.24,1443.70,1439.73,1435.37,1430.63,1425.55,1420.87,1416.64,1412.88,1409.64,1406.90,1404.30,1401.81,1399.69,1397.12,1394.18,1390.97,1387.63,1384.61,1383.27,1381.69,1378.36,1374.12,1369.38,1364.39,1359.27,1353.95,1348.02,1342.16,1336.96,1332.68,1327.85,1323.86,1320.67,1317.84,1314.19,1309.31,1304.28,1298.29,1288.88,1276.33,1262.99,1250.42,1239.70,1231.11,1225.51,1221.61,1219.39,1220.06,1222.73,1225.15,1226.31,1225.44,1223.18,1220.82,1218.80,1217.17,1215.65,1213.66,1211.57,1209.31,1206.54,1204.08,1201.68,1199.63,1198.41,1198.41,1199.48,1201.70,1204.80,1208.22,1214.96,1222.93,1230.89,1237.76,1242.35,1243.91,1242.72,1239.06,1234.79,1230.58,1226.92,1223.68,1220.21,1215.71,1211.37,1207.34,1203.73,1200.94,1197.22,1193.02,1188.72,1184.89,1182.79,1181.42,1180.24,1178.88,1176.60,1173.70,1170.53,1167.16,1163.56,1159.95,1156.99,1154.51,1151.97,1150.00,1148.60,1147.29,1145.70,1144.07,1142.53,1140.80,1138.51,1135.07,1130.82,1127.19,1124.06,1120.79,1117.13,1113.28,1109.47,1105.87,1102.57,1099.34,1096.03,1092.57,1088.98,1085.77,1083.02,1080.76,1079.05,1077.42,1075.71,1073.24,1069.70,1065.32,1061.83,1058.87,1056.66,1055.72,1054.85,1054.40,1054.37,1054.61,1054.49,1053.75,1052.58,1050.75,1047.52,1043.71,1040.26,1037.06,1033.86,1031.03,1028.80,1025.99,1022.00,1016.90,1011.47,1005.84,1000.85,997.83,995.83,994.00,992.32,990.68,988.28,982.57,975.81,968.74,960.93,952.80,944.16,938.19,938.79,944.18,950.11,955.97,961.76,967.49,973.33,978.68,983.42,987.63,991.80,992.89,990.99,986.36,980.53,975.77,971.60,967.66,963.86,961.25,960.94,962.22,964.19,965.78,967.33,969.02,970.58,971.00,970.83,971.75,973.65,975.32,974.68,972.21,968.22,962.83,957.35,951.72,946.06,940.35,934.45,928.98,930.13,935.53,941.02,944.32,947.05,951.05,956.65,961.53,964.39,965.91,966.80,967.91,969.49,970.66,972.00,972.88,968.76,966.01,963.85,961.76,959.88,957.78,956.43,955.07,952.55,949.80,946.86,943.74,940.87,939.46,937.49,936.70
1434.69,1437.96,1440.21,1442.20,1443.64,1444.42,1444.26,1442.84,1440.28,1436.95,1432.96,1428.12,1422.36,1417.18,1412.67,1408.68,1405.34,1401.97,1398.58,1395.37,1392.72,1390.29,1387.40,1384.20,1381.33,1379.32,1378.92,1378.14,1375.50,1371.82,1367.32,1362.54,1357.66,1352.55,1346.43,1340.52,1335.32,1330.84,1325.39,1320.19,1316.14,1313.35,1310.44,1306.55,1302.13,1295.97,1285.58,1274.73,1261.22,1248.34,1238.69,1230.28,1224.15,1219.22,1215.38,1213.56,1214.36,1217.03,1219.35,1218.95,1217.09,1214.98,1212.78,1210.53,1208.55,1206.86,1205.65,1204.37,1202.01,1199.45,1196.68,1194.09,1192.30,1192.14,1193.17,1195.69,1199.28,1202.67,1209.05,1216.57,1224.60,1232.74,1238.87,1242.92,1244.07,1241.79,1237.68,1232.70,1228.23,1224.39,1220.67,1216.84,1212.84,1208.82,1204.94,1201.21,1196.38,1191.02,1186.19,1183.94,1182.34,1180.83,1179.36,1178.02,1176.55,1174.45,1172.20,1169.85,1166.73,1162.98,1160.12,1157.99,1155.46,1153.20,1151.59,1150.05,1148.08,1146.07,1144.16,1142.32,1139.92,1135.42,1130.13,1125.87,1122.43,1118.96,1114.92,1110.71,1106.43,1102.29,1098.88,1095.67,1092.01,1087.86,1083.64,1080.04,1077.37,1075.38,1073.90,1072.57,1070.95,1068.62,1065.34,1061.20,1057.26,1053.89,1051.13,1049.03,1047.26,1046.57,1046.81,1047.85,1049.21,1049.72,1049.80,1049.18,1046.80,1043.72,1040.32,1036.39,1031.87,1028.13,1025.47,1022.90,1019.59,1014.68,1009.14,1003.33,998.13,994.67,991.63,988.66,986.76,986.44,985.87,982.16,976.35,969.44,962.34,954.03,945.10,938.18,936.53,939.63,945.85,952.17,957.62,963.03,968.79,974.38,979.45,983.70,987.70,990.96,991.67,988.30,982.20,977.34,973.04,968.92,965.04,961.08,958.86,958.45,959.60,960.78,962.09,963.74,965.53,966.50,966.69,967.94,970.32,972.87,973.35,971.60,967.93,962.55,957.08,951.59,946.12,940.53,934.36,928.23,929.45,935.09,940.29,943.64,947.08,951.49,956.71,960.99,965.13,967.68,968.81,969.55,971.45,972.64,972.05,968.84,963.82,960.73,958.61,956.84,955.21,953.61,952.58,951.36,948.92,945.92,941.78,937.37,933.84,933.11,932.21,932.27
1427.70,1433.64,1436.34,1438.14,1439.20,1439.71,1439.61,1438.92,1437.28,1434.63,1430.84,1425.59,1419.72,1414.30,1409.63,1405.81,1402.18,1397.75,1393.43,1389.68,1386.39,1383.39,1380.72,1378.19,1375.71,1374.31,1374.01,1373.39,1371.32,1368.05,1363.91,1359.48,1354.90,1349.96,1344.02,1338.59,1333.65,1328.59,1322.47,1316.66,1312.04,1308.80,1305.97,1302.43,1298.18,1292.04,1281.63,1270.46,1258.95,1247.87,1237.93,1229.44,1223.11,1217.46,1212.27,1208.64,1207.03,1208.94,1211.75,1212.09,1210.88,1208.62,1205.36,1201.51,1199.03,1198.80,1199.03,1198.60,1196.41,1193.46,1190.72,1188.22,1186.07,1185.03,1185.69,1188.01,1191.84,1197.07,1206.19,1213.73,1220.42,1228.45,1235.22,1239.54,1241.84,1241.69,1237.96,1232.99,1227.92,1223.14,1218.89,1215.02,1210.87,1206.51,1202.03,1197.16,1191.78,1186.20,1181.30,1178.90,1177.03,1175.79,1174.86,1173.86,1172.91,1171.84,1170.67,1169.29,1167.21,1164.27,1161.48,1158.88,1155.94,1153.19,1150.85,1148.16,1144.70,1142.23,1140.66,1139.48,1138.00,1134.76,1130.03,1125.60,1121.70,1118.07,1114.44,1110.38,1105.45,1100.02,1096.37,1093.13,1088.81,1083.42,1078.03,1073.48,1071.08,1069.62,1068.02,1066.67,1065.24,1063.33,1060.49,1056.23,1052.18,1048.41,1044.95,1042.00,1040.07,1039.51,1039.78,1040.64,1041.90,1042.24,1042.73,1043.66,1044.60,1044.00,1041.51,1037.49,1032.29,1027.33,1023.15,1019.28,1015.36,1011.01,1006.43,1001.59,997.13,994.01,990.88,986.02,981.94,980.58,980.96,980.22,977.00,971.57,965.11,957.15,948.26,940.26,935.60,935.65,940.97,947.85,954.35,959.37,964.53,969.95,975.30,979.95,984.10,987.68,989.87,989.19,984.04,979.59,975.54,971.64,968.01,963.92,959.99,956.99,955.84,956.30,956.93,958.01,959.63,961.07,962.13,963.87,966.63,970.23,972.01,970.96,967.50,961.99,956.25,950.88,945.85,940.55,933.73,927.20,928.22,933.27,936.97,939.25,944.78,950.80,955.67,959.88,964.61,968.23,970.25,970.79,972.49,972.55,969.72,963.98,959.68,957.19,955.24,953.39,951.62,949.11,947.28,945.74,943.73,942.13,937.78,932.86,929.26,928.48,928.83,930.95
1423.66,1429.75,1432.84,1434.37,1435.14,1435.52,1435.57,1435.31,1434.29,1432.09,1428.49,1423.26,1417.60,1412.25,1407.45,1403.23,1398.97,1393.95,1389.10,1384.93,1381.39,1378.50,1376.10,1373.57,1370.28,1368.81,1367.88,1366.63,1364.45,1361.12,1357.70,1353.66,1349.20,1345.21,1340.38,1335.97,1331.61,1326.42,1320.16,1313.91,1308.94,1305.52,1302.30,1298.42,1293.57,1286.90,1276.91,1266.44,1257.03,1247.46,1236.92,1227.22,1220.80,1215.16,1209.52,1204.70,1201.41,1202.58,1205.20,1205.19,1203.56,1200.77,1196.72,1191.82,1188.48,1189.28,1190.52,1190.73,1189.28,1187.09,1185.02,1182.81,1180.32,1178.57,1179.49,1182.45,1186.99,1192.90,1203.09,1210.99,1217.07,1223.91,1231.41,1236.10,1238.98,1239.99,1237.21,1232.78,1227.48,1221.97,1217.10,1212.73,1208.18,1203.24,1197.86,1192.41,1187.00,1181.47,1176.44,1173.66,1171.47,1170.13,1169.14,1167.92,1166.85,1166.20,1165.86,1165.66,1165.05,1162.81,1159.81,1156.62,1153.61,1150.37,1147.14,1143.75,1140.24,1137.70,1136.21,1135.08,1133.71,1131.12,1127.42,1124.30,1121.55,1118.34,1114.97,1111.46,1107.18,1102.30,1099.14,1095.79,1090.87,1084.40,1077.27,1071.25,1067.94,1065.83,1063.47,1061.35,1058.70,1056.59,1054.77,1051.03,1046.94,1042.77,1038.95,1036.08,1033.88,1032.62,1032.13,1032.44,1033.51,1034.44,1035.78,1037.87,1040.72,1041.57,1040.54,1037.68,1032.82,1027.58,1022.83,1018.28,1013.86,1009.83,1006.46,1002.53,998.47,995.41,992.32,987.70,982.77,978.89,977.09,975.61,973.13,969.33,964.23,957.98,951.08,943.57,936.14,932.85,936.12,942.71,950.26,955.46,960.10,965.14,970.54,975.72,979.91,983.56,986.43,987.55,985.10,981.63,977.90,974.11,970.31,966.05,961.55,957.35,954.26,952.78,952.44,953.01,954.43,956.13,957.75,959.73,962.49,966.39,969.39,969.32,966.50,961.32,955.50,949.99,944.94,939.73,933.04,926.56,927.03,931.22,934.29,936.87,942.69,949.23,954.79,958.77,963.42,967.64,970.53,971.14,971.88,970.27,966.03,959.90,956.11,954.11,952.09,949.51,946.59,943.30,940.57,938.55,937.27,936.13,932.79,928.81,925.96,926.69,928.72,932.40
1420.45,1425.74,1429.04,1430.36,1430.96,1431.35,1431.60,1431.60,1431.11,1429.40,1426.17,1421.20,1415.86,1410.64,1405.64,1400.82,1395.91,1390.51,1385.29,1380.72,1377.13,1374.42,1372.03,1369.09,1364.84,1362.82,1360.71,1358.34,1355.70,1352.28,1349.54,1345.96,1341.82,1339.16,1335.90,1332.71,1329.11,1324.16,1317.94,1311.53,1306.44,1302.91,1299.01,1294.14,1288.00,1280.57,1271.83,1263.08,1255.61,1247.13,1236.04,1224.84,1218.20,1212.71,1206.99,1201.41,1196.86,1197.13,1199.29,1199.05,1196.81,1193.04,1187.91,1182.00,1177.91,1179.23,1181.12,1181.91,1181.40,1180.35,1179.05,1177.13,1174.39,1172.09,1173.75,1177.92,1183.56,1190.02,1200.52,1208.73,1214.44,1219.62,1227.07,1232.17,1235.55,1237.24,1235.74,1232.13,1226.96,1221.07,1215.68,1210.65,1205.61,1200.09,1193.91,1188.22,1183.01,1177.50,1172.15,1168.91,1166.31,1164.62,1163.32,1161.75,1160.42,1159.91,1160.12,1160.85,1161.40,1159.90,1156.89,1153.25,1150.06,1146.30,1142.32,1138.53,1135.34,1132.79,1131.18,1129.75,1128.10,1125.95,1123.43,1121.98,1120.83,1118.44,1115.49,1112.80,1109.73,1106.15,1103.51,1100.00,1094.65,1087.47,1079.05,1071.76,1067.22,1064.00,1060.75,1057.64,1053.26,1050.25,1048.73,1045.27,1041.12,1036.72,1032.81,1030.31,1027.93,1025.87,1024.50,1024.20,1024.99,1026.86,1029.28,1032.28,1036.14,1037.76,1038.09,1036.81,1033.19,1028.51,1023.77,1019.02,1014.46,1010.77,1008.45,1005.13,1001.11,997.74,994.48,990.73,985.74,979.63,975.19,971.75,969.01,966.38,962.57,958.19,953.40,946.66,937.15,931.13,931.95,937.59,945.76,951.38,955.80,960.49,965.77,971.28,975.59,979.17,982.25,984.54,985.09,982.99,979.85,976.24,972.13,967.73,963.08,958.35,953.82,950.27,948.74,948.66,949.77,951.58,953.60,955.75,958.39,962.19,966.04,966.99,965.05,960.42,954.55,948.75,943.45,938.28,932.13,925.88,925.72,929.10,932.13,935.44,940.63,947.23,953.95,957.66,961.91,966.36,969.90,970.71,970.25,967.16,962.18,956.46,952.69,950.57,948.22,945.00,941.11,937.50,934.09,931.58,930.79,929.67,927.54,925.09,923.74,926.45,930.24,935.14
1415.67,1420.59,1423.62,1424.96,1425.74,1426.41,1426.96,1427.11,1427.21,1426.47,1424.27,1419.88,1414.70,1409.30,1403.88,1398.53,1393.48,1387.73,1382.02,1377.04,1373.46,1370.21,1366.74,1362.95,1359.02,1355.78,1351.72,1347.61,1344.21,1341.33,1338.61,1335.63,1332.88,1331.70,1330.22,1328.20,1325.48,1321.42,1315.02,1309.25,1304.63,1300.77,1295.91,1288.70,1279.97,1271.70,1266.68,1261.70,1255.43,1247.05,1236.02,1224.01,1216.48,1210.53,1204.76,1199.01,1193.56,1192.38,1194.09,1195.73,1193.91,1188.08,1180.36,1172.77,1168.91,1169.52,1171.37,1172.90,1173.15,1172.84,1171.70,1169.76,1167.07,1164.50,1167.68,1173.82,1181.32,1189.67,1200.26,1208.13,1213.16,1216.68,1221.06,1226.51,1230.95,1233.12,1233.32,1230.67,1226.29,1221.05,1215.65,1210.06,1204.57,1198.81,1192.63,1187.18,1182.15,1176.20,1169.91,1166.26,1162.90,1160.66,1159.05,1157.42,1156.39,1155.94,1156.03,1156.45,1156.36,1156.01,1154.11,1150.69,1146.43,1142.03,1138.08,1134.27,1130.47,1127.52,1125.45,1123.42,1121.32,1119.75,1118.29,1117.55,1117.10,1116.12,1114.48,1112.88,1111.07,1108.70,1105.56,1101.85,1096.56,1089.81,1082.52,1075.56,1070.35,1066.27,1062.57,1058.89,1053.09,1047.55,1042.89,1037.80,1033.41,1029.39,1025.88,1023.32,1021.34,1019.40,1017.91,1017.30,1017.67,1020.54,1024.14,1027.88,1031.66,1033.15,1033.57,1033.53,1032.85,1030.28,1026.24,1022.10,1018.49,1015.60,1013.27,1009.62,1004.90,1000.18,995.83,991.95,987.66,982.76,978.88,974.73,971.07,967.75,963.79,959.83,954.53,947.10,937.68,931.47,930.22,933.82,941.06,947.08,952.21,957.01,961.82,966.85,971.70,975.10,977.88,980.47,982.31,982.14,980.45,977.50,973.35,968.92,963.94,958.83,954.14,949.97,946.92,945.49,945.94,947.73,950.04,952.48,955.17,958.53,962.06,963.72,962.81,958.79,952.71,946.43,940.83,935.84,930.52,924.39,923.85,927.10,930.82,934.31,938.43,944.93,952.92,956.50,960.24,964.30,967.77,968.87,967.51,964.39,959.85,954.09,948.94,944.64,941.34,938.81,936.29,933.73,930.69,927.86,926.19,924.91,922.84,921.93,923.54,927.42,932.58,938.31
