1230.05,1228.89,1226.82,1223.15,1219.28,1216.02,1213.97,1213.38,1213.37,1213.10,1212.05,1209.49,1205.69,1200.88,1197.60,1198.30,1199.48,1197.19,1191.48,1182.14,1169.38,1157.38,1148.85,1142.87,1136.93,1129.31,1118.19,1106.10,1095.34,1087.14,1081.10,1077.45,1075.72,1074.58,1074.36,1074.03,1073.39,1072.54,1071.85,1071.20,1070.34,1069.04,1067.21,1066.21,1066.71,1068.01,1068.70,1069.08,1069.47,1069.96,1070.39,1069.85,1068.53,1066.55,1064.30,1062.89,1063.61,1064.36,1064.45,1063.51,1061.34,1059.11,1057.00,1055.30,1054.78,1055.89,1056.84,1056.19,1052.38,1048.85,1046.32,1044.21,1041.81,1038.47,1033.64,1028.49,1023.60,1019.29,1016.37,1016.97,1019.64,1022.29,1024.77,1027.09,1029.01,1030.19,1030.07,1026.25,1019.75,1012.63,1007.98,1003.88,999.96,996.16,992.66,990.04,988.89,988.01,986.59,983.97,981.87,979.24,975.62,970.75,966.19,961.86,958.06,955.02,952.36,949.46,946.21,942.71,939.12,935.41,931.70,927.53,922.69,918.73,916.54,914.95,913.69,913.24,912.29,911.31,910.60,910.50,911.13,911.65,913.12,915.74,917.16,918.06,920.63,924.49,927.69,932.73,938.36,943.15,945.96,947.53,949.12,951.17,953.82,956.86,959.50,958.23,953.68,947.57,941.10,935.14,929.84,925.15,920.59,916.21,911.96,907.70,903.20,898.81,894.05,889.91,887.52,885.92,883.72,882.63,883.59,886.49,891.10,895.66,899.55,902.31,903.80,904.71,906.60,910.10,913.16,914.67,915.40,916.02,917.21,917.49,915.21,911.33,906.59,899.84,893.88,887.85,881.91,878.12,875.18,872.52,869.83,866.85,863.63,859.91,855.86,851.77,848.46,845.51,843.58,843.05,844.17,845.49,847.09,848.74,850.27,851.95,853.76,855.86,858.27,860.48,859.87,855.11,849.01,846.41,843.99,841.76,838.90,834.91,830.81,827.02,824.59,824.60,828.56,832.81,833.73,832.13,829.66,827.44,830.41,835.47,840.09,841.79,842.12,841.79,841.15,840.43,840.52,841.70,844.30,848.31,851.60,853.11,853.23,852.40,851.30,850.22,848.21,846.74,848.03,851.42,856.73,862.70,868.70,874.27,875.59,875.60
1226.18,1225.37,1224.27,1221.32,1217.46,1213.62,1210.61,1209.45,1209.27,1209.03,1208.19,1206.02,1202.21,1197.08,1193.33,1193.72,1195.19,1194.65,1191.77,1185.99,1176.56,1164.95,1153.98,1145.13,1139.54,1133.50,1123.97,1112.72,1101.29,1090.24,1082.21,1077.72,1075.80,1073.99,1072.64,1071.47,1070.29,1069.12,1068.26,1067.39,1066.10,1064.38,1062.96,1062.02,1061.84,1062.15,1062.51,1062.94,1063.43,1063.86,1063.91,1062.97,1061.66,1059.81,1057.53,1055.63,1055.93,1056.81,1057.57,1057.73,1056.70,1055.02,1052.70,1050.05,1048.55,1049.55,1051.20,1051.59,1048.44,1045.48,1043.90,1042.95,1041.79,1039.80,1035.57,1030.60,1025.62,1020.98,1016.66,1014.74,1015.12,1017.25,1019.17,1021.26,1023.46,1025.62,1027.37,1027.14,1022.88,1016.27,1011.44,1007.41,1004.02,1000.55,996.98,995.32,994.29,993.11,991.38,988.83,986.15,983.37,980.05,975.61,971.22,967.34,963.79,960.52,957.53,954.37,951.24,948.17,945.00,941.62,938.15,934.25,929.50,924.11,920.02,916.85,914.66,914.02,913.17,912.42,911.73,910.91,909.87,909.15,909.36,910.84,913.01,914.87,917.41,920.43,923.09,928.14,933.55,938.04,940.61,941.47,943.13,946.10,950.12,953.94,957.56,957.13,953.35,948.01,941.19,935.15,929.90,925.24,920.73,916.43,912.11,907.85,903.88,899.84,895.84,892.55,890.61,888.93,885.70,882.64,881.01,881.90,885.54,890.52,895.38,898.52,900.64,901.40,902.42,904.80,907.88,909.57,910.86,912.31,914.18,915.64,914.71,912.15,908.34,901.25,895.05,889.15,883.43,879.14,876.06,873.26,870.38,867.25,864.01,860.57,856.69,852.40,848.89,845.88,843.30,841.63,842.06,843.21,844.51,845.76,846.86,847.86,849.18,850.95,853.24,856.00,857.52,855.17,850.55,847.20,844.33,841.65,838.46,834.39,830.36,826.14,823.89,824.52,827.96,830.75,830.65,828.75,826.86,826.68,831.27,836.78,840.62,841.37,840.63,839.76,839.07,838.54,838.71,839.96,842.57,846.38,849.00,849.05,847.66,845.80,844.73,843.85,843.59,845.07,849.56,854.55,860.02,865.40,869.91,872.02,870.24,868.25
1222.85,1221.88,1221.66,1219.71,1216.15,1211.97,1208.09,1205.82,1204.97,1204.45,1203.70,1202.02,1198.45,1193.47,1189.46,1188.89,1190.18,1191.11,1189.97,1186.32,1181.37,1172.57,1160.53,1148.64,1141.76,1135.33,1127.95,1119.55,1109.52,1096.19,1085.60,1079.35,1076.63,1074.53,1072.14,1070.04,1068.33,1066.99,1065.86,1064.39,1062.45,1060.35,1059.35,1058.85,1058.14,1057.37,1057.17,1057.44,1057.81,1057.86,1057.25,1055.95,1054.77,1053.20,1051.19,1049.38,1049.18,1049.98,1051.27,1052.47,1052.31,1050.92,1048.38,1045.05,1042.82,1043.51,1045.31,1046.22,1043.76,1041.37,1040.25,1039.86,1039.62,1038.94,1035.82,1031.46,1026.71,1022.34,1018.13,1014.06,1011.75,1013.08,1014.07,1015.52,1017.38,1019.66,1022.49,1025.87,1024.80,1020.03,1015.65,1012.04,1009.44,1006.36,1002.21,1000.31,998.46,996.35,994.03,991.63,988.87,986.22,983.29,979.39,975.33,972.14,969.02,965.63,962.56,959.37,956.52,954.00,951.45,948.53,945.18,941.60,937.55,931.64,926.45,922.34,919.61,918.76,918.17,917.52,916.49,914.55,911.65,909.31,907.71,907.35,909.50,911.57,913.96,916.45,918.50,922.92,927.71,931.64,933.87,934.69,936.89,940.95,946.31,950.84,955.04,955.32,952.42,947.97,941.33,935.50,930.46,925.94,921.64,917.43,912.97,908.48,904.63,901.00,898.18,896.12,894.57,892.73,889.86,885.77,881.26,879.18,881.02,885.63,890.88,894.36,897.13,897.67,897.85,899.32,902.63,904.66,906.63,908.99,911.41,913.46,913.61,912.24,909.15,902.17,896.04,890.51,885.20,880.32,876.82,873.60,870.35,867.15,864.00,860.79,856.90,852.28,848.83,845.94,843.19,840.91,840.29,840.96,841.79,842.56,843.20,843.24,843.99,845.42,847.44,849.89,852.86,853.85,852.38,848.67,845.33,841.93,838.29,834.32,830.26,825.33,823.11,824.34,827.16,828.47,827.84,826.17,825.03,827.24,831.99,836.82,840.06,840.38,839.18,838.00,837.24,837.00,837.37,838.82,841.42,844.74,846.08,844.55,841.98,839.69,839.18,839.16,841.49,846.27,852.97,858.08,862.91,867.19,869.72,867.90,864.17,861.04
1220.76,1218.59,1218.47,1217.32,1215.16,1212.08,1208.02,1203.39,1200.76,1199.49,1198.90,1197.96,1195.69,1191.76,1187.70,1185.55,1186.23,1187.20,1186.91,1184.79,1181.18,1175.39,1167.45,1157.76,1147.14,1139.62,1131.61,1123.53,1116.01,1107.99,1096.89,1086.02,1078.02,1075.85,1073.90,1071.86,1069.90,1068.19,1066.43,1063.74,1061.06,1059.00,1057.71,1057.08,1056.46,1055.62,1054.46,1053.51,1052.57,1051.65,1050.83,1050.09,1049.28,1048.12,1046.66,1045.37,1044.95,1045.15,1045.88,1047.01,1047.30,1045.68,1043.14,1040.49,1038.74,1039.33,1040.80,1041.41,1039.01,1037.32,1036.47,1036.09,1035.85,1035.09,1032.94,1029.69,1025.77,1022.09,1018.35,1014.12,1010.48,1009.15,1009.66,1010.67,1011.99,1013.92,1017.21,1021.31,1023.81,1023.77,1020.68,1017.88,1015.41,1012.05,1007.29,1004.23,1001.12,998.31,995.99,993.87,991.41,989.12,986.31,981.97,977.72,974.61,972.03,969.73,968.01,965.75,962.86,959.64,956.70,953.97,950.99,947.72,944.11,939.98,936.10,931.77,927.48,925.41,924.43,923.84,923.00,921.24,918.51,914.96,911.48,908.54,906.17,907.59,909.94,911.99,913.76,917.76,922.14,925.28,926.45,928.56,931.75,936.51,942.38,947.12,951.44,953.08,951.63,946.82,940.55,935.49,930.95,926.43,922.48,918.57,914.58,910.87,908.25,905.79,903.79,901.54,898.49,895.94,893.33,890.34,886.29,880.29,878.83,881.33,885.90,890.27,892.61,892.51,892.04,893.13,897.29,900.78,903.66,906.35,909.36,911.67,911.78,910.71,908.86,902.94,897.59,892.83,888.11,882.68,878.05,873.86,870.09,867.03,864.06,861.06,857.15,852.22,848.68,845.88,843.36,841.14,839.66,839.10,839.05,839.16,839.12,838.71,838.96,839.83,841.33,843.43,846.90,850.10,851.75,850.28,846.85,842.57,838.27,834.29,830.08,824.39,821.98,823.57,826.12,826.77,825.92,824.67,824.56,827.47,831.85,835.87,838.50,839.19,838.16,836.83,835.84,835.69,836.58,838.48,841.16,843.76,843.23,840.69,837.51,834.86,834.87,839.06,844.50,850.40,856.50,860.81,864.30,866.53,866.56,863.39,859.67,856.90
1219.46,1216.28,1215.06,1214.23,1213.16,1211.26,1207.87,1202.64,1198.30,1195.48,1194.15,1193.75,1192.47,1189.56,1185.89,1182.90,1182.51,1183.26,1183.63,1182.76,1180.09,1176.30,1171.49,1164.63,1154.13,1145.82,1136.85,1128.15,1120.99,1115.25,1106.35,1095.54,1085.55,1081.17,1077.49,1074.81,1072.83,1071.14,1069.30,1066.05,1062.31,1059.00,1057.40,1056.30,1055.34,1054.26,1052.79,1051.37,1049.04,1046.74,1045.44,1045.11,1044.64,1043.74,1042.51,1041.52,1040.77,1040.34,1040.46,1041.33,1041.94,1040.67,1038.78,1037.01,1035.53,1035.24,1035.83,1036.16,1034.51,1033.41,1032.63,1032.07,1031.56,1030.44,1028.41,1025.67,1022.60,1019.95,1016.99,1013.76,1010.47,1007.58,1006.07,1005.59,1006.15,1008.16,1012.16,1016.63,1020.83,1023.57,1022.84,1021.52,1019.60,1016.64,1012.33,1007.97,1004.16,1001.05,998.58,996.33,993.89,991.60,988.63,983.90,979.23,976.24,974.07,972.36,971.37,969.84,967.60,964.79,961.77,958.99,956.08,952.93,949.55,946.34,943.29,939.50,935.31,932.83,931.57,930.73,929.57,927.33,924.36,920.41,916.20,911.94,906.97,905.69,906.31,907.67,909.26,912.43,916.00,918.60,919.67,922.46,926.85,932.56,938.92,944.07,948.22,950.79,950.82,946.75,940.95,936.32,932.08,927.73,924.34,920.83,917.64,915.13,913.50,911.38,909.48,907.16,903.58,899.50,896.38,893.65,889.98,882.91,878.89,878.63,881.23,885.40,887.58,887.41,886.95,888.07,892.35,896.60,900.45,904.00,907.34,909.96,909.88,908.62,907.42,903.91,899.69,895.43,891.00,885.54,880.11,875.08,870.69,867.34,864.43,861.55,857.87,853.20,849.38,846.73,844.60,842.61,840.58,839.23,838.51,838.03,837.43,836.72,836.14,835.75,835.89,837.43,840.95,845.22,848.94,850.08,847.48,843.00,838.39,834.38,829.93,823.70,820.97,822.50,824.86,825.39,824.50,823.55,824.19,827.47,831.37,834.83,837.19,837.85,836.87,835.49,834.42,834.34,835.69,837.98,840.62,842.48,840.89,837.30,833.77,831.76,833.48,840.27,847.18,853.27,858.56,861.60,863.43,864.08,862.89,858.94,855.37,852.87
1218.80,1214.97,1211.85,1210.59,1209.96,1209.05,1207.04,1203.03,1197.57,1192.88,1190.06,1189.69,1188.75,1186.63,1183.70,1180.67,1178.98,1179.37,1180.16,1180.23,1178.52,1175.75,1172.58,1168.35,1161.36,1153.13,1143.65,1134.08,1125.46,1118.46,1113.10,1105.97,1097.02,1089.34,1082.68,1078.84,1076.85,1075.37,1073.81,1070.44,1065.44,1060.10,1058.07,1056.34,1054.78,1053.34,1051.99,1050.64,1047.13,1043.42,1041.43,1041.19,1040.89,1040.03,1038.77,1037.78,1036.53,1035.51,1035.09,1035.59,1036.39,1035.96,1035.14,1034.27,1032.76,1030.99,1030.29,1030.34,1029.92,1029.30,1028.51,1027.72,1026.88,1025.34,1022.84,1020.16,1017.82,1016.25,1014.18,1012.50,1010.63,1007.47,1003.25,1000.72,1000.40,1002.72,1007.36,1012.22,1016.56,1020.08,1022.19,1022.74,1021.82,1019.93,1016.92,1011.62,1007.64,1004.47,1001.63,998.83,996.10,993.36,989.93,984.98,979.94,977.09,975.16,973.50,972.65,971.72,970.65,969.15,966.53,963.72,960.74,957.57,954.24,950.99,948.13,945.32,942.56,940.42,939.07,937.82,935.95,932.63,928.92,925.08,921.09,916.65,911.23,906.11,903.65,903.78,905.08,907.17,909.71,911.98,913.70,916.60,922.23,928.99,935.80,941.48,945.35,948.32,949.63,947.35,942.48,938.12,934.05,930.09,927.26,924.18,921.86,920.44,919.23,916.65,914.29,912.02,908.86,903.08,898.98,895.69,892.01,886.32,880.84,877.72,877.44,880.07,882.28,882.57,882.61,884.06,887.83,892.11,896.89,901.68,905.21,908.10,907.81,906.05,904.95,904.52,901.79,897.98,893.65,888.62,882.86,877.23,872.18,868.13,865.17,862.36,859.13,855.24,851.16,848.64,846.85,845.14,842.94,841.35,840.24,839.30,838.27,837.31,835.75,833.74,831.98,832.49,835.48,839.82,844.49,847.90,846.92,843.07,838.62,834.59,829.84,823.29,820.16,821.27,823.45,824.23,823.46,822.61,823.67,827.32,830.81,833.92,836.25,836.44,835.31,833.95,832.93,832.95,834.60,837.17,839.65,840.82,838.89,834.39,830.81,830.21,834.39,841.98,848.86,854.51,858.93,860.42,860.55,860.19,858.86,854.57,851.12,848.74
1218.80,1214.86,1210.62,1206.68,1204.89,1204.28,1203.85,1202.50,1198.64,1193.83,1189.51,1187.35,1184.92,1182.75,1180.61,1178.24,1175.95,1175.53,1175.84,1176.17,1175.94,1173.49,1170.65,1167.65,1163.74,1158.90,1151.79,1143.09,1133.33,1123.32,1117.24,1110.30,1101.86,1095.07,1089.55,1085.43,1082.42,1080.33,1078.39,1073.75,1067.89,1062.30,1059.06,1057.19,1055.90,1054.62,1052.67,1050.38,1046.65,1042.94,1040.61,1039.76,1038.85,1037.76,1036.49,1034.91,1033.10,1031.58,1030.65,1030.62,1031.16,1031.22,1031.07,1030.64,1029.14,1026.41,1024.37,1023.44,1023.44,1023.28,1022.87,1022.32,1021.55,1019.87,1017.67,1015.40,1013.39,1011.95,1010.03,1008.32,1006.63,1004.41,1001.44,998.77,997.79,999.29,1002.65,1008.21,1013.03,1016.59,1019.50,1021.28,1021.63,1020.91,1018.97,1014.90,1011.02,1007.38,1003.84,1000.31,996.82,992.97,988.58,983.59,979.19,976.29,974.11,972.50,972.31,972.47,972.15,971.18,969.64,968.15,965.72,962.59,959.13,955.78,953.04,950.51,948.13,946.21,945.01,943.86,941.84,937.93,933.52,929.16,925.00,920.83,915.72,909.58,904.44,901.39,901.55,903.23,905.34,907.26,909.05,912.37,918.55,925.52,932.19,937.95,942.07,944.94,946.41,945.84,944.37,941.38,937.90,934.57,931.41,928.52,926.06,923.83,921.27,918.24,915.30,912.52,909.44,904.60,900.74,897.20,893.41,889.05,883.98,879.80,876.97,875.98,877.45,878.06,878.59,880.25,883.69,887.87,892.97,898.41,902.58,905.35,904.82,902.77,901.42,901.82,901.45,899.46,895.71,891.17,885.82,880.12,874.48,869.54,866.48,863.90,861.32,858.46,854.98,852.26,850.02,848.18,846.82,845.69,844.48,843.23,842.03,840.72,838.86,836.37,833.47,831.36,832.24,835.57,839.88,843.01,844.02,842.26,838.97,834.88,829.92,823.29,819.80,820.30,822.11,823.11,822.50,821.60,822.64,827.37,830.96,833.77,835.74,835.33,833.76,832.32,831.47,831.57,833.23,835.72,837.99,838.80,836.39,832.28,829.52,829.89,835.01,842.68,849.12,853.83,856.71,856.82,856.09,855.13,853.54,849.99,846.95,845.06
1218.47,1214.69,1210.32,1204.80,1201.49,1200.11,1200.09,1200.22,1198.18,1194.70,1190.70,1187.40,1183.55,1180.75,1178.60,1176.27,1173.56,1172.10,1171.68,1172.13,1172.82,1171.17,1168.61,1165.91,1163.48,1160.85,1155.78,1148.67,1139.89,1130.27,1123.82,1116.96,1108.99,1101.95,1096.67,1092.20,1088.27,1085.00,1082.12,1076.47,1070.19,1064.81,1061.24,1059.39,1058.11,1056.65,1054.40,1051.74,1048.69,1045.81,1043.61,1042.22,1040.53,1039.02,1037.62,1035.62,1033.16,1030.62,1028.58,1027.70,1027.35,1026.98,1026.75,1026.43,1024.98,1022.15,1019.55,1017.93,1017.88,1017.95,1017.83,1017.52,1016.80,1015.04,1012.99,1011.12,1009.55,1008.17,1006.38,1004.32,1002.37,1000.90,999.31,996.93,995.54,996.24,998.64,1003.67,1008.69,1012.90,1016.30,1018.83,1020.22,1020.60,1019.59,1016.31,1012.38,1008.38,1004.39,1000.18,995.51,990.95,986.41,981.80,978.19,975.29,972.81,971.09,971.39,972.34,972.68,972.40,972.20,972.05,970.15,967.31,964.48,961.68,958.65,955.75,953.22,951.34,950.23,949.07,946.98,942.94,938.04,933.17,928.67,924.50,919.93,913.87,907.51,902.23,900.13,900.13,901.39,903.06,905.03,908.75,915.01,921.99,928.56,933.88,937.99,940.74,942.35,943.05,943.86,942.50,940.10,937.38,934.12,931.37,928.59,925.44,921.76,918.33,914.99,911.86,908.89,905.04,901.62,898.19,894.58,891.08,886.65,882.55,878.91,875.77,875.18,874.63,874.75,876.54,880.04,884.25,889.35,894.90,899.56,902.43,901.87,899.55,897.71,898.21,899.64,899.52,896.95,892.96,888.32,882.77,876.80,871.52,868.21,865.73,863.56,861.40,858.58,855.79,853.16,851.03,850.10,849.34,848.25,846.94,845.53,843.74,841.61,838.96,835.59,831.73,830.40,832.25,835.71,838.30,840.36,840.15,838.29,835.04,830.23,823.62,819.67,819.40,820.93,822.04,821.54,820.72,821.92,827.38,830.99,833.52,835.15,834.35,832.54,831.02,830.17,830.29,831.74,834.10,836.29,836.96,834.27,830.69,828.78,830.00,835.64,842.98,848.80,852.48,853.69,852.53,851.31,850.04,848.22,845.20,843.25,842.80
1217.58,1214.34,1210.77,1205.48,1200.67,1197.47,1196.36,1196.13,1195.47,1194.43,1192.76,1189.64,1184.99,1181.23,1178.19,1175.16,1172.05,1169.38,1168.08,1168.39,1169.17,1168.93,1166.91,1163.83,1161.05,1158.49,1154.47,1149.41,1143.86,1138.65,1133.18,1127.04,1119.77,1110.92,1104.24,1099.12,1094.47,1089.57,1085.12,1078.97,1072.72,1067.71,1064.93,1063.24,1061.52,1059.53,1057.40,1055.22,1053.57,1052.07,1050.42,1048.67,1046.24,1044.14,1042.46,1040.28,1037.19,1033.22,1029.57,1027.51,1025.62,1023.83,1022.65,1021.99,1020.52,1018.44,1016.18,1014.33,1013.82,1013.81,1013.80,1013.58,1012.84,1011.05,1008.87,1007.28,1006.33,1005.13,1003.54,1001.11,998.71,997.49,996.63,994.64,993.09,993.23,995.40,998.61,1003.38,1008.79,1012.74,1015.68,1017.79,1019.11,1018.95,1015.55,1011.36,1007.21,1003.04,998.19,992.20,987.58,983.89,980.07,977.10,974.35,971.66,969.63,970.04,971.31,972.22,972.86,974.02,974.91,973.49,971.34,969.94,968.35,964.82,961.11,958.11,955.98,954.77,953.36,951.13,947.45,942.33,937.10,932.15,927.68,923.74,918.50,912.59,906.58,901.37,898.32,898.06,899.32,901.41,905.31,911.27,918.17,924.84,929.27,933.00,935.72,937.62,938.98,940.24,940.49,939.62,937.50,934.60,932.01,928.93,925.16,921.06,917.31,913.82,910.69,907.94,904.57,901.52,898.53,895.45,892.31,888.52,885.55,883.09,880.02,876.27,872.82,871.35,873.04,876.83,881.21,886.08,891.22,895.94,899.21,898.93,896.50,894.07,894.27,896.58,898.06,897.20,893.90,890.15,884.92,878.98,874.05,870.40,867.80,865.71,863.73,861.35,858.70,855.95,853.53,852.35,851.70,850.85,849.65,848.01,845.69,843.22,840.56,837.37,833.10,829.88,829.90,832.15,834.35,836.22,836.62,836.18,834.81,830.73,824.31,819.82,818.64,819.91,820.96,820.52,819.98,821.72,827.28,830.73,833.00,834.37,833.51,831.78,830.19,829.15,829.16,830.22,832.48,834.73,835.45,832.75,829.56,828.34,830.30,836.26,842.91,847.88,850.43,849.96,847.80,846.44,845.17,843.27,840.58,840.42,842.28
1216.40,1214.78,1211.74,1207.53,1202.50,1197.95,1194.71,1192.41,1191.43,1190.93,1190.40,1189.21,1185.90,1182.64,1179.62,1176.38,1172.50,1169.00,1166.25,1164.66,1164.64,1165.25,1164.46,1162.00,1158.29,1154.88,1151.45,1147.84,1144.11,1140.98,1137.38,1133.11,1128.15,1122.47,1116.15,1109.85,1103.64,1097.36,1090.63,1083.86,1077.70,1072.85,1070.24,1068.78,1067.43,1065.74,1063.50,1061.42,1059.97,1058.60,1056.82,1054.65,1052.01,1049.48,1047.16,1044.71,1041.80,1038.44,1034.97,1031.72,1028.31,1025.08,1022.29,1019.96,1017.66,1015.72,1013.61,1011.60,1010.54,1009.91,1009.62,1009.38,1008.85,1007.30,1005.28,1003.88,1003.18,1002.19,1000.50,998.14,995.89,994.69,994.16,992.38,990.67,990.28,992.04,994.93,998.76,1003.13,1007.46,1011.87,1014.70,1016.54,1017.29,1014.35,1009.96,1005.39,1000.56,994.52,989.45,985.46,981.98,978.53,975.61,973.11,970.58,968.30,967.98,969.52,970.61,971.17,972.50,973.57,973.42,972.75,972.12,970.92,968.80,966.20,963.27,960.15,958.16,956.10,953.57,950.27,945.64,940.07,934.96,931.00,927.36,922.94,917.54,911.41,905.40,901.31,899.16,897.69,896.85,900.23,905.88,912.73,919.64,924.18,927.75,930.25,931.94,933.18,934.52,935.46,935.60,934.60,932.47,930.16,927.18,923.50,919.46,915.54,912.27,909.56,907.04,903.45,900.41,897.68,895.06,892.54,890.22,888.90,887.99,885.99,881.40,875.02,870.54,870.44,873.20,877.53,882.26,886.81,890.58,893.41,894.07,892.96,891.02,891.06,893.66,895.87,896.13,894.30,891.28,886.48,880.94,876.55,873.11,870.28,867.94,865.85,862.96,860.09,857.69,855.81,854.27,853.35,852.15,850.66,848.97,846.73,844.38,841.96,839.04,834.60,830.47,828.71,829.13,830.66,831.85,832.21,832.36,832.36,830.61,825.27,820.71,818.64,818.88,819.53,819.16,819.20,821.92,827.13,830.42,832.47,833.57,833.04,831.63,830.17,828.94,828.28,829.35,831.40,833.53,834.48,831.86,828.62,827.74,830.34,836.31,842.08,845.23,845.68,843.85,842.26,841.49,840.48,839.19,839.38,840.68,843.14
1214.44,1214.25,1212.29,1209.44,1204.92,1199.88,1195.15,1191.02,1189.08,1187.95,1187.31,1187.53,1186.02,1183.79,1181.20,1178.03,1173.49,1169.21,1165.25,1161.96,1160.56,1161.38,1161.77,1160.41,1156.38,1152.21,1148.73,1145.60,1142.64,1140.43,1138.12,1135.41,1132.57,1130.03,1125.03,1119.05,1112.90,1106.66,1099.26,1093.06,1086.91,1080.87,1077.35,1075.20,1073.68,1072.13,1069.97,1068.11,1066.65,1065.19,1063.36,1061.11,1058.43,1055.60,1052.76,1049.95,1047.04,1044.15,1041.07,1037.46,1033.46,1029.29,1025.06,1020.99,1017.81,1015.52,1013.31,1011.20,1009.77,1008.58,1007.57,1006.71,1005.88,1004.48,1002.66,1001.32,1000.52,999.37,997.26,994.90,992.91,991.88,991.57,990.03,988.31,987.56,988.99,991.66,994.61,997.85,1001.99,1006.83,1010.63,1013.51,1015.13,1013.41,1009.45,1004.28,998.23,991.77,987.58,983.95,980.39,977.03,973.85,971.37,968.96,966.57,965.39,966.79,967.98,968.63,969.93,971.03,971.81,972.28,972.29,971.54,970.78,969.31,966.75,963.34,960.80,958.20,955.38,952.35,948.43,942.90,937.81,934.24,930.94,927.38,922.84,917.17,910.60,905.78,902.22,898.52,894.70,895.65,900.38,907.01,914.03,918.75,922.40,924.86,926.34,927.12,928.25,929.51,930.48,930.60,929.34,927.38,924.68,921.27,917.23,913.41,910.70,908.64,906.46,902.80,899.74,897.24,895.21,893.48,892.30,891.98,891.85,890.37,885.86,878.44,872.03,869.41,870.01,873.60,877.99,882.05,884.93,887.20,888.60,888.74,887.65,888.45,891.28,893.64,894.41,893.89,891.93,888.13,883.47,879.57,876.22,873.06,870.38,868.04,864.51,861.16,858.83,857.29,855.49,854.16,852.58,850.86,849.25,847.31,845.14,842.98,840.56,836.83,832.48,829.18,827.54,827.81,828.26,828.44,828.84,829.66,829.72,826.02,821.94,819.14,818.32,818.18,817.91,818.62,822.00,826.72,829.88,831.83,832.73,832.56,831.59,830.30,828.84,827.54,828.50,830.38,832.39,833.51,831.33,828.00,827.25,830.26,836.11,840.79,842.18,840.88,838.22,837.17,836.95,836.80,837.06,839.53,841.70,844.06
1211.25,1211.79,1211.79,1210.46,1207.23,1202.96,1198.18,1193.36,1190.05,1187.09,1184.76,1184.81,1184.96,1184.07,1182.27,1179.47,1174.60,1169.57,1164.99,1161.01,1157.68,1157.76,1158.87,1158.96,1155.90,1151.54,1147.20,1143.21,1139.83,1137.48,1135.11,1132.93,1131.17,1129.82,1127.01,1123.97,1120.71,1116.67,1111.54,1107.86,1101.75,1092.74,1087.05,1082.81,1079.93,1077.92,1076.16,1074.78,1073.34,1071.82,1070.24,1068.43,1065.85,1062.92,1059.84,1056.61,1053.17,1049.83,1046.79,1044.09,1040.92,1036.67,1031.62,1026.35,1022.44,1019.24,1016.53,1014.33,1012.85,1011.37,1009.15,1006.76,1004.79,1003.35,1001.70,1000.23,998.89,997.05,994.17,991.51,989.67,989.05,988.83,987.62,986.09,985.17,986.45,988.48,990.93,993.70,996.88,1000.14,1005.19,1009.98,1012.41,1013.00,1010.47,1004.58,996.75,991.29,987.13,983.17,979.30,975.73,972.11,969.23,966.69,964.31,962.38,962.90,964.15,965.45,966.79,968.00,968.85,969.57,970.25,970.33,970.14,969.16,967.26,964.92,962.47,959.68,956.71,953.73,950.57,945.71,940.88,937.27,934.54,931.83,928.71,924.22,916.78,910.98,906.90,902.59,896.83,892.68,895.37,901.42,908.27,912.96,916.95,919.73,921.16,921.24,921.82,923.22,924.80,925.86,925.43,923.84,921.52,918.40,914.19,910.89,909.08,907.88,906.23,903.15,900.19,898.00,896.73,895.93,895.03,894.48,893.72,891.47,887.67,882.25,876.21,870.71,867.94,869.64,873.19,876.95,879.46,881.31,882.84,883.58,883.57,886.47,889.61,891.55,892.07,892.29,891.95,890.00,886.84,883.30,879.63,876.02,872.94,870.26,866.24,862.19,859.32,857.53,855.68,853.87,852.04,850.37,848.99,847.45,845.44,843.48,841.78,840.03,836.22,831.85,828.10,826.30,826.13,826.11,826.45,827.34,827.72,826.20,823.36,820.22,818.59,817.20,816.99,818.36,821.71,825.82,828.95,830.95,831.81,831.92,831.49,830.35,828.64,826.90,827.47,829.25,831.21,832.35,831.12,827.83,826.99,830.04,835.66,838.93,839.00,836.97,834.31,833.24,833.33,834.85,837.76,840.63,842.77,844.52
1207.11,1208.15,1209.12,1208.86,1207.05,1204.05,1200.08,1195.83,1192.08,1188.21,1184.55,1182.66,1182.67,1182.76,1182.12,1179.86,1174.87,1169.73,1165.19,1161.26,1157.38,1154.70,1154.06,1154.45,1153.85,1151.26,1147.41,1143.30,1139.61,1136.76,1133.24,1129.85,1126.97,1124.77,1123.32,1121.71,1119.60,1116.88,1114.19,1112.43,1109.24,1104.20,1100.27,1095.48,1092.05,1089.59,1086.43,1084.22,1081.71,1078.87,1076.07,1074.29,1072.10,1069.54,1066.68,1063.50,1060.29,1056.96,1053.40,1049.57,1045.90,1042.24,1038.47,1034.33,1029.38,1024.84,1020.86,1017.73,1015.99,1014.38,1011.88,1009.23,1007.26,1006.22,1004.98,1003.60,1002.11,1000.37,997.99,995.09,992.16,989.91,988.42,986.64,984.69,983.08,982.95,983.96,986.24,989.40,992.71,995.71,999.80,1004.21,1008.01,1010.83,1010.39,1005.64,998.13,993.31,989.36,985.47,981.74,978.61,975.68,972.49,968.98,965.30,962.10,960.55,960.81,962.14,963.17,963.98,964.60,965.38,966.51,967.21,967.34,966.78,965.38,963.15,961.27,959.15,956.56,953.39,950.37,946.46,942.74,940.00,937.96,935.77,933.31,929.98,924.30,917.22,911.77,906.14,898.62,892.79,892.18,896.11,902.76,907.43,911.33,914.06,915.41,915.20,916.00,917.53,919.25,920.45,919.89,917.73,915.17,912.48,909.40,907.03,905.42,904.43,903.97,903.57,902.05,900.22,898.72,898.23,897.50,896.42,894.69,891.69,887.88,883.03,877.77,872.81,869.47,868.20,869.18,871.73,874.24,876.01,877.46,878.48,879.40,882.84,886.01,887.95,888.65,889.31,890.19,889.78,887.74,884.02,880.10,876.14,872.60,869.41,865.02,861.43,858.98,857.32,855.47,853.59,851.85,850.31,848.98,847.53,845.67,843.73,841.87,839.95,836.39,832.16,828.33,826.24,825.56,825.06,824.64,824.53,824.84,824.40,823.23,821.57,819.97,818.04,816.95,817.54,820.55,824.11,827.27,829.56,830.73,830.89,830.85,829.93,828.17,826.25,826.55,828.25,830.14,831.21,830.51,827.05,826.38,829.71,834.10,835.44,834.75,833.02,831.22,831.41,832.74,835.14,838.32,840.72,842.48,843.85
1202.87,1204.24,1205.67,1206.14,1205.47,1203.64,1200.57,1196.90,1193.12,1189.01,1184.70,1181.08,1179.93,1180.39,1180.82,1179.36,1174.89,1170.06,1165.76,1162.01,1157.95,1152.83,1149.97,1149.70,1150.89,1150.10,1147.41,1143.98,1140.58,1137.46,1132.97,1128.31,1124.07,1120.61,1119.28,1117.81,1115.82,1113.73,1112.75,1112.15,1111.65,1110.98,1109.37,1105.11,1101.72,1099.01,1094.97,1092.24,1089.17,1085.58,1081.94,1079.82,1077.73,1075.42,1072.79,1069.70,1066.89,1063.65,1059.65,1054.81,1050.56,1047.14,1044.41,1041.61,1036.55,1031.64,1026.87,1022.67,1020.07,1018.10,1015.53,1012.91,1011.06,1010.29,1009.33,1007.99,1006.35,1004.67,1002.80,999.80,996.15,992.72,990.23,987.82,985.33,982.89,981.07,980.59,982.06,985.04,988.57,991.65,994.65,998.31,1002.99,1007.27,1008.80,1006.14,1000.38,996.04,992.18,988.56,985.24,982.53,980.21,977.02,972.72,967.68,963.71,960.22,958.77,958.93,959.00,959.26,959.69,960.51,961.86,962.88,963.47,963.48,962.61,960.52,959.23,957.95,956.00,952.79,949.85,946.86,944.29,942.46,941.01,939.19,937.11,934.55,930.47,922.91,916.01,908.89,900.44,894.23,890.86,891.98,897.13,901.83,905.84,908.51,909.74,909.64,910.70,912.10,913.44,914.24,913.33,910.81,908.18,905.88,903.79,902.00,900.38,899.38,899.76,901.73,902.41,901.81,900.53,900.17,899.54,897.98,895.41,891.84,887.92,883.41,879.05,875.44,872.48,869.07,867.49,867.98,869.27,870.80,872.15,873.31,874.76,878.12,881.27,883.45,884.61,885.57,887.12,887.85,886.95,883.61,879.58,875.22,871.14,867.46,862.97,860.14,858.32,856.88,855.14,853.38,851.82,850.41,849.03,847.37,845.35,843.22,841.01,838.47,835.01,831.39,828.33,826.78,826.07,825.22,824.04,822.79,822.43,822.18,822.07,821.79,820.52,818.55,816.74,816.44,818.99,821.89,824.92,827.44,828.96,829.31,829.72,829.17,827.59,825.62,825.57,827.06,828.78,829.67,829.04,825.76,825.45,828.86,831.80,831.69,830.75,829.84,829.52,830.97,833.25,835.91,838.59,840.38,841.72,842.83
1199.04,1200.44,1201.81,1202.44,1202.18,1200.96,1198.44,1194.58,1191.13,1187.74,1184.20,1180.48,1176.97,1176.53,1177.54,1177.44,1174.90,1170.91,1166.88,1163.14,1158.92,1153.37,1148.82,1146.40,1146.84,1146.61,1145.78,1144.49,1142.65,1140.08,1135.77,1130.88,1126.05,1121.74,1118.14,1114.72,1111.53,1109.04,1107.88,1107.09,1106.80,1106.92,1106.37,1104.19,1101.70,1099.23,1096.72,1095.08,1093.31,1091.17,1088.55,1085.50,1082.65,1080.00,1077.29,1074.10,1071.59,1068.35,1064.42,1060.24,1056.12,1051.62,1047.97,1045.52,1042.72,1040.05,1036.10,1031.09,1026.36,1023.42,1020.60,1017.86,1015.70,1014.64,1013.45,1011.86,1009.84,1007.55,1005.41,1002.70,999.90,997.74,995.81,993.24,990.26,987.03,983.62,980.82,979.73,980.66,983.85,987.04,990.12,993.53,997.61,1001.54,1004.33,1004.86,1002.81,998.81,994.68,991.52,988.93,986.18,983.61,981.04,976.91,971.28,968.01,963.72,959.53,956.06,953.85,953.52,954.09,955.06,956.19,956.93,958.44,959.46,959.31,957.98,957.04,956.46,955.36,952.65,950.12,947.74,945.80,944.48,943.29,941.72,939.81,937.13,932.54,926.59,918.63,910.07,902.50,896.82,892.78,890.55,891.08,895.93,900.77,903.54,904.66,905.29,906.28,906.84,906.94,906.51,905.36,903.63,901.71,899.67,897.39,895.08,893.37,892.29,892.21,894.45,898.29,900.94,901.54,901.38,900.73,898.93,896.10,892.46,888.61,884.79,881.43,878.81,876.62,873.76,870.84,867.86,864.74,865.41,866.81,867.95,869.06,871.89,875.06,877.81,879.79,880.90,882.08,883.19,883.73,882.48,878.61,873.70,868.99,864.94,860.88,858.78,857.43,856.19,854.78,853.33,851.94,850.59,849.05,846.66,843.77,841.05,838.62,835.81,832.34,829.59,827.99,827.75,828.09,827.42,825.93,823.93,821.75,820.25,819.49,819.14,818.42,817.13,815.55,815.05,817.03,819.04,821.51,823.89,825.69,826.63,827.76,827.94,826.93,825.05,824.39,825.36,826.70,827.15,825.77,823.65,824.04,826.84,828.46,828.43,828.07,828.52,830.58,832.43,834.37,836.36,838.24,839.65,840.73,841.72
1195.03,1196.19,1197.26,1198.01,1198.11,1197.31,1195.16,1191.48,1188.48,1185.94,1183.46,1180.39,1176.26,1173.74,1172.97,1173.39,1172.97,1170.84,1167.78,1164.14,1160.06,1154.46,1149.29,1145.41,1143.51,1143.03,1142.80,1142.39,1141.50,1139.61,1136.34,1132.30,1127.93,1123.76,1120.06,1116.36,1112.81,1109.77,1107.35,1104.77,1102.82,1101.99,1101.85,1100.66,1098.42,1095.70,1093.51,1092.44,1091.68,1090.73,1089.25,1087.05,1084.59,1081.98,1079.06,1075.49,1072.57,1069.36,1065.80,1062.13,1058.68,1054.68,1051.15,1048.65,1046.60,1044.47,1041.53,1037.89,1034.01,1030.19,1026.64,1023.39,1020.64,1018.89,1017.44,1015.77,1013.64,1011.04,1008.79,1006.45,1004.19,1002.32,1000.59,998.22,994.96,990.99,987.42,983.51,980.54,979.11,980.02,982.98,986.16,989.38,992.88,996.63,1000.12,1002.17,1002.19,1000.01,996.75,993.97,991.53,988.82,986.05,983.25,979.63,975.13,971.43,967.49,962.41,957.04,953.63,951.55,950.66,950.59,950.99,951.09,951.54,952.13,952.61,952.67,953.04,953.48,953.44,952.05,949.47,947.00,944.88,943.28,942.29,940.46,938.02,935.19,932.01,927.51,920.41,912.54,905.74,899.79,895.04,891.25,889.25,891.26,894.87,897.46,898.96,900.11,900.77,900.87,900.46,899.48,897.92,895.75,893.30,890.72,888.05,885.89,884.60,883.89,883.90,886.10,890.65,894.73,897.29,898.94,899.88,899.24,897.06,893.68,890.40,887.43,884.93,882.94,881.04,878.47,875.38,871.84,868.00,866.36,864.74,863.36,863.29,865.06,868.38,871.74,874.38,875.96,877.25,878.66,879.84,879.81,877.93,874.15,869.61,865.04,860.61,858.59,857.34,856.05,854.51,853.21,851.95,850.47,848.37,845.14,841.78,838.67,835.88,833.20,830.90,829.59,829.24,829.71,830.53,829.99,828.34,825.93,823.29,821.36,820.48,820.25,819.48,818.23,816.71,815.62,815.66,815.93,817.86,820.27,822.38,823.88,825.41,826.40,826.30,824.45,823.16,823.46,824.17,824.13,823.04,821.98,822.46,824.31,825.67,826.56,827.37,828.71,831.05,832.76,834.25,835.74,837.24,838.55,839.55,840.55
1191.07,1191.80,1192.53,1193.35,1193.76,1193.38,1191.67,1188.32,1185.62,1183.69,1182.14,1180.02,1176.12,1171.86,1168.94,1168.92,1170.05,1169.71,1167.89,1164.81,1161.12,1155.71,1150.34,1145.44,1141.24,1139.81,1139.25,1138.96,1138.63,1137.48,1135.43,1132.49,1128.86,1125.11,1121.96,1118.58,1115.07,1111.69,1108.18,1104.02,1100.31,1097.90,1097.22,1096.21,1094.01,1091.14,1088.85,1087.88,1087.59,1087.38,1086.91,1086.15,1084.67,1082.51,1079.54,1075.48,1071.93,1068.63,1065.38,1062.11,1059.09,1055.93,1052.98,1050.56,1048.76,1046.51,1044.37,1042.37,1039.99,1035.92,1032.02,1028.49,1025.35,1023.11,1021.40,1019.62,1017.49,1014.90,1012.68,1010.57,1008.47,1006.43,1004.68,1002.38,999.01,994.73,991.19,986.63,982.37,979.01,977.40,979.45,982.47,985.53,988.53,992.00,995.63,998.35,999.66,999.44,997.56,995.34,993.02,990.37,987.35,984.05,980.90,977.83,973.87,970.68,965.61,959.41,955.32,951.57,948.99,947.57,947.13,946.56,945.42,944.94,945.51,946.71,948.28,949.68,950.67,950.66,948.02,945.25,942.72,940.64,939.61,937.26,934.27,931.51,929.94,926.77,921.13,914.52,908.23,901.84,896.80,892.59,889.33,888.13,889.55,891.21,892.65,894.00,894.13,893.92,893.39,892.32,890.57,887.94,885.01,882.02,879.18,877.49,876.63,876.18,876.21,877.97,882.31,887.03,891.14,894.69,897.48,898.48,897.67,895.24,892.64,890.45,888.66,887.11,885.39,882.95,880.08,876.95,873.72,870.01,865.28,861.09,859.34,859.56,862.36,865.77,868.77,870.88,872.31,873.72,875.07,875.89,876.34,874.50,870.89,866.02,861.05,858.84,857.48,856.03,854.24,852.99,851.84,850.22,847.45,843.33,839.64,836.55,834.10,832.36,831.65,831.66,832.09,832.68,833.36,832.75,830.95,828.25,825.61,823.68,822.97,823.05,822.38,821.23,819.65,817.73,815.60,813.97,814.66,816.55,818.89,821.02,822.98,824.78,825.57,823.83,822.09,821.69,821.69,821.24,820.78,820.71,821.24,822.33,823.75,825.54,827.36,829.21,831.08,832.50,833.57,834.69,836.00,837.25,838.27,839.34
1187.42,1187.50,1187.95,1188.69,1189.33,1189.58,1188.79,1185.80,1182.77,1180.55,1179.19,1178.16,1175.43,1171.74,1167.97,1165.36,1165.99,1166.10,1165.68,1164.57,1161.77,1156.83,1151.49,1146.33,1141.55,1137.83,1135.34,1133.97,1133.59,1133.21,1132.06,1129.90,1126.83,1123.36,1120.55,1117.58,1114.54,1111.70,1108.74,1105.35,1101.53,1097.47,1093.83,1091.58,1089.53,1087.28,1084.83,1082.92,1081.67,1081.03,1081.12,1081.73,1081.91,1081.12,1078.76,1074.09,1070.01,1066.22,1062.76,1059.64,1055.72,1052.86,1050.86,1049.39,1047.85,1045.18,1042.82,1040.97,1039.09,1036.70,1034.17,1031.55,1028.99,1027.31,1025.39,1023.26,1021.15,1019.40,1017.43,1014.93,1012.17,1009.53,1007.35,1004.38,1001.20,997.90,993.55,988.50,984.16,980.65,977.75,977.03,978.99,981.94,984.64,987.37,989.96,992.35,994.22,994.82,994.71,993.78,992.09,989.49,985.97,982.24,979.02,976.53,974.07,971.73,967.58,962.20,957.91,954.01,950.64,948.23,947.08,946.17,943.87,941.73,940.76,941.57,943.06,944.84,946.51,947.23,944.97,941.98,939.10,936.72,934.97,931.81,928.96,926.98,925.58,923.57,919.35,913.58,907.04,900.53,896.53,893.64,891.09,888.71,886.97,885.64,885.11,885.82,884.96,884.58,884.45,884.05,882.94,881.13,879.12,877.04,874.93,874.03,873.12,872.09,871.31,871.67,875.46,880.13,884.47,888.45,892.18,895.01,896.84,897.27,895.14,893.34,891.91,890.55,889.16,886.76,884.01,881.36,879.04,875.69,870.78,865.51,861.37,859.00,859.00,860.59,863.19,865.64,866.76,867.38,868.13,869.58,871.46,872.54,871.36,867.07,861.83,859.26,857.53,855.76,853.91,852.48,851.45,849.85,846.45,841.38,837.44,835.51,835.81,837.22,838.13,838.52,838.44,837.85,837.03,835.76,833.63,830.59,828.10,826.67,826.56,827.36,827.84,827.66,825.83,822.77,819.15,815.97,813.20,812.64,814.88,817.85,820.79,823.25,824.48,823.19,821.59,820.58,819.87,819.28,819.45,820.28,821.39,822.66,824.07,825.76,827.46,829.03,830.36,831.53,832.39,833.40,834.66,835.75,836.85,838.11
1183.67,1183.32,1183.64,1184.43,1185.25,1185.93,1185.97,1183.92,1180.75,1177.69,1175.54,1175.02,1174.06,1171.49,1167.55,1163.28,1162.22,1162.19,1162.52,1162.68,1161.37,1157.81,1153.14,1148.14,1143.46,1138.95,1134.64,1131.26,1129.45,1128.66,1127.67,1125.78,1122.89,1119.38,1116.54,1113.96,1111.43,1108.90,1106.71,1104.28,1101.50,1098.14,1093.80,1090.45,1087.74,1085.24,1082.53,1079.98,1077.93,1076.70,1076.62,1077.50,1078.36,1078.43,1076.96,1072.86,1068.70,1064.68,1061.04,1057.90,1054.16,1050.94,1048.30,1046.23,1044.48,1042.20,1040.13,1038.33,1036.54,1035.07,1033.31,1031.09,1028.58,1026.79,1024.95,1023.31,1022.09,1021.33,1020.03,1017.55,1014.28,1010.94,1008.69,1005.77,1002.86,1000.00,995.52,990.53,986.32,982.63,978.51,975.70,976.40,978.64,980.72,982.90,984.92,986.87,988.54,989.40,990.30,990.63,989.98,987.80,984.34,980.97,978.20,976.04,973.78,971.50,968.22,964.19,960.45,956.89,953.55,951.08,949.87,948.29,945.11,941.91,939.74,939.27,939.15,940.00,941.25,941.57,939.74,936.91,934.38,932.53,930.40,927.67,925.20,923.17,921.44,919.59,916.54,912.55,907.98,903.42,900.55,898.08,895.35,892.35,889.77,887.43,885.48,884.07,881.69,880.69,880.37,879.97,879.17,878.14,877.17,876.36,875.77,875.83,875.32,874.10,872.25,870.21,871.40,874.45,878.43,882.61,887.06,891.20,894.49,896.09,895.82,895.21,894.31,892.95,891.52,889.23,886.24,883.04,880.43,876.88,872.88,869.00,865.58,861.83,859.15,857.90,858.33,860.08,860.62,860.66,860.98,862.49,865.04,868.40,869.60,866.66,862.08,859.23,857.23,855.46,853.56,851.91,850.86,849.13,845.22,840.29,836.88,836.19,838.35,841.22,842.34,842.67,842.57,841.93,840.81,839.43,837.47,834.69,832.01,830.81,831.00,832.11,832.92,832.72,830.98,828.03,824.00,819.18,814.47,811.78,812.11,814.73,818.84,821.96,823.27,822.36,820.73,819.02,818.21,818.84,819.60,820.71,821.94,823.21,824.59,826.18,827.68,828.91,829.76,830.58,831.26,832.11,833.25,834.37,835.71,837.20
1180.01,1179.13,1179.21,1180.21,1181.33,1182.46,1183.21,1182.21,1179.13,1175.23,1171.92,1171.40,1172.03,1170.82,1167.37,1162.33,1159.33,1158.45,1158.71,1159.48,1159.69,1157.90,1154.54,1150.36,1146.09,1141.60,1135.98,1130.62,1126.87,1125.03,1123.48,1121.33,1118.32,1114.61,1111.64,1109.26,1107.02,1104.72,1103.31,1101.70,1100.13,1098.24,1094.48,1090.53,1087.04,1084.00,1081.15,1078.21,1075.53,1073.60,1072.94,1073.40,1074.35,1074.96,1074.46,1071.65,1067.85,1064.05,1060.56,1057.46,1054.35,1050.49,1046.63,1043.36,1041.09,1039.38,1037.62,1035.64,1033.52,1032.14,1030.60,1028.51,1025.86,1023.75,1022.08,1021.17,1021.02,1021.10,1020.60,1018.46,1014.98,1011.00,1008.79,1006.24,1003.72,1001.16,997.11,992.54,988.59,984.75,979.56,975.35,974.67,975.66,976.69,978.15,979.69,981.22,982.62,983.68,985.10,986.36,986.77,985.39,982.60,979.90,977.61,975.59,973.14,970.71,968.15,965.41,962.47,959.45,956.45,954.15,952.89,950.75,947.28,943.84,941.11,939.25,937.09,936.45,936.64,936.11,934.73,932.41,930.56,929.54,927.39,925.53,923.46,921.15,919.03,917.00,914.89,912.83,910.92,908.90,907.02,904.51,901.19,897.73,895.34,892.99,890.12,886.40,882.60,880.86,880.06,879.36,878.71,878.31,878.29,878.77,879.84,880.74,880.62,879.29,876.43,872.18,870.03,870.36,873.07,877.31,882.20,887.09,891.13,893.25,895.08,895.86,895.64,894.50,893.02,890.88,887.62,883.65,880.21,876.60,874.05,872.40,870.70,866.39,861.62,857.72,855.58,855.88,855.73,855.19,854.84,855.68,858.14,862.98,866.18,864.89,861.41,858.49,856.40,854.80,852.92,851.06,849.70,847.63,843.58,839.50,837.29,838.00,841.50,844.79,845.44,845.50,845.61,845.59,844.83,843.57,841.85,839.53,836.69,835.71,836.17,837.37,838.05,837.18,835.44,832.88,828.92,822.81,817.11,812.69,810.47,811.98,816.88,820.61,822.06,821.45,819.59,817.51,817.13,819.28,820.48,821.58,822.71,823.90,825.20,826.62,827.83,828.70,829.16,829.62,830.14,830.87,831.88,833.14,834.72,836.39
1176.94,1174.61,1173.83,1175.38,1177.42,1179.34,1180.63,1180.10,1177.54,1173.66,1169.75,1168.33,1168.64,1168.84,1167.28,1162.94,1159.24,1155.86,1154.11,1154.35,1154.99,1154.76,1154.03,1152.37,1148.68,1144.30,1139.11,1133.60,1128.56,1125.50,1122.00,1118.42,1114.82,1110.94,1108.13,1105.15,1102.33,1100.46,1099.53,1097.95,1096.13,1094.18,1091.58,1088.61,1085.49,1082.52,1080.04,1077.20,1074.10,1071.43,1069.85,1069.26,1069.93,1070.74,1071.02,1070.07,1067.58,1065.28,1063.13,1060.56,1057.69,1053.45,1049.05,1045.23,1042.19,1040.13,1037.79,1034.85,1031.48,1028.51,1026.28,1024.21,1021.89,1019.75,1018.15,1017.35,1017.25,1017.36,1017.31,1016.02,1013.18,1008.99,1006.48,1004.25,1002.34,1000.62,997.88,994.14,990.65,986.84,981.01,976.76,974.63,973.40,972.32,971.95,972.40,973.83,976.04,978.16,979.56,980.62,981.37,981.52,980.70,978.46,975.83,973.54,971.90,970.09,967.80,965.15,962.56,960.03,957.08,954.06,951.49,949.96,947.98,946.27,944.84,942.71,939.81,937.85,936.70,935.63,934.77,933.46,932.40,931.76,930.40,928.60,926.70,924.81,922.97,921.22,919.64,918.34,917.38,916.28,914.83,912.31,908.52,904.18,901.60,899.25,896.32,892.37,888.58,886.40,885.11,884.24,883.85,883.62,884.04,885.24,887.06,888.04,887.38,885.37,882.24,878.43,873.99,870.28,869.12,873.26,877.83,882.34,886.57,890.09,892.35,893.62,894.37,894.62,893.84,891.89,888.91,885.15,881.26,879.21,878.30,877.50,875.61,871.42,866.69,862.63,859.68,857.65,856.91,855.31,852.97,851.37,852.16,856.60,860.45,860.56,858.11,855.89,854.21,852.82,851.15,849.23,846.67,843.75,840.84,838.23,838.32,841.07,845.59,848.50,848.72,848.51,848.80,849.76,849.68,848.27,846.15,843.78,841.72,841.53,842.57,843.96,844.17,842.22,839.26,835.80,831.73,825.95,820.01,814.67,810.88,810.53,814.47,818.57,821.02,820.59,818.09,817.07,817.98,820.30,821.42,822.49,823.61,824.77,825.94,826.86,827.49,827.91,828.21,828.50,828.98,829.74,830.84,832.24,833.79,835.38
1174.89,1171.74,1169.82,1171.20,1173.58,1175.85,1177.32,1177.11,1175.50,1172.42,1168.51,1165.63,1165.06,1165.90,1166.17,1164.02,1160.56,1156.42,1153.01,1151.09,1150.55,1150.94,1151.52,1151.38,1149.21,1145.71,1141.43,1136.55,1131.38,1127.31,1122.94,1119.14,1115.88,1112.34,1109.60,1106.70,1103.62,1100.75,1099.10,1097.20,1094.83,1092.16,1089.85,1087.37,1084.59,1081.81,1079.47,1076.90,1073.80,1070.81,1068.55,1067.04,1066.21,1065.68,1065.35,1065.13,1063.78,1062.56,1061.28,1059.19,1056.33,1052.61,1048.79,1045.45,1043.13,1041.60,1039.70,1037.14,1033.85,1029.98,1026.76,1023.92,1021.22,1019.12,1017.51,1016.26,1015.19,1013.92,1012.73,1011.64,1009.77,1006.27,1003.91,1001.64,999.41,997.39,995.81,993.71,991.02,987.34,981.92,977.98,975.18,972.89,970.90,969.54,968.74,969.25,971.13,973.21,974.45,975.54,976.75,978.02,978.62,977.29,974.75,971.84,970.19,968.56,966.90,965.14,963.07,960.46,957.65,954.93,952.67,951.82,950.87,949.92,948.87,946.99,944.05,941.50,939.56,938.18,937.55,936.83,936.26,935.90,935.19,933.81,931.81,929.45,927.21,925.33,923.82,922.69,921.94,921.17,920.03,918.03,914.93,910.95,908.28,906.05,903.38,899.34,894.82,892.02,890.35,889.39,889.15,889.02,889.77,891.48,893.46,894.13,892.92,890.29,886.65,883.15,877.86,872.38,868.66,869.71,873.49,877.74,881.90,885.98,888.93,891.05,892.68,893.79,894.06,892.74,890.40,887.23,883.39,881.86,881.47,880.87,878.76,874.82,871.24,868.17,865.48,862.83,861.20,858.55,854.56,850.13,849.20,851.88,854.63,854.95,853.44,851.87,850.54,849.38,848.00,845.98,843.74,841.61,839.93,839.01,841.19,845.16,849.53,851.81,852.00,852.22,853.09,854.42,854.78,853.62,851.22,848.18,846.67,846.78,847.73,848.78,848.59,846.49,842.72,838.21,833.60,828.01,822.11,816.44,811.78,809.92,812.37,816.17,819.16,818.97,816.28,816.63,818.80,820.93,822.02,823.11,824.23,825.27,826.00,826.47,826.73,826.91,827.13,827.41,828.08,829.02,830.18,831.55,832.99,834.43
1173.35,1170.05,1167.00,1167.47,1169.65,1171.97,1173.44,1173.57,1173.04,1171.11,1167.63,1163.26,1161.56,1162.42,1164.17,1164.82,1162.45,1159.02,1154.67,1149.97,1147.29,1147.16,1147.68,1148.09,1147.88,1145.77,1142.68,1138.86,1134.29,1129.56,1125.30,1122.13,1119.71,1116.76,1113.95,1111.54,1108.55,1104.21,1101.39,1099.05,1096.17,1092.77,1090.29,1087.69,1085.06,1082.50,1080.11,1077.79,1074.97,1072.00,1069.27,1066.83,1063.93,1061.28,1059.38,1058.69,1057.76,1056.93,1055.95,1054.22,1051.47,1048.79,1046.12,1043.75,1042.96,1042.47,1041.66,1040.34,1038.13,1034.35,1030.45,1026.70,1023.32,1021.21,1019.47,1017.52,1015.06,1011.84,1008.66,1007.00,1005.71,1003.25,1001.32,998.88,995.89,992.99,992.12,991.69,989.88,986.49,982.12,978.72,975.95,973.59,971.61,969.95,967.98,967.08,967.62,968.81,969.82,971.13,972.86,974.90,976.28,976.22,974.35,971.02,968.84,967.12,966.29,965.87,964.44,961.50,958.90,957.06,956.08,955.74,955.25,954.26,952.82,951.29,948.72,946.14,943.97,942.47,941.79,941.24,940.82,940.55,940.16,939.35,937.19,933.97,930.95,928.67,926.90,925.50,924.45,923.54,922.58,921.30,919.43,916.60,914.01,912.07,909.95,906.24,901.02,897.59,895.48,894.23,893.88,893.91,895.04,897.04,898.73,898.86,897.25,894.20,890.03,886.59,881.34,875.73,870.71,867.25,869.45,873.23,877.16,881.14,884.99,888.15,890.59,892.31,893.69,893.34,891.87,889.48,886.15,884.39,883.70,882.85,880.65,877.14,875.17,873.55,871.58,869.33,866.57,862.96,857.90,851.17,848.74,849.00,849.64,849.40,848.70,847.68,846.67,845.74,844.71,842.91,842.10,841.69,841.01,841.69,845.38,849.72,853.17,854.82,855.32,856.31,857.83,859.04,859.57,858.86,856.47,852.78,851.52,851.38,851.64,851.83,851.25,849.59,845.49,840.15,834.94,829.31,823.60,817.95,812.86,809.84,810.68,813.56,816.44,816.62,814.58,816.35,819.44,821.22,822.37,823.49,824.54,825.31,825.47,825.59,825.69,825.80,826.00,826.41,827.41,828.58,829.74,830.94,832.21,833.44
1170.96,1168.38,1165.13,1163.59,1165.01,1167.46,1169.41,1170.20,1169.97,1168.50,1165.59,1161.25,1158.72,1159.32,1161.40,1162.97,1163.05,1161.17,1157.58,1152.67,1148.03,1145.02,1143.69,1143.66,1144.26,1143.53,1141.85,1139.02,1134.86,1130.49,1127.10,1124.33,1121.81,1118.99,1115.79,1113.23,1110.74,1107.69,1105.50,1103.11,1100.65,1098.40,1096.53,1092.88,1089.80,1087.46,1084.93,1082.51,1079.89,1077.14,1074.08,1069.90,1066.31,1062.94,1059.63,1056.49,1053.18,1050.97,1049.44,1047.84,1046.34,1044.36,1041.84,1039.38,1038.96,1038.85,1038.47,1037.75,1036.72,1035.24,1032.95,1030.25,1027.50,1024.90,1022.78,1020.61,1018.00,1014.48,1010.69,1006.90,1003.40,1000.64,998.89,996.78,994.25,991.67,990.00,988.77,987.02,984.37,980.77,978.24,976.26,974.44,972.62,970.78,968.59,966.58,965.27,965.36,965.90,967.27,969.39,971.88,973.29,974.42,974.49,973.00,970.84,969.44,968.95,968.89,968.11,965.63,963.14,961.27,960.29,959.81,959.07,957.81,955.99,953.80,951.45,949.41,947.69,946.27,945.27,944.37,943.41,942.37,941.50,940.60,938.75,935.98,932.99,930.31,928.18,926.21,924.11,922.45,921.23,919.83,917.98,915.78,913.69,912.42,911.60,910.32,907.44,904.07,900.83,898.17,896.68,897.46,899.21,901.04,901.93,901.76,900.20,897.38,893.53,890.18,884.65,878.75,873.41,868.84,866.95,868.52,872.13,875.91,880.21,883.91,887.31,890.39,892.18,893.04,892.52,890.79,888.68,887.14,885.89,884.38,882.16,879.79,878.66,877.34,875.12,872.13,868.19,863.87,859.03,853.54,850.56,849.28,848.59,847.99,847.67,847.28,846.65,845.86,845.24,845.49,846.15,846.28,845.45,846.55,849.82,853.37,856.14,857.68,858.78,859.95,861.12,861.86,862.14,861.46,859.87,857.69,856.21,855.00,853.88,852.72,851.32,849.72,845.92,840.99,836.25,830.40,824.76,819.14,813.72,809.87,809.74,810.96,812.35,813.39,814.38,817.14,819.95,821.40,822.57,823.64,824.23,824.35,824.38,824.50,824.60,824.70,824.95,825.78,826.92,828.13,829.22,830.07,831.07,831.93
1167.41,1165.59,1162.52,1159.59,1160.41,1162.90,1165.14,1166.25,1166.14,1165.05,1162.85,1159.27,1156.37,1156.31,1158.09,1160.27,1162.02,1161.69,1159.58,1155.73,1150.30,1145.50,1142.11,1140.27,1140.13,1139.88,1138.94,1136.81,1133.26,1129.45,1126.47,1123.75,1121.03,1118.17,1114.89,1111.93,1109.30,1107.04,1105.55,1103.80,1102.16,1100.80,1099.14,1095.68,1092.77,1090.51,1087.96,1085.58,1083.10,1080.57,1077.65,1072.93,1069.14,1065.46,1061.43,1056.99,1052.05,1048.21,1045.27,1042.84,1041.44,1039.65,1037.24,1034.86,1034.70,1034.63,1034.23,1033.68,1033.49,1033.65,1032.87,1031.41,1029.40,1026.40,1024.50,1022.89,1020.84,1017.61,1013.88,1009.31,1004.99,1002.38,1000.79,999.04,996.94,994.54,992.20,990.01,987.85,985.33,981.90,979.56,977.74,975.99,974.06,971.87,969.43,966.79,964.40,963.31,962.83,963.53,965.37,968.00,969.64,971.49,972.90,973.18,972.12,971.32,970.84,970.44,969.50,967.24,964.84,962.88,961.67,960.80,959.74,958.16,955.99,953.53,951.36,949.56,947.98,946.57,945.46,944.44,943.20,941.70,940.50,939.44,937.90,935.73,933.01,930.36,927.91,925.40,922.70,920.26,918.39,916.54,914.54,912.66,910.85,910.01,910.11,910.59,909.68,906.57,902.59,898.83,896.39,897.29,899.21,900.82,901.24,901.18,900.57,899.01,896.06,892.73,887.69,882.20,876.87,871.88,867.47,866.26,867.76,870.63,874.62,878.68,882.89,887.11,889.97,891.96,892.51,891.75,890.45,889.14,887.64,885.86,883.77,882.09,881.17,879.90,877.64,874.27,870.12,865.98,861.90,857.71,854.31,852.11,850.77,850.13,849.93,849.77,849.22,848.41,848.12,849.22,850.50,850.94,850.22,851.40,854.07,856.91,859.26,860.95,862.34,863.32,863.87,863.86,863.24,862.13,860.81,859.38,857.67,856.05,854.35,852.51,850.66,849.04,845.94,841.98,837.83,831.86,826.14,820.31,814.42,809.96,809.14,809.52,810.37,812.13,814.68,817.59,819.96,821.28,822.43,823.33,823.56,823.26,823.17,823.28,823.39,823.57,824.10,825.29,826.54,827.70,828.67,829.19,829.94,830.49
1162.88,1161.68,1159.04,1155.58,1156.05,1158.43,1160.70,1161.75,1161.66,1160.95,1159.62,1157.26,1154.37,1153.36,1154.36,1156.98,1159.39,1160.39,1160.13,1158.14,1153.24,1148.24,1143.06,1138.51,1136.26,1135.44,1134.36,1132.55,1129.83,1126.58,1123.43,1120.41,1117.47,1114.45,1111.40,1108.01,1104.78,1102.52,1101.39,1100.70,1099.99,1098.94,1097.06,1094.98,1092.81,1090.52,1088.07,1085.93,1083.58,1081.31,1079.00,1075.10,1071.51,1067.80,1063.77,1059.43,1054.11,1048.82,1044.00,1040.05,1037.53,1035.44,1033.13,1031.01,1030.87,1030.42,1029.53,1028.73,1028.90,1029.63,1029.83,1029.41,1028.05,1025.00,1023.95,1023.47,1022.48,1020.02,1016.95,1013.25,1009.89,1008.01,1006.54,1005.13,1003.27,1000.76,998.07,995.15,992.32,989.34,985.66,982.93,980.59,978.32,975.94,973.19,970.26,967.44,964.89,962.71,960.86,960.24,961.07,963.38,965.44,967.48,969.43,971.03,971.88,971.93,971.35,970.22,968.48,966.05,963.66,961.67,960.22,958.91,957.55,955.67,953.30,951.08,949.08,947.13,945.25,943.64,942.62,941.72,940.54,939.01,937.69,936.43,935.07,933.41,931.08,928.82,926.11,923.29,920.68,917.80,915.24,912.91,910.80,909.04,907.12,906.23,906.45,907.36,907.46,904.77,900.65,896.35,893.34,893.65,895.11,896.45,896.78,897.11,898.04,898.46,896.98,893.88,890.24,885.92,880.91,875.83,870.82,866.85,864.76,865.85,868.64,872.71,877.43,882.41,887.01,890.12,891.87,892.33,891.41,890.28,888.86,887.19,885.33,883.77,882.56,881.23,879.30,876.08,872.66,869.49,866.50,863.30,859.68,857.17,855.84,855.47,855.13,854.78,854.03,853.13,853.08,853.65,854.68,855.28,854.93,855.97,858.15,860.55,862.74,864.62,865.86,866.33,866.10,865.10,863.10,861.23,859.55,857.87,855.97,854.69,853.29,851.53,849.62,847.91,845.71,843.02,839.51,833.61,827.72,821.50,815.04,810.07,808.77,809.21,810.56,812.79,815.17,817.47,819.41,820.82,821.95,822.60,822.62,822.19,821.93,821.99,822.11,822.47,823.44,824.87,826.19,827.29,828.05,828.32,828.88,829.23
1158.61,1157.38,1155.13,1152.11,1152.30,1154.35,1156.61,1157.39,1157.31,1157.00,1156.47,1155.13,1152.26,1150.45,1150.60,1153.02,1155.57,1157.21,1157.78,1156.93,1154.15,1150.33,1145.29,1139.91,1135.82,1132.93,1130.43,1128.24,1126.21,1123.24,1119.70,1116.03,1112.44,1109.21,1106.19,1103.27,1100.83,1099.20,1096.95,1096.09,1095.34,1093.96,1092.23,1090.54,1088.61,1086.34,1083.83,1082.05,1080.22,1078.49,1076.92,1074.57,1071.98,1068.78,1064.95,1060.87,1056.09,1050.96,1046.03,1041.91,1038.75,1035.96,1033.13,1030.38,1028.47,1026.17,1023.98,1022.40,1022.08,1022.30,1022.59,1022.44,1021.43,1019.74,1019.40,1019.49,1019.37,1018.56,1017.00,1015.01,1013.03,1011.49,1010.04,1008.91,1007.30,1004.75,1001.69,998.52,995.45,992.44,989.43,987.20,984.57,981.55,978.27,974.65,970.92,967.93,965.76,963.57,961.48,959.82,959.02,959.69,961.23,963.10,965.18,967.33,968.96,970.14,970.43,969.80,968.24,965.23,962.44,960.35,959.07,957.85,956.32,954.55,952.65,950.79,948.96,946.72,944.19,941.76,940.32,939.17,938.02,936.65,934.80,933.08,931.41,929.65,927.52,925.32,922.66,920.35,919.08,917.74,916.54,914.91,912.93,911.58,908.94,906.53,904.56,902.94,902.68,900.78,897.42,893.34,890.33,889.61,889.89,890.39,890.50,890.54,891.50,892.82,893.51,892.60,891.03,888.39,884.50,879.90,874.82,870.15,866.42,864.47,864.76,867.19,871.25,876.69,882.51,887.46,890.47,891.61,891.58,890.70,889.33,887.63,885.67,883.88,882.47,881.13,879.41,876.60,873.81,871.35,869.36,867.83,865.32,863.55,862.75,862.67,862.07,861.20,860.35,859.81,859.98,860.32,860.86,860.92,860.12,860.80,862.62,864.92,867.13,868.22,868.67,868.24,867.00,864.97,862.47,860.06,857.86,855.89,854.12,852.99,851.93,850.58,848.56,846.43,844.41,842.48,840.01,834.67,828.93,822.62,815.82,810.11,808.36,808.83,810.46,812.67,814.75,816.68,818.43,819.95,821.23,821.92,821.83,821.18,820.81,820.75,820.97,821.60,822.81,824.27,825.72,826.70,827.07,827.39,827.99,828.22
1156.18,1154.46,1152.07,1149.44,1149.24,1150.59,1152.32,1152.80,1152.82,1152.85,1152.88,1152.34,1150.18,1147.88,1147.02,1148.90,1151.36,1153.32,1154.32,1154.15,1152.95,1150.45,1146.34,1141.38,1136.91,1133.12,1129.90,1127.32,1125.23,1122.30,1118.34,1114.25,1110.48,1107.34,1104.72,1102.41,1100.57,1099.11,1096.18,1094.29,1092.47,1090.35,1088.81,1087.28,1085.41,1083.14,1080.47,1078.37,1076.31,1074.61,1073.50,1072.37,1070.62,1068.03,1064.67,1060.96,1057.12,1052.97,1048.73,1044.82,1041.52,1038.49,1035.24,1031.70,1028.41,1024.99,1022.08,1019.98,1018.95,1018.25,1017.65,1016.66,1015.11,1014.15,1014.08,1014.25,1014.43,1014.57,1014.15,1013.42,1012.43,1011.11,1009.83,1008.93,1007.63,1005.49,1002.96,1000.36,997.57,994.72,992.18,990.33,987.82,984.64,980.97,977.08,972.71,969.22,966.87,964.67,962.51,960.21,958.25,957.46,957.71,959.00,960.86,962.85,964.33,965.98,967.28,967.89,967.22,965.14,962.76,960.77,959.52,958.46,957.07,955.56,954.01,952.27,950.29,947.75,944.83,942.08,940.49,939.28,938.16,936.90,935.02,932.77,930.66,928.73,926.70,924.38,922.02,920.43,920.17,919.80,919.30,918.17,916.57,915.54,912.56,908.92,904.81,900.42,899.26,897.72,895.30,892.27,889.63,888.15,887.25,886.48,885.44,884.54,884.93,886.39,888.31,889.10,889.02,887.79,885.18,881.43,877.19,873.21,869.41,865.63,863.30,863.28,865.75,870.95,877.60,884.16,888.62,890.76,891.36,890.76,889.44,887.66,885.52,883.48,881.80,880.40,878.91,876.43,874.07,872.25,871.10,870.59,869.24,868.30,867.99,868.09,867.48,866.58,865.91,865.68,865.91,866.16,866.38,866.11,865.18,865.49,866.73,868.49,870.21,870.58,870.29,869.14,867.24,864.75,862.18,859.45,856.78,854.38,852.29,851.02,850.03,848.84,846.77,844.41,842.44,840.96,839.40,835.09,829.91,823.88,816.99,810.34,807.88,808.27,810.10,812.13,813.97,815.69,817.35,818.95,820.46,821.22,821.06,820.25,819.68,819.53,819.93,820.89,822.45,824.04,825.24,825.84,825.95,826.45,827.12,827.15
1156.32,1153.76,1150.58,1148.01,1147.17,1147.30,1147.71,1147.83,1148.02,1148.28,1148.53,1148.59,1148.05,1145.74,1143.80,1144.76,1146.95,1148.96,1150.12,1150.16,1149.32,1147.93,1145.28,1141.88,1138.87,1136.13,1133.53,1130.87,1127.99,1124.94,1120.65,1116.59,1113.28,1110.63,1108.85,1107.10,1105.22,1103.16,1100.54,1096.94,1093.12,1089.91,1088.49,1086.95,1085.03,1082.69,1079.81,1076.54,1073.25,1070.71,1069.47,1068.75,1067.29,1065.23,1062.58,1059.30,1056.62,1054.05,1051.13,1047.63,1044.73,1042.12,1038.81,1034.68,1031.16,1028.04,1025.44,1023.30,1021.54,1019.65,1017.25,1014.30,1011.20,1009.69,1009.18,1008.86,1008.51,1008.33,1008.13,1007.75,1007.04,1005.94,1005.06,1004.34,1003.42,1002.28,1001.40,1000.28,998.33,995.74,993.23,991.31,989.37,986.93,983.78,980.55,976.02,971.70,968.30,965.83,963.53,961.09,958.81,957.17,955.42,955.65,956.75,957.80,958.17,959.32,961.55,964.00,964.86,965.64,964.86,963.31,961.90,960.92,960.02,958.89,957.36,955.30,952.82,950.03,947.23,944.91,943.64,942.69,941.62,940.36,939.23,936.49,933.88,931.84,929.81,927.21,925.35,924.46,924.32,923.55,922.26,921.01,920.01,919.06,916.51,912.63,907.39,901.12,898.77,896.92,895.37,894.17,892.22,890.45,888.60,886.30,883.10,880.65,879.95,880.62,882.10,883.20,883.61,883.23,881.84,879.29,876.86,874.81,872.56,869.06,864.58,861.63,861.64,865.63,872.61,880.16,886.21,889.93,890.77,890.50,889.24,887.33,885.02,882.73,880.72,879.24,877.96,875.64,873.51,872.31,871.76,871.24,870.69,870.43,870.40,870.44,870.23,870.02,869.81,869.68,869.79,870.04,870.18,870.06,869.65,869.63,870.08,870.69,871.23,871.21,870.44,868.85,866.76,864.58,862.34,859.58,856.62,853.68,850.66,848.93,847.58,846.05,844.00,841.80,839.89,838.53,837.51,834.68,830.54,825.23,818.57,810.85,807.40,807.48,809.39,811.22,812.95,814.62,816.25,817.92,819.69,820.50,820.28,819.35,818.50,818.41,819.08,820.43,822.44,824.24,824.71,824.66,824.73,825.48,826.26,825.94
1158.04,1155.61,1152.46,1149.65,1147.53,1145.63,1143.76,1142.44,1142.29,1142.58,1143.07,1143.82,1144.47,1143.34,1141.48,1140.75,1142.69,1144.69,1145.82,1145.79,1144.83,1144.10,1142.21,1139.43,1136.90,1134.88,1133.74,1132.90,1131.73,1129.55,1126.23,1122.44,1118.73,1115.90,1114.14,1112.43,1110.44,1108.06,1105.54,1102.25,1098.73,1095.52,1093.35,1091.03,1088.66,1086.27,1083.63,1080.38,1076.75,1072.92,1069.24,1066.88,1064.23,1061.54,1058.83,1055.78,1053.10,1051.14,1049.26,1046.63,1043.71,1041.20,1038.57,1035.76,1033.76,1031.70,1029.51,1027.32,1025.34,1023.17,1020.64,1017.78,1014.71,1012.03,1009.67,1007.67,1005.87,1003.83,1002.40,1001.24,1000.32,999.78,999.18,998.74,998.15,997.44,997.26,996.65,995.13,992.96,990.74,988.55,986.65,984.88,983.15,981.74,978.82,974.88,970.79,968.05,965.84,963.69,961.44,959.03,956.65,955.07,954.04,953.39,953.08,954.08,956.67,959.85,961.59,962.92,963.12,962.68,962.05,961.31,960.61,959.70,958.12,955.14,952.52,950.20,947.92,945.50,944.03,942.99,942.07,941.17,940.23,937.54,934.85,932.62,930.39,927.63,925.65,924.26,922.87,920.42,918.08,916.20,914.82,913.76,912.63,910.96,908.56,905.39,903.00,901.01,899.46,898.28,896.63,894.57,892.40,890.13,887.45,884.66,881.69,879.34,878.33,877.50,877.61,877.57,876.79,875.15,873.31,871.85,870.67,869.18,866.03,862.27,860.35,862.34,868.51,875.96,882.46,887.24,889.81,890.21,888.94,886.76,884.18,881.60,879.71,878.33,877.04,874.97,873.59,872.80,872.31,871.80,871.55,871.39,871.31,871.29,871.23,871.22,871.11,870.94,871.00,870.97,870.75,870.53,870.54,870.74,871.19,871.66,871.88,871.26,869.83,867.57,864.93,862.66,860.94,858.77,856.17,853.29,850.47,848.16,846.00,843.78,841.51,839.62,837.83,836.25,834.97,833.04,829.75,825.22,819.09,811.12,807.46,806.87,808.07,810.07,811.82,813.46,815.20,817.14,819.04,819.63,819.04,817.84,817.31,818.12,819.35,820.85,822.60,823.28,823.30,823.27,823.56,824.53,825.43,824.99
1159.71,1158.01,1155.45,1152.51,1149.39,1146.00,1142.38,1139.49,1138.16,1137.67,1137.84,1139.01,1140.46,1140.75,1139.54,1137.43,1138.72,1140.53,1141.63,1141.55,1140.44,1140.00,1138.43,1135.88,1133.47,1131.71,1131.46,1132.02,1132.58,1131.91,1130.39,1127.81,1124.55,1121.83,1119.72,1117.75,1115.63,1113.16,1110.54,1107.62,1104.64,1101.76,1099.08,1096.27,1093.59,1091.01,1088.33,1085.13,1081.37,1076.86,1071.69,1067.46,1063.61,1060.27,1057.39,1054.68,1051.88,1049.84,1048.13,1046.02,1043.36,1041.09,1039.14,1037.61,1036.79,1035.65,1033.90,1031.72,1029.45,1027.05,1024.64,1022.22,1019.63,1016.48,1013.14,1009.98,1006.90,1003.40,1000.84,998.61,996.89,996.07,995.10,993.99,992.98,992.35,992.40,991.67,990.19,988.33,986.58,984.43,982.46,981.03,980.46,980.49,979.33,976.81,973.50,970.98,968.99,967.11,964.97,962.23,959.49,956.32,953.22,950.76,949.66,950.19,952.47,955.63,957.91,959.27,959.96,960.32,960.41,959.85,959.11,958.16,956.48,952.97,950.30,948.31,946.37,943.94,942.27,940.93,939.83,938.89,937.80,935.73,933.54,931.41,929.03,926.25,924.00,921.75,918.77,915.25,912.27,909.75,907.78,906.79,906.69,906.78,906.87,906.71,905.06,903.59,902.42,901.42,900.37,898.59,896.61,894.67,892.73,890.03,885.94,881.79,878.75,875.29,874.06,873.39,872.43,871.37,869.78,868.51,867.82,867.53,865.82,862.46,859.80,860.11,864.83,871.84,878.34,883.60,887.65,888.89,887.93,885.75,883.04,880.38,878.68,877.37,876.04,874.42,873.62,873.01,872.40,871.90,871.75,871.58,871.41,871.34,871.34,871.41,871.36,871.23,871.27,871.01,870.28,869.67,869.92,870.67,871.31,871.82,871.97,871.13,869.54,866.86,863.62,860.90,859.36,857.58,855.35,852.78,850.44,847.78,845.09,842.50,840.14,838.48,836.79,835.04,833.39,831.81,829.20,825.11,819.10,811.33,807.68,806.33,806.59,808.74,810.54,812.26,814.12,816.17,817.95,818.34,817.49,816.26,816.63,818.32,819.91,821.17,822.09,821.86,821.82,821.98,822.42,823.54,824.57,824.12
1160.46,1160.20,1158.96,1156.24,1153.02,1149.53,1145.69,1141.43,1137.64,1134.89,1133.66,1134.63,1136.28,1137.89,1137.89,1135.41,1135.25,1136.57,1137.71,1137.78,1136.65,1135.98,1134.27,1131.66,1129.10,1126.88,1125.99,1126.20,1127.34,1128.94,1130.15,1130.39,1129.61,1127.90,1125.15,1122.65,1120.44,1118.15,1115.13,1111.74,1108.69,1106.20,1103.85,1101.48,1098.87,1095.90,1092.45,1088.79,1084.87,1081.14,1077.45,1071.92,1067.60,1064.09,1061.21,1059.11,1056.51,1053.57,1050.60,1048.04,1046.36,1044.69,1043.09,1041.74,1040.65,1039.78,1038.44,1036.38,1033.45,1030.51,1027.91,1025.64,1023.63,1021.65,1019.65,1016.90,1013.38,1009.91,1007.13,1003.88,1000.49,997.67,995.13,991.57,988.77,987.73,987.50,985.95,983.93,982.09,980.94,979.50,977.47,975.83,975.42,975.60,975.63,975.88,975.99,974.64,973.00,971.18,969.21,966.90,963.79,959.83,955.46,951.33,948.99,948.28,949.25,951.44,953.92,955.34,955.85,956.10,956.34,955.76,954.67,953.28,951.38,948.35,945.68,943.39,941.28,939.21,937.57,935.71,933.77,931.93,930.34,929.64,928.86,927.46,925.06,922.43,920.00,916.81,912.35,909.52,906.79,903.90,901.45,900.92,900.63,900.45,900.44,900.69,900.68,900.89,901.22,901.55,901.79,901.37,900.25,898.56,896.51,894.17,891.70,889.18,886.01,879.71,875.70,872.75,870.40,869.44,868.00,866.76,865.67,864.27,862.51,860.81,859.40,859.02,861.58,867.99,874.17,879.06,883.32,885.56,885.52,883.94,881.42,879.16,877.54,876.14,874.86,874.02,873.27,872.46,871.66,871.12,870.97,870.79,870.63,870.56,870.57,870.67,870.82,870.96,871.00,870.68,869.28,867.90,868.08,869.71,870.58,870.98,871.15,870.92,870.21,867.73,863.95,860.34,858.24,856.23,854.08,851.95,850.06,847.55,845.11,842.96,840.90,839.15,837.52,835.85,834.00,831.98,829.79,825.55,818.67,811.56,807.94,805.83,805.14,807.16,809.08,811.01,812.93,814.70,815.95,816.28,815.54,814.85,816.94,819.08,820.47,820.86,820.23,820.13,820.55,820.94,821.28,822.43,823.62,823.27
1159.63,1160.71,1160.56,1158.99,1156.66,1153.43,1149.00,1143.96,1138.99,1134.43,1131.15,1131.03,1132.77,1134.98,1135.72,1133.57,1131.94,1132.88,1134.08,1134.12,1132.56,1132.14,1130.76,1128.25,1125.27,1122.33,1120.80,1120.60,1121.71,1123.63,1125.64,1127.33,1128.29,1127.83,1126.04,1124.34,1122.67,1120.45,1117.30,1113.25,1109.35,1106.05,1103.15,1100.33,1097.50,1094.55,1091.30,1087.63,1084.52,1081.90,1079.35,1075.66,1072.25,1068.94,1065.88,1063.69,1061.29,1058.67,1055.78,1052.66,1050.31,1048.17,1046.05,1044.03,1042.51,1041.12,1039.12,1036.48,1033.52,1030.92,1027.95,1025.35,1023.81,1022.55,1021.14,1019.19,1016.70,1014.15,1011.61,1008.75,1005.49,1001.90,999.04,995.55,992.08,989.34,987.71,985.80,983.08,980.06,978.00,976.17,974.08,972.08,970.73,970.44,970.73,971.80,973.15,973.12,972.54,971.78,971.02,970.15,968.03,964.68,960.16,954.75,949.97,947.68,947.28,948.23,949.98,950.90,951.19,951.42,951.81,951.30,949.97,948.00,945.52,942.88,940.66,938.10,935.16,932.19,929.69,927.96,926.69,925.64,924.57,924.09,923.44,922.19,919.91,917.14,914.73,912.17,909.02,906.75,904.30,902.22,900.88,900.27,899.50,898.55,897.55,896.79,896.84,897.27,897.39,897.20,898.14,898.79,898.82,898.21,896.95,895.22,893.61,892.03,889.86,885.64,881.02,876.99,874.11,872.68,871.15,869.81,868.47,866.65,864.63,862.55,860.47,858.92,859.75,864.57,870.26,875.32,878.87,880.88,881.42,880.67,878.78,877.14,875.55,874.18,873.25,872.96,872.29,871.41,870.57,870.08,869.90,869.90,869.88,869.80,869.87,870.01,870.20,870.40,870.43,869.70,867.85,866.08,865.93,867.71,869.44,870.46,870.67,870.62,870.21,868.29,865.16,861.92,859.82,858.07,856.17,853.87,851.36,848.88,846.83,845.08,843.00,840.93,839.02,837.18,835.30,833.52,831.52,827.11,819.68,812.23,808.15,805.44,804.20,805.98,807.81,809.66,811.32,812.63,813.86,814.30,814.09,814.18,816.64,819.07,820.10,819.85,818.84,818.67,819.17,819.84,820.50,821.26,822.38,822.31
1157.88,1160.35,1161.13,1160.77,1159.54,1156.67,1151.65,1146.11,1140.57,1134.79,1129.72,1128.01,1129.58,1132.07,1133.46,1132.11,1129.33,1129.53,1130.49,1130.51,1128.62,1128.53,1127.72,1125.55,1122.10,1118.10,1115.82,1115.22,1116.10,1117.77,1119.94,1122.37,1124.53,1125.29,1124.80,1124.15,1123.16,1121.15,1118.21,1113.69,1108.91,1104.56,1100.72,1097.08,1093.86,1090.93,1087.90,1084.46,1082.23,1080.49,1078.68,1077.31,1075.20,1072.56,1069.78,1067.54,1065.11,1062.78,1060.07,1056.38,1053.01,1050.11,1047.26,1044.49,1042.65,1040.65,1037.87,1034.54,1031.35,1028.86,1025.69,1023.00,1021.84,1021.02,1020.01,1018.81,1017.45,1015.84,1013.65,1011.47,1008.86,1005.34,1002.82,1000.22,996.92,993.03,990.19,988.06,984.93,980.97,977.55,975.16,973.03,970.66,968.13,966.93,966.59,967.10,968.29,969.49,969.97,970.30,970.78,971.39,970.89,968.82,964.83,958.80,952.20,948.23,946.31,945.81,946.28,946.28,946.28,946.62,947.26,946.89,945.45,943.11,940.22,937.74,935.75,932.79,929.03,925.35,922.42,921.04,920.47,920.16,919.54,918.92,918.08,916.82,914.79,912.09,909.94,908.32,906.94,905.33,903.54,902.58,902.42,901.61,900.32,898.59,896.59,894.73,894.14,894.05,893.42,892.31,893.19,894.30,895.14,895.48,894.98,893.91,892.80,891.77,890.75,889.38,885.58,881.82,879.28,877.64,875.96,874.49,873.06,871.23,868.83,865.87,862.62,859.66,858.73,861.49,866.09,870.93,873.96,875.52,876.28,876.19,875.06,874.12,872.76,871.71,871.34,871.48,870.86,869.94,869.11,868.72,868.56,868.81,869.05,869.05,869.18,869.26,869.34,869.44,869.42,868.35,866.22,864.13,863.55,865.25,867.83,869.63,870.10,870.17,869.79,868.36,866.11,863.72,861.96,860.63,859.05,856.71,853.67,851.04,849.17,847.70,845.59,843.25,840.96,838.84,836.99,835.60,833.55,828.88,821.12,813.23,808.50,805.21,803.50,804.90,806.62,808.28,809.61,810.56,811.85,812.40,812.78,813.66,816.01,818.49,819.19,818.54,817.55,817.34,817.89,818.80,819.74,820.24,821.24,821.45
1154.86,1158.92,1160.39,1160.60,1160.20,1157.75,1152.37,1146.66,1141.21,1135.53,1129.92,1125.97,1126.71,1129.21,1131.42,1131.59,1128.61,1127.00,1126.80,1127.00,1125.39,1125.39,1125.40,1124.20,1120.38,1114.55,1111.26,1110.26,1110.90,1112.36,1114.45,1116.85,1119.24,1120.93,1121.39,1121.39,1120.91,1119.60,1117.63,1113.33,1108.25,1103.16,1098.07,1093.28,1089.47,1086.19,1082.57,1079.67,1077.69,1075.86,1073.99,1073.49,1072.68,1071.77,1070.75,1069.16,1066.05,1062.84,1059.42,1055.30,1051.30,1047.72,1044.34,1041.34,1039.52,1037.36,1034.45,1030.67,1026.09,1022.29,1019.63,1017.92,1017.01,1016.23,1015.68,1014.79,1013.48,1012.12,1010.23,1008.31,1006.36,1004.26,1002.80,1001.43,999.68,997.38,994.80,992.39,989.90,986.68,981.88,979.44,977.34,974.67,971.23,968.39,965.70,963.31,962.20,964.27,965.18,965.87,966.77,968.10,969.81,969.72,967.20,962.20,956.60,951.04,947.14,944.83,943.20,941.55,941.16,941.84,943.03,942.94,941.68,939.72,937.25,934.31,931.47,927.72,923.76,921.00,919.66,918.66,917.63,916.45,915.14,914.38,913.48,912.27,910.78,909.01,907.61,906.55,905.77,905.26,905.15,905.19,905.05,904.13,902.54,900.42,898.16,896.17,894.32,892.80,891.28,889.71,888.84,888.94,889.38,889.60,888.99,888.51,887.55,886.55,886.04,885.55,884.80,884.15,883.69,883.07,881.30,879.70,878.53,877.28,874.36,870.81,866.62,862.02,858.82,858.97,860.91,863.99,867.82,869.32,869.63,869.48,869.17,868.90,868.49,868.44,868.90,869.39,868.63,867.66,866.95,866.71,866.70,867.27,867.93,868.30,868.46,868.22,867.85,867.52,867.34,866.53,864.34,861.83,860.70,862.38,865.20,867.63,869.01,869.38,868.74,867.30,865.58,864.30,863.39,862.45,861.31,859.76,857.43,854.28,851.86,850.29,848.40,846.10,843.50,841.05,839.24,838.06,835.46,830.29,822.53,814.76,809.26,805.28,803.05,803.83,805.46,806.88,808.01,808.97,810.13,810.69,811.49,812.91,814.92,816.92,817.53,817.01,816.14,816.17,817.04,818.00,818.75,819.62,820.67,821.00
1151.85,1156.11,1158.55,1159.54,1159.33,1157.12,1152.33,1146.68,1141.28,1135.68,1129.86,1124.64,1123.45,1125.26,1128.04,1129.58,1127.51,1124.54,1122.95,1122.88,1121.84,1122.41,1123.31,1122.84,1118.59,1112.12,1107.82,1105.98,1106.32,1107.44,1109.02,1111.05,1113.33,1115.31,1115.96,1116.05,1115.70,1114.89,1114.48,1112.89,1109.47,1104.16,1098.09,1092.13,1087.47,1083.78,1080.12,1077.12,1074.37,1071.61,1069.13,1068.34,1067.61,1067.05,1066.51,1065.35,1063.05,1060.53,1057.71,1054.16,1050.32,1046.73,1043.45,1040.57,1038.08,1035.05,1031.61,1027.60,1022.68,1018.28,1015.00,1012.78,1011.51,1010.28,1009.45,1008.57,1007.52,1006.47,1005.14,1003.73,1002.27,1000.75,999.41,998.41,997.44,996.13,993.80,991.34,989.14,986.75,983.37,981.47,979.83,977.72,974.83,971.93,968.82,965.60,962.83,961.74,960.86,961.09,961.84,962.27,963.85,964.64,964.07,961.92,958.70,953.76,949.51,946.45,943.97,941.31,939.45,938.68,938.97,938.89,937.87,936.51,934.76,931.90,928.33,925.41,923.31,921.98,921.36,920.60,919.57,918.21,916.60,915.28,913.71,911.98,910.70,909.43,908.55,907.99,907.71,907.71,907.99,908.04,907.55,906.25,904.36,902.00,899.48,897.16,895.09,893.24,891.52,889.88,888.22,886.86,885.56,884.38,883.63,883.35,882.55,881.62,881.13,880.81,880.79,880.87,880.86,880.56,879.31,878.60,878.39,877.91,876.56,873.79,869.69,864.50,859.69,857.85,858.25,860.14,862.49,863.40,863.54,863.45,863.41,863.37,863.08,863.16,863.87,864.79,864.77,864.61,864.56,864.64,864.94,865.67,866.61,867.28,866.83,866.34,865.84,865.40,865.24,864.81,862.90,860.32,858.76,860.58,863.16,865.44,867.05,867.77,866.88,865.22,863.50,862.49,861.90,861.28,860.55,859.62,858.08,855.91,854.04,852.58,850.87,848.78,846.25,843.72,841.79,840.71,838.45,833.13,824.60,816.38,810.20,805.53,802.65,802.79,804.19,805.36,806.35,807.37,808.12,808.87,810.16,811.99,813.71,815.39,815.85,815.42,814.86,815.17,816.04,817.12,818.28,819.43,820.01,819.78
1149.07,1152.99,1156.25,1157.85,1157.56,1155.60,1151.80,1146.39,1141.12,1135.61,1129.68,1123.72,1120.33,1121.16,1124.24,1126.89,1126.40,1122.76,1119.86,1118.94,1118.17,1119.44,1121.27,1121.48,1117.04,1110.47,1105.13,1102.19,1102.05,1102.76,1103.80,1105.32,1107.29,1109.16,1109.74,1109.76,1109.45,1109.02,1110.07,1111.50,1110.53,1105.99,1099.46,1092.67,1087.27,1083.18,1079.60,1076.26,1072.59,1068.85,1065.63,1063.80,1062.38,1061.28,1060.41,1059.32,1058.12,1056.73,1054.95,1052.44,1049.29,1046.07,1043.16,1040.49,1037.25,1033.35,1029.35,1025.18,1020.47,1016.19,1012.69,1010.17,1008.61,1006.72,1005.08,1003.66,1002.38,1001.21,1000.28,999.29,998.15,996.77,995.08,993.84,992.95,992.00,989.98,987.67,985.55,983.73,982.24,981.02,979.94,978.59,976.63,974.16,971.59,968.84,965.63,961.58,958.50,957.57,957.35,956.16,956.56,957.51,958.52,959.14,958.47,955.35,951.99,949.07,946.38,943.10,939.75,937.14,935.93,935.31,934.27,933.32,932.27,929.81,926.42,925.15,925.39,925.42,925.06,924.36,923.39,922.10,920.36,918.46,916.12,913.82,912.72,911.90,911.47,911.30,911.32,911.49,911.70,911.42,910.32,908.41,906.17,903.56,900.74,898.04,896.15,894.42,892.81,891.25,889.32,886.60,883.53,880.86,879.85,879.45,878.79,878.00,877.40,876.98,876.69,876.40,876.02,875.44,874.64,874.68,875.22,875.44,876.10,874.91,871.81,866.89,861.10,857.74,856.95,857.74,858.08,858.29,858.32,858.27,858.30,858.34,857.82,857.50,857.87,859.04,859.98,860.92,861.84,862.56,863.22,864.10,865.25,866.19,865.11,864.29,863.67,863.22,863.15,863.06,861.56,859.12,857.20,859.00,861.21,863.15,864.70,865.73,864.84,862.92,860.87,859.70,859.17,858.79,858.44,858.03,857.18,856.29,855.25,853.99,852.47,850.72,848.50,846.11,844.06,842.88,841.15,835.94,826.74,818.02,811.31,805.85,802.09,801.73,802.86,803.80,804.67,805.62,805.97,807.01,808.80,810.92,812.45,813.90,814.21,813.85,813.71,814.35,815.21,816.42,817.98,819.20,819.09,818.03
1147.13,1150.78,1153.80,1155.18,1154.78,1153.27,1150.56,1145.82,1140.95,1135.53,1129.45,1123.18,1118.22,1118.08,1120.83,1123.88,1125.81,1123.34,1119.63,1116.45,1114.52,1116.32,1119.07,1120.16,1116.42,1110.01,1103.59,1099.20,1097.99,1098.29,1099.18,1100.33,1101.62,1102.94,1103.56,1103.74,1103.63,1103.47,1104.76,1106.93,1108.38,1107.40,1101.85,1095.45,1090.03,1085.69,1081.92,1078.24,1074.51,1070.78,1067.09,1063.29,1060.10,1057.36,1054.98,1052.99,1051.95,1051.01,1049.97,1048.78,1047.07,1044.63,1042.12,1039.58,1036.20,1032.46,1028.33,1023.95,1019.83,1017.21,1016.52,1016.50,1015.83,1013.20,1009.93,1006.44,1002.97,1000.08,998.52,997.33,996.10,994.60,992.10,989.69,987.46,985.48,984.05,982.28,980.03,977.65,975.87,974.93,974.20,973.14,971.36,968.82,967.49,966.91,966.66,965.97,962.43,958.91,955.72,952.53,951.41,951.58,952.12,952.71,953.30,953.15,952.63,951.57,949.21,945.83,942.29,939.02,936.21,933.59,931.43,930.03,929.06,927.40,927.26,928.32,929.62,930.03,929.60,928.53,927.24,925.87,924.11,922.03,919.55,917.31,916.77,916.69,916.77,916.73,916.50,916.48,916.86,916.30,914.27,911.29,908.56,905.46,902.12,899.13,897.38,895.88,894.43,892.97,891.27,888.25,885.04,882.33,880.71,879.76,879.08,878.52,878.12,877.67,876.75,875.61,874.20,872.17,870.68,869.65,869.16,869.57,870.88,872.15,871.87,868.81,863.36,859.20,856.94,856.15,855.78,855.62,855.35,855.16,855.29,855.52,854.71,853.32,852.10,852.74,854.11,856.05,858.32,860.49,861.59,862.67,864.04,865.23,864.27,862.78,861.64,861.11,861.12,861.06,859.97,857.91,855.76,856.70,858.82,860.79,862.19,863.28,863.19,861.24,858.44,856.79,856.16,855.84,855.72,855.75,855.22,854.53,853.72,852.74,851.46,850.32,848.78,846.87,844.83,843.19,841.31,836.56,828.23,819.62,812.83,806.17,800.90,800.53,801.41,802.28,802.95,803.43,803.72,805.25,807.38,809.56,811.23,812.54,812.75,812.51,812.84,813.84,815.18,816.45,817.49,818.30,817.35,815.42
1145.92,1149.24,1151.93,1152.84,1152.14,1150.72,1148.69,1145.07,1140.92,1135.62,1129.28,1122.83,1116.90,1114.92,1116.41,1120.24,1123.48,1123.00,1120.23,1116.13,1112.12,1113.12,1115.96,1117.75,1115.23,1109.93,1103.74,1098.40,1095.18,1094.03,1094.64,1095.67,1096.66,1097.56,1098.06,1098.20,1098.20,1098.47,1100.00,1102.35,1104.65,1105.70,1103.25,1099.02,1094.25,1089.56,1085.45,1081.37,1077.36,1073.47,1069.65,1065.34,1061.53,1058.16,1055.04,1052.03,1049.95,1048.28,1046.55,1044.52,1042.90,1041.19,1039.16,1036.61,1033.36,1030.03,1027.32,1025.05,1022.60,1020.90,1020.98,1021.50,1021.01,1018.70,1015.36,1011.70,1008.13,1005.30,1003.46,1001.48,999.46,997.70,994.85,991.57,988.20,985.12,983.00,980.83,977.84,974.42,971.83,970.38,969.21,967.77,965.79,963.59,962.89,963.12,963.84,964.45,962.91,960.77,957.83,953.50,950.95,949.37,948.37,948.05,948.71,949.52,950.18,950.31,949.17,947.49,944.98,941.88,938.42,934.97,932.14,930.32,929.46,929.05,930.49,932.35,933.94,934.80,934.80,933.65,931.99,930.12,927.92,925.56,923.23,921.47,921.35,921.38,921.22,920.82,920.24,919.80,919.66,918.90,917.04,914.05,911.27,908.45,905.39,902.02,899.20,897.45,896.16,894.84,893.05,890.11,887.25,884.96,883.37,882.23,881.41,880.85,880.52,880.06,879.05,877.64,875.73,872.92,870.89,869.42,868.47,868.11,867.75,868.22,868.59,867.72,864.50,860.42,857.60,856.47,856.41,856.01,855.32,854.58,853.96,853.29,852.32,850.71,848.87,848.66,849.57,851.20,853.50,856.55,858.89,860.90,862.77,864.15,863.94,862.39,860.99,860.19,859.78,858.78,857.41,855.66,853.84,853.85,855.57,857.56,859.26,860.90,861.67,860.20,857.19,854.38,853.17,852.86,852.95,853.18,853.06,852.62,851.98,851.11,849.82,848.52,847.29,846.01,844.52,842.84,840.77,836.51,829.47,821.78,815.11,808.00,801.85,800.15,800.33,800.81,801.16,801.37,801.72,803.41,805.59,807.76,809.62,810.93,811.30,811.46,812.33,813.41,814.76,815.94,816.65,816.79,815.28,813.06
1145.15,1148.06,1150.22,1150.39,1149.35,1147.91,1146.34,1144.14,1140.82,1135.71,1129.19,1122.61,1116.05,1111.98,1111.78,1116.24,1120.10,1121.79,1120.81,1116.76,1110.67,1110.17,1112.52,1114.79,1113.68,1109.99,1104.80,1099.06,1093.70,1090.47,1090.07,1090.83,1091.86,1092.53,1092.84,1092.90,1093.05,1093.78,1095.62,1097.92,1100.21,1102.18,1103.38,1102.04,1098.56,1093.97,1089.54,1085.06,1080.69,1076.58,1072.78,1068.73,1064.98,1061.55,1058.23,1054.49,1051.02,1048.19,1045.25,1041.53,1039.16,1037.77,1036.05,1033.47,1030.68,1028.08,1027.44,1028.01,1027.57,1026.25,1025.69,1025.41,1024.69,1023.20,1020.66,1017.87,1015.28,1013.28,1011.29,1008.41,1005.41,1003.28,1000.45,996.61,992.47,988.57,985.39,982.63,978.89,974.46,970.86,968.47,966.46,964.34,961.99,960.06,959.20,959.03,959.21,959.42,960.45,961.39,960.72,956.90,953.47,950.00,947.13,945.50,945.30,945.43,945.97,946.65,946.98,947.54,946.67,944.58,941.64,938.38,935.25,933.11,932.42,933.25,934.96,936.54,937.89,939.05,939.56,938.55,936.62,934.14,931.44,928.80,926.63,925.22,924.90,924.48,923.78,922.98,922.24,921.51,920.69,919.77,918.46,916.05,913.56,911.48,909.24,905.84,901.78,899.48,898.15,896.89,894.94,892.37,890.09,888.34,887.05,885.87,884.86,884.13,883.73,883.20,882.33,881.03,879.01,875.92,873.47,871.96,870.92,869.50,866.84,864.98,864.40,864.86,864.24,861.05,858.64,858.06,858.69,858.13,857.03,855.63,853.94,851.94,850.67,849.16,847.22,846.06,845.91,846.46,848.03,851.47,855.34,858.62,861.17,862.86,863.61,862.53,861.22,860.21,859.23,857.17,855.19,853.50,852.09,851.17,852.15,853.97,856.13,858.45,859.92,859.25,856.56,852.66,850.69,850.00,849.92,850.11,850.39,850.37,849.97,849.16,847.86,846.08,844.85,844.10,843.41,842.01,839.94,836.26,830.66,824.45,818.14,811.19,804.63,800.98,800.01,799.75,799.65,799.68,800.06,801.61,803.62,805.71,807.71,809.14,809.95,810.69,811.91,812.91,814.03,815.07,815.63,815.03,813.23,811.01
1144.56,1146.93,1147.74,1146.61,1145.46,1144.38,1143.33,1142.76,1140.05,1135.37,1129.27,1122.54,1115.34,1110.28,1108.84,1112.17,1116.46,1119.38,1119.59,1116.26,1110.16,1108.40,1109.88,1112.17,1112.13,1109.79,1105.69,1100.60,1094.92,1089.46,1085.30,1084.37,1086.01,1086.95,1087.16,1087.54,1088.14,1089.10,1091.33,1093.78,1096.23,1098.62,1100.59,1100.95,1100.03,1097.72,1093.35,1088.66,1084.33,1080.26,1076.23,1072.02,1068.13,1064.57,1061.30,1058.22,1054.76,1051.83,1048.92,1045.32,1042.01,1039.41,1037.04,1034.80,1033.12,1032.32,1032.58,1033.38,1033.65,1032.46,1030.64,1029.08,1028.19,1027.12,1025.11,1022.71,1020.24,1017.79,1015.33,1012.35,1009.27,1006.69,1004.16,1000.35,996.30,992.82,990.23,988.50,985.54,981.26,976.79,973.54,970.95,968.50,965.85,962.84,959.89,957.74,956.27,954.56,954.52,955.86,957.95,959.59,957.54,953.79,950.08,947.17,944.92,942.46,941.53,942.00,942.63,943.39,943.94,944.50,944.82,942.98,940.01,937.87,937.36,938.29,939.00,939.68,940.31,940.74,940.84,940.11,938.45,935.95,933.57,930.95,928.32,925.64,922.85,921.22,920.50,920.31,920.42,920.48,920.06,918.93,917.11,915.05,913.29,912.04,910.94,909.19,906.26,903.26,900.96,899.51,897.84,896.13,894.40,892.73,891.26,889.70,888.48,887.56,886.82,885.84,884.81,883.61,881.85,878.81,876.00,874.28,873.22,871.86,869.85,867.25,864.40,861.88,860.90,859.96,859.83,860.48,861.00,860.39,859.21,857.69,855.76,853.21,850.72,848.37,846.18,844.26,842.68,842.05,842.88,846.09,850.81,854.90,858.32,860.95,862.15,862.27,861.88,861.23,860.37,859.13,856.94,854.44,852.39,850.55,850.09,851.00,853.13,855.47,856.95,857.08,855.72,852.72,850.25,847.68,845.81,845.39,845.89,846.80,847.03,846.48,845.74,843.99,842.42,841.50,841.25,840.52,839.30,836.56,832.16,827.84,822.63,816.43,810.01,804.99,802.03,800.39,799.52,799.25,799.27,800.23,801.74,803.58,805.57,807.31,809.02,810.37,810.98,811.96,813.09,814.11,814.60,813.65,811.90,809.57
1144.13,1145.97,1145.28,1142.94,1141.09,1139.96,1139.58,1139.98,1138.65,1135.13,1129.68,1123.01,1115.53,1109.81,1107.11,1108.63,1112.56,1115.83,1117.01,1115.14,1109.94,1106.69,1107.01,1109.08,1109.43,1107.93,1104.93,1100.94,1096.02,1090.30,1084.18,1080.55,1079.85,1080.50,1081.17,1082.20,1083.28,1084.21,1086.38,1089.12,1092.03,1094.77,1096.71,1097.58,1097.82,1097.11,1094.37,1090.25,1085.97,1081.71,1077.38,1072.90,1068.93,1065.20,1061.80,1059.15,1056.28,1054.12,1052.43,1050.53,1047.44,1044.32,1041.61,1039.56,1038.40,1038.24,1038.57,1039.13,1039.58,1038.30,1035.68,1033.28,1032.08,1030.92,1028.91,1026.30,1023.18,1019.54,1016.18,1012.82,1009.43,1006.25,1004.05,1001.40,998.23,994.94,992.64,991.02,988.70,985.54,982.04,979.00,976.33,973.76,970.96,967.49,963.90,960.53,957.36,954.14,951.99,951.72,953.68,957.73,958.59,956.74,953.91,950.87,947.53,943.67,940.97,939.67,939.27,938.90,939.60,941.14,942.79,942.53,941.15,940.31,940.56,941.36,941.59,941.65,941.64,941.45,941.12,940.61,939.43,937.38,935.24,932.79,929.92,926.54,922.58,919.78,918.03,917.17,917.16,917.37,917.36,916.74,915.50,914.18,912.56,911.08,910.06,909.54,907.92,905.61,903.63,902.41,901.04,899.74,898.29,896.82,895.61,893.64,892.07,890.87,889.72,888.44,887.25,886.06,884.50,881.66,878.67,876.66,875.36,873.98,872.39,869.82,866.36,862.63,860.78,860.61,861.40,862.52,863.00,862.43,861.38,859.91,857.84,855.34,852.40,849.64,847.28,845.16,842.61,840.78,840.25,841.90,846.20,850.72,854.85,858.26,860.29,861.22,861.41,861.08,860.48,859.85,858.11,855.70,853.25,850.82,849.15,848.80,850.07,852.36,853.61,854.03,853.69,852.31,850.35,847.13,844.02,842.21,841.74,843.00,843.81,843.68,843.35,842.10,840.54,839.27,838.75,838.29,837.62,836.07,833.43,830.53,826.99,822.04,816.07,810.26,806.39,803.79,801.63,799.71,798.99,799.37,800.45,802.09,804.27,806.41,808.15,809.39,810.15,811.18,812.30,813.18,813.42,812.46,811.02,808.28
1143.69,1144.98,1142.96,1139.61,1136.58,1134.96,1135.24,1136.07,1136.57,1134.77,1130.33,1123.94,1116.57,1110.41,1106.38,1105.63,1108.40,1111.40,1113.45,1113.46,1109.67,1104.90,1103.85,1105.34,1105.54,1104.56,1102.58,1099.89,1096.44,1092.05,1085.86,1079.33,1074.31,1073.77,1074.95,1076.71,1078.22,1079.12,1080.93,1084.02,1087.44,1090.41,1091.98,1092.56,1092.71,1092.77,1092.63,1089.89,1085.86,1081.37,1076.71,1071.94,1067.99,1064.14,1060.41,1057.65,1055.38,1054.26,1054.22,1054.67,1052.86,1050.26,1047.87,1046.16,1045.19,1044.68,1044.56,1044.74,1044.95,1043.46,1040.53,1037.77,1036.18,1034.50,1032.09,1028.83,1024.61,1019.32,1014.85,1010.84,1006.91,1003.11,1001.05,999.93,997.91,994.61,992.22,989.99,988.06,986.47,985.14,983.09,980.83,978.43,975.76,972.59,969.75,966.14,961.66,957.39,952.90,949.87,949.34,952.39,956.60,957.86,957.09,954.98,951.82,948.15,943.97,940.04,937.85,935.68,935.32,935.98,936.78,937.77,938.82,940.07,941.34,942.01,942.43,942.37,941.96,941.35,940.62,940.22,939.58,938.21,936.16,934.00,931.35,928.10,924.31,920.61,917.28,914.78,913.59,913.07,913.19,913.46,913.61,913.28,911.53,909.17,907.40,907.37,906.89,906.07,905.26,904.58,903.61,902.46,901.21,900.11,899.42,897.17,895.28,893.80,892.38,890.98,889.65,888.42,887.00,884.52,881.48,879.11,877.39,875.83,874.19,872.08,869.43,866.33,863.62,862.87,863.27,864.13,864.61,864.05,863.20,861.91,859.89,857.93,855.40,852.79,850.38,848.23,845.12,842.22,839.98,839.18,841.93,846.41,851.09,855.07,858.09,859.46,859.88,859.77,859.42,858.98,858.09,856.59,854.31,851.64,849.13,847.40,847.17,849.15,849.92,850.15,850.38,850.85,850.20,847.57,844.01,840.54,838.29,839.16,840.30,840.67,840.60,840.18,838.98,837.47,836.26,835.57,835.08,834.70,834.07,832.19,830.56,827.15,821.91,815.96,812.13,809.05,805.44,801.18,799.21,798.92,799.64,801.23,803.71,806.12,807.19,807.85,809.41,810.62,811.71,812.33,812.17,811.33,809.89,806.82
1142.58,1143.12,1140.89,1137.00,1132.95,1130.48,1130.64,1132.06,1133.28,1133.10,1130.74,1125.20,1118.38,1111.95,1106.58,1103.25,1103.76,1106.75,1109.68,1110.80,1108.26,1103.01,1100.38,1100.28,1100.31,1100.00,1098.73,1096.95,1094.80,1091.64,1086.43,1079.89,1073.25,1069.11,1068.82,1070.14,1071.95,1073.80,1075.87,1078.81,1081.88,1084.48,1086.05,1086.65,1086.81,1087.09,1087.96,1087.63,1085.21,1081.29,1076.42,1071.68,1067.89,1064.24,1060.32,1056.01,1052.19,1050.06,1049.36,1049.57,1049.48,1049.31,1049.24,1049.37,1049.72,1049.47,1049.13,1048.87,1048.48,1046.90,1044.03,1041.30,1039.54,1037.16,1034.23,1030.48,1025.55,1019.13,1013.92,1009.48,1005.38,1001.49,998.40,995.93,993.35,990.49,988.06,986.11,984.54,983.31,982.37,980.96,979.69,978.35,976.64,974.65,972.64,970.09,966.45,961.14,955.84,951.69,948.87,948.12,951.87,953.86,954.29,953.87,953.18,952.32,949.13,944.63,941.98,939.38,936.91,934.39,932.15,932.55,934.34,936.06,937.33,938.50,939.85,940.66,940.73,939.87,938.50,938.06,937.57,936.24,934.15,932.52,931.28,929.73,926.49,922.85,919.69,916.59,913.16,910.33,909.47,909.48,909.83,910.19,909.60,907.70,905.50,904.54,904.48,903.31,902.06,901.57,901.52,901.53,901.29,900.71,899.71,898.03,896.39,895.19,894.49,893.04,891.59,890.42,889.32,887.47,884.40,881.63,879.46,877.70,875.84,873.89,871.77,869.39,866.73,865.17,864.95,865.52,865.49,864.36,863.36,862.52,861.58,860.54,859.13,857.45,855.25,851.63,847.93,844.57,841.57,839.25,839.40,842.93,847.75,852.21,855.27,857.10,857.76,857.58,857.28,856.63,855.85,855.32,854.97,852.62,849.83,847.34,845.72,845.62,845.43,845.15,845.26,846.40,847.17,845.62,842.82,839.62,836.26,835.52,835.98,836.69,836.97,837.18,836.84,836.03,834.85,833.32,832.47,832.22,832.23,831.68,830.88,828.55,824.66,819.75,815.94,812.74,809.24,804.89,800.39,798.70,799.04,800.84,803.40,804.91,805.59,806.45,808.44,810.13,811.29,811.69,811.16,809.80,805.60,804.10
1141.38,1141.26,1138.86,1134.92,1130.28,1126.89,1126.22,1127.72,1129.35,1130.45,1129.97,1125.78,1120.05,1113.77,1107.62,1102.50,1100.15,1102.20,1105.32,1107.38,1106.46,1101.98,1097.93,1095.47,1094.70,1094.60,1093.98,1093.02,1091.74,1089.30,1085.10,1079.54,1073.06,1066.81,1064.02,1063.96,1065.49,1067.91,1070.65,1073.62,1076.43,1078.78,1080.27,1080.93,1081.16,1081.49,1082.62,1083.88,1083.40,1081.25,1077.56,1073.17,1069.17,1065.32,1061.11,1055.74,1050.52,1046.92,1044.73,1043.78,1044.71,1046.18,1047.46,1048.46,1049.68,1050.21,1050.26,1049.88,1048.78,1046.84,1044.50,1042.51,1041.07,1038.66,1035.44,1031.53,1026.63,1020.09,1014.29,1009.40,1005.15,1001.38,997.82,994.27,990.92,987.76,984.34,982.06,980.39,978.99,977.71,976.57,975.91,975.30,974.35,973.13,971.74,970.07,967.45,962.50,957.65,953.51,949.75,946.54,947.44,948.90,949.84,950.15,950.73,951.99,951.41,948.96,946.06,943.33,939.75,935.38,931.02,929.50,930.31,931.41,932.20,933.25,934.74,935.81,936.12,935.46,934.73,934.60,934.31,933.21,931.27,930.00,929.67,929.43,927.45,924.90,922.26,919.19,915.26,911.20,908.77,907.36,906.58,906.26,906.31,905.37,903.53,901.70,901.69,900.44,898.98,898.41,898.90,899.54,899.93,899.81,898.82,897.27,895.51,894.38,894.34,893.55,892.54,891.62,890.74,889.35,886.85,884.19,881.76,879.71,877.57,875.50,873.46,871.35,868.84,867.06,866.56,866.71,865.84,864.21,862.85,861.96,861.55,861.16,860.63,859.67,857.76,853.96,850.13,846.58,843.13,839.63,837.71,840.08,844.62,849.40,852.77,854.85,855.59,855.37,855.02,853.81,852.97,853.07,854.01,853.01,850.88,848.41,846.07,844.36,842.83,841.56,840.99,841.95,843.49,843.10,841.30,838.49,834.51,832.51,832.16,832.81,833.38,834.02,834.31,834.16,833.41,831.86,830.56,829.91,829.96,830.18,829.80,828.35,825.70,821.76,818.22,815.10,811.94,808.00,802.18,799.07,798.71,800.45,802.76,803.29,803.82,805.02,807.10,809.15,810.53,810.76,809.47,806.72,801.98,802.93
1140.06,1139.46,1136.72,1133.24,1128.48,1124.19,1122.08,1123.01,1124.88,1126.89,1127.87,1125.49,1121.31,1115.61,1109.38,1103.52,1098.12,1097.97,1100.31,1103.10,1104.23,1101.77,1096.76,1091.49,1089.13,1088.55,1088.42,1088.14,1087.21,1084.88,1081.44,1077.38,1072.58,1066.53,1060.87,1058.64,1059.20,1061.55,1065.24,1068.53,1071.37,1073.64,1074.94,1075.65,1075.99,1076.30,1077.15,1078.85,1080.26,1080.75,1079.58,1076.04,1071.68,1067.28,1062.72,1057.12,1051.08,1046.03,1042.00,1039.37,1040.14,1041.72,1042.81,1043.37,1044.78,1046.51,1047.54,1047.43,1045.70,1043.16,1041.70,1040.96,1040.17,1038.41,1035.25,1031.64,1027.57,1022.09,1016.05,1010.71,1006.29,1002.78,999.61,995.87,991.91,987.71,982.54,979.14,976.71,974.62,972.44,971.11,970.35,969.78,969.09,968.05,966.99,965.73,963.89,960.78,957.40,954.21,951.00,947.42,943.93,943.88,944.55,944.39,944.45,946.48,949.56,951.52,948.83,946.27,942.93,938.68,933.68,929.22,927.61,927.18,927.10,927.13,927.61,927.99,928.11,928.14,929.31,929.86,929.86,929.32,927.85,926.77,926.56,926.87,926.72,926.07,924.14,921.74,919.38,915.71,911.50,907.73,904.70,902.25,901.96,902.00,901.20,898.96,898.65,897.90,896.78,895.94,896.46,896.92,897.33,897.58,897.13,895.20,892.90,891.49,891.82,892.35,892.32,891.84,890.95,889.76,888.41,886.51,884.21,881.87,879.45,877.04,874.65,872.28,869.86,868.51,868.07,867.72,865.90,863.94,862.07,860.58,859.81,859.57,859.41,858.69,857.10,854.75,851.41,847.95,844.23,839.84,836.74,837.91,841.70,846.53,850.67,852.79,853.48,853.30,852.83,850.87,849.94,850.25,851.41,852.53,851.94,850.34,848.17,845.77,842.74,840.08,838.37,838.31,839.62,840.17,839.37,836.81,832.89,830.33,829.26,829.38,830.07,830.88,831.40,831.63,831.58,831.01,829.35,828.01,827.69,827.98,827.68,826.86,825.21,822.06,819.08,816.22,813.35,809.92,804.42,800.08,798.64,799.91,801.65,801.43,802.05,803.58,805.39,807.58,809.19,809.25,806.89,802.13,800.21,804.07
1137.77,1136.84,1134.04,1130.96,1126.24,1121.44,1118.28,1118.10,1120.16,1123.05,1125.43,1125.15,1121.84,1116.58,1110.63,1104.86,1098.98,1095.22,1094.76,1097.43,1100.07,1100.19,1096.26,1090.20,1085.63,1083.13,1082.16,1081.67,1080.76,1078.23,1074.80,1071.53,1068.29,1063.93,1058.90,1055.30,1054.12,1056.35,1060.55,1064.03,1066.80,1068.89,1070.10,1070.64,1071.00,1071.53,1072.68,1074.65,1076.14,1076.64,1075.94,1074.68,1072.54,1069.18,1064.58,1058.98,1052.61,1047.26,1042.80,1039.00,1036.88,1036.29,1036.35,1036.99,1039.05,1041.49,1043.12,1043.47,1042.05,1039.85,1038.17,1036.69,1034.98,1033.17,1030.77,1028.10,1025.30,1022.19,1017.53,1012.57,1008.17,1004.96,1002.10,998.66,994.90,991.07,987.30,982.75,978.54,974.84,971.36,968.56,966.35,964.62,963.35,962.50,961.62,960.50,958.94,956.63,953.89,951.12,948.18,944.79,941.30,939.72,938.99,938.37,937.79,939.85,943.77,947.88,949.35,948.85,946.08,941.93,936.88,930.93,928.43,926.98,925.37,923.64,922.31,921.59,921.48,922.08,923.29,923.87,924.05,924.00,923.62,923.22,923.28,923.71,924.01,924.10,923.51,922.53,921.21,918.87,914.78,910.42,906.31,902.24,900.21,898.88,897.60,896.19,895.26,894.29,893.44,893.02,893.40,893.62,893.91,894.35,894.68,893.58,891.45,889.74,889.76,890.78,891.07,890.57,889.43,888.16,887.13,886.55,885.86,884.08,881.67,879.18,876.70,874.22,871.77,869.95,869.08,868.64,867.19,865.17,863.19,861.30,859.55,858.36,857.59,856.53,854.99,853.34,851.27,848.50,844.79,840.01,836.59,836.76,839.31,843.35,847.92,850.43,851.37,851.32,850.86,849.01,848.25,848.64,849.64,850.58,850.80,850.56,849.75,847.73,844.39,841.19,838.64,837.01,835.89,835.64,835.26,833.90,831.67,829.41,827.84,827.19,827.39,827.77,828.06,828.29,828.55,828.59,827.46,826.19,825.55,825.84,825.17,824.31,823.38,821.94,819.83,817.19,814.32,811.02,806.18,801.06,798.56,799.04,800.27,800.08,800.83,802.39,804.04,805.90,806.38,805.71,803.53,799.21,802.95,807.87
1135.35,1134.07,1131.18,1128.23,1123.81,1118.90,1114.88,1113.61,1115.98,1119.76,1123.33,1124.59,1121.93,1117.06,1111.45,1105.94,1100.34,1093.89,1090.71,1092.32,1095.52,1097.61,1095.61,1090.48,1084.85,1080.41,1078.03,1076.42,1074.48,1071.65,1068.13,1065.22,1062.97,1060.20,1056.43,1052.53,1050.37,1052.07,1055.90,1059.39,1062.19,1064.21,1065.44,1065.79,1065.84,1066.14,1067.50,1070.05,1071.20,1071.14,1070.64,1071.19,1071.18,1069.47,1065.88,1060.91,1054.73,1049.13,1044.13,1039.36,1035.19,1032.47,1030.82,1030.56,1032.87,1035.73,1037.62,1038.09,1036.97,1035.54,1034.38,1032.90,1030.53,1027.68,1025.06,1022.92,1021.33,1020.08,1017.23,1013.77,1010.32,1007.26,1004.50,1001.36,997.97,994.70,992.16,987.50,982.42,977.58,973.09,969.16,965.69,962.55,959.97,958.71,957.35,955.75,953.97,952.11,949.69,947.06,944.25,941.18,938.25,935.59,933.76,932.83,931.84,933.38,937.18,942.32,947.12,949.09,948.03,945.04,940.61,934.69,931.69,929.16,926.06,922.90,920.40,918.77,917.93,917.83,918.05,918.32,918.43,918.34,918.36,918.29,918.62,919.31,919.96,920.62,921.40,921.79,921.20,919.87,916.89,913.09,908.88,904.67,901.49,898.66,896.37,895.06,893.22,891.64,890.61,890.25,890.28,890.19,890.34,890.95,892.07,892.03,890.45,888.58,887.83,888.49,888.78,888.36,887.20,885.74,884.82,885.17,885.86,885.21,883.63,881.36,878.94,876.58,874.19,872.17,870.94,870.21,868.99,866.95,865.01,862.92,860.36,858.20,856.67,855.14,853.46,852.16,851.07,849.20,845.94,840.89,837.14,835.93,836.96,840.13,844.48,847.23,848.45,848.59,848.23,846.90,846.65,847.31,848.13,848.26,848.56,849.14,849.54,848.35,845.77,842.90,840.16,837.54,834.44,832.63,831.73,831.17,830.25,828.68,827.18,826.09,825.60,825.18,824.78,824.63,824.99,825.51,824.98,824.11,823.52,823.78,822.82,821.69,820.94,820.76,819.48,817.45,814.97,812.01,808.10,802.19,798.53,798.12,798.89,798.93,799.70,801.04,802.29,803.32,802.65,801.34,799.64,797.30,805.27,810.69
1133.06,1131.35,1128.19,1124.99,1121.19,1116.68,1112.05,1109.91,1112.79,1117.49,1121.91,1123.69,1121.54,1117.10,1111.78,1106.50,1101.51,1094.38,1089.38,1088.70,1091.07,1093.93,1094.42,1092.23,1087.64,1081.87,1077.76,1073.98,1069.58,1066.38,1062.74,1059.75,1057.63,1055.70,1052.90,1050.13,1048.43,1048.96,1051.14,1054.33,1057.29,1059.45,1060.84,1061.03,1060.33,1059.71,1060.95,1064.55,1065.26,1064.64,1064.65,1065.72,1066.76,1067.08,1066.06,1062.69,1057.41,1051.31,1045.11,1039.52,1035.59,1031.60,1027.53,1024.67,1026.37,1029.28,1030.95,1030.99,1029.85,1029.49,1030.26,1030.58,1028.63,1023.64,1019.15,1016.59,1015.79,1015.12,1014.12,1013.49,1012.29,1009.26,1006.35,1003.39,1000.43,997.60,994.99,991.80,987.60,982.70,977.90,973.84,969.86,965.45,960.80,958.16,955.30,952.36,949.78,948.10,945.75,943.08,940.34,937.62,934.58,931.59,929.45,928.40,927.22,927.65,930.73,935.81,941.20,945.54,947.76,947.57,944.68,940.81,937.44,933.70,929.44,925.61,923.27,921.25,918.99,916.33,914.58,914.10,913.65,912.63,911.74,911.27,911.78,913.08,914.50,915.91,917.83,919.21,918.95,917.81,916.79,914.73,911.67,909.45,906.54,902.95,899.37,896.63,893.62,891.09,889.22,888.11,887.53,887.01,886.94,887.66,889.44,890.34,889.70,888.00,886.00,885.30,885.27,885.15,884.42,882.73,881.89,882.31,883.47,884.50,884.92,883.32,881.15,879.26,877.08,875.60,874.33,872.96,871.27,869.22,867.36,865.25,862.38,859.61,857.43,855.37,853.38,852.11,851.25,850.37,848.18,842.95,838.59,835.41,834.62,836.99,840.19,842.78,844.20,844.58,844.51,844.06,844.77,846.05,846.73,845.91,845.34,845.67,846.63,846.51,845.88,844.48,842.49,840.04,836.52,832.76,830.14,829.37,828.58,828.00,827.33,826.41,825.11,823.58,822.00,821.00,821.22,821.97,821.84,821.57,821.62,821.78,820.84,819.30,818.03,818.03,817.39,816.54,815.19,813.00,810.31,803.57,798.66,797.32,797.63,797.91,798.54,799.33,799.81,799.39,798.02,796.40,795.26,796.32,805.14,810.81
1131.00,1128.89,1125.03,1121.62,1117.95,1113.82,1109.63,1107.42,1110.48,1115.82,1120.93,1122.64,1121.15,1117.33,1112.45,1107.44,1102.47,1095.79,1090.08,1087.15,1087.72,1090.60,1092.38,1092.17,1089.74,1085.38,1081.09,1076.69,1071.95,1067.70,1062.51,1058.85,1056.89,1054.74,1052.27,1049.88,1047.89,1046.86,1047.28,1049.45,1051.85,1053.76,1055.16,1055.22,1054.70,1054.66,1056.55,1059.13,1058.98,1058.10,1058.36,1059.36,1060.91,1062.43,1063.43,1063.02,1059.58,1053.46,1046.44,1040.45,1036.00,1031.43,1026.28,1021.62,1021.18,1023.05,1024.23,1024.16,1023.34,1022.99,1023.81,1024.81,1024.70,1022.20,1017.71,1013.54,1010.84,1010.14,1009.49,1009.18,1008.70,1007.30,1005.60,1003.89,1002.18,1000.37,998.16,995.20,991.56,987.43,983.12,979.05,975.07,970.89,966.40,962.13,957.58,953.59,950.52,948.28,946.35,944.35,942.35,940.34,937.08,933.48,930.33,927.71,924.47,923.04,924.97,929.49,934.50,939.19,942.68,944.49,944.18,943.09,940.71,937.26,932.99,928.72,926.53,924.70,922.38,919.24,916.30,913.07,910.12,907.70,905.22,904.24,904.58,906.24,909.49,912.56,915.29,916.49,915.26,914.30,914.23,913.69,912.40,911.34,909.07,905.99,902.65,899.61,896.65,893.87,891.59,890.01,888.73,887.44,885.93,884.99,886.37,887.41,887.90,887.34,885.38,883.61,882.46,881.83,881.37,880.24,879.06,879.32,880.73,882.41,883.87,883.96,883.01,881.34,879.65,878.69,877.91,876.90,875.26,872.94,870.42,867.74,864.71,861.19,858.45,856.01,853.75,852.07,851.22,850.93,849.77,845.59,841.07,837.21,834.66,834.25,836.43,838.27,839.42,840.23,841.45,842.22,843.62,845.02,845.25,843.90,842.66,842.26,842.68,842.76,842.70,842.44,841.86,840.61,838.59,835.47,832.65,831.14,830.31,829.72,828.98,827.95,826.63,825.01,823.00,821.22,820.32,819.63,819.09,819.03,819.47,819.46,818.61,817.08,815.60,815.24,814.84,814.49,813.82,812.51,810.83,804.85,799.83,797.64,797.22,796.96,797.17,797.51,797.29,796.07,794.06,792.46,792.22,794.29,801.00,807.47
