665.57,667.63,669.31,671.22,673.47,675.96,678.55,680.88,682.80,683.93,684.44,684.71,683.11,680.44,677.46,674.90,673.58,673.32,673.14,672.68,672.16,671.31,669.73,667.25,663.66,660.19,656.97,653.83,651.08,650.26,651.68,654.22,657.36,660.93,665.51,669.74,673.03,674.49,673.02,670.91,668.87,667.00,665.22,664.18,663.28,662.35,661.43,660.29,657.31,653.37,649.27,645.37,641.43,637.92,635.97,637.81,640.37,642.21,643.33,643.83,643.25,642.23,641.02,639.67,638.29,636.94,635.71,634.76,634.61,635.80,637.14,638.58,640.82,645.61,649.73,652.67,654.63,656.38,658.16,659.70,660.85,661.31,660.80,658.20,654.01,648.14,640.21,634.22,630.88,630.34,633.02,636.00,639.02,642.18,645.60,649.04,653.52,657.64,660.59,661.95,663.30,664.55,665.47,665.82,666.08,666.32,666.58,666.93,667.55,668.22,668.66,668.82,668.68,668.53,668.12,667.47,666.73,666.52,666.39,665.71,664.40,663.08,661.29,657.54,652.28,646.38,640.26,634.67,629.71,626.72,629.58,636.72,643.75,649.85,656.15,661.57,666.48,670.05,671.43,672.38,672.01,670.91,669.55,668.56,667.50,666.96,666.92,667.16,667.46,667.73,668.09,668.64,669.39,669.73,669.81,669.73,669.52,669.15,668.65,668.11,667.57,667.15,666.37,665.45,664.48,663.31,662.02,660.45,657.79,652.37,644.01,634.99,630.45,633.51,640.09,645.62,650.72,655.47,658.94,660.45,661.33,662.09,662.87,663.71,664.61,665.50,666.38,667.28,668.16,668.89,669.46,669.79,669.80,669.78,669.83,669.98,670.19,670.44,670.74,671.04,671.35,671.66,671.97,672.28,672.61,672.88,672.84,672.68,672.53,672.38,672.27,672.26,672.32,672.40,672.48,672.53,672.48,672.21,671.64,671.06,670.50,669.96,669.40,668.89,668.37,667.96,667.91,668.19,668.63,669.14,669.70,670.35,670.85,671.19,671.24,670.69,670.13,669.27,668.24,667.15,666.05,666.22,667.00,667.99,668.99,669.91,670.57,671.09,671.60,672.00,671.80,671.34,670.79,670.17,669.55,668.97
661.68,663.25,664.41,665.93,667.63,669.81,672.69,675.62,678.46,680.58,681.98,682.99,682.72,680.51,677.32,674.19,671.61,670.48,669.92,669.53,669.26,668.62,667.59,666.04,663.62,660.54,657.23,653.87,650.82,649.46,649.90,651.89,654.97,658.37,662.72,667.42,671.25,672.79,672.27,670.56,668.58,666.64,664.67,662.84,661.26,659.92,658.81,658.38,656.09,652.91,649.68,645.82,641.67,638.06,635.94,636.94,639.35,640.97,641.89,642.59,642.29,641.42,640.32,639.09,637.72,636.34,634.97,634.10,634.70,636.14,637.65,639.53,642.56,647.54,651.05,653.78,656.12,658.03,660.02,661.14,661.67,661.94,660.99,658.06,653.75,647.98,640.32,634.40,630.86,629.59,630.97,635.62,639.78,643.32,646.81,650.49,655.19,658.85,660.87,662.14,663.43,664.30,664.80,665.12,665.42,665.67,666.00,666.48,667.14,667.78,668.13,668.19,668.09,667.94,667.66,667.14,666.31,665.58,664.95,664.01,662.74,661.44,658.99,654.13,648.10,642.65,637.36,631.98,627.58,625.95,629.87,636.96,643.92,650.13,656.41,661.60,665.57,668.43,670.14,671.09,671.02,670.32,669.24,668.18,667.11,666.34,666.02,666.26,666.56,666.86,667.28,667.88,668.52,668.94,669.04,668.91,668.80,668.56,668.13,667.57,666.99,666.52,665.76,664.88,663.94,662.96,661.87,660.30,657.60,652.39,644.45,635.20,630.14,632.89,639.78,644.83,649.26,653.55,657.24,659.64,660.89,661.64,662.42,663.26,664.12,665.00,665.90,666.75,667.50,668.09,668.55,668.88,668.93,668.94,669.06,669.36,669.71,670.07,670.41,670.72,671.03,671.34,671.65,671.98,672.32,672.52,672.45,672.29,672.13,671.98,671.84,671.78,671.81,671.88,671.96,672.08,672.12,671.95,671.44,670.94,670.43,669.87,669.27,668.66,668.11,667.60,667.31,667.60,668.09,668.63,669.17,669.72,670.20,670.57,670.70,670.31,669.74,668.87,667.84,666.76,665.70,665.78,666.55,667.66,668.73,669.73,670.40,670.88,671.31,671.54,671.26,670.76,670.21,669.60,668.98,668.36
658.97,659.73,660.47,661.43,662.72,664.59,667.18,669.97,673.14,675.95,678.29,680.42,681.51,680.19,677.34,674.06,671.00,669.18,667.91,666.95,666.49,665.74,664.80,663.65,662.04,659.39,656.17,652.81,649.88,648.62,648.93,650.25,652.47,655.91,659.86,664.52,668.82,671.22,671.38,670.01,668.12,666.11,664.10,662.05,660.14,658.32,656.60,655.84,654.70,652.83,649.94,645.99,641.71,638.04,635.79,636.23,638.70,640.45,641.42,642.11,641.75,640.97,639.94,638.67,637.33,635.98,634.61,633.62,633.94,635.50,637.30,639.54,642.75,647.12,650.43,653.37,656.30,659.10,660.84,661.60,661.91,662.02,660.81,657.55,653.05,647.39,640.12,634.36,630.76,629.33,630.69,636.48,641.09,644.61,648.14,652.10,656.59,659.70,661.13,662.27,663.17,663.74,664.10,664.40,664.71,665.03,665.46,666.06,666.71,667.34,667.62,667.58,667.46,667.31,667.11,666.69,665.91,665.11,664.32,663.35,662.16,660.71,656.49,650.67,644.63,639.57,634.76,630.02,626.38,625.47,629.54,636.45,643.33,649.65,655.96,660.82,664.15,666.63,668.58,669.62,670.00,669.67,668.73,667.73,666.70,665.76,665.20,665.41,665.70,666.01,666.44,667.06,667.63,668.05,668.18,668.07,667.99,667.86,667.56,667.10,666.50,665.99,665.32,664.50,663.56,662.59,661.60,660.18,657.56,652.31,644.78,635.54,629.95,631.82,638.53,643.41,647.51,651.45,655.16,658.31,660.15,661.18,661.97,662.81,663.69,664.54,665.32,665.99,666.59,667.12,667.57,667.83,667.88,668.13,668.53,668.96,669.35,669.71,670.05,670.39,670.71,671.01,671.35,671.69,672.00,672.10,672.00,671.85,671.69,671.54,671.38,671.32,671.34,671.41,671.50,671.60,671.68,671.64,671.22,670.73,670.19,669.60,668.98,668.37,667.77,667.19,666.78,667.11,667.62,668.14,668.64,669.14,669.64,669.97,670.02,669.67,669.06,668.23,667.26,666.22,665.21,665.34,666.13,667.24,668.31,669.33,670.08,670.62,670.99,671.10,670.81,670.34,669.77,669.12,668.50,667.86
657.20,657.06,657.20,657.47,658.35,659.81,661.86,664.29,667.35,670.52,673.64,676.73,679.06,679.19,677.51,674.58,671.39,669.00,667.04,665.45,664.49,663.38,662.23,661.15,660.00,657.71,654.69,651.60,649.06,647.95,648.15,648.89,650.31,653.43,657.01,661.44,665.98,669.31,670.27,669.36,667.63,665.57,663.53,661.47,659.28,656.94,654.62,653.22,652.91,652.14,649.61,645.73,641.47,637.81,635.48,635.61,638.17,640.12,641.20,641.81,641.36,640.66,639.67,638.35,637.04,635.73,634.38,633.23,632.97,634.52,636.55,638.97,642.08,645.78,649.13,652.46,656.03,659.76,661.27,661.81,662.03,661.95,660.43,656.86,652.15,646.52,639.70,634.13,630.57,629.20,631.03,637.48,642.31,645.83,649.39,653.44,657.50,660.14,661.24,662.17,662.69,663.06,663.37,663.69,664.01,664.42,664.97,665.64,666.27,666.84,667.04,666.93,666.77,666.61,666.45,666.15,665.55,664.78,663.95,663.00,661.91,660.33,654.57,648.05,642.14,637.33,632.83,628.65,625.54,624.90,628.94,635.66,642.47,648.82,655.14,659.91,662.87,665.04,667.04,668.12,668.87,668.89,668.12,667.19,666.21,665.19,664.47,664.57,664.84,665.15,665.60,666.18,666.73,667.14,667.29,667.22,667.15,667.08,666.92,666.60,666.05,665.50,664.89,664.15,663.27,662.37,661.43,660.23,657.80,652.51,645.57,636.71,630.49,630.64,636.55,641.50,645.54,649.20,652.91,656.59,659.15,660.70,661.51,662.35,663.22,663.98,664.59,665.13,665.61,666.12,666.58,666.81,666.96,667.49,668.12,668.63,669.02,669.35,669.69,670.05,670.36,670.68,671.04,671.39,671.66,671.69,671.57,671.41,671.26,671.11,670.95,670.87,670.87,670.94,671.01,671.10,671.21,671.25,670.92,670.41,669.84,669.24,668.63,668.02,667.40,666.78,666.32,666.65,667.15,667.65,668.12,668.58,669.11,669.38,669.33,668.94,668.29,667.50,666.61,665.63,664.67,664.90,665.73,666.80,667.86,668.84,669.65,670.26,670.58,670.63,670.37,669.93,669.36,668.69,668.05,667.39
656.88,655.84,654.87,654.25,654.65,655.56,656.75,658.76,661.12,664.05,667.47,670.93,674.20,676.86,677.93,676.25,673.31,670.50,668.10,666.12,664.25,662.30,660.59,659.17,657.91,655.72,653.10,650.72,649.00,647.67,647.27,647.76,649.00,650.83,654.25,658.31,662.57,666.52,668.69,668.57,667.18,665.10,663.03,661.00,658.43,655.52,652.94,650.87,650.25,649.74,648.00,644.64,640.69,637.18,634.90,635.08,637.70,639.79,640.96,641.45,641.03,640.41,639.47,638.16,636.85,635.53,634.21,632.91,632.02,633.39,635.38,637.65,640.38,643.84,647.43,651.31,655.57,659.90,661.48,662.03,662.22,661.88,659.76,655.98,651.07,645.23,638.93,633.65,630.20,629.09,631.66,638.07,643.00,646.74,650.39,653.99,657.44,659.84,661.01,661.58,661.96,662.27,662.60,662.98,663.35,663.92,664.56,665.20,665.87,666.24,666.30,666.15,665.99,665.78,665.60,665.46,665.24,664.47,663.62,662.73,661.74,660.22,654.15,647.44,641.50,636.70,632.29,628.21,624.95,623.94,628.11,634.76,641.44,647.69,653.93,659.22,662.25,664.10,665.70,666.66,667.53,667.84,667.39,666.48,665.55,664.60,663.88,663.75,663.95,664.28,664.73,665.28,665.82,666.24,666.38,666.32,666.30,666.23,666.14,665.97,665.63,665.06,664.44,663.77,663.08,662.49,661.58,660.65,658.58,653.43,647.49,639.71,632.67,629.52,633.45,638.82,643.27,646.75,650.51,654.27,657.70,660.14,661.04,661.89,662.61,663.17,663.63,664.16,664.64,665.14,665.62,665.95,666.50,667.16,667.79,668.31,668.70,669.03,669.34,669.66,669.97,670.34,670.68,671.02,671.33,671.31,671.18,671.02,670.87,670.71,670.56,670.42,670.35,670.41,670.44,670.59,670.72,670.68,670.39,669.89,669.35,668.80,668.24,667.63,667.01,666.39,665.92,666.21,666.66,667.13,667.60,668.06,668.59,668.84,668.71,668.18,667.51,666.76,665.94,665.04,664.09,664.47,665.38,666.40,667.40,668.24,669.06,669.73,670.01,670.05,669.85,669.47,668.91,668.29,667.61,666.96
658.53,657.62,656.59,655.65,655.06,654.54,654.01,653.95,654.71,656.55,659.79,664.90,669.77,673.90,676.70,677.11,674.85,671.88,669.15,666.91,664.78,662.65,660.66,658.86,657.29,655.73,653.57,651.38,649.62,648.14,646.96,646.79,647.66,649.10,651.81,655.42,659.49,663.48,666.11,666.92,666.46,664.95,662.90,660.88,658.20,655.06,652.15,649.68,648.42,647.40,645.66,642.82,639.40,636.19,634.13,634.94,637.68,639.69,640.73,641.14,640.81,640.30,639.46,638.21,636.94,635.60,634.20,632.77,631.54,631.98,633.73,636.07,638.68,641.77,645.43,649.69,654.47,659.20,661.21,661.94,662.12,661.61,658.90,654.93,649.80,643.70,637.88,632.91,629.75,628.99,631.96,638.34,643.26,647.08,650.71,653.79,656.49,658.64,660.13,660.85,661.24,661.57,661.94,662.37,662.83,663.46,664.13,664.79,665.42,665.62,665.51,665.28,665.11,664.89,664.73,664.70,664.70,664.14,663.32,662.41,661.47,660.08,654.61,647.99,641.76,636.75,632.23,628.07,624.40,622.67,626.63,633.13,639.94,646.37,652.29,658.19,661.42,663.00,664.18,665.07,665.98,666.61,666.65,665.77,664.84,663.93,663.21,662.93,663.09,663.41,663.84,664.38,664.91,665.30,665.42,665.35,665.31,665.24,665.16,665.10,665.00,664.61,664.04,663.37,662.66,662.07,661.36,660.67,659.06,654.94,650.08,643.17,635.49,629.60,631.07,635.86,640.38,643.99,647.78,651.70,655.39,658.46,660.38,661.20,661.74,662.21,662.65,663.19,663.80,664.41,664.99,665.48,666.14,666.81,667.43,667.98,668.38,668.70,669.01,669.30,669.54,669.81,670.08,670.35,670.61,670.77,670.72,670.59,670.44,670.31,670.07,669.80,669.61,669.63,669.84,670.12,670.27,670.16,669.90,669.42,668.88,668.34,667.80,667.22,666.62,666.00,665.52,665.72,666.14,666.62,667.08,667.58,668.09,668.27,668.05,667.42,666.70,665.96,665.20,664.37,663.49,664.02,664.97,665.89,666.82,667.64,668.50,669.22,669.51,669.52,669.28,668.89,668.38,667.83,667.20,666.54
661.14,660.62,659.84,658.79,657.30,655.45,653.28,650.99,649.98,650.35,652.78,658.86,665.34,670.73,674.87,677.20,676.01,673.10,670.13,667.69,665.53,663.47,661.41,659.38,657.61,656.74,654.98,652.79,650.70,648.88,646.97,646.00,646.28,647.66,649.68,652.80,656.62,660.46,663.25,664.87,665.42,664.78,662.96,660.97,658.28,655.03,651.81,649.00,646.95,645.17,643.23,640.80,637.89,635.03,633.34,635.02,637.92,639.75,640.58,640.93,640.73,640.31,639.53,638.35,637.07,635.68,634.21,632.67,631.25,630.70,632.12,634.52,637.10,639.84,643.46,647.93,653.05,658.04,660.68,661.69,661.83,661.10,657.93,653.86,648.56,642.17,636.78,632.13,629.29,628.90,632.14,638.47,643.35,647.16,650.68,653.27,655.38,657.35,659.09,660.03,660.51,660.90,661.32,661.79,662.35,663.00,663.70,664.39,664.98,665.01,664.73,664.38,664.19,663.98,663.86,663.90,664.06,663.79,663.02,662.10,661.16,659.85,655.04,648.65,642.25,637.06,632.45,628.13,624.00,621.49,624.99,631.31,638.37,645.06,650.53,656.80,660.32,661.88,662.75,663.60,664.49,665.34,665.81,665.04,664.14,663.25,662.50,662.12,662.25,662.53,662.94,663.47,664.02,664.36,664.44,664.34,664.26,664.18,664.13,664.14,664.25,664.10,663.62,662.96,662.21,661.52,660.98,660.42,659.19,656.20,652.39,646.50,638.66,630.71,629.38,632.99,637.30,641.14,645.09,649.25,653.04,656.48,659.28,660.13,660.73,661.30,661.83,662.42,663.15,663.87,664.52,665.14,665.80,666.45,667.08,667.65,668.06,668.38,668.67,668.91,669.06,669.22,669.42,669.63,669.81,670.10,670.12,670.00,669.88,669.77,669.45,669.07,668.79,668.82,669.20,669.60,669.80,669.67,669.45,668.99,668.44,667.89,667.35,666.79,666.21,665.60,665.11,665.23,665.63,666.10,666.58,667.11,667.59,667.68,667.35,666.63,665.88,665.15,664.42,663.66,662.92,663.55,664.49,665.35,666.21,667.06,667.96,668.71,669.03,669.00,668.69,668.28,667.82,667.34,666.77,666.13
664.73,664.41,663.75,662.63,661.13,659.16,656.54,653.21,650.83,649.41,649.52,652.96,660.42,667.52,672.87,675.71,676.40,673.98,670.87,668.24,666.18,664.25,662.47,660.83,659.39,658.87,657.27,654.99,652.47,649.69,647.47,645.68,644.84,646.27,648.22,650.86,654.13,657.76,660.63,662.39,663.64,664.24,663.18,661.35,658.68,655.42,651.97,648.75,645.74,643.22,641.28,638.96,636.28,633.77,632.69,635.46,638.52,640.12,640.69,641.01,640.89,640.49,639.73,638.51,637.04,635.54,634.04,632.54,631.07,630.12,631.19,633.39,635.89,638.44,641.83,646.18,651.30,656.33,659.82,661.27,661.27,660.07,656.84,652.90,647.56,640.93,635.77,631.49,629.00,628.87,632.24,638.50,643.32,647.00,650.27,652.57,654.70,656.67,658.26,659.05,659.74,660.28,660.73,661.22,661.86,662.55,663.27,664.00,664.58,664.46,664.00,663.51,663.24,663.05,662.99,663.08,663.33,663.38,662.74,661.84,660.85,659.32,654.48,648.44,642.49,637.45,633.04,628.52,623.97,620.88,623.50,629.70,637.04,643.93,648.82,654.59,658.61,660.86,661.76,662.62,663.38,664.12,664.63,664.31,663.49,662.58,661.78,661.34,661.42,661.69,662.07,662.58,663.21,663.46,663.41,663.24,663.16,663.09,663.09,663.17,663.31,663.39,663.13,662.57,661.81,661.12,660.46,659.74,658.49,656.04,653.16,648.96,642.37,633.88,629.20,630.68,634.24,638.30,642.88,647.51,651.50,654.71,656.93,658.14,659.57,660.73,661.46,662.24,663.01,663.67,664.26,664.87,665.45,666.09,666.75,667.33,667.73,668.06,668.27,668.39,668.49,668.63,668.84,669.04,669.17,669.21,669.11,669.02,668.97,668.82,668.48,668.13,667.94,668.13,668.50,668.89,669.17,669.21,669.05,668.60,668.02,667.43,666.88,666.30,665.72,665.16,664.70,664.74,665.11,665.60,666.12,666.60,667.07,667.05,666.55,665.80,665.08,664.34,663.60,662.93,662.45,663.04,663.91,664.78,665.68,666.54,667.44,668.19,668.50,668.43,668.11,667.72,667.29,666.77,666.27,665.70
668.52,668.25,667.64,666.12,664.27,661.93,658.89,655.47,652.58,650.17,648.81,650.44,657.49,665.59,671.99,674.90,676.59,674.64,671.65,669.03,667.18,665.45,663.93,662.64,661.69,661.21,659.53,656.99,653.96,650.66,648.20,646.00,644.45,645.13,646.85,649.04,651.74,655.10,658.08,660.30,661.97,663.00,662.94,661.57,659.15,656.03,652.50,649.09,645.56,642.31,639.64,637.10,634.38,632.80,633.25,636.42,639.10,640.39,640.87,641.21,641.12,640.71,640.06,639.06,637.47,635.79,634.11,632.45,630.80,629.51,630.46,632.60,634.97,637.39,640.36,644.64,649.97,654.86,658.82,660.66,660.66,658.99,655.69,651.80,646.52,639.97,634.96,630.94,628.72,628.79,632.25,638.42,643.07,646.60,649.81,652.10,654.27,656.01,657.20,657.98,658.75,659.43,660.07,660.71,661.43,662.14,662.85,663.55,664.07,663.83,663.30,662.76,662.37,662.15,662.11,662.24,662.54,662.79,662.31,661.49,660.30,657.95,653.08,647.45,642.02,637.38,633.26,628.78,624.08,620.54,622.35,628.28,635.76,642.81,647.26,652.57,656.85,659.58,660.64,661.51,662.25,662.94,663.48,663.44,662.79,661.92,661.09,660.59,660.50,660.74,661.16,661.73,662.41,662.55,662.42,662.22,662.11,662.03,662.07,662.19,662.35,662.50,662.46,662.11,661.46,660.76,659.98,659.02,657.67,655.62,653.25,650.43,645.31,637.36,631.13,629.51,631.37,635.50,640.48,645.47,649.67,652.84,654.90,656.74,658.88,660.48,661.29,662.10,662.83,663.43,664.00,664.61,665.16,665.78,666.42,667.00,667.40,667.62,667.75,667.83,667.91,668.08,668.27,668.40,668.37,668.27,668.13,668.01,667.93,667.81,667.52,667.21,667.08,667.41,667.76,668.14,668.48,668.67,668.60,668.21,667.67,667.06,666.48,665.87,665.30,664.75,664.26,664.24,664.62,665.12,665.62,666.09,666.54,666.42,665.78,665.04,664.31,663.58,662.86,662.24,662.00,662.58,663.41,664.28,665.16,666.02,666.92,667.68,668.01,667.83,667.51,667.14,666.72,666.19,665.71,665.18
672.45,671.99,671.19,669.13,666.73,663.86,660.43,657.25,654.27,651.36,649.12,649.65,655.73,664.39,671.66,674.47,676.65,675.20,672.52,670.06,668.45,666.93,665.68,664.77,664.24,663.53,661.61,658.75,655.28,651.74,649.08,646.66,644.63,644.16,645.41,647.11,649.32,652.42,655.50,658.22,660.22,661.42,662.27,661.52,659.53,656.66,653.17,649.74,645.96,642.03,638.25,635.05,632.38,632.04,634.27,637.63,639.66,640.61,641.07,641.44,641.35,640.92,640.40,639.68,638.07,636.19,634.29,632.39,630.46,628.87,629.79,631.99,634.31,636.65,639.22,643.40,648.92,653.60,657.64,659.84,660.02,657.98,654.69,650.85,645.67,639.32,634.42,630.57,628.48,628.63,632.13,638.21,642.68,646.08,649.31,651.74,653.85,655.26,656.04,656.88,657.70,658.53,659.39,660.24,661.02,661.74,662.43,663.08,663.49,663.16,662.62,662.07,661.57,661.27,661.24,661.42,661.75,662.11,661.77,660.95,659.37,656.00,651.17,646.00,641.10,636.95,633.13,628.75,624.02,620.31,621.44,627.19,634.67,641.69,645.90,650.74,655.03,658.02,659.26,660.19,661.00,661.74,662.33,662.45,662.05,661.28,660.44,659.85,659.55,659.75,660.23,660.88,661.60,661.66,661.47,661.24,661.06,660.98,661.07,661.24,661.40,661.57,661.70,661.57,661.07,660.38,659.48,658.29,656.85,655.12,653.11,651.33,647.67,641.05,634.61,629.74,629.15,632.65,637.81,643.05,647.46,650.81,653.10,655.63,658.41,660.35,661.20,661.96,662.60,663.18,663.75,664.35,664.91,665.50,666.11,666.67,667.02,667.11,667.16,667.23,667.33,667.51,667.66,667.67,667.46,667.31,667.15,666.99,666.85,666.75,666.56,666.31,666.24,666.67,667.00,667.36,667.74,668.06,668.12,667.83,667.33,666.72,666.11,665.49,664.92,664.35,663.82,663.74,664.13,664.63,665.10,665.57,666.02,665.79,665.03,664.30,663.55,662.84,662.14,661.56,661.55,662.16,662.98,663.82,664.66,665.51,666.41,667.17,667.51,667.23,666.90,666.55,666.14,665.62,665.13,664.63
676.62,675.23,673.51,670.91,667.84,664.37,660.64,657.30,654.23,651.21,648.84,649.24,654.79,663.70,671.43,674.18,676.60,675.76,673.68,671.56,670.00,668.73,667.90,667.39,666.82,665.53,663.10,659.95,656.43,652.98,650.05,647.43,645.11,643.46,643.51,644.57,646.55,649.63,652.67,655.49,657.92,659.77,660.81,660.78,659.43,656.97,653.75,650.56,646.70,642.25,637.31,632.35,630.48,631.54,634.84,638.79,640.20,640.81,641.25,641.58,641.49,641.05,640.55,639.88,638.43,636.50,634.44,632.31,630.07,628.10,629.06,631.53,634.13,636.52,639.00,642.92,648.12,652.67,656.02,658.48,659.33,657.35,654.40,650.72,645.65,639.40,634.60,630.71,628.41,628.29,631.66,637.76,642.20,645.57,648.82,651.37,653.04,654.17,655.00,655.90,656.84,657.80,658.77,659.76,660.57,661.28,661.98,662.60,662.88,662.51,661.94,661.36,660.83,660.40,660.39,660.67,661.08,661.41,661.08,659.83,657.37,653.31,648.82,644.15,639.71,635.99,632.36,627.79,623.16,619.97,620.91,627.08,634.29,640.61,645.02,649.24,653.06,655.86,657.15,658.30,659.45,660.41,661.05,661.26,661.26,660.70,659.82,659.13,658.63,658.81,659.32,659.97,660.70,660.79,660.59,660.28,659.94,659.91,660.09,660.34,660.55,660.76,660.89,660.81,660.44,659.79,658.77,657.58,656.24,654.77,653.29,651.73,649.19,645.10,640.20,633.26,629.13,629.54,634.42,639.71,644.38,648.32,651.59,654.62,657.88,660.14,661.06,661.78,662.37,662.95,663.53,664.10,664.69,665.27,665.82,666.31,666.44,666.51,666.55,666.59,666.73,666.85,666.81,666.67,666.49,666.34,666.14,665.95,665.80,665.67,665.55,665.45,665.50,665.89,666.22,666.58,666.97,667.34,667.61,667.42,666.95,666.34,665.78,665.16,664.56,663.96,663.41,663.24,663.61,664.12,664.58,665.04,665.50,665.21,664.34,663.49,662.81,662.12,661.43,660.89,661.05,661.74,662.58,663.42,664.22,665.06,665.92,666.64,666.94,666.64,666.31,665.97,665.57,665.08,664.57,664.07
679.21,676.67,674.11,671.05,667.60,663.93,660.14,656.50,653.24,650.17,648.02,649.00,654.30,663.32,671.23,673.70,676.07,675.89,674.44,672.60,671.23,670.21,669.65,669.35,668.86,667.39,664.52,661.00,657.41,654.08,651.00,648.25,645.80,643.57,642.40,642.33,643.54,646.39,649.55,652.50,655.12,657.20,658.42,659.05,658.62,657.01,654.13,651.28,647.52,642.77,637.06,631.22,629.73,631.81,636.00,639.47,640.42,640.83,641.21,641.42,641.37,641.06,640.64,639.97,638.51,636.53,634.35,632.06,629.61,627.36,628.34,630.96,633.70,636.27,638.96,642.88,647.81,652.01,654.97,657.56,658.67,656.59,654.00,650.60,645.67,639.50,634.88,630.93,628.34,627.84,631.03,636.88,641.43,644.98,648.25,650.78,652.25,653.31,654.29,655.31,656.36,657.41,658.44,659.42,660.20,660.89,661.52,662.07,662.32,662.04,661.53,660.94,660.30,659.39,659.24,659.62,660.07,660.17,659.41,657.50,654.33,650.27,646.23,642.03,637.94,634.37,630.68,625.84,621.54,619.48,620.94,627.50,634.55,640.32,644.49,648.30,651.52,653.95,655.43,656.85,658.30,659.41,660.02,660.22,660.29,659.88,659.15,658.40,657.78,657.99,658.57,659.20,659.88,659.95,659.64,659.16,658.75,658.71,658.99,659.34,659.60,659.86,659.94,659.81,659.42,658.65,657.64,656.54,655.36,654.04,652.74,651.32,649.49,646.87,643.06,636.99,631.57,628.83,631.11,636.00,641.14,645.84,649.93,653.63,657.34,659.87,660.88,661.55,662.14,662.74,663.34,663.92,664.56,665.07,665.48,665.75,665.81,665.88,665.93,665.97,666.02,666.02,665.88,665.67,665.51,665.33,665.13,664.95,664.80,664.65,664.53,664.55,664.74,665.13,665.47,665.82,666.19,666.58,666.95,666.96,666.60,665.99,665.41,664.81,664.19,663.57,663.00,662.75,663.07,663.57,664.06,664.52,664.99,664.67,663.74,662.80,662.01,661.29,660.68,660.32,660.58,661.33,662.19,663.04,663.87,664.72,665.57,666.22,666.37,666.06,665.73,665.38,664.99,664.55,664.03,663.53
680.23,676.57,673.33,669.69,666.02,662.40,658.78,654.93,651.49,648.57,647.02,649.01,654.58,663.52,671.15,673.20,675.31,675.76,674.91,673.32,672.21,671.43,670.98,670.74,670.38,669.06,665.90,662.00,658.27,655.11,651.97,649.15,646.67,644.29,642.06,640.67,640.75,642.99,646.06,649.12,651.83,653.95,655.44,656.63,657.18,656.65,654.35,651.88,648.35,643.50,637.30,631.19,629.72,632.55,637.51,639.81,640.42,640.74,641.01,641.09,641.09,640.97,640.68,640.02,638.48,636.38,634.08,631.67,629.09,626.68,627.66,630.36,633.17,635.99,639.09,643.21,647.98,651.62,654.39,656.98,658.04,655.77,653.49,650.32,645.52,639.45,635.12,631.15,628.24,627.35,630.31,635.71,640.42,644.35,647.73,650.15,651.58,652.72,653.86,655.00,656.14,657.25,658.27,659.15,659.87,660.50,661.06,661.49,661.76,661.63,661.24,660.67,659.88,658.36,657.91,658.19,658.56,658.37,656.97,654.32,650.70,647.05,643.40,639.54,635.70,632.13,628.23,623.32,619.68,619.10,621.61,628.41,635.27,640.62,644.27,647.84,650.50,652.53,654.27,655.96,657.56,658.64,659.12,659.25,659.17,658.88,658.38,657.64,656.98,657.27,657.93,658.56,659.15,659.13,658.63,657.94,657.51,657.43,657.76,658.22,658.54,658.85,658.84,658.61,658.11,657.19,656.23,655.28,654.25,653.03,651.70,650.32,648.77,646.77,643.79,640.21,635.13,629.79,628.23,632.49,638.14,643.52,648.14,652.47,656.62,659.47,660.69,661.34,661.96,662.58,663.19,663.82,664.45,664.85,665.04,665.08,665.15,665.23,665.30,665.34,665.25,665.10,664.90,664.70,664.53,664.32,664.13,663.98,663.82,663.67,663.54,663.65,663.98,664.36,664.74,665.07,665.42,665.81,666.19,666.44,666.25,665.64,665.03,664.41,663.79,663.18,662.60,662.26,662.52,663.02,663.54,664.00,664.47,664.15,663.20,662.21,661.24,660.46,659.97,659.87,660.16,660.94,661.82,662.68,663.59,664.45,665.30,665.88,665.82,665.48,665.14,664.79,664.41,664.01,663.51,663.01
678.88,674.86,671.24,666.21,661.89,658.36,655.29,651.89,648.82,646.89,646.77,649.81,657.28,665.50,671.50,673.33,675.03,675.72,675.34,674.13,673.12,672.44,672.00,671.64,671.14,670.11,667.19,663.18,659.07,656.28,653.27,650.35,647.68,645.23,642.80,640.79,639.70,640.20,641.74,644.56,647.69,650.49,652.48,654.01,654.86,655.01,654.31,652.20,649.06,644.37,637.73,631.08,629.63,633.06,638.58,640.04,640.48,640.68,640.80,640.82,640.83,640.79,640.63,640.11,638.75,636.33,633.70,631.12,628.56,626.14,627.15,629.97,633.03,636.18,639.71,644.19,648.94,651.71,654.09,656.46,657.42,655.21,652.97,649.55,644.65,638.88,634.96,631.13,628.08,626.91,629.66,634.38,639.19,643.70,647.62,650.13,651.49,652.60,653.74,654.85,656.00,657.12,658.08,658.79,659.44,660.03,660.50,660.82,660.97,660.90,660.65,660.17,659.34,657.85,656.68,655.96,655.68,655.58,653.85,650.96,647.38,643.88,640.08,636.11,632.29,628.89,624.85,621.10,618.99,619.72,623.70,630.14,636.32,641.23,644.56,647.94,650.52,652.53,654.32,656.11,657.28,657.86,657.96,657.96,657.88,657.70,657.34,656.71,656.24,656.64,657.36,658.01,658.55,658.30,657.59,656.75,656.27,656.11,656.41,656.93,657.37,657.69,657.51,657.15,656.68,655.88,654.90,653.90,652.93,651.99,650.84,649.00,646.99,645.25,643.73,641.15,636.56,630.76,627.06,630.93,636.53,641.76,646.15,650.37,655.02,658.68,660.63,661.32,661.93,662.56,663.19,663.82,664.19,664.36,664.41,664.43,664.50,664.58,664.65,664.66,664.42,664.13,663.89,663.73,663.56,663.34,663.16,663.00,662.85,662.71,662.68,662.88,663.25,663.63,663.97,664.33,664.70,665.09,665.47,665.82,665.75,665.26,664.64,664.02,663.40,662.79,662.20,661.76,662.00,662.50,663.02,663.49,663.95,663.61,662.64,661.68,660.73,660.02,659.60,659.54,659.92,660.69,661.55,662.40,663.27,664.13,664.98,665.49,665.26,664.94,664.55,664.15,663.77,663.43,662.97,662.50
676.43,671.69,667.56,661.90,657.30,653.84,651.22,648.53,646.60,646.34,648.07,652.28,660.27,667.28,671.78,673.38,674.71,675.50,675.47,674.66,673.80,673.16,672.62,672.11,671.48,670.64,668.05,664.10,659.65,657.03,654.28,651.44,648.71,646.21,643.80,641.53,639.74,638.94,639.01,640.96,643.70,646.58,649.00,651.05,652.33,653.02,653.36,652.10,649.57,645.21,638.52,631.40,629.45,632.79,638.57,640.04,640.43,640.55,640.59,640.57,640.57,640.57,640.48,639.73,636.94,634.34,632.19,630.15,627.59,625.71,627.05,630.06,633.35,636.75,640.75,645.41,649.90,652.06,654.13,656.05,656.68,654.67,652.50,648.60,643.38,637.72,633.83,630.43,627.79,626.85,629.56,634.13,638.94,643.64,647.88,650.27,651.55,652.59,653.67,654.76,655.90,656.94,657.77,658.34,658.86,659.34,659.73,660.00,660.08,659.99,659.79,659.39,658.61,657.36,655.89,654.53,653.59,653.05,650.90,647.78,644.17,640.50,636.39,632.43,628.83,625.58,621.92,619.59,619.20,621.38,626.31,632.21,637.63,642.05,645.25,648.44,650.90,652.87,654.61,656.03,656.64,656.80,656.72,656.62,656.53,656.43,656.20,655.77,655.56,656.03,656.76,657.45,657.93,657.46,656.58,655.65,655.02,654.79,655.08,655.62,656.12,656.41,656.10,655.64,655.19,654.58,653.61,652.56,651.44,650.09,648.36,646.09,644.12,643.13,642.99,641.29,636.92,630.85,626.70,630.45,635.82,640.74,644.88,648.93,653.67,657.83,660.50,661.28,661.95,662.59,663.16,663.58,663.71,663.73,663.75,663.77,663.82,663.92,664.01,664.01,663.75,663.38,663.07,662.82,662.60,662.36,662.19,662.03,661.89,661.80,661.86,662.12,662.51,662.89,663.23,663.58,663.97,664.40,664.82,665.21,665.27,664.92,664.29,663.65,663.02,662.40,661.80,661.30,661.49,661.96,662.47,662.96,663.43,663.10,662.17,661.29,660.41,659.73,659.33,659.34,659.83,660.58,661.40,662.20,663.00,663.84,664.63,665.03,664.69,664.36,663.93,663.50,663.13,662.84,662.43,661.98
673.57,667.72,662.81,657.38,652.91,649.53,647.18,645.35,645.24,647.09,650.77,656.10,663.10,668.56,671.90,673.23,674.23,675.03,675.27,674.86,674.22,673.55,672.88,672.20,671.50,670.74,668.51,664.75,660.09,657.39,654.93,652.37,649.74,647.24,644.93,642.69,640.65,639.12,638.09,638.59,640.15,642.48,645.11,647.76,649.65,650.82,651.53,651.50,649.75,645.90,639.62,632.30,629.30,631.69,637.24,639.66,640.24,640.35,640.38,640.32,640.32,640.19,639.90,638.43,633.22,630.63,629.61,628.62,626.12,625.42,627.42,630.68,634.15,637.71,642.17,646.80,650.69,652.58,654.43,655.71,655.80,654.07,652.05,647.52,641.78,636.04,631.85,629.06,627.36,627.23,630.18,635.15,639.79,644.23,648.46,650.49,651.68,652.66,653.63,654.71,655.81,656.66,657.29,657.74,658.09,658.42,658.75,659.01,659.08,658.93,658.69,658.36,657.70,656.80,655.48,653.99,652.54,651.12,648.41,644.99,641.17,637.13,632.68,628.87,625.60,622.49,619.73,618.96,620.38,624.13,629.29,634.49,639.12,643.04,646.25,649.24,651.49,653.33,654.89,655.52,655.58,655.50,655.41,655.27,655.18,655.10,654.99,654.84,654.89,655.42,656.14,656.85,657.27,656.60,655.60,654.62,653.79,653.50,653.77,654.32,654.82,655.00,654.65,654.16,653.72,653.25,652.37,651.18,649.55,647.13,644.12,641.59,640.23,640.42,641.37,640.36,635.99,629.87,627.10,630.96,636.00,640.60,644.57,648.46,652.83,657.05,660.28,661.19,661.94,662.60,663.03,663.08,663.04,663.02,663.05,663.11,663.13,663.25,663.36,663.38,663.19,662.86,662.45,662.04,661.68,661.42,661.23,661.06,660.95,660.93,661.06,661.35,661.73,662.12,662.50,662.85,663.25,663.77,664.23,664.62,664.81,664.64,663.98,663.29,662.64,662.01,661.40,660.86,661.00,661.42,661.90,662.43,662.90,662.64,661.83,661.05,660.27,659.54,659.09,659.21,659.85,660.62,661.36,662.08,662.80,663.61,664.25,664.49,664.10,663.72,663.28,662.85,662.50,662.24,661.88,661.46
672.81,666.63,660.17,655.02,650.92,647.59,645.19,644.32,646.01,649.29,653.66,658.94,665.02,669.26,671.65,672.62,673.42,674.16,674.71,674.87,674.33,673.66,672.97,672.26,671.52,670.79,668.84,665.36,660.76,657.84,655.36,653.08,650.87,648.52,646.22,643.97,641.82,639.93,638.32,637.40,637.84,639.76,641.87,644.33,646.50,648.28,649.61,650.15,648.80,645.64,640.62,634.41,629.96,629.67,633.41,638.24,639.80,640.13,640.14,640.12,640.11,639.01,637.02,634.14,630.21,628.02,626.90,625.85,624.12,625.55,628.50,631.95,635.50,639.16,643.91,648.11,651.06,652.82,654.53,655.27,654.83,653.14,651.36,646.22,639.90,634.13,630.08,627.49,626.84,628.27,632.22,637.47,641.61,645.36,649.14,650.73,651.81,652.78,653.73,654.73,655.46,655.98,656.37,656.72,657.04,657.35,657.66,657.92,657.95,657.77,657.51,657.17,656.63,655.93,654.92,653.66,652.20,650.69,647.42,643.38,639.16,635.17,630.94,626.97,623.40,620.44,618.75,619.95,623.38,628.25,632.47,636.63,640.50,644.02,647.21,649.94,652.07,653.63,654.48,654.47,654.33,654.21,654.11,653.96,653.88,653.80,653.74,653.79,654.19,654.86,655.59,656.24,656.49,655.68,654.63,653.64,652.76,652.23,652.39,652.95,653.54,653.61,653.32,652.91,652.47,651.93,651.21,649.20,646.07,642.38,638.62,636.26,635.55,636.42,637.44,635.49,631.30,627.41,628.81,632.94,637.65,642.16,646.12,649.46,653.15,656.90,660.00,660.99,661.78,662.24,662.41,662.41,662.38,662.34,662.34,662.41,662.47,662.63,662.75,662.74,662.57,662.30,661.93,661.51,661.09,660.70,660.35,660.13,660.08,660.10,660.30,660.60,660.96,661.39,661.78,662.22,662.71,663.22,663.65,664.00,664.30,664.33,663.70,663.01,662.33,661.67,661.01,660.41,660.47,660.84,661.32,661.85,662.33,662.22,661.62,660.90,660.22,659.34,658.76,659.00,659.87,660.68,661.43,662.16,662.86,663.57,663.93,663.90,663.47,663.08,662.63,662.20,661.85,661.60,661.28,660.90
672.21,666.35,658.76,653.33,649.43,646.23,643.84,643.85,646.66,650.59,654.97,659.75,665.03,668.92,671.17,671.92,672.64,673.36,674.07,674.58,674.34,673.75,673.05,672.32,671.55,670.85,669.23,666.11,661.61,658.53,656.17,654.19,652.27,649.94,647.63,645.41,643.27,641.22,639.25,637.39,636.64,637.43,638.97,641.06,643.26,645.30,646.89,647.86,647.41,645.47,641.84,637.09,631.82,628.97,629.94,634.83,636.98,637.67,637.79,637.73,637.42,635.84,633.30,630.25,627.81,625.96,624.60,623.58,623.26,626.33,629.97,633.56,637.20,641.06,645.79,649.37,651.36,652.91,654.53,654.84,653.96,652.38,650.79,644.96,638.03,632.30,628.62,626.50,626.78,629.53,634.58,639.61,643.25,646.44,649.63,650.90,651.89,652.83,653.70,654.48,654.90,655.18,655.42,655.69,655.97,656.25,656.53,656.78,656.79,656.57,656.24,655.88,655.51,654.90,654.13,653.18,651.97,650.51,646.87,642.38,637.88,633.91,629.78,625.47,621.46,618.81,618.83,621.73,626.30,631.43,635.00,638.45,641.78,645.01,648.14,650.53,652.38,653.50,653.61,653.24,653.01,652.89,652.81,652.67,652.65,652.66,652.69,652.87,653.53,654.31,655.07,655.66,655.71,654.83,653.74,652.71,651.74,650.94,651.00,651.64,652.34,652.26,651.93,651.55,651.05,650.06,648.13,645.24,641.62,637.57,633.54,631.09,630.45,631.42,632.18,630.16,627.75,627.18,631.26,635.52,640.05,644.48,648.21,650.91,653.74,656.69,659.31,660.61,661.46,661.78,661.76,661.70,661.69,661.65,661.65,661.74,661.86,662.05,662.14,662.09,661.93,661.73,661.43,661.05,660.58,660.06,659.58,659.26,659.17,659.24,659.52,659.87,660.25,660.74,661.17,661.66,662.17,662.65,663.04,663.39,663.73,663.90,663.41,662.75,662.06,661.37,660.70,660.08,659.98,660.26,660.81,661.33,661.78,661.76,661.31,660.65,659.99,658.99,658.38,658.79,659.85,660.71,661.48,662.22,662.84,663.36,663.54,663.38,662.92,662.49,662.02,661.57,661.20,660.95,660.68,660.35
671.27,666.40,658.52,652.13,648.12,645.08,642.79,643.52,646.48,650.13,653.93,657.92,662.58,667.13,670.35,671.21,671.98,672.74,673.40,673.93,674.23,673.83,673.15,672.39,671.63,670.92,669.75,667.10,662.77,659.66,657.63,655.94,654.13,651.67,649.33,647.15,645.06,643.02,640.84,638.70,636.73,635.52,636.48,638.11,640.01,641.84,643.20,644.57,645.68,645.51,643.27,640.06,634.98,630.38,627.98,629.50,631.33,632.34,632.63,632.45,631.59,630.46,629.17,627.70,626.04,624.35,622.89,622.32,624.01,627.88,631.78,635.50,639.28,643.43,647.73,650.50,651.68,652.87,654.42,654.41,653.26,651.89,650.36,643.78,636.29,630.71,627.54,626.32,627.39,630.91,636.98,641.15,644.36,647.27,649.86,650.97,651.90,652.74,653.43,653.83,654.10,654.34,654.55,654.73,654.96,655.16,655.38,655.63,655.60,655.28,654.82,654.43,654.33,653.70,653.05,652.42,651.58,650.09,646.43,641.92,637.35,633.17,628.82,624.05,619.70,617.62,620.01,624.07,628.56,632.95,636.57,639.85,642.97,646.04,649.04,650.96,652.27,652.78,652.26,651.91,651.67,651.56,651.53,651.43,651.56,651.75,651.93,652.17,652.92,653.75,654.57,655.16,654.99,654.09,652.98,651.84,650.71,649.58,649.58,650.36,651.18,650.87,650.29,649.75,649.01,647.10,642.42,638.82,636.26,633.09,629.36,626.59,625.45,626.00,626.37,625.84,627.04,630.34,634.43,638.63,643.14,647.35,650.47,652.50,654.38,656.26,658.16,660.01,660.95,661.26,661.21,661.02,660.98,660.97,661.00,661.11,661.31,661.48,661.53,661.44,661.29,661.12,660.91,660.59,660.10,659.46,658.95,658.50,658.22,658.39,658.74,659.16,659.63,660.16,660.68,661.16,661.61,662.01,662.39,662.78,663.12,663.32,663.10,662.50,661.82,661.15,660.53,659.90,659.53,659.70,660.39,660.87,661.27,661.22,660.78,660.19,659.47,658.45,657.95,658.61,659.82,660.71,661.48,662.18,662.64,662.89,663.05,662.99,662.53,662.01,661.49,660.99,660.57,660.32,660.08,659.80
670.12,665.79,658.85,652.42,647.80,644.08,641.43,642.31,644.60,647.50,650.76,654.39,658.69,663.45,667.74,670.38,671.34,672.00,672.60,673.13,673.61,673.68,673.25,672.53,671.85,671.15,670.31,668.54,665.43,662.35,659.94,658.29,657.08,655.54,652.80,649.78,647.07,644.99,642.72,640.46,638.22,636.23,635.28,635.65,636.97,638.72,640.39,642.01,643.41,644.13,643.58,641.36,637.52,633.37,630.08,629.26,628.85,628.05,627.33,627.43,627.77,627.56,626.83,625.68,624.39,622.85,621.48,621.35,624.43,629.12,633.59,637.63,641.51,645.74,649.03,651.04,652.05,653.07,654.00,653.67,652.54,651.21,649.07,642.40,635.12,629.77,626.78,626.32,628.18,632.32,638.66,642.13,644.86,647.48,649.81,650.92,651.66,652.24,652.71,653.06,653.31,653.52,653.71,653.91,654.10,654.29,654.50,654.62,654.32,653.63,652.98,652.67,652.97,652.53,651.88,651.22,650.22,647.41,645.01,641.68,637.00,632.00,627.16,622.40,618.69,618.01,621.15,625.32,629.63,633.84,637.78,641.08,644.12,647.04,649.67,651.20,651.75,651.57,650.85,650.46,650.30,650.33,650.50,650.61,650.79,650.95,651.15,651.55,652.33,653.18,654.02,654.62,654.31,653.34,652.22,651.10,649.89,648.32,647.92,648.52,649.35,648.53,646.89,645.23,643.46,640.42,635.92,632.91,630.98,628.34,625.34,624.76,625.71,627.06,627.48,628.28,630.57,634.23,638.24,642.75,646.66,649.70,651.76,653.29,654.77,656.27,657.82,659.40,660.35,660.76,660.76,660.46,660.26,660.24,660.33,660.51,660.73,660.87,660.88,660.80,660.68,660.50,660.31,660.04,659.60,659.01,658.51,658.02,657.64,657.73,658.13,658.63,659.13,659.63,660.16,660.63,661.03,661.41,661.75,662.13,662.48,662.73,662.76,662.34,661.79,661.22,660.59,659.93,659.13,659.09,659.93,660.37,660.58,660.44,659.97,659.29,658.53,657.64,657.44,658.50,659.85,660.73,661.44,662.02,662.26,662.40,662.53,662.55,662.22,661.67,661.12,660.59,660.12,659.80,659.54,659.29
668.87,664.88,659.22,653.43,648.60,644.11,640.45,640.83,642.25,644.40,647.21,650.58,654.59,659.32,664.38,668.88,670.59,671.33,671.87,672.42,672.94,673.38,673.26,672.70,672.10,671.46,670.85,669.85,668.06,665.52,662.92,661.15,660.27,659.38,656.54,652.82,649.35,646.96,644.63,642.34,640.09,637.81,635.42,634.44,634.58,635.63,637.51,639.12,640.72,642.18,642.95,641.76,639.32,636.24,633.11,630.99,628.91,626.64,624.81,624.38,625.09,625.39,624.95,623.81,622.70,621.41,620.34,620.72,624.79,630.20,635.26,639.62,643.38,647.46,649.87,651.31,652.28,653.14,653.49,652.94,651.90,650.57,647.57,641.04,634.22,629.13,626.16,626.34,628.92,633.52,639.73,642.66,644.95,647.26,649.40,650.59,651.19,651.59,651.92,652.28,652.53,652.73,652.90,653.10,653.28,653.48,653.66,653.65,653.13,652.13,651.22,650.87,651.55,651.33,650.39,649.19,647.52,643.60,642.58,640.70,636.47,631.10,625.94,621.24,618.10,618.49,621.86,625.91,630.11,634.44,638.70,641.99,644.91,647.66,649.95,651.09,651.02,650.35,649.60,649.14,649.01,649.14,649.45,649.77,649.97,650.11,650.34,650.92,651.72,652.58,653.44,654.06,653.68,652.71,651.65,650.57,649.25,647.29,646.25,646.36,647.10,645.69,642.88,639.93,636.98,633.20,629.60,627.93,627.26,625.70,624.14,625.78,628.74,631.17,631.96,633.60,636.02,639.08,642.81,646.71,649.49,651.29,652.49,653.73,655.02,656.35,657.71,659.00,659.83,660.26,660.31,659.93,659.62,659.54,659.65,659.90,660.14,660.26,660.27,660.19,660.08,659.88,659.70,659.47,659.06,658.57,658.08,657.58,657.14,657.13,657.56,658.09,658.61,659.09,659.59,660.03,660.42,660.78,661.11,661.47,661.80,662.07,662.23,661.98,661.61,661.16,660.59,659.86,658.77,658.48,659.28,659.72,659.82,659.59,659.05,658.24,657.45,656.95,657.21,658.52,659.89,660.72,661.29,661.68,661.77,661.85,661.98,662.07,661.92,661.41,660.86,660.33,659.83,659.42,659.13,658.86
667.57,663.73,659.40,655.07,651.00,646.00,640.41,639.31,639.85,641.46,643.93,647.03,650.76,655.19,660.43,666.14,669.56,670.78,671.38,671.96,672.44,672.94,673.11,672.89,672.35,671.85,671.33,670.71,669.91,668.85,666.66,664.69,663.35,662.19,659.94,656.16,652.04,648.89,646.46,644.24,642.06,639.85,637.52,635.35,633.43,632.56,634.11,635.32,637.49,639.74,641.04,641.15,639.97,638.09,635.96,634.06,632.22,630.05,627.51,624.90,623.70,623.52,623.11,622.01,620.90,620.07,619.61,620.61,625.20,631.10,636.70,641.24,644.50,648.07,650.10,651.34,652.21,652.84,652.94,652.35,651.43,650.07,646.07,639.82,633.60,628.75,625.65,626.30,629.48,634.33,639.98,642.58,644.57,646.57,648.45,649.77,650.42,650.84,651.20,651.51,651.76,651.94,652.10,652.27,652.49,652.67,652.77,652.69,652.15,651.07,649.82,649.13,650.07,650.06,648.38,645.82,642.86,638.78,638.65,638.22,635.50,630.90,625.88,621.11,617.93,618.40,621.78,625.72,630.02,634.74,639.22,642.35,645.02,647.56,649.71,650.41,650.08,649.35,648.66,648.13,647.90,647.97,648.29,648.66,648.90,649.12,649.49,650.25,651.09,651.98,652.86,653.48,653.16,652.32,651.40,650.38,648.84,646.68,644.68,643.85,644.35,642.29,638.50,634.37,630.41,626.75,624.24,624.73,626.66,627.33,628.27,631.00,634.63,638.02,639.57,641.21,643.05,645.31,648.38,649.84,650.82,651.70,652.61,653.85,655.11,656.39,657.71,658.97,659.52,659.78,659.79,659.42,659.10,658.92,658.96,659.26,659.55,659.68,659.71,659.65,659.45,659.27,659.12,658.88,658.50,658.09,657.59,657.05,656.62,656.56,656.98,657.48,657.97,658.49,658.91,659.35,659.75,660.09,660.45,660.78,661.06,661.27,661.35,661.21,661.01,660.77,660.34,659.51,658.42,657.92,658.31,658.86,659.02,658.73,658.06,657.16,656.32,656.56,657.50,658.74,659.92,660.63,660.96,661.04,661.12,661.20,661.37,661.55,661.59,661.22,660.72,660.21,659.74,659.29,658.91,658.51
667.31,663.30,659.28,655.51,652.24,648.38,643.54,639.82,638.66,639.28,641.08,643.53,647.18,651.50,656.64,662.71,667.43,669.76,670.88,671.40,671.87,672.40,672.61,672.46,672.06,671.78,671.52,671.18,670.70,670.12,668.89,667.33,665.61,663.83,661.58,658.33,654.66,651.34,648.57,646.30,644.16,641.99,639.74,637.25,634.62,632.46,631.85,631.99,633.68,635.98,638.00,639.20,639.14,638.02,636.23,634.49,632.76,630.81,628.51,625.82,623.70,622.56,621.79,621.06,620.26,619.35,619.20,620.93,626.36,632.76,638.25,642.49,645.50,648.32,650.01,651.07,651.79,652.33,652.40,651.89,651.07,649.60,644.69,638.85,633.26,628.53,625.32,626.24,629.78,634.81,640.12,642.60,644.53,646.36,647.95,649.28,649.85,650.18,650.47,650.70,650.97,651.16,651.32,651.48,651.66,651.80,651.83,651.67,651.12,649.97,648.50,647.44,647.92,647.90,646.62,644.46,641.41,636.56,634.72,634.93,635.04,630.95,625.84,620.89,617.58,617.99,621.13,625.08,629.44,634.23,639.26,642.39,644.87,647.20,649.15,649.50,649.11,648.48,647.80,647.25,646.85,646.80,647.11,647.42,647.69,648.04,648.66,649.80,650.73,651.56,652.35,652.95,652.85,652.15,651.34,650.50,649.28,646.64,643.53,641.62,641.43,637.51,632.98,628.70,625.13,623.29,625.38,628.47,631.25,633.19,635.45,638.03,641.02,644.07,645.62,646.59,647.48,648.63,650.34,651.15,651.75,652.35,653.05,654.01,655.21,656.49,657.72,658.75,659.13,659.28,659.26,658.98,658.64,658.40,658.41,658.71,659.01,659.18,659.24,659.17,658.91,658.66,658.48,658.26,657.91,657.53,657.06,656.55,656.13,655.99,656.36,656.86,657.36,657.81,658.24,658.72,659.18,659.56,659.87,660.11,660.32,660.48,660.50,660.41,660.33,660.18,659.82,659.17,658.16,657.49,657.51,658.10,658.22,657.96,657.38,656.48,655.72,656.25,657.41,658.62,659.65,660.22,660.45,660.48,660.49,660.62,660.85,661.03,660.98,660.71,660.32,659.90,659.47,659.01,658.61,658.20
667.22,662.77,658.97,655.64,653.09,650.55,646.98,641.13,638.35,637.77,638.63,640.49,643.89,648.07,653.05,659.07,664.71,668.29,670.19,670.86,671.33,671.82,671.97,671.81,671.53,671.43,671.43,671.32,670.99,670.60,670.22,669.13,667.23,664.97,662.64,660.07,657.21,654.07,651.11,648.75,646.57,644.38,642.14,639.45,636.49,633.46,630.77,629.70,630.44,632.32,634.75,636.74,637.60,637.17,635.73,634.12,632.44,630.70,628.80,626.58,624.12,622.21,621.01,620.44,619.83,618.87,619.15,621.80,628.14,634.80,639.76,643.35,646.00,648.14,649.65,650.64,651.25,651.74,651.85,651.45,650.64,648.88,643.46,638.00,632.91,628.30,625.00,626.15,629.99,635.14,640.22,642.63,644.49,646.16,647.54,648.85,649.36,649.60,649.81,649.97,650.21,650.40,650.55,650.69,650.84,650.92,650.89,650.62,649.92,648.72,647.16,645.79,645.57,645.46,644.75,643.30,640.57,635.16,631.41,631.75,634.22,630.81,625.42,620.36,617.13,617.41,620.23,624.19,628.64,633.57,639.17,642.29,644.61,646.76,648.44,648.52,648.13,647.59,646.96,646.40,645.85,645.67,645.90,646.15,646.43,646.97,647.91,649.37,650.41,651.18,651.85,652.41,652.46,651.94,651.27,650.64,649.76,646.51,642.27,639.03,637.48,632.25,627.49,623.72,621.48,622.46,628.62,633.68,636.86,639.62,642.62,644.67,646.58,648.68,649.85,650.15,650.27,650.50,651.04,651.76,652.41,653.00,653.60,654.29,655.37,656.59,657.73,658.45,658.69,658.75,658.71,658.55,658.20,657.92,657.90,658.20,658.51,658.70,658.78,658.71,658.40,658.08,657.86,657.64,657.32,656.94,656.50,656.04,655.63,655.42,655.74,656.24,656.74,657.15,657.61,658.13,658.62,659.05,659.32,659.51,659.67,659.78,659.77,659.71,659.65,659.51,659.17,658.73,657.88,657.09,656.78,657.35,657.41,657.22,656.77,655.91,655.34,656.00,657.21,658.33,659.23,659.63,659.80,659.86,659.88,660.10,660.36,660.48,660.31,660.08,659.79,659.46,659.06,658.62,658.22,657.82
666.73,661.32,658.38,655.89,653.82,651.69,648.65,643.01,639.49,637.47,636.90,638.64,641.17,645.01,649.85,655.36,661.30,665.94,669.00,670.42,670.93,671.25,671.26,671.03,670.75,670.70,670.78,670.83,670.75,670.61,670.32,669.38,667.73,665.67,663.54,661.58,659.57,657.20,654.60,652.09,649.71,647.40,644.99,641.71,638.30,635.02,632.03,629.89,629.26,629.99,631.91,633.99,635.31,635.74,635.20,633.66,632.04,630.31,628.49,626.56,624.57,622.79,621.31,620.12,619.06,618.55,619.90,623.81,630.99,637.32,641.09,643.40,645.26,647.11,648.83,650.01,650.65,651.11,651.29,650.96,649.90,647.46,642.55,637.28,632.30,627.89,624.57,626.04,630.13,635.37,640.29,642.55,644.12,645.58,646.96,648.32,648.93,649.19,649.36,649.50,649.58,649.69,649.82,649.91,650.01,650.04,649.96,649.53,648.31,647.13,645.72,644.21,643.22,642.95,642.31,641.07,638.70,633.95,629.83,629.57,631.99,629.97,623.90,619.07,616.59,616.56,619.09,622.96,627.68,633.20,639.10,642.08,644.28,646.33,647.60,647.51,647.09,646.61,646.10,645.56,644.97,644.62,644.62,644.90,645.16,646.02,647.38,648.81,649.98,650.75,651.36,651.80,651.73,651.44,651.06,650.61,649.72,645.64,640.36,635.18,630.83,626.77,623.00,620.70,621.27,626.48,632.34,637.23,641.05,644.13,647.26,648.75,649.45,649.97,650.34,650.47,650.59,650.81,651.25,651.91,652.67,653.44,654.17,654.93,655.68,656.68,657.76,658.07,658.15,658.16,658.15,658.08,657.75,657.46,657.43,657.69,658.05,658.25,658.33,658.25,657.94,657.58,657.31,657.06,656.74,656.36,655.92,655.48,655.10,654.85,655.16,655.63,656.10,656.56,657.08,657.57,658.04,658.49,658.85,659.10,659.25,659.32,659.32,659.25,659.07,658.78,658.40,658.00,657.43,656.67,656.07,656.58,656.59,656.43,656.09,655.36,655.09,655.87,656.99,657.88,658.62,658.82,658.89,659.01,659.32,659.67,659.84,659.83,659.65,659.38,659.12,658.81,658.42,658.02,657.63,657.22
665.97,660.06,657.28,654.72,652.48,650.05,646.88,642.55,639.44,637.18,636.12,637.52,639.66,643.12,647.48,652.47,658.72,663.78,667.40,669.51,670.36,670.50,670.22,669.76,669.44,669.52,669.89,670.24,670.36,670.32,670.07,669.38,668.19,666.59,664.59,662.86,661.30,659.63,657.89,655.77,653.32,650.64,647.89,644.21,640.27,636.57,633.55,630.85,629.10,628.63,629.75,631.67,633.23,634.30,634.52,633.06,631.52,629.69,627.69,625.66,623.69,622.11,620.72,619.38,618.08,618.49,621.71,627.27,633.85,638.84,641.49,643.16,644.87,646.63,648.36,649.52,650.11,650.56,650.80,650.38,648.94,645.84,641.42,636.39,631.52,627.28,624.12,625.98,630.39,635.67,640.20,642.18,643.60,644.99,646.38,647.76,648.46,648.79,648.92,648.97,649.01,649.12,649.25,649.33,649.44,649.47,649.28,648.64,647.24,645.94,644.50,642.93,641.52,640.77,639.85,638.57,636.54,632.78,627.91,626.74,629.15,628.59,623.57,619.25,616.65,615.78,618.12,621.99,626.87,632.72,639.00,642.00,644.09,645.88,646.50,646.26,645.82,645.36,644.95,644.62,644.07,643.60,643.42,643.69,644.23,645.38,646.90,648.33,649.49,650.29,650.84,651.13,651.05,650.84,650.34,649.48,647.99,644.06,638.80,632.98,627.30,623.19,620.76,619.83,621.39,627.69,634.38,639.72,643.81,647.16,649.40,650.25,650.47,650.56,650.71,650.80,650.93,651.16,651.53,652.08,652.83,653.66,654.44,655.24,655.99,656.76,657.45,657.56,657.57,657.57,657.57,657.54,657.26,657.01,656.96,657.21,657.55,657.75,657.84,657.80,657.49,657.11,656.76,656.44,656.15,655.78,655.33,654.90,654.53,654.23,654.56,655.04,655.51,656.01,656.52,656.99,657.47,657.96,658.38,658.65,658.81,658.86,658.81,658.65,658.37,658.02,657.67,657.28,656.84,656.20,655.58,655.86,655.81,655.63,655.32,654.75,654.84,655.62,656.57,657.31,657.90,658.04,658.16,658.47,658.91,659.25,659.37,659.29,659.02,658.71,658.43,658.15,657.81,657.40,657.00,656.62
665.23,659.18,656.22,653.23,650.55,647.63,644.26,641.33,638.88,636.77,635.59,636.77,638.77,641.93,645.83,650.37,656.58,661.71,665.57,668.09,669.25,669.28,668.74,668.08,667.76,667.99,668.67,669.33,669.64,669.80,669.63,669.17,668.45,667.34,665.60,664.05,662.77,661.62,660.67,659.08,656.74,653.73,650.63,646.72,642.23,637.96,635.06,632.11,629.53,627.96,628.03,629.63,631.34,632.88,633.65,632.37,630.92,628.96,626.71,624.48,622.35,620.86,619.63,618.42,617.34,618.91,624.01,630.99,636.57,639.93,641.63,642.96,644.65,646.38,648.00,649.07,649.59,650.01,650.23,649.57,647.70,644.21,640.16,635.34,630.57,626.53,623.96,626.30,631.03,636.29,640.16,641.82,643.13,644.47,645.82,647.17,647.99,648.39,648.47,648.41,648.46,648.59,648.72,648.83,648.96,649.00,648.69,647.81,646.39,644.93,643.43,641.89,640.33,639.03,637.69,636.22,634.39,631.66,626.20,623.90,625.75,626.44,623.40,619.91,616.93,615.15,617.31,621.18,626.19,632.34,638.92,641.92,643.93,645.42,645.29,644.86,644.38,643.96,643.68,643.60,643.14,642.61,642.28,642.52,643.44,644.84,646.44,647.87,648.94,649.67,650.12,650.29,650.32,650.14,649.38,647.94,645.73,642.33,637.45,631.48,625.15,620.83,619.66,619.98,621.99,628.02,635.72,641.63,645.83,649.22,650.37,650.69,650.79,650.88,651.03,651.13,651.29,651.54,651.86,652.29,652.98,653.79,654.57,655.41,656.20,656.75,656.98,657.00,657.00,657.00,657.00,656.97,656.78,656.56,656.51,656.75,657.04,657.23,657.35,657.35,657.03,656.65,656.22,655.84,655.57,655.19,654.76,654.33,653.95,653.61,653.96,654.46,654.94,655.47,655.95,656.42,656.91,657.43,657.90,658.21,658.37,658.39,658.27,657.99,657.63,657.27,656.94,656.56,656.17,655.66,655.14,655.13,655.01,654.82,654.53,654.13,654.53,655.27,656.05,656.70,657.16,657.30,657.56,658.05,658.57,658.84,658.90,658.76,658.39,658.07,657.76,657.48,657.19,656.77,656.37,656.06
664.82,659.33,655.94,652.58,649.28,646.14,643.25,640.51,638.15,635.95,634.71,636.40,638.44,641.63,645.61,649.99,654.83,659.75,663.52,665.58,666.48,666.63,666.19,665.60,665.55,665.91,666.66,667.45,668.10,668.89,668.98,668.63,668.02,667.22,666.29,665.25,664.13,662.98,661.89,660.70,658.84,656.05,652.79,648.94,643.89,638.88,636.17,633.41,630.73,628.34,626.90,627.97,629.85,631.48,632.27,631.55,630.17,628.13,625.77,623.42,621.14,619.35,617.99,617.25,617.69,620.73,626.64,633.73,638.78,640.90,642.14,643.31,644.64,646.16,647.58,648.55,649.05,649.37,649.32,648.04,645.79,642.82,638.77,634.00,629.25,625.54,624.89,627.79,632.79,637.95,640.54,641.90,643.04,644.19,645.36,646.56,647.50,647.93,647.89,647.83,647.88,648.00,648.17,648.35,648.46,648.49,648.07,646.98,645.55,644.08,642.63,641.27,640.04,638.33,636.57,634.73,632.72,630.68,625.60,621.89,621.28,622.33,622.20,620.20,617.18,614.96,616.85,620.62,625.83,632.38,638.88,641.74,643.70,644.99,643.94,643.23,642.70,642.39,642.38,642.47,642.16,641.65,641.22,641.39,642.62,644.26,645.95,647.43,648.26,648.64,648.79,648.91,649.32,649.29,648.31,646.40,643.79,640.99,636.40,630.25,623.65,620.17,619.60,620.82,623.74,628.98,636.81,643.01,647.12,649.81,650.61,650.93,651.12,651.21,651.36,651.49,651.68,651.93,652.24,652.58,653.17,653.92,654.70,655.54,656.08,656.35,656.40,656.40,656.40,656.40,656.40,656.39,656.29,656.10,656.06,656.29,656.53,656.71,656.86,656.88,656.58,656.15,655.73,655.35,654.99,654.61,654.21,653.81,653.42,653.09,653.40,653.87,654.36,654.89,655.36,655.87,656.37,656.86,657.38,657.76,657.95,657.90,657.65,657.30,656.91,656.54,656.17,655.78,655.39,654.98,654.57,654.34,654.17,654.01,653.78,653.53,654.05,654.76,655.45,656.04,656.40,656.71,657.15,657.73,658.23,658.42,658.35,658.13,657.79,657.43,657.11,656.80,656.50,656.16,655.78,655.60
665.21,660.37,656.58,652.89,649.01,645.40,642.42,639.79,637.42,635.21,634.07,636.01,638.05,641.12,645.08,649.53,653.68,657.63,660.75,662.65,663.42,663.68,663.47,663.15,663.33,663.84,664.62,665.50,666.40,667.44,667.97,667.95,667.48,666.82,666.17,665.40,664.52,663.55,662.58,661.47,659.79,657.27,654.01,650.41,645.23,639.80,636.94,634.23,631.65,629.08,626.83,626.33,628.05,629.96,630.99,630.54,629.18,627.17,624.86,622.50,620.14,618.07,616.88,617.00,618.49,622.88,629.21,635.75,639.85,641.38,642.47,643.62,644.83,646.14,647.07,647.66,648.01,648.21,647.87,646.26,643.93,641.33,637.02,632.11,627.52,624.68,626.46,630.18,634.98,639.39,641.02,642.18,643.25,644.31,645.39,646.48,647.15,647.38,647.30,647.21,647.28,647.44,647.63,647.82,647.93,647.97,647.44,646.18,644.85,643.56,642.31,641.14,640.04,638.20,636.18,634.07,631.84,629.55,624.36,620.07,618.48,619.33,619.63,618.33,616.23,615.06,617.05,620.95,626.31,632.85,638.98,641.69,643.30,644.07,642.61,641.60,641.06,640.91,641.11,641.27,641.09,640.60,640.15,640.71,642.18,643.92,645.46,646.34,646.58,646.65,646.69,646.81,647.29,647.61,647.16,645.70,643.07,640.39,635.68,629.10,622.10,619.71,620.24,622.53,626.28,631.19,638.22,644.00,647.90,650.04,650.68,651.06,651.35,651.52,651.68,651.86,652.05,652.29,652.62,652.91,653.39,654.05,654.79,655.40,655.68,655.78,655.79,655.82,655.82,655.82,655.82,655.82,655.78,655.63,655.59,655.79,656.02,656.19,656.35,656.39,656.08,655.67,655.27,654.87,654.45,654.03,653.64,653.25,652.87,652.52,652.82,653.31,653.81,654.31,654.81,655.31,655.82,656.32,656.82,657.28,657.44,657.26,656.93,656.58,656.20,655.82,655.44,655.08,654.70,654.31,653.95,653.67,653.50,653.32,653.13,653.01,653.55,654.19,654.83,655.43,655.83,656.26,656.80,657.40,657.90,657.97,657.79,657.49,657.17,656.82,656.50,656.18,655.84,655.53,655.16,655.12
666.08,661.80,657.65,653.69,649.36,645.19,641.71,639.09,636.66,634.53,633.57,635.58,637.58,640.34,644.07,648.62,652.37,654.98,657.15,658.98,659.86,660.25,660.41,660.55,660.96,661.68,662.59,663.59,664.66,665.75,666.76,667.17,666.91,666.28,665.60,664.94,664.28,663.56,662.85,661.68,660.06,657.79,654.61,651.30,646.27,640.73,637.50,634.80,632.39,629.95,627.37,625.03,626.23,628.27,629.62,629.32,628.03,626.13,623.94,621.63,619.26,617.00,616.17,617.36,619.59,625.01,631.48,637.25,640.26,641.60,642.69,643.87,645.05,646.07,646.39,646.52,646.68,646.77,646.19,644.49,642.24,639.73,634.92,629.84,625.74,624.29,628.30,632.78,637.11,640.49,641.50,642.57,643.61,644.64,645.68,646.58,646.82,646.79,646.70,646.58,646.69,646.88,647.09,647.25,647.40,647.45,646.86,645.51,644.35,643.30,642.27,641.26,640.15,638.34,636.16,633.85,631.40,628.32,622.84,618.45,616.67,616.94,616.52,615.71,615.14,615.74,618.06,622.21,627.58,633.71,639.21,641.71,642.81,642.88,641.33,640.05,639.48,639.47,639.78,639.90,639.74,639.38,639.24,640.42,642.03,643.68,644.85,644.86,644.44,644.25,644.22,644.31,644.69,645.45,645.88,645.38,643.11,640.38,635.31,628.18,620.76,619.37,621.03,624.33,628.76,633.73,639.60,644.64,648.29,650.09,650.68,651.11,651.50,651.79,651.99,652.22,652.42,652.63,653.00,653.25,653.63,654.16,654.80,655.08,655.15,655.16,655.17,655.23,655.24,655.24,655.24,655.24,655.24,655.14,655.12,655.29,655.51,655.68,655.83,655.87,655.57,655.19,654.80,654.39,653.94,653.49,653.07,652.68,652.29,651.95,652.24,652.75,653.26,653.74,654.26,654.76,655.25,655.78,656.27,656.79,656.90,656.57,656.20,655.88,655.51,655.13,654.75,654.43,654.06,653.67,653.32,653.09,652.92,652.73,652.55,652.57,653.08,653.65,654.26,654.90,655.38,655.90,656.48,657.07,657.53,657.49,657.20,656.85,656.53,656.21,655.90,655.57,655.21,654.88,654.54,654.63
667.13,662.88,658.53,654.49,650.11,645.55,641.30,638.33,635.79,633.81,633.10,635.06,636.93,638.99,641.92,646.08,648.99,650.51,651.67,653.00,654.56,655.38,656.22,657.16,657.93,659.14,660.59,661.96,663.09,664.24,665.44,666.23,666.37,665.71,665.02,664.37,663.73,663.03,662.34,661.38,659.94,657.78,654.66,651.50,646.90,641.69,637.99,635.34,633.05,630.70,628.08,625.30,625.01,626.17,627.64,627.74,626.63,624.90,622.91,620.77,618.41,616.13,615.80,618.06,621.02,626.45,632.65,638.03,640.54,641.84,642.89,643.99,645.00,645.25,645.22,645.19,645.26,645.35,644.78,643.31,641.11,637.89,632.15,627.24,624.67,625.52,629.87,634.31,638.11,640.84,641.89,642.91,643.96,645.01,645.91,646.26,646.24,646.15,646.07,645.99,646.14,646.34,646.51,646.66,646.87,646.93,646.47,645.39,644.35,643.34,642.33,641.33,640.22,638.33,636.07,633.70,631.05,627.07,621.73,617.42,615.10,614.33,614.31,615.04,616.34,618.17,620.95,625.21,630.19,635.29,639.64,641.74,642.27,641.67,640.19,638.86,638.10,637.88,638.09,637.95,637.41,637.68,639.09,640.81,642.27,643.27,643.68,643.29,642.77,642.30,641.94,641.79,642.12,643.16,644.17,644.60,643.57,641.11,635.72,628.14,620.51,619.30,620.97,624.38,629.23,634.79,640.09,644.66,648.18,650.07,650.68,651.09,651.48,651.84,652.21,652.52,652.77,653.02,653.39,653.64,653.92,654.22,654.52,654.61,654.63,654.63,654.63,654.65,654.65,654.65,654.65,654.65,654.65,654.63,654.66,654.83,655.05,655.23,655.35,655.37,655.11,654.69,654.28,653.89,653.48,653.08,652.61,652.15,651.77,651.42,651.68,652.16,652.68,653.15,653.69,654.17,654.67,655.21,655.78,656.33,656.39,655.99,655.66,655.29,654.92,654.53,654.16,653.84,653.47,653.09,652.74,652.55,652.40,652.23,652.12,652.26,652.76,653.34,653.93,654.51,655.03,655.57,656.15,656.71,657.04,656.89,656.58,656.24,655.88,655.57,655.26,654.94,654.61,654.25,654.04,654.28
668.48,664.19,659.46,655.29,650.94,646.13,641.21,637.94,635.21,633.18,632.47,634.30,636.10,637.83,639.98,642.90,645.02,646.22,647.14,648.10,649.26,650.14,651.48,653.10,654.43,656.15,658.32,660.38,661.94,663.16,664.41,665.40,665.80,665.13,664.43,663.77,663.11,662.41,661.72,660.91,659.57,657.39,654.41,651.36,647.09,642.22,638.48,635.91,633.66,631.35,628.78,625.80,624.08,624.21,625.54,625.94,625.17,623.72,621.90,619.80,617.37,615.56,615.88,618.78,622.40,627.58,633.25,638.18,640.58,641.85,642.88,643.78,644.31,644.16,643.97,643.86,643.87,643.94,643.50,642.27,639.97,635.96,630.10,625.38,623.79,626.12,630.38,634.75,638.39,640.96,642.15,643.25,644.32,645.22,645.75,645.75,645.62,645.49,645.40,645.40,645.61,645.80,645.96,646.12,646.34,646.45,646.10,645.18,644.22,643.24,642.25,641.25,640.14,638.03,635.66,633.27,630.46,625.69,620.54,616.33,613.86,613.67,614.66,616.52,618.88,621.47,624.49,628.25,632.51,636.84,640.03,641.36,641.38,640.55,639.30,638.00,637.06,636.54,636.38,636.06,635.59,636.59,639.08,640.81,641.80,642.24,642.20,641.68,641.04,640.35,639.75,639.49,639.98,641.06,642.17,643.09,643.44,641.61,636.01,628.06,620.44,619.17,620.33,623.40,628.45,634.75,640.12,644.60,648.08,650.03,650.65,651.03,651.42,651.81,652.24,652.60,652.85,653.05,653.32,653.54,653.75,653.96,654.10,654.11,654.11,654.11,654.11,654.11,654.11,654.11,654.11,654.11,654.11,654.13,654.20,654.37,654.57,654.73,654.86,654.91,654.74,654.28,653.82,653.41,653.00,652.61,652.15,651.69,651.25,650.90,651.12,651.58,652.11,652.60,653.13,653.66,654.19,654.75,655.36,655.89,655.91,655.47,655.10,654.72,654.33,653.95,653.57,653.26,652.89,652.51,652.20,652.06,651.91,651.76,651.70,651.95,652.44,653.03,653.63,654.19,654.71,655.27,655.85,656.36,656.55,656.30,655.96,655.62,655.27,654.95,654.65,654.33,653.98,653.65,653.65,654.03
670.00,665.65,660.41,656.09,651.86,646.99,641.58,637.85,634.75,632.50,631.68,633.33,635.06,636.74,638.24,639.49,640.94,642.32,643.43,644.08,644.10,644.63,646.14,648.24,650.29,652.61,655.69,658.77,661.12,662.44,663.61,664.65,665.20,664.54,663.85,663.16,662.47,661.77,661.07,660.30,658.91,656.65,653.91,650.99,646.99,642.50,639.00,636.54,634.26,631.94,629.45,626.34,623.48,622.56,623.43,623.98,623.63,622.52,620.85,618.68,616.14,615.21,616.30,619.46,623.66,628.50,633.48,637.87,640.37,641.60,642.64,643.28,643.20,642.96,642.72,642.55,642.49,642.53,642.28,641.19,638.70,634.08,628.82,624.37,623.12,625.95,629.92,634.30,638.13,640.95,642.31,643.56,644.59,645.20,645.23,645.10,644.95,644.80,644.70,644.78,645.05,645.27,645.44,645.61,645.82,645.99,645.72,644.87,643.94,643.01,642.04,641.07,639.98,637.55,635.01,632.52,629.51,624.18,619.26,615.22,612.99,614.58,616.86,619.40,622.15,625.12,628.14,631.04,634.40,638.13,640.19,640.57,640.20,639.50,638.58,637.35,636.31,635.46,634.78,634.34,634.23,635.79,638.71,640.05,640.44,640.48,640.31,639.76,639.05,638.26,637.61,637.43,638.24,639.18,640.10,641.22,642.79,641.76,636.18,628.03,620.45,618.97,619.41,621.95,627.04,634.04,639.87,644.54,648.06,649.98,650.59,650.97,651.35,651.74,652.13,652.50,652.71,652.80,652.91,653.05,653.25,653.44,653.58,653.60,653.60,653.60,653.60,653.59,653.59,653.59,653.59,653.59,653.60,653.65,653.75,653.90,654.06,654.21,654.36,654.48,654.43,653.92,653.40,652.94,652.49,652.09,651.70,651.25,650.75,650.38,650.57,651.01,651.55,652.10,652.63,653.22,653.80,654.36,654.96,655.46,655.46,655.00,654.54,654.13,653.75,653.37,653.00,652.67,652.30,651.95,651.70,651.59,651.45,651.30,651.27,651.61,652.12,652.71,653.33,653.92,654.41,654.98,655.56,656.00,656.05,655.75,655.36,655.00,654.68,654.37,654.06,653.72,653.35,653.07,653.32,653.84
671.19,666.78,661.25,656.83,652.99,648.63,643.17,637.71,633.55,631.18,630.73,632.14,633.65,635.03,636.13,636.92,637.90,638.99,639.47,639.20,638.97,638.62,639.52,641.61,644.35,647.83,652.26,656.79,660.38,661.69,662.80,663.86,664.52,663.95,663.27,662.57,661.88,661.17,660.43,659.27,657.58,655.39,653.06,650.47,647.03,643.11,639.68,637.25,634.99,632.64,630.02,626.73,623.58,621.81,621.55,621.88,621.83,621.00,619.42,617.15,614.71,614.85,616.72,619.97,624.58,629.32,633.67,637.38,639.88,640.99,641.93,642.50,642.34,641.94,641.58,641.29,641.12,641.13,640.96,639.58,636.86,632.81,628.47,624.53,622.98,624.85,628.62,633.32,637.65,640.90,642.33,643.68,644.39,644.60,644.49,644.34,644.18,644.06,643.99,644.09,644.40,644.69,644.93,645.13,645.32,645.48,645.28,644.54,643.62,642.70,641.78,640.91,639.92,637.29,634.33,631.22,627.57,622.57,618.13,614.49,612.75,615.56,618.59,621.65,624.73,627.75,630.48,633.03,635.73,638.32,639.34,639.29,638.99,638.59,637.81,636.71,635.67,634.67,633.71,633.09,632.84,633.86,635.92,637.05,637.33,637.37,637.15,636.41,636.14,635.57,635.28,635.76,636.70,637.64,638.78,640.28,642.02,641.38,636.57,628.76,620.50,618.76,619.06,621.61,626.82,633.80,639.67,644.57,648.28,650.00,650.59,650.93,651.29,651.68,652.05,652.28,652.41,652.49,652.57,652.67,652.79,652.94,653.12,653.13,653.13,653.13,653.13,653.08,653.07,653.07,653.07,653.08,653.17,653.22,653.28,653.39,653.54,653.65,653.81,653.99,654.04,653.58,653.01,652.48,652.02,651.58,651.22,650.82,650.32,649.83,650.06,650.54,651.10,651.68,652.23,652.83,653.41,653.97,654.58,655.04,655.00,654.53,654.02,653.57,653.16,652.79,652.46,652.10,651.72,651.41,651.22,651.09,650.94,650.81,650.85,651.27,651.79,652.38,653.02,653.66,654.14,654.68,655.24,655.64,655.55,655.22,654.80,654.40,654.10,653.79,653.44,653.10,652.76,652.50,652.99,653.67
672.65,668.35,662.84,658.07,654.38,650.49,645.37,638.96,633.53,630.47,629.84,630.80,631.94,633.04,633.94,634.54,635.17,635.77,635.59,634.58,633.98,633.23,633.53,635.03,637.85,642.74,648.73,654.71,659.42,661.07,662.19,663.20,663.80,663.21,662.50,661.80,661.11,660.44,659.76,658.42,656.65,654.63,652.57,650.23,647.18,643.72,640.59,638.17,635.84,633.36,630.52,627.13,623.79,621.04,619.40,619.50,619.47,618.76,617.34,615.36,613.91,615.10,617.56,620.91,625.92,630.25,633.84,636.85,639.25,640.29,641.09,641.59,641.55,641.08,639.89,638.44,637.25,637.15,637.34,636.63,634.69,631.38,627.99,624.63,622.79,623.65,627.39,632.51,637.33,640.88,642.28,643.65,644.01,643.86,643.69,643.53,643.38,643.31,643.36,643.41,643.70,644.04,644.37,644.61,644.80,644.98,644.85,644.23,643.36,642.49,641.68,640.93,640.05,637.61,634.20,630.34,626.17,621.42,617.24,614.00,612.92,616.48,619.93,623.21,626.35,629.18,631.48,633.55,635.44,636.94,637.44,637.45,637.33,637.09,636.57,635.84,634.90,633.83,632.76,632.03,631.60,631.70,632.32,632.90,633.07,633.16,633.06,632.57,633.02,633.09,633.35,634.26,635.22,636.40,638.01,639.84,641.08,640.15,635.93,628.81,620.50,618.53,618.97,622.07,627.81,634.17,639.85,645.02,648.92,650.11,650.59,650.91,651.25,651.62,651.89,651.99,652.04,652.11,652.21,652.28,652.36,652.47,652.63,652.65,652.65,652.65,652.63,652.56,652.55,652.55,652.56,652.62,652.74,652.78,652.81,652.88,653.04,653.13,653.27,653.48,653.59,653.24,652.69,652.11,651.60,651.11,650.74,650.33,649.82,649.29,649.51,650.08,650.73,651.30,651.84,652.43,653.02,653.58,654.18,654.60,654.54,654.04,653.53,653.06,652.63,652.24,651.88,651.51,651.15,650.88,650.73,650.57,650.42,650.34,650.44,650.94,651.49,652.09,652.73,653.37,653.87,654.38,654.91,655.28,655.06,654.70,654.26,653.85,653.51,653.18,652.82,652.48,652.21,652.08,652.71,653.49
674.49,670.44,665.31,659.96,656.05,652.44,647.93,641.74,635.09,630.72,629.14,629.40,630.00,630.86,631.66,632.14,632.48,632.51,631.82,630.44,629.33,628.84,628.71,629.20,631.51,637.70,645.25,652.54,658.17,660.57,661.83,662.68,663.03,662.31,661.55,660.84,660.18,659.58,659.07,657.84,656.24,654.45,652.51,650.30,647.46,644.33,641.71,639.29,636.80,634.06,630.93,627.50,623.93,620.12,616.96,616.72,616.44,615.77,614.71,613.56,613.99,616.10,618.91,622.44,627.71,631.25,633.93,636.32,638.50,639.57,640.14,640.49,640.58,640.00,637.24,633.69,630.76,630.50,631.26,632.19,632.01,629.51,627.04,624.27,622.35,622.65,626.64,632.21,637.31,640.92,642.18,643.44,643.50,643.07,642.85,642.69,642.54,642.60,642.80,642.77,642.96,643.32,643.73,644.02,644.26,644.49,644.45,643.98,643.18,642.45,641.77,641.14,640.37,638.55,634.77,630.16,625.65,620.90,616.65,613.73,613.33,617.23,620.80,623.98,626.85,629.28,631.06,632.39,633.37,634.00,634.58,635.04,635.12,634.92,634.80,634.71,633.97,632.88,631.85,631.07,630.32,629.28,628.14,627.78,627.69,627.85,628.06,628.34,629.65,630.79,631.82,632.87,633.81,635.42,637.59,639.59,639.85,638.02,634.03,627.82,620.36,618.32,619.23,623.32,629.87,635.14,640.48,645.90,649.90,650.28,650.60,650.91,651.24,651.55,651.61,651.62,651.63,651.66,651.80,651.88,651.97,652.05,652.13,652.13,652.13,652.13,652.12,652.05,652.03,652.04,652.09,652.22,652.30,652.33,652.33,652.38,652.57,652.63,652.75,652.96,653.09,652.91,652.43,651.82,651.21,650.66,650.23,649.77,649.24,648.75,648.90,649.60,650.44,650.93,651.47,652.05,652.64,653.19,653.79,654.17,654.06,653.54,653.07,652.60,652.14,651.69,651.25,650.92,650.60,650.35,650.19,650.03,649.88,649.86,650.06,650.62,651.22,651.83,652.45,653.07,653.61,654.09,654.59,654.91,654.57,654.19,653.75,653.32,652.93,652.55,652.22,651.90,651.67,651.82,652.47,653.28
676.34,672.57,668.14,662.57,658.05,654.14,650.00,644.53,637.97,632.53,629.25,628.66,628.32,628.52,628.90,629.03,628.99,628.61,627.86,626.86,626.19,626.14,626.11,626.48,628.74,634.10,642.02,650.11,656.40,659.97,661.47,662.07,662.11,661.35,660.62,660.00,659.44,658.89,658.41,657.17,655.58,653.86,652.07,650.36,648.03,645.29,642.76,640.35,637.65,634.65,631.25,627.30,623.51,619.04,614.61,612.97,612.63,612.80,613.11,613.59,615.16,617.67,620.79,624.52,628.89,631.59,633.68,635.69,637.66,638.85,638.96,638.72,638.23,636.01,631.81,627.73,625.09,624.94,625.45,626.66,627.43,626.37,624.73,622.51,621.34,622.72,627.79,633.56,638.12,641.03,642.22,643.04,642.85,642.31,642.01,641.85,641.80,641.97,642.21,642.13,642.26,642.58,643.00,643.38,643.68,643.92,643.99,643.76,643.21,642.58,641.97,641.39,640.72,639.64,636.14,631.31,626.28,621.08,616.65,613.56,613.02,617.10,620.62,623.54,625.97,627.82,629.15,629.70,630.07,630.67,631.63,632.23,632.55,632.71,632.93,633.69,633.14,631.93,630.91,629.67,627.58,625.30,623.25,621.80,621.29,621.59,622.32,623.26,624.94,627.34,629.69,631.44,632.64,634.30,636.30,637.93,637.55,635.30,631.23,625.65,619.70,618.39,620.80,625.57,631.51,636.15,641.52,646.64,650.13,650.36,650.62,650.85,651.08,651.28,651.29,651.26,651.21,651.20,651.31,651.43,651.52,651.60,651.66,651.62,651.61,651.61,651.61,651.58,651.53,651.57,651.68,651.82,651.87,651.88,651.88,651.91,652.07,652.11,652.20,652.40,652.57,652.57,652.17,651.54,650.87,650.19,649.59,649.05,648.56,648.11,648.26,649.09,650.15,650.70,651.20,651.74,652.31,652.85,653.41,653.70,653.56,653.08,652.61,652.11,651.63,651.16,650.71,650.30,649.96,649.70,649.50,649.30,649.13,649.22,649.60,650.32,650.96,651.57,652.19,652.80,653.39,653.85,654.26,654.47,654.06,653.67,653.26,652.84,652.41,652.01,651.66,651.29,651.10,651.51,652.25,653.09
677.90,674.38,670.46,665.04,660.03,655.75,651.96,647.43,641.58,635.76,631.19,629.41,628.27,627.91,627.89,627.78,627.62,627.01,626.15,625.19,624.37,624.09,623.95,624.28,626.28,631.00,639.05,647.62,654.52,659.34,661.05,661.44,661.23,660.51,659.83,659.27,658.76,658.24,657.76,656.50,654.88,653.22,651.69,650.43,648.56,646.13,643.64,641.21,638.31,635.05,631.38,626.93,622.67,617.55,612.39,610.41,610.36,611.37,612.83,614.49,616.59,619.24,622.45,626.11,629.58,631.70,633.47,635.27,637.02,637.83,637.30,636.44,635.21,630.65,626.12,622.80,621.09,621.05,621.31,622.22,623.14,623.08,622.26,621.31,621.86,624.97,630.32,635.61,639.22,641.22,642.27,642.55,642.12,641.53,641.18,641.03,641.12,641.38,641.64,641.49,641.55,641.83,642.25,642.68,643.04,643.28,643.39,643.33,643.02,642.53,642.06,641.57,640.96,640.36,637.36,632.77,627.51,621.87,616.93,613.28,612.21,616.04,619.80,622.58,624.50,625.77,626.65,626.67,626.62,627.02,627.82,628.19,628.55,629.12,630.13,632.15,632.15,630.84,629.28,627.31,623.91,620.39,617.52,615.75,615.15,615.48,616.40,617.81,620.16,623.70,627.18,629.75,631.43,633.11,634.90,636.14,635.19,632.33,627.86,622.76,618.58,618.60,622.53,627.83,633.17,637.60,642.73,646.99,649.62,650.09,650.44,650.67,650.83,650.93,650.94,650.90,650.83,650.78,650.83,650.94,651.03,651.10,651.17,651.13,651.09,651.08,651.09,651.09,651.06,651.13,651.28,651.40,651.42,651.42,651.41,651.43,651.56,651.59,651.67,651.84,652.05,652.18,651.87,651.27,650.58,649.80,649.02,648.35,647.82,647.38,647.65,648.59,649.74,650.45,650.97,651.48,652.00,652.52,653.03,653.28,653.15,652.70,652.23,651.70,651.21,650.74,650.25,649.69,649.30,649.01,648.75,648.49,648.36,648.60,649.20,650.04,650.70,651.31,651.93,652.55,653.16,653.56,653.86,654.00,653.61,653.22,652.82,652.40,651.94,651.53,651.13,650.73,650.57,651.20,652.01,652.87
678.91,675.65,671.87,667.12,661.92,657.35,653.90,650.47,645.87,640.68,635.71,632.38,630.76,630.09,629.81,629.69,629.80,629.17,627.98,626.32,624.24,622.62,621.89,621.97,623.22,628.23,636.43,645.18,652.66,658.61,660.52,660.78,660.48,659.85,659.22,658.66,658.12,657.59,657.12,655.85,654.25,652.68,651.51,650.55,648.92,646.67,644.25,641.78,638.67,635.16,631.28,626.46,621.32,615.50,610.43,609.98,610.67,612.23,614.16,616.05,618.00,620.57,623.55,626.74,629.67,631.69,633.43,635.16,636.69,636.35,635.01,633.66,631.66,624.40,621.15,619.93,619.47,619.52,619.98,620.30,620.43,620.47,620.43,621.70,625.00,630.11,634.32,638.14,640.44,641.49,642.26,641.98,641.31,640.69,640.34,640.24,640.50,640.87,641.10,640.85,640.81,641.09,641.53,641.94,642.36,642.55,642.61,642.58,642.40,642.15,641.91,641.61,641.01,640.46,638.09,634.25,629.30,623.43,617.61,613.00,611.00,613.84,618.15,621.03,622.48,623.25,623.70,623.59,623.29,623.03,622.79,622.51,622.62,623.52,625.93,629.76,630.88,629.54,626.63,623.65,619.31,614.69,611.03,610.16,610.03,610.18,610.73,612.32,615.83,620.22,624.39,627.69,630.01,631.85,633.57,634.59,633.09,629.08,623.93,619.27,617.04,618.98,624.10,629.80,634.99,639.58,643.90,646.67,648.19,649.24,649.90,650.25,650.46,650.55,650.56,650.55,650.51,650.43,650.39,650.44,650.48,650.53,650.66,650.67,650.56,650.51,650.55,650.57,650.63,650.75,650.88,650.95,650.97,650.97,650.93,650.91,651.04,651.08,651.15,651.31,651.47,651.67,651.50,651.03,650.38,649.57,648.63,647.76,647.06,646.59,647.12,648.09,649.18,650.15,650.75,651.24,651.71,652.19,652.65,652.93,652.84,652.43,651.97,651.44,650.96,650.47,649.90,649.13,648.63,648.27,647.95,647.62,647.60,648.08,648.89,649.77,650.44,651.06,651.67,652.29,652.88,653.17,653.38,653.51,653.26,652.90,652.48,652.02,651.55,651.10,650.64,650.24,650.16,650.92,651.77,652.62
678.39,676.33,672.90,669.38,664.31,659.34,655.74,652.90,649.67,645.68,641.28,637.64,635.35,634.15,633.48,633.02,632.98,632.20,630.75,628.66,625.97,623.30,621.53,620.72,621.30,626.08,634.40,643.42,651.05,656.56,659.32,660.16,659.82,659.24,658.63,658.06,657.51,656.94,656.47,655.20,653.78,652.56,651.56,650.65,649.11,646.97,644.53,642.02,638.88,635.29,631.19,625.88,619.50,613.71,609.90,609.90,610.99,612.69,614.64,616.57,618.46,620.88,623.65,626.61,629.35,631.39,633.19,634.92,636.28,635.32,633.63,631.61,628.48,621.92,619.58,619.15,619.32,620.12,623.80,625.50,625.41,625.12,624.95,626.82,630.22,634.40,637.55,639.72,641.00,641.63,641.75,641.33,640.63,639.95,639.53,639.59,639.94,640.32,640.51,640.20,640.11,640.42,640.93,641.34,641.61,641.73,641.78,641.78,641.74,641.59,641.41,641.23,640.89,640.41,638.53,635.35,630.98,625.83,620.38,615.39,611.88,611.73,614.16,616.86,618.93,619.90,620.23,620.07,619.70,619.21,618.66,618.14,618.13,618.99,621.58,626.89,629.65,628.78,624.39,620.16,615.13,611.00,608.77,608.77,608.86,608.85,609.06,610.21,613.25,617.96,622.42,625.59,628.07,630.24,632.07,632.97,631.14,625.29,620.38,617.45,617.12,620.42,626.20,631.93,636.57,640.18,642.90,644.68,645.94,647.15,648.14,649.01,649.73,650.19,650.27,650.28,650.24,650.14,649.99,649.88,649.87,649.97,650.14,650.16,650.01,649.84,649.76,649.93,650.16,650.36,650.48,650.51,650.51,650.48,650.44,650.43,650.53,650.56,650.61,650.72,650.84,650.98,650.98,650.77,650.27,649.50,648.52,647.52,646.63,646.04,646.70,647.71,648.76,649.78,650.44,650.91,651.35,651.80,652.22,652.46,652.40,652.09,651.70,651.26,650.83,650.35,649.74,648.91,648.15,647.55,647.13,646.83,647.17,647.84,648.65,649.48,650.21,650.85,651.49,652.09,652.38,652.60,652.80,652.93,652.90,652.65,652.25,651.77,651.27,650.80,650.28,649.87,649.88,650.79,651.70,652.57
676.89,676.20,673.63,671.14,666.69,661.76,657.79,655.25,653.00,650.05,646.44,643.05,640.25,638.50,637.40,636.62,636.30,635.16,633.31,630.82,627.78,624.47,621.75,619.99,620.09,624.49,632.82,641.99,649.56,654.41,657.73,659.23,659.17,658.63,658.04,657.48,656.91,656.32,655.82,654.68,653.51,652.58,651.65,650.73,649.24,647.18,644.68,642.14,639.04,635.46,631.24,625.54,618.07,612.36,609.75,609.90,611.19,612.92,614.79,616.68,618.53,620.76,623.32,626.09,628.74,630.89,632.79,634.52,635.73,634.47,632.69,630.12,626.00,620.79,619.08,619.01,619.87,622.37,628.07,630.73,630.78,630.48,630.35,632.32,635.10,637.76,639.77,640.62,641.14,641.44,641.06,640.62,640.00,639.30,638.83,638.99,639.39,639.75,639.89,639.57,639.44,639.78,640.32,640.69,640.81,640.89,640.96,641.02,641.08,640.97,640.82,640.69,640.57,640.19,638.62,635.96,632.34,628.28,623.75,618.98,614.48,611.51,611.16,612.74,614.82,615.85,616.12,615.99,615.66,615.20,614.67,614.17,614.17,615.05,617.68,623.77,627.76,627.42,622.00,616.65,611.66,608.71,608.33,609.24,609.62,609.28,608.82,609.26,611.30,615.76,620.25,623.37,625.86,628.16,630.15,631.02,628.67,621.88,617.52,616.18,617.64,622.09,628.22,633.81,637.89,640.45,641.88,643.06,644.26,645.47,646.67,647.92,649.05,649.81,649.94,649.95,649.88,649.75,649.53,649.30,649.26,649.39,649.59,649.60,649.43,649.18,649.01,649.28,649.64,649.90,650.04,650.06,650.04,649.98,649.93,649.93,650.00,650.01,650.05,650.11,650.17,650.28,650.41,650.44,650.13,649.37,648.36,647.26,646.21,645.51,646.23,647.26,648.29,649.33,650.09,650.58,650.99,651.43,651.81,652.02,651.98,651.73,651.41,651.03,650.65,650.18,649.49,648.64,647.68,646.88,646.36,646.15,646.77,647.58,648.36,649.14,649.93,650.63,651.27,651.77,651.84,652.00,652.18,652.34,652.46,652.36,652.03,651.57,651.04,650.55,649.91,649.49,649.65,650.68,651.62,652.46
674.09,674.64,673.92,671.72,668.78,664.91,660.36,657.73,655.59,653.04,650.11,647.43,644.64,642.42,640.86,639.93,639.33,637.44,634.83,631.84,628.70,625.39,622.19,619.77,619.78,623.75,631.89,640.93,648.23,652.78,655.69,657.59,658.48,657.99,657.44,656.89,656.33,655.72,655.18,654.44,653.57,652.64,651.72,650.79,649.34,647.30,644.75,642.21,639.18,635.71,631.56,625.86,617.77,611.86,609.58,609.87,611.14,612.85,614.68,616.49,618.27,620.28,622.58,625.17,627.73,630.11,632.17,633.88,634.93,633.77,632.18,629.46,624.85,620.38,618.96,619.07,621.03,626.91,630.37,631.93,632.61,633.20,633.96,635.92,638.02,639.54,640.23,640.60,640.71,640.61,640.28,639.90,639.38,638.79,638.31,638.47,638.83,639.12,639.20,638.97,638.87,639.17,639.63,639.87,639.97,640.05,640.21,640.41,640.44,640.32,640.20,640.10,639.93,639.63,638.10,635.73,633.00,630.33,627.22,623.62,619.56,615.35,611.72,610.32,610.47,610.84,611.03,611.04,610.95,610.77,610.49,610.33,610.62,611.78,614.86,620.42,624.48,624.50,619.03,613.05,609.50,608.39,609.40,611.35,612.35,611.30,609.45,608.91,609.74,613.00,617.13,620.85,623.28,625.27,627.39,628.37,624.94,619.66,615.98,615.17,618.19,623.62,629.74,635.04,638.79,640.76,642.07,643.19,644.29,645.40,646.50,647.62,648.64,649.36,649.48,649.45,649.31,649.11,648.94,648.72,648.68,648.81,649.00,648.97,648.82,648.62,648.48,648.70,649.01,649.31,649.54,649.59,649.54,649.46,649.39,649.35,649.41,649.43,649.43,649.45,649.48,649.65,649.83,649.93,649.81,648.95,647.89,646.76,645.62,644.87,645.58,646.62,647.64,648.71,649.73,650.32,650.71,651.11,651.49,651.70,651.66,651.40,651.09,650.66,650.29,649.81,648.98,648.07,647.14,646.29,645.69,645.65,646.27,647.09,647.90,648.69,649.58,650.38,650.96,651.22,651.30,651.40,651.56,651.75,651.84,651.93,651.77,651.38,650.83,650.30,649.46,649.04,649.46,650.53,651.40,652.12
670.87,672.73,672.82,671.52,669.58,666.69,662.93,660.42,658.12,655.42,652.53,650.24,647.75,645.44,643.37,641.57,640.31,637.81,634.75,631.54,628.33,624.96,621.74,619.40,619.64,623.74,631.63,640.10,646.78,651.20,653.86,655.75,657.03,657.25,656.82,656.26,655.70,655.09,654.54,653.97,653.30,652.51,651.63,650.77,649.38,647.41,645.02,642.62,639.86,636.57,632.36,626.50,618.11,611.95,609.51,609.72,610.88,612.50,614.21,615.81,617.53,619.38,621.51,624.00,626.68,629.33,631.50,633.21,634.31,633.35,631.89,629.00,624.04,620.10,618.93,619.15,621.47,628.38,631.05,632.31,633.32,634.34,635.44,636.98,638.50,639.60,639.99,640.18,640.16,639.96,639.61,639.23,638.79,638.27,637.79,637.95,638.27,638.49,638.51,638.37,638.24,638.55,638.99,639.09,639.17,639.31,639.49,639.70,639.77,639.67,639.53,639.41,639.25,639.03,637.73,635.63,633.21,631.39,629.48,626.91,623.50,619.50,615.35,612.86,611.82,611.62,612.13,612.23,612.14,611.92,610.98,609.94,609.39,609.79,612.21,617.98,622.40,622.70,617.39,611.68,608.64,608.23,610.15,613.35,615.85,615.77,613.31,609.73,609.24,610.68,612.84,615.07,617.05,620.32,623.09,624.11,621.84,618.02,615.26,615.05,618.77,625.21,630.92,635.63,639.08,640.76,641.91,642.98,644.06,645.14,646.22,647.30,648.26,648.89,648.94,648.88,648.75,648.55,648.36,648.13,648.10,648.22,648.38,648.36,648.23,648.06,647.95,648.17,648.47,648.80,649.07,649.13,649.04,648.89,648.78,648.76,648.83,648.82,648.80,648.81,648.91,649.11,649.30,649.41,649.30,648.37,647.26,646.13,645.02,644.23,644.93,645.99,647.02,648.03,649.03,649.79,650.35,650.73,651.07,651.27,651.27,651.08,650.76,650.36,649.79,649.10,648.32,647.51,646.62,645.72,645.04,645.04,645.69,646.52,647.37,648.18,649.06,649.87,650.45,650.68,650.74,650.81,650.95,651.12,651.24,651.42,651.38,651.10,650.61,649.98,648.87,648.47,649.28,650.36,651.14,651.79
666.65,669.67,670.74,670.42,669.29,667.36,664.70,662.43,659.94,657.00,653.97,651.85,649.40,646.86,644.27,641.70,639.69,636.83,633.64,630.45,627.26,623.88,620.86,618.93,619.64,624.12,631.89,639.76,645.52,649.67,652.15,653.96,655.44,656.46,656.17,655.61,655.05,654.45,653.90,653.41,652.90,652.25,651.46,650.68,649.34,647.46,645.29,643.12,640.70,637.63,633.34,627.50,619.01,612.49,609.53,609.50,610.46,611.90,613.46,614.89,616.46,618.21,620.26,622.71,625.53,628.40,630.72,632.50,633.68,632.95,631.62,628.60,623.33,619.84,618.91,619.28,621.75,628.73,631.13,632.34,633.52,634.75,635.98,637.11,638.18,639.11,639.50,639.62,639.56,639.34,638.96,638.58,638.20,637.74,637.25,637.41,637.69,637.84,637.84,637.77,637.63,637.92,638.32,638.34,638.42,638.62,638.82,638.97,639.11,639.03,638.88,638.72,638.56,638.40,637.39,635.61,633.44,632.17,631.11,629.40,626.79,623.57,619.90,617.13,615.45,614.97,615.75,615.85,615.65,615.21,613.38,610.97,609.16,608.55,610.15,616.01,620.66,621.22,616.31,611.11,608.26,608.09,610.51,614.59,618.56,619.99,617.85,611.98,609.98,609.54,609.57,609.90,611.13,615.06,618.32,619.67,618.84,616.29,614.73,615.42,619.49,626.62,631.82,635.90,639.13,640.68,641.71,642.72,643.77,644.84,645.91,646.99,647.90,648.41,648.38,648.30,648.18,648.01,647.78,647.55,647.52,647.62,647.74,647.75,647.64,647.50,647.42,647.65,647.96,648.32,648.61,648.65,648.53,648.32,648.17,648.16,648.23,648.19,648.16,648.22,648.38,648.59,648.78,648.88,648.71,647.73,646.60,645.47,644.41,643.58,644.25,645.32,646.35,647.29,648.23,649.16,649.89,650.27,650.58,650.77,650.82,650.69,650.37,649.97,649.23,648.34,647.60,646.90,646.05,645.15,644.44,644.41,645.09,645.94,646.79,647.65,648.52,649.33,649.91,650.14,650.14,650.20,650.34,650.51,650.69,650.88,650.91,650.74,650.31,649.54,648.21,647.86,649.03,650.14,650.85,651.45
659.83,663.41,666.92,667.24,666.89,665.89,663.96,662.11,659.67,656.69,653.62,651.23,647.79,644.20,641.08,638.74,636.20,633.57,630.90,628.16,625.27,622.12,619.52,618.28,619.90,624.93,633.17,640.68,644.97,648.24,650.61,652.54,654.22,655.57,655.47,654.97,654.42,653.86,653.25,652.80,652.34,651.77,651.15,650.42,649.08,647.28,645.41,643.54,641.49,638.64,634.43,629.21,621.00,613.83,609.65,609.16,609.75,610.88,612.25,613.65,614.83,616.58,618.75,621.27,624.11,627.02,629.62,631.71,632.88,632.40,631.24,628.12,622.61,619.59,618.85,619.55,622.30,628.65,630.89,632.09,633.26,634.50,635.68,636.79,637.81,638.65,638.99,639.02,638.88,638.64,638.31,637.93,637.58,637.15,636.67,636.83,637.03,637.15,637.19,637.17,637.04,637.24,637.56,637.63,637.76,637.97,638.16,638.32,638.46,638.42,638.30,638.13,637.92,637.75,637.01,635.75,634.22,633.07,631.95,630.72,629.21,627.12,624.23,621.88,620.54,620.53,621.09,620.98,620.51,619.59,617.12,613.04,609.79,608.38,609.76,614.56,618.75,619.65,615.67,610.78,608.08,607.84,609.96,613.60,618.01,621.00,621.26,617.58,613.55,611.63,610.62,609.82,609.79,610.95,613.62,616.32,615.55,613.67,614.01,616.41,620.64,627.44,632.12,635.86,639.03,640.66,641.71,642.65,643.62,644.59,645.66,646.74,647.56,647.90,647.81,647.71,647.60,647.43,647.19,646.96,646.97,647.07,647.10,647.10,647.03,646.91,646.85,647.13,647.48,647.86,648.14,648.14,648.01,647.80,647.61,647.52,647.58,647.54,647.57,647.70,647.86,648.07,648.26,648.34,648.12,647.09,645.98,644.87,643.75,642.87,643.50,644.52,645.53,646.51,647.44,648.42,649.20,649.62,649.94,650.12,650.19,650.10,649.72,649.23,648.57,647.75,646.85,646.12,645.35,644.57,643.95,643.85,644.51,645.36,646.22,647.13,648.05,648.90,649.47,649.55,649.45,649.53,649.74,650.00,650.21,650.34,650.34,650.18,649.76,648.81,647.50,647.26,648.55,649.84,650.55,651.04
654.37,657.75,661.63,663.16,663.76,663.59,662.42,660.52,657.85,654.91,651.72,647.85,643.34,639.37,636.35,634.42,632.23,630.05,627.90,625.66,623.01,620.33,618.52,618.27,620.78,626.04,634.18,641.12,644.38,647.20,649.53,651.45,653.08,654.56,654.74,654.34,653.77,653.22,652.61,652.16,651.73,651.21,650.65,649.82,648.55,646.98,645.30,643.57,641.76,639.26,635.47,630.77,623.41,616.21,610.99,609.38,609.27,609.90,610.82,611.81,612.84,614.57,616.76,619.29,622.07,624.98,628.20,631.06,632.10,631.91,630.94,627.72,621.92,619.30,618.78,619.67,622.44,628.21,630.59,631.92,633.08,634.24,635.40,636.43,637.37,638.14,638.43,638.37,638.18,637.94,637.66,637.31,636.97,636.55,636.12,636.25,636.39,636.47,636.50,636.50,636.40,636.56,636.84,636.96,637.11,637.32,637.53,637.72,637.86,637.80,637.67,637.50,637.31,637.15,636.69,635.90,634.78,633.67,632.49,631.42,630.44,629.25,627.50,625.63,624.27,623.99,623.43,622.54,621.32,619.49,616.27,612.07,608.94,607.94,610.15,613.93,616.47,616.38,613.04,609.89,607.93,607.67,609.26,612.18,616.64,620.62,622.84,621.88,618.73,616.57,614.63,612.24,610.06,609.69,611.25,613.28,612.84,613.09,614.98,618.06,622.21,628.16,632.40,636.01,639.19,640.72,641.73,642.64,643.57,644.50,645.50,646.52,647.21,647.36,647.26,647.15,647.01,646.84,646.61,646.38,646.37,646.45,646.45,646.45,646.39,646.32,646.32,646.64,646.99,647.37,647.64,647.62,647.45,647.24,647.03,646.91,646.94,646.92,646.99,647.17,647.33,647.55,647.76,647.84,647.55,646.50,645.39,644.28,643.14,642.21,642.76,643.73,644.72,645.66,646.65,647.64,648.44,648.87,649.16,649.51,649.67,649.52,649.00,648.40,647.72,646.93,646.06,645.35,644.59,643.85,643.29,643.29,644.06,644.97,645.87,646.79,647.69,648.50,648.98,648.92,648.75,648.86,649.11,649.41,649.69,649.68,649.53,649.29,648.90,647.88,646.80,646.76,648.07,649.32,650.04,650.51
649.85,652.64,655.88,658.63,660.13,660.63,660.06,658.00,655.05,651.95,648.28,642.61,637.47,633.64,631.02,629.44,627.98,626.38,624.76,623.01,620.64,618.62,617.87,618.83,622.23,627.58,635.17,641.31,643.86,646.47,648.76,650.58,652.06,653.52,653.98,653.70,653.13,652.58,651.97,651.52,651.10,650.62,650.03,649.04,647.85,646.50,644.97,643.36,641.73,639.53,636.22,632.05,625.88,619.13,613.18,610.01,609.06,609.08,609.44,609.94,610.88,612.46,614.56,617.08,619.78,622.68,626.56,630.30,631.34,631.44,630.52,627.18,621.28,619.01,618.73,619.80,622.55,627.70,630.29,631.77,632.90,633.99,635.11,636.04,636.90,637.62,637.84,637.70,637.47,637.23,636.99,636.70,636.35,635.94,635.58,635.67,635.75,635.79,635.79,635.80,635.74,635.89,636.14,636.31,636.47,636.67,636.90,637.12,637.26,637.18,637.03,636.87,636.71,636.54,636.32,635.90,635.13,634.10,632.91,631.87,631.10,630.55,629.81,628.31,626.64,625.62,623.82,621.94,619.76,616.92,613.22,609.64,607.43,607.38,610.41,613.07,613.75,612.51,609.92,608.72,607.70,607.55,608.64,610.84,615.24,619.80,623.45,625.06,624.11,622.54,619.99,616.05,611.73,610.16,610.25,610.84,610.88,613.53,616.75,620.14,624.07,628.95,632.83,636.39,639.51,640.83,641.76,642.65,643.58,644.50,645.42,646.31,646.82,646.80,646.71,646.58,646.43,646.26,646.03,645.80,645.76,645.80,645.80,645.80,645.75,645.72,645.81,646.16,646.50,646.86,647.13,647.10,646.90,646.66,646.46,646.32,646.30,646.31,646.44,646.65,646.81,647.03,647.27,647.34,646.97,645.90,644.80,643.70,642.56,641.57,642.02,642.94,643.90,644.79,645.84,646.87,647.66,648.09,648.40,648.93,649.17,648.94,648.25,647.55,646.82,646.05,645.28,644.57,643.82,643.09,642.55,642.72,643.62,644.63,645.58,646.51,647.38,648.10,648.43,648.25,648.06,648.19,648.48,648.81,649.12,648.97,648.62,648.27,647.90,646.88,646.13,646.34,647.59,648.67,649.38,649.89
646.58,648.58,650.94,653.88,655.74,656.46,655.94,654.08,651.04,646.98,641.67,634.95,630.96,628.13,625.88,624.25,623.41,622.54,621.49,620.14,618.37,617.26,617.91,620.42,624.79,630.20,636.53,641.43,643.66,646.24,648.34,649.99,651.34,652.59,653.15,652.99,652.48,651.93,651.38,650.90,650.47,650.00,649.28,648.18,646.90,645.54,644.17,642.87,641.39,639.24,636.08,632.56,627.85,622.36,616.52,611.28,609.44,608.78,608.61,608.99,609.63,610.63,612.37,614.92,617.58,620.55,624.67,628.86,630.58,630.89,629.50,625.97,620.73,618.76,618.77,620.22,623.16,627.61,630.09,631.55,632.64,633.70,634.65,635.56,636.44,637.13,637.17,636.98,636.75,636.52,636.29,636.04,635.70,635.32,635.04,635.04,635.07,635.08,635.09,635.14,635.13,635.25,635.45,635.66,635.87,636.05,636.25,636.47,636.62,636.57,636.41,636.21,636.06,635.85,635.63,635.37,635.01,634.39,633.34,632.34,631.61,631.06,630.30,628.59,626.25,623.94,621.89,619.32,616.13,612.55,609.58,606.83,605.93,606.97,608.97,610.00,609.96,609.25,608.24,607.46,607.10,607.42,608.53,610.41,614.98,619.61,623.48,626.24,627.63,627.63,625.51,620.95,616.07,612.29,610.45,610.20,610.77,614.45,618.71,622.70,626.30,630.11,633.81,637.25,639.96,640.95,641.82,642.71,643.62,644.50,645.42,646.06,646.33,646.21,646.08,645.97,645.85,645.67,645.44,645.21,645.14,645.15,645.15,645.15,645.14,645.18,645.34,645.66,646.02,646.40,646.66,646.58,646.38,646.14,645.92,645.74,645.67,645.75,645.92,646.13,646.29,646.51,646.75,646.81,646.39,645.33,644.23,643.13,642.03,640.99,641.31,642.11,643.01,643.99,645.06,646.09,646.86,647.30,647.86,648.42,648.61,648.29,647.54,646.79,646.06,645.33,644.56,643.80,643.08,642.34,641.80,642.06,643.03,644.14,645.21,646.19,647.11,647.64,647.75,647.51,647.38,647.58,647.94,648.31,648.49,648.19,647.68,647.22,646.84,645.98,645.60,646.02,647.14,647.91,648.56,649.17
644.15,644.66,646.16,648.72,650.77,651.82,651.46,649.49,645.84,640.84,635.12,630.02,626.87,624.31,622.09,620.49,619.76,619.07,618.22,617.36,617.14,617.43,619.23,622.50,627.02,632.63,637.87,641.64,643.66,646.07,647.92,649.43,650.72,651.79,652.19,652.06,651.64,651.13,650.65,650.23,649.85,649.42,648.73,647.61,646.30,644.96,643.69,642.49,641.10,639.03,636.02,632.91,629.14,624.64,619.49,614.08,610.88,609.27,608.60,608.54,608.82,609.50,610.92,613.20,615.87,618.66,622.40,626.58,629.54,630.05,628.32,624.79,620.32,618.54,618.72,620.25,623.04,627.00,629.70,631.30,632.35,633.29,634.18,635.07,635.96,636.62,636.39,636.15,635.92,635.69,635.46,635.26,634.99,634.69,634.43,634.40,634.40,634.40,634.42,634.49,634.50,634.60,634.77,634.97,635.20,635.40,635.60,635.82,635.97,635.91,635.75,635.56,635.38,635.17,634.95,634.74,634.52,634.19,633.42,632.56,631.77,631.05,630.03,627.72,624.64,621.78,619.12,615.94,612.44,609.04,606.55,604.44,604.09,605.27,606.55,606.91,607.02,607.14,607.28,607.06,607.10,607.63,608.75,610.60,615.20,619.77,623.64,626.85,629.22,629.92,628.74,625.44,620.82,616.51,613.94,613.18,613.78,616.89,621.69,626.17,628.94,631.97,635.36,638.31,640.31,641.10,641.87,642.74,643.64,644.49,645.33,645.70,645.76,645.62,645.48,645.36,645.23,645.07,644.89,644.67,644.57,644.55,644.55,644.55,644.52,644.60,644.84,645.15,645.52,645.90,646.15,646.03,645.82,645.59,645.35,645.14,645.06,645.19,645.40,645.62,645.77,646.00,646.23,646.30,645.92,644.83,643.69,642.57,641.44,640.45,640.57,641.26,642.19,643.21,644.29,645.33,646.15,646.66,647.34,647.94,648.03,647.56,646.83,646.06,645.30,644.53,643.76,642.99,642.25,641.53,641.04,641.42,642.41,643.55,644.68,645.72,646.79,647.13,647.00,646.72,646.71,647.00,647.41,647.78,647.78,647.35,646.79,646.25,645.78,645.08,645.04,645.57,646.46,647.13,647.80,648.51
642.63,641.44,641.95,643.60,645.57,646.98,646.98,644.84,640.24,634.60,629.51,627.20,624.59,621.87,619.47,617.86,616.87,616.19,615.56,615.42,617.09,618.93,621.59,625.05,629.23,634.91,639.13,641.90,643.71,645.80,647.38,648.78,650.09,651.04,651.17,651.02,650.71,650.27,649.88,649.54,649.23,648.87,648.30,647.20,645.93,644.63,643.39,642.17,640.86,638.92,636.05,633.17,629.92,626.13,621.87,617.51,613.03,610.35,609.07,608.45,608.34,608.87,609.99,611.84,614.51,617.02,620.08,623.92,628.14,628.80,626.96,623.69,620.01,618.37,618.59,619.94,622.31,625.87,629.07,630.97,631.99,632.81,633.71,634.60,635.47,636.07,635.57,635.25,635.00,634.77,634.55,634.42,634.27,634.04,633.79,633.76,633.76,633.76,633.78,633.85,633.87,633.94,634.09,634.26,634.49,634.72,634.94,635.16,635.32,635.23,635.07,634.89,634.68,634.50,634.29,634.06,633.85,633.66,633.20,632.51,631.66,630.73,629.25,626.15,622.40,619.38,615.96,612.07,608.57,606.00,604.11,602.82,602.72,603.56,604.45,604.81,605.47,606.33,607.10,607.42,607.60,608.10,609.20,611.26,615.67,620.02,623.80,627.17,629.62,630.42,630.28,629.09,625.42,621.81,619.43,618.45,618.79,620.63,625.31,629.88,631.71,634.15,637.12,639.41,640.60,641.25,641.93,642.75,643.63,644.46,645.13,645.24,645.13,645.03,644.88,644.73,644.58,644.44,644.34,644.14,644.01,643.96,643.96,643.96,643.91,644.01,644.31,644.63,645.00,645.39,645.63,645.46,645.24,645.00,644.77,644.56,644.47,644.62,644.86,645.09,645.25,645.48,645.71,645.81,645.51,644.39,643.22,642.04,640.88,640.00,639.89,640.49,641.48,642.50,643.58,644.63,645.51,646.13,646.82,647.46,647.46,646.83,646.12,645.35,644.53,643.72,642.94,642.16,641.40,640.70,640.32,640.83,641.83,642.98,644.13,645.24,646.42,646.56,646.20,645.92,646.05,646.44,646.89,647.21,647.01,646.48,645.91,645.34,644.75,644.19,644.43,645.03,645.70,646.40,647.15,647.92
643.11,641.27,640.06,639.97,641.02,642.42,643.19,641.62,636.18,631.04,627.63,625.57,623.41,620.88,618.33,616.23,614.76,614.90,615.75,617.11,619.38,622.06,625.14,628.59,632.49,637.19,640.21,642.09,643.50,644.94,646.34,647.72,649.05,650.07,650.24,650.12,649.88,649.54,649.25,648.95,648.64,648.30,647.84,646.75,645.51,644.24,642.97,641.82,640.69,638.93,636.12,633.30,630.23,626.64,622.82,619.54,615.43,611.84,609.47,608.74,608.22,608.46,609.29,610.81,613.35,615.88,618.57,621.88,625.93,626.45,625.18,622.80,619.82,618.32,618.40,619.31,621.01,624.01,627.90,630.29,631.45,632.34,633.26,634.17,634.99,635.42,634.80,634.34,634.03,633.80,633.61,633.72,633.64,633.41,633.20,633.17,633.17,633.17,633.19,633.26,633.27,633.27,633.33,633.54,633.77,634.00,634.21,634.42,634.70,634.60,634.39,634.19,634.01,633.81,633.59,633.37,633.19,632.98,632.64,632.07,631.27,630.37,628.02,624.32,620.22,616.74,613.05,607.84,603.64,602.16,602.48,603.48,604.62,605.67,606.45,606.95,607.56,608.20,608.68,608.69,608.53,608.72,609.76,612.45,616.03,619.69,623.45,627.46,629.92,630.80,630.82,630.18,628.60,626.25,624.54,623.88,624.23,625.83,628.89,632.01,633.93,635.89,638.36,640.16,640.92,641.45,642.07,642.78,643.59,644.41,644.71,644.67,644.52,644.39,644.24,644.08,643.93,643.80,643.76,643.56,643.42,643.38,643.38,643.38,643.36,643.46,643.74,644.10,644.48,644.90,645.15,644.94,644.66,644.41,644.18,643.96,643.79,643.92,644.21,644.52,644.73,644.96,645.19,645.33,645.11,644.00,642.82,641.67,640.60,639.76,639.57,640.06,641.01,642.13,643.21,644.14,644.93,645.61,646.30,646.98,646.95,646.22,645.47,644.65,643.85,643.04,642.22,641.44,640.67,640.01,639.73,640.35,641.48,642.73,643.99,645.16,645.87,645.81,645.44,645.22,645.48,645.91,646.38,646.63,646.16,645.62,645.03,644.45,643.89,643.35,643.71,644.45,645.22,645.97,646.74,647.51
644.19,642.00,639.67,638.20,638.10,638.98,640.06,638.99,633.75,629.18,626.51,624.31,622.33,620.01,617.55,615.32,613.53,614.15,615.90,618.13,620.75,623.88,627.25,630.66,633.91,637.47,639.87,641.45,642.65,643.77,645.09,646.47,647.76,648.75,649.11,649.22,649.17,648.89,648.65,648.36,648.06,647.74,647.33,646.29,645.08,643.87,642.69,641.63,640.64,638.99,636.25,633.44,630.43,627.15,623.83,621.09,617.51,613.78,610.78,609.36,608.43,608.22,608.74,610.15,612.55,615.07,617.59,620.47,623.89,623.98,622.97,621.39,619.40,618.15,618.14,618.77,619.91,622.03,626.04,629.13,630.95,631.88,632.83,633.77,634.51,634.78,634.09,633.48,633.09,632.86,632.70,633.04,633.02,632.79,632.64,632.63,632.61,632.60,632.61,632.68,632.69,632.64,632.64,632.83,633.06,633.27,633.47,633.69,634.09,634.00,633.76,633.54,633.33,633.10,632.89,632.69,632.50,632.27,631.99,631.48,630.72,629.64,626.62,622.55,618.26,614.35,609.84,604.46,600.75,600.39,602.51,605.15,607.17,608.37,609.05,609.56,610.05,610.50,610.71,610.06,609.44,609.47,610.62,613.36,616.35,619.67,623.60,628.09,630.25,631.12,631.27,630.91,630.40,629.13,628.25,628.03,628.36,629.75,631.55,633.50,635.53,637.43,639.32,640.62,641.21,641.72,642.29,642.91,643.55,644.11,644.14,644.02,643.86,643.71,643.55,643.40,643.25,643.16,643.16,642.97,642.85,642.80,642.80,642.80,642.80,642.91,643.20,643.57,643.96,644.39,644.67,644.45,644.11,643.83,643.60,643.37,643.15,643.24,643.51,643.84,644.10,644.36,644.62,644.81,644.68,643.60,642.51,641.48,640.50,639.60,639.25,639.72,640.74,641.85,642.85,643.67,644.40,645.12,645.82,646.52,646.48,645.74,644.98,644.17,643.37,642.56,641.74,640.94,640.16,639.52,639.32,640.13,641.36,642.67,643.96,645.07,645.30,645.03,644.68,644.58,644.97,645.43,645.81,645.91,645.35,644.80,644.22,643.65,643.13,642.68,643.12,643.93,644.76,645.54,646.31,647.10
645.58,643.16,640.41,638.06,636.75,636.67,637.47,636.82,632.64,628.60,625.74,623.29,621.23,619.13,616.99,614.97,613.06,613.66,615.53,617.99,620.80,624.05,627.60,630.96,633.38,635.90,638.19,639.98,641.18,642.38,643.73,645.09,646.31,647.15,647.77,648.25,648.48,648.29,648.07,647.78,647.47,647.16,646.80,645.84,644.70,643.59,642.57,641.62,640.68,639.09,636.43,633.59,630.61,627.71,624.95,622.30,619.22,615.97,612.85,610.31,608.91,608.10,608.30,609.80,612.06,614.50,616.97,619.56,622.10,621.62,620.55,619.58,618.75,617.82,617.87,618.41,619.17,620.31,623.87,627.70,630.49,631.46,632.44,633.38,634.05,634.14,633.43,632.68,632.20,631.95,631.84,632.37,632.40,632.18,632.12,632.10,632.05,632.01,632.03,632.10,632.11,632.06,632.03,632.13,632.34,632.52,632.72,633.01,633.48,633.41,633.17,632.93,632.64,632.40,632.21,632.02,631.79,631.55,631.27,630.80,630.01,628.55,625.18,620.99,616.67,612.37,606.63,602.14,599.88,600.52,603.73,607.27,609.70,610.96,611.62,612.09,612.49,612.89,612.97,611.60,610.56,610.61,611.92,614.20,616.92,620.31,624.47,629.02,630.60,631.38,631.74,631.58,631.08,630.64,630.57,630.78,631.06,632.22,633.31,634.63,636.62,638.74,640.04,640.87,641.45,641.98,642.50,643.03,643.45,643.56,643.46,643.31,643.15,643.00,642.85,642.69,642.57,642.53,642.57,642.40,642.27,642.21,642.20,642.20,642.21,642.36,642.68,643.05,643.45,643.88,644.17,643.97,643.56,643.25,643.01,642.79,642.56,642.57,642.77,643.08,643.38,643.69,643.99,644.25,644.21,643.24,642.30,641.41,640.50,639.47,638.90,639.40,640.58,641.62,642.45,643.18,643.91,644.66,645.36,646.05,646.05,645.35,644.64,643.88,643.07,642.26,641.46,640.63,639.83,639.19,639.07,640.14,641.43,642.74,643.97,644.85,644.70,644.24,643.91,644.00,644.49,644.97,645.21,645.10,644.56,644.02,643.48,642.93,642.43,642.17,642.67,643.48,644.30,645.09,645.87,646.66
