535.58,535.54,535.57,535.62,535.93,536.32,536.74,537.52,538.40,539.25,539.96,540.42,540.83,541.29,541.72,542.00,542.08,541.96,541.64,541.11,540.46,539.98,539.67,539.44,539.22,538.97,538.78,538.66,538.61,538.64,538.82,539.04,539.27,539.50,539.73,540.68,542.25,544.20,546.16,547.84,548.89,548.91,547.49,546.04,544.93,544.08,543.31,542.51,541.65,541.03,540.83,540.65,540.50,540.56,540.71,540.50,539.77,539.45,539.81,541.08,543.26,544.42,544.92,545.10,545.20,545.27,545.22,544.95,544.27,543.30,542.55,542.02,541.76,542.06,542.95,543.98,544.86,545.26,545.51,545.80,546.17,546.58,546.72,546.74,546.74,546.78,547.00,547.35,547.73,548.12,548.50,548.78,548.95,549.05,549.12,549.20,549.23,549.24,549.24,549.27,549.55,549.89,550.18,550.35,550.50,550.71,550.90,550.98,550.83,550.62,550.43,550.26,550.05,549.41,548.07,546.38,544.68,542.99,541.71,540.61,539.62,538.80,537.91,536.92,536.42,537.41,539.91,545.81,550.13,550.43,550.70,551.00,551.31,551.63,551.94,552.21,552.48,552.77,553.07,553.37,553.62,553.88,554.18,554.48,554.75,555.02,555.29,555.52,555.75,555.98,556.22,556.45,556.68,556.75,556.81,556.87,556.89,557.07,557.35,557.65,557.97,558.33,558.67,558.99,559.32,559.69,560.07,560.41,560.75,561.09,561.25,561.30,561.26,561.18,561.11,561.10,561.06,561.04,561.25,561.41,561.57,561.79,562.15,562.59,562.99,563.41,563.86,564.25,564.63,564.97,565.24,565.40,565.63,565.87,566.08,566.18,566.20,566.18,566.17,566.16,566.10,566.08,566.24,566.55,566.90,567.22,567.44,567.63,567.82,567.97,568.18,568.37,568.57,568.88,569.32,569.70,570.00,570.22,570.43,570.70,570.96,571.19,571.44,571.82,572.27,572.68,572.98,573.34,573.71,573.99,574.14,574.20,574.32,574.59,574.98,575.39,575.85,576.38,576.92,577.46,578.03,578.66,579.31,579.97,580.57,581.11,581.64,582.24,582.98,583.56,584.00,584.32,584.58,584.86,585.31,585.96
535.25,535.18,535.16,535.20,535.51,536.00,536.62,537.52,538.51,539.42,540.12,540.52,540.83,541.22,541.57,541.64,541.59,541.51,541.35,541.01,540.43,539.98,539.67,539.43,539.16,538.89,538.65,538.46,538.37,538.49,538.70,538.95,539.21,539.44,539.67,540.43,541.74,543.52,545.17,546.57,547.60,547.93,546.99,545.81,544.75,543.84,543.02,542.15,541.26,540.64,540.47,540.27,540.06,539.95,539.96,539.92,539.30,539.38,540.16,541.36,542.83,543.62,544.02,544.28,544.52,544.73,544.78,544.53,543.74,542.70,541.88,541.34,541.22,541.93,542.93,543.95,544.78,545.22,545.54,545.83,546.10,546.32,546.35,546.35,546.40,546.57,546.91,547.28,547.67,548.04,548.35,548.54,548.64,548.72,548.79,548.84,548.85,548.87,548.91,549.03,549.39,549.79,550.11,550.26,550.42,550.60,550.78,550.89,550.81,550.61,550.42,550.27,550.12,549.78,548.65,547.10,545.48,543.83,542.63,541.47,540.25,539.19,538.11,536.99,536.36,537.06,539.04,545.35,550.13,550.43,550.70,551.00,551.29,551.58,551.88,552.15,552.42,552.71,553.02,553.33,553.58,553.85,554.15,554.43,554.69,554.98,555.27,555.50,555.73,555.96,556.19,556.41,556.55,556.58,556.62,556.67,556.70,556.89,557.17,557.48,557.80,558.15,558.49,558.82,559.14,559.53,559.94,560.30,560.63,560.97,561.06,561.05,561.00,560.93,560.85,560.84,560.81,560.83,561.05,561.22,561.42,561.68,562.05,562.50,562.93,563.37,563.82,564.25,564.63,564.97,565.24,565.40,565.63,565.81,565.94,565.97,565.97,565.95,565.93,565.92,565.89,565.96,566.19,566.50,566.82,567.07,567.24,567.42,567.60,567.76,567.94,568.12,568.32,568.62,568.94,569.33,569.72,570.03,570.27,570.54,570.79,571.05,571.38,571.85,572.38,572.87,573.29,573.73,574.18,574.48,574.55,574.55,574.56,574.73,575.05,575.48,575.93,576.43,576.96,577.53,578.12,578.76,579.41,580.07,580.72,581.30,581.88,582.51,583.28,584.00,584.47,584.78,585.01,585.37,585.85,586.46
534.89,534.83,534.77,534.80,535.09,535.69,536.61,537.55,538.53,539.44,540.11,540.38,540.59,540.95,541.24,541.16,541.07,540.99,540.93,540.82,540.40,539.96,539.64,539.39,539.11,538.86,538.58,538.31,538.15,538.33,538.57,538.84,539.13,539.37,539.60,540.20,541.28,542.84,544.18,545.26,546.20,546.78,546.42,545.49,544.43,543.42,542.56,541.63,540.78,540.24,540.13,539.97,539.71,539.42,539.23,539.27,538.85,539.35,540.48,541.55,542.24,542.56,542.80,543.13,543.57,543.90,543.99,543.73,542.91,541.91,541.14,540.72,540.82,541.81,542.76,543.62,544.38,544.99,545.41,545.70,545.88,545.96,545.97,545.99,546.14,546.46,546.84,547.22,547.59,547.92,548.13,548.24,548.32,548.39,548.45,548.47,548.47,548.50,548.62,548.89,549.31,549.73,550.05,550.19,550.35,550.51,550.66,550.79,550.78,550.61,550.43,550.29,550.19,550.03,549.09,547.71,546.21,544.59,543.38,542.09,540.61,539.28,538.01,536.83,536.26,537.23,539.29,545.47,550.14,550.44,550.74,551.05,551.33,551.59,551.88,552.19,552.45,552.71,553.02,553.32,553.57,553.84,554.13,554.38,554.67,554.98,555.26,555.50,555.73,555.96,556.18,556.35,556.37,556.37,556.40,556.46,556.50,556.69,556.97,557.29,557.60,557.91,558.27,558.61,558.94,559.35,559.79,560.17,560.50,560.82,560.87,560.82,560.75,560.66,560.59,560.58,560.58,560.63,560.86,561.04,561.29,561.59,561.91,562.36,562.82,563.29,563.75,564.20,564.61,564.96,565.23,565.38,565.59,565.70,565.76,565.77,565.77,565.72,565.69,565.69,565.71,565.90,566.17,566.44,566.66,566.84,567.00,567.19,567.42,567.61,567.78,567.96,568.19,568.54,568.75,569.07,569.48,569.88,570.14,570.38,570.62,570.92,571.38,571.89,572.44,572.98,573.51,574.05,574.58,574.90,574.94,574.94,574.88,574.93,575.15,575.59,576.06,576.53,577.05,577.64,578.21,578.86,579.51,580.15,580.84,581.47,582.10,582.77,583.54,584.36,584.89,585.22,585.48,585.98,586.46,587.04
534.42,534.39,534.40,534.59,534.96,535.64,536.67,537.65,538.65,539.44,539.88,539.95,540.17,540.60,540.90,540.75,540.58,540.47,540.40,540.31,540.07,539.78,539.52,539.29,539.03,538.75,538.48,538.22,538.01,538.15,538.41,538.71,539.00,539.24,539.52,539.95,540.78,542.17,543.26,544.23,545.09,545.68,545.66,544.93,543.95,542.96,542.04,541.07,540.33,539.87,539.69,539.53,539.30,539.02,538.75,538.64,538.70,539.26,540.06,540.69,541.02,541.25,541.50,541.85,542.33,542.39,542.33,542.14,541.59,540.82,540.35,540.26,540.66,541.54,542.39,543.18,543.95,544.71,545.16,545.42,545.57,545.63,545.64,545.76,546.01,546.38,546.77,547.15,547.45,547.66,547.83,547.92,547.99,548.05,548.08,548.13,548.14,548.18,548.34,548.78,549.24,549.69,550.03,550.14,550.28,550.44,550.60,550.72,550.72,550.63,550.49,550.34,550.20,550.05,549.34,548.19,546.73,545.03,543.55,542.09,540.53,538.96,537.57,536.37,536.12,538.05,541.18,546.50,550.20,550.50,550.76,551.06,551.35,551.63,551.89,552.19,552.45,552.71,553.01,553.27,553.50,553.77,554.08,554.37,554.67,554.95,555.21,555.49,555.73,555.92,556.08,556.17,556.13,556.12,556.13,556.17,556.28,556.45,556.75,557.09,557.40,557.71,558.04,558.36,558.70,559.19,559.66,560.07,560.39,560.59,560.62,560.56,560.49,560.41,560.33,560.32,560.34,560.44,560.67,560.93,561.19,561.44,561.73,562.17,562.63,563.09,563.56,564.02,564.47,564.87,565.15,565.26,565.38,565.43,565.46,565.51,565.52,565.50,565.49,565.50,565.58,565.82,566.05,566.24,566.42,566.63,566.80,567.04,567.37,567.64,567.95,568.24,568.53,568.89,569.08,569.18,569.37,569.71,570.00,570.24,570.56,570.97,571.44,571.92,572.47,573.05,573.60,574.18,574.70,575.12,575.37,575.34,575.26,575.25,575.36,575.68,576.18,576.65,577.16,577.72,578.32,578.95,579.58,580.22,580.91,581.58,582.29,583.01,583.74,584.47,585.15,585.69,586.10,586.63,587.11,587.64
533.88,533.99,534.16,534.54,535.09,535.87,536.92,537.91,538.57,538.96,539.17,539.33,539.84,540.28,540.46,540.30,540.13,540.05,539.98,539.89,539.76,539.58,539.38,539.15,538.89,538.62,538.35,538.08,537.87,537.97,538.24,538.55,538.85,539.11,539.41,539.75,540.37,541.47,542.42,543.31,544.09,544.66,544.82,544.24,543.35,542.38,541.43,540.50,539.86,539.45,539.20,539.01,538.81,538.57,538.32,538.21,538.48,539.04,539.65,540.01,540.14,540.30,540.50,540.75,541.09,541.02,540.92,540.82,540.55,540.13,539.94,540.08,540.59,541.36,542.13,542.91,543.68,544.41,544.84,545.06,545.17,545.25,545.33,545.58,545.93,546.32,546.70,547.02,547.22,547.35,547.47,547.58,547.67,547.72,547.73,547.80,547.82,547.91,548.17,548.67,549.14,549.62,550.00,550.11,550.26,550.41,550.55,550.65,550.63,550.56,550.47,550.37,550.24,550.09,549.57,548.57,546.99,545.21,543.52,541.90,540.26,538.42,536.79,536.11,536.68,539.00,542.71,547.26,550.19,550.49,550.73,551.02,551.31,551.59,551.85,552.13,552.39,552.66,552.94,553.20,553.46,553.75,554.06,554.37,554.67,554.93,555.19,555.48,555.70,555.81,555.88,555.91,555.87,555.86,555.87,555.92,556.05,556.17,556.47,556.84,557.17,557.51,557.83,558.15,558.52,559.02,559.47,559.89,560.22,560.34,560.33,560.28,560.22,560.14,560.07,560.06,560.12,560.29,560.55,560.83,561.07,561.31,561.57,562.01,562.48,562.94,563.40,563.86,564.31,564.68,564.94,565.02,565.09,565.14,565.17,565.22,565.25,565.26,565.27,565.32,565.44,565.69,565.89,566.06,566.28,566.53,566.75,567.05,567.42,567.76,568.17,568.55,568.92,569.29,569.50,569.50,569.52,569.69,569.89,570.18,570.55,571.00,571.46,571.95,572.52,573.11,573.66,574.27,574.80,575.28,575.65,575.71,575.65,575.62,575.65,575.82,576.27,576.75,577.24,577.78,578.35,578.91,579.51,580.16,580.84,581.57,582.32,583.05,583.75,584.44,585.17,585.80,586.27,586.77,587.25,587.74
533.40,533.66,534.06,534.63,535.40,536.29,537.24,538.11,538.18,538.07,538.10,538.62,539.56,539.98,539.98,539.83,539.74,539.71,539.67,539.58,539.49,539.35,539.19,539.00,538.72,538.48,538.19,537.91,537.73,537.78,538.04,538.34,538.65,538.96,539.26,539.58,540.02,540.76,541.65,542.47,543.18,543.72,543.90,543.45,542.66,541.73,540.76,539.96,539.38,538.97,538.68,538.45,538.27,538.08,537.92,537.94,538.21,538.74,539.30,539.58,539.63,539.70,539.80,539.90,540.00,539.95,539.91,539.89,539.87,539.84,539.88,540.11,540.60,541.26,542.01,542.77,543.50,544.08,544.43,544.62,544.72,544.84,545.06,545.45,545.87,546.25,546.61,546.81,546.93,547.01,547.10,547.24,547.35,547.39,547.40,547.48,547.50,547.69,548.08,548.56,549.03,549.54,549.95,550.10,550.25,550.40,550.52,550.57,550.51,550.44,550.39,550.36,550.28,550.14,549.76,548.81,547.05,545.22,543.38,541.65,539.88,537.70,535.95,536.18,537.83,540.02,543.67,547.57,550.02,550.41,550.66,550.95,551.22,551.48,551.77,552.02,552.30,552.57,552.82,553.13,553.43,553.74,554.05,554.36,554.66,554.93,555.19,555.47,555.63,555.63,555.61,555.60,555.59,555.59,555.63,555.71,555.80,555.88,556.15,556.53,556.91,557.29,557.62,557.96,558.36,558.83,559.23,559.65,560.00,560.06,560.01,559.99,559.96,559.88,559.81,559.81,559.93,560.17,560.46,560.71,560.94,561.18,561.45,561.88,562.33,562.80,563.26,563.69,564.08,564.38,564.58,564.66,564.75,564.83,564.88,564.90,564.97,564.99,565.04,565.14,565.30,565.53,565.72,565.93,566.23,566.53,566.83,567.17,567.55,567.94,568.38,568.83,569.26,569.63,569.89,569.94,569.89,569.85,569.87,570.20,570.60,571.00,571.48,572.00,572.58,573.17,573.72,574.32,574.88,575.39,575.81,576.05,576.04,576.00,575.98,575.99,576.36,576.81,577.31,577.83,578.32,578.79,579.37,580.03,580.69,581.48,582.23,582.93,583.62,584.31,585.00,585.59,586.05,586.52,586.99,587.45
533.32,533.71,534.21,534.86,535.76,536.62,537.18,537.34,537.14,536.96,537.08,537.97,539.10,539.63,539.68,539.55,539.51,539.46,539.38,539.26,539.18,539.04,538.91,538.78,538.57,538.34,538.06,537.78,537.58,537.55,537.78,538.09,538.40,538.71,539.02,539.33,539.68,540.17,540.90,541.68,542.38,542.90,543.02,542.63,541.94,541.10,540.22,539.52,538.95,538.50,538.17,537.97,537.77,537.63,537.62,537.82,538.12,538.54,538.98,539.30,539.39,539.46,539.53,539.61,539.69,539.68,539.64,539.62,539.68,539.81,540.02,540.32,540.75,541.23,541.90,542.60,543.20,543.56,543.84,544.08,544.31,544.57,544.98,545.40,545.80,546.16,546.39,546.52,546.61,546.69,546.78,546.92,547.02,547.07,547.08,547.15,547.25,547.51,547.97,548.48,549.00,549.52,549.95,550.09,550.21,550.35,550.45,550.45,550.38,550.35,550.31,550.26,550.23,550.13,549.76,548.79,547.01,545.21,543.37,541.55,539.50,536.72,536.14,537.23,539.11,541.13,543.70,546.85,549.28,550.25,550.59,550.85,551.12,551.41,551.71,551.95,552.17,552.40,552.70,553.05,553.37,553.68,553.99,554.30,554.61,554.90,555.18,555.40,555.43,555.42,555.38,555.33,555.28,555.31,555.40,555.52,555.60,555.63,555.88,556.27,556.65,556.99,557.34,557.71,558.12,558.57,558.97,559.37,559.68,559.69,559.68,559.67,559.64,559.57,559.55,559.62,559.81,560.09,560.35,560.58,560.81,561.06,561.36,561.71,562.15,562.62,563.03,563.30,563.58,563.81,563.97,564.11,564.28,564.42,564.52,564.57,564.60,564.68,564.83,565.01,565.23,565.50,565.73,565.97,566.28,566.59,566.90,567.24,567.63,568.01,568.42,568.87,569.31,569.69,570.08,570.28,570.34,570.26,570.21,570.36,570.66,571.07,571.53,572.06,572.62,573.17,573.72,574.28,574.87,575.43,575.93,576.35,576.41,576.37,576.32,576.32,576.50,576.88,577.35,577.85,578.36,578.83,579.36,579.98,580.70,581.45,582.16,582.86,583.54,584.19,584.84,585.38,585.80,586.26,586.73,587.19
533.47,533.88,534.44,535.09,536.01,536.69,536.75,536.38,536.07,535.98,536.31,537.41,538.63,539.26,539.41,539.31,539.26,539.19,539.07,538.93,538.85,538.73,538.62,538.51,538.37,538.17,537.91,537.65,537.44,537.34,537.55,537.86,538.17,538.48,538.79,539.10,539.41,539.75,540.28,540.96,541.60,542.05,542.13,541.81,541.20,540.46,539.72,539.11,538.53,538.02,537.65,537.43,537.34,537.36,537.49,537.78,538.08,538.42,538.78,539.08,539.19,539.26,539.34,539.42,539.49,539.53,539.55,539.58,539.68,539.91,540.22,540.57,540.95,541.32,541.87,542.44,542.92,543.18,543.46,543.77,544.10,544.43,544.93,545.35,545.72,546.01,546.13,546.19,546.25,546.34,546.45,546.59,546.68,546.72,546.75,546.83,547.02,547.37,547.87,548.41,548.95,549.50,549.92,550.06,550.17,550.30,550.36,550.33,550.28,550.25,550.21,550.16,550.13,550.04,549.65,548.69,546.99,545.31,543.51,541.67,539.39,535.99,536.32,537.97,539.92,541.93,543.96,546.52,548.79,550.13,550.51,550.76,551.02,551.30,551.56,551.79,551.99,552.23,552.56,552.92,553.26,553.58,553.89,554.20,554.53,554.85,555.12,555.27,555.23,555.19,555.14,555.06,554.97,555.03,555.18,555.35,555.37,555.38,555.61,555.98,556.36,556.72,557.08,557.45,557.85,558.28,558.68,559.04,559.28,559.29,559.31,559.32,559.29,559.26,559.33,559.50,559.76,560.05,560.29,560.49,560.71,560.96,561.26,561.56,561.91,562.28,562.61,562.80,563.02,563.22,563.40,563.58,563.79,563.98,564.13,564.25,564.33,564.48,564.70,564.95,565.22,565.52,565.77,566.03,566.34,566.65,566.98,567.34,567.72,568.11,568.49,568.91,569.34,569.73,570.21,570.59,570.78,570.77,570.70,570.72,570.88,571.17,571.58,572.10,572.63,573.17,573.72,574.25,574.84,575.41,575.95,576.50,576.72,576.75,576.68,576.67,576.71,576.99,577.41,577.88,578.39,578.88,579.39,579.95,580.64,581.34,582.03,582.72,583.39,584.03,584.65,585.19,585.60,586.04,586.48,586.96
533.76,534.14,534.68,535.30,536.09,536.44,535.97,535.43,535.15,535.27,535.85,536.98,538.18,538.87,539.12,539.08,538.96,538.86,538.75,538.62,538.53,538.44,538.33,538.20,538.11,537.96,537.74,537.51,537.30,537.15,537.36,537.66,537.97,538.28,538.59,538.90,539.20,539.50,539.79,540.31,540.83,541.15,541.23,540.98,540.45,539.80,539.22,538.67,538.08,537.54,537.13,536.87,537.01,537.27,537.54,537.79,538.09,538.40,538.69,538.91,539.01,539.10,539.17,539.25,539.33,539.40,539.54,539.71,539.81,540.09,540.44,540.82,541.19,541.52,541.91,542.32,542.70,543.02,543.37,543.75,544.10,544.43,544.88,545.27,545.59,545.78,545.81,545.82,545.87,545.97,546.12,546.27,546.33,546.36,546.43,546.52,546.82,547.27,547.81,548.35,548.88,549.42,549.85,550.01,550.15,550.25,550.27,550.21,550.20,550.14,550.10,550.06,549.97,549.83,549.43,548.53,547.00,545.49,543.78,541.98,539.61,535.78,536.33,538.14,540.15,542.28,544.46,546.64,548.59,549.98,550.42,550.68,550.91,551.13,551.31,551.53,551.77,552.04,552.41,552.74,553.11,553.45,553.76,554.08,554.43,554.77,555.02,555.08,555.02,554.96,554.88,554.80,554.67,554.76,554.98,555.19,555.13,555.12,555.33,555.67,556.07,556.50,556.85,557.19,557.58,557.97,558.36,558.66,558.83,558.84,558.90,558.92,558.93,558.98,559.18,559.46,559.75,560.05,560.27,560.45,560.66,560.89,561.14,561.44,561.68,561.89,562.09,562.32,562.55,562.78,563.00,563.21,563.38,563.57,563.79,564.00,564.19,564.41,564.67,564.96,565.26,565.58,565.84,566.11,566.41,566.72,567.08,567.46,567.85,568.23,568.62,569.01,569.40,569.81,570.32,570.84,571.21,571.32,571.27,571.26,571.29,571.38,571.64,572.11,572.63,573.17,573.71,574.25,574.80,575.34,575.90,576.50,576.96,577.12,577.06,577.00,576.99,577.15,577.47,577.94,578.41,578.92,579.42,579.92,580.49,581.15,581.84,582.50,583.14,583.82,584.45,585.00,585.45,585.85,586.25,586.76
534.08,534.43,534.90,535.49,535.81,535.69,535.18,534.80,534.87,535.20,535.79,536.80,537.81,538.50,538.84,538.78,538.63,538.54,538.44,538.34,538.22,538.13,538.01,537.87,537.79,537.69,537.53,537.35,537.16,536.97,537.13,537.41,537.72,538.03,538.34,538.65,538.94,539.20,539.44,539.78,540.10,540.30,540.33,540.08,539.66,539.13,538.55,538.00,537.44,536.95,536.66,536.74,536.97,537.25,537.56,537.84,538.14,538.42,538.67,538.89,539.03,539.12,539.21,539.33,539.41,539.49,539.63,539.79,539.94,540.27,540.61,540.95,541.29,541.64,541.99,542.35,542.73,543.09,543.43,543.80,544.16,544.48,544.84,545.12,545.32,545.43,545.44,545.44,545.53,545.70,545.85,545.96,546.00,546.02,546.12,546.28,546.69,547.20,547.74,548.28,548.78,549.30,549.75,549.99,550.11,550.16,550.15,550.08,550.08,550.01,549.90,549.75,549.57,549.34,548.96,548.22,546.91,545.42,543.81,542.16,540.15,537.13,536.42,537.63,539.72,541.74,543.75,545.74,547.62,549.19,550.13,550.47,550.66,550.84,551.05,551.27,551.54,551.86,552.23,552.60,552.94,553.28,553.63,553.94,554.28,554.60,554.83,554.84,554.78,554.70,554.63,554.54,554.45,554.58,554.82,555.00,554.93,554.92,555.12,555.47,555.89,556.26,556.59,556.91,557.27,557.64,558.04,558.27,558.38,558.38,558.45,558.54,558.65,558.82,559.09,559.39,559.73,560.04,560.23,560.43,560.65,560.88,561.12,561.42,561.83,562.20,562.49,562.72,562.99,563.24,563.45,563.58,563.69,563.86,564.04,564.20,564.31,564.47,564.69,564.96,565.28,565.63,565.94,566.21,566.48,566.78,567.15,567.53,567.92,568.31,568.69,569.08,569.47,569.87,570.39,570.93,571.41,571.74,571.78,571.79,571.81,571.87,571.97,572.20,572.63,573.16,573.66,574.20,574.74,575.30,575.89,576.50,577.08,577.38,577.44,577.37,577.32,577.33,577.54,578.00,578.47,578.95,579.43,579.91,580.45,581.00,581.62,582.27,582.93,583.58,584.17,584.72,585.20,585.60,586.06,586.64
534.37,534.67,535.00,535.41,535.23,534.89,534.73,534.64,534.93,535.35,535.88,536.78,537.62,538.25,538.56,538.46,538.33,538.22,538.14,538.05,537.92,537.81,537.69,537.57,537.47,537.39,537.26,537.12,536.97,536.78,536.91,537.18,537.48,537.75,538.03,538.33,538.60,538.83,539.06,539.25,539.39,539.47,539.41,539.16,538.82,538.38,537.81,537.26,536.76,536.42,536.38,536.71,537.00,537.28,537.59,537.88,538.18,538.46,538.70,538.90,539.08,539.18,539.29,539.41,539.51,539.59,539.71,539.87,540.07,540.40,540.73,541.05,541.38,541.75,542.09,542.43,542.80,543.19,543.52,543.88,544.21,544.48,544.75,544.92,545.02,545.06,545.05,545.06,545.20,545.41,545.56,545.64,545.67,545.70,545.82,546.11,546.58,547.11,547.65,548.16,548.64,549.14,549.62,549.92,550.00,550.01,549.97,549.89,549.85,549.73,549.54,549.31,549.07,548.79,548.44,547.85,546.79,545.30,543.75,542.26,540.68,538.63,536.39,536.77,538.87,540.74,542.60,544.48,546.30,547.95,549.35,549.99,550.32,550.55,550.78,551.04,551.34,551.68,552.05,552.43,552.77,553.12,553.47,553.79,554.11,554.41,554.59,554.57,554.51,554.45,554.37,554.29,554.22,554.37,554.58,554.73,554.71,554.75,554.96,555.29,555.70,556.02,556.33,556.64,556.96,557.32,557.69,557.88,557.93,558.00,558.12,558.28,558.50,558.76,559.07,559.38,559.71,560.03,560.19,560.41,560.64,560.86,561.12,561.42,561.96,562.50,562.93,563.26,563.59,563.87,564.06,564.13,564.19,564.29,564.41,564.52,564.53,564.62,564.79,565.02,565.33,565.69,566.00,566.28,566.55,566.87,567.24,567.61,567.99,568.37,568.76,569.13,569.50,569.90,570.42,570.97,571.50,571.99,572.21,572.30,572.36,572.40,572.41,572.46,572.73,573.15,573.63,574.15,574.69,575.27,575.89,576.50,577.13,577.59,577.81,577.73,577.65,577.58,577.69,578.10,578.56,579.02,579.47,579.93,580.45,580.94,581.48,582.09,582.75,583.34,583.89,584.42,584.93,585.38,585.92,586.56
534.57,534.78,534.92,534.89,534.37,534.21,534.80,535.07,535.32,535.62,536.06,536.91,537.69,538.15,538.28,538.15,538.06,537.93,537.82,537.73,537.64,537.51,537.40,537.30,537.16,537.07,536.94,536.82,536.71,536.57,536.70,536.97,537.25,537.43,537.66,537.90,538.14,538.37,538.60,538.68,538.70,538.67,538.48,538.24,537.91,537.50,537.02,536.49,536.11,536.03,536.35,536.72,537.04,537.34,537.64,537.89,538.18,538.49,538.74,538.91,539.13,539.25,539.33,539.43,539.56,539.65,539.77,539.95,540.18,540.49,540.80,541.13,541.50,541.83,542.19,542.53,542.87,543.25,543.63,543.97,544.24,544.41,544.58,544.69,544.74,544.74,544.68,544.72,544.87,545.08,545.23,545.32,545.35,545.38,545.53,546.00,546.47,546.98,547.50,547.98,548.45,548.95,549.44,549.76,549.82,549.76,549.69,549.61,549.46,549.21,548.96,548.72,548.49,548.25,547.92,547.43,546.62,545.17,543.63,542.26,541.10,539.81,536.23,535.70,537.58,539.32,541.15,542.97,544.67,546.26,547.87,549.08,549.84,550.27,550.53,550.82,551.17,551.53,551.86,552.24,552.62,552.97,553.28,553.60,553.96,554.21,554.32,554.25,554.24,554.18,554.11,554.03,553.96,554.08,554.24,554.38,554.45,554.64,554.87,555.14,555.46,555.77,556.08,556.38,556.69,557.01,557.33,557.48,557.54,557.75,557.96,558.23,558.52,558.82,559.13,559.43,559.75,560.02,560.19,560.41,560.61,560.82,561.12,561.43,561.96,562.57,563.15,563.71,564.13,564.43,564.62,564.71,564.74,564.75,564.79,564.87,564.87,564.88,564.98,565.17,565.49,565.80,566.07,566.33,566.63,567.00,567.37,567.71,568.05,568.43,568.82,569.17,569.50,569.91,570.43,570.97,571.51,572.04,572.53,572.80,572.91,572.93,572.93,572.94,572.98,573.17,573.63,574.16,574.70,575.28,575.90,576.51,577.13,577.72,578.12,578.06,577.98,577.90,577.95,578.24,578.68,579.14,579.58,579.99,580.47,580.99,581.50,582.03,582.64,583.14,583.67,584.18,584.67,585.25,585.85,586.51
534.25,534.35,534.30,534.01,533.98,534.34,535.02,535.36,535.61,535.86,536.24,536.98,537.61,537.92,537.98,537.88,537.80,537.66,537.55,537.46,537.34,537.23,537.11,536.99,536.88,536.76,536.65,536.53,536.43,536.44,536.42,536.55,536.80,536.99,537.18,537.40,537.63,537.86,538.09,538.12,538.04,537.89,537.66,537.36,537.03,536.65,536.20,535.86,535.78,535.97,536.38,536.77,537.07,537.36,537.66,537.93,538.20,538.49,538.75,538.91,539.14,539.29,539.39,539.47,539.58,539.70,539.82,539.97,540.25,540.59,540.92,541.24,541.59,541.94,542.28,542.63,542.98,543.32,543.67,543.93,544.12,544.24,544.39,544.46,544.47,544.46,544.39,544.41,544.52,544.71,544.86,544.98,545.05,545.14,545.36,545.87,546.35,546.83,547.33,547.83,548.30,548.79,549.22,549.48,549.44,549.36,549.27,549.17,548.94,548.64,548.35,548.10,547.91,547.68,547.37,546.96,546.30,545.00,543.63,542.44,541.47,540.41,537.54,535.93,536.13,537.83,539.51,541.26,542.96,544.53,546.00,547.26,548.52,549.67,550.27,550.63,550.99,551.36,551.71,552.05,552.43,552.78,553.10,553.45,553.79,553.97,554.01,553.98,553.93,553.90,553.85,553.78,553.75,553.86,554.01,554.16,554.29,554.55,554.82,555.11,555.41,555.68,555.95,556.21,556.49,556.80,557.07,557.25,557.42,557.69,557.93,558.21,558.53,558.84,559.14,559.42,559.68,559.93,560.13,560.36,560.60,560.86,561.17,561.48,561.99,562.59,563.20,563.81,564.35,564.72,564.99,565.23,565.37,565.41,565.42,565.45,565.45,565.45,565.54,565.72,565.98,566.29,566.55,566.78,567.00,567.26,567.45,567.70,568.07,568.44,568.80,569.14,569.52,569.96,570.49,571.02,571.57,572.12,572.69,573.13,573.38,573.45,573.45,573.45,573.45,573.52,573.76,574.23,574.78,575.38,576.00,576.62,577.20,577.80,578.29,578.41,578.36,578.28,578.26,578.38,578.82,579.24,579.65,580.06,580.57,581.10,581.65,582.22,582.83,583.38,583.96,584.45,584.86,585.39,585.99,586.65
533.76,533.75,533.53,533.30,533.78,534.53,535.16,535.50,535.76,536.01,536.37,536.99,537.46,537.66,537.70,537.61,537.52,537.39,537.28,537.17,537.04,536.94,536.82,536.69,536.59,536.46,536.38,536.34,536.36,536.34,536.17,536.15,536.32,536.52,536.69,536.89,537.11,537.34,537.56,537.54,537.38,537.15,536.90,536.51,536.15,535.82,535.50,535.40,535.61,535.99,536.43,536.82,537.10,537.37,537.66,537.97,538.22,538.50,538.75,538.91,539.14,539.33,539.46,539.53,539.61,539.74,539.85,540.00,540.34,540.70,541.04,541.36,541.68,542.04,542.38,542.72,543.07,543.37,543.64,543.83,543.96,544.05,544.18,544.22,544.22,544.20,544.13,544.11,544.16,544.30,544.47,544.64,544.77,544.93,545.24,545.75,546.22,546.68,547.16,547.70,548.17,548.64,549.01,549.13,549.02,548.91,548.81,548.66,548.37,548.06,547.75,547.47,547.30,547.09,546.81,546.45,545.90,544.85,543.68,542.63,541.71,540.72,538.89,536.53,535.07,536.25,537.64,539.27,541.00,542.68,543.98,545.18,546.73,548.43,549.63,550.33,550.79,551.17,551.55,551.88,552.24,552.59,552.92,553.29,553.60,553.72,553.71,553.69,553.63,553.61,553.57,553.51,553.52,553.66,553.82,553.98,554.16,554.46,554.79,555.10,555.39,555.64,555.88,556.11,556.36,556.65,556.90,557.13,557.39,557.69,557.94,558.22,558.52,558.81,559.10,559.36,559.60,559.84,560.08,560.33,560.62,560.92,561.21,561.53,562.00,562.59,563.20,563.81,564.38,564.78,565.10,565.44,565.75,565.92,566.02,566.10,566.12,566.13,566.20,566.36,566.60,566.88,567.12,567.32,567.49,567.63,567.68,567.83,568.15,568.45,568.77,569.13,569.55,570.02,570.55,571.09,571.64,572.20,572.80,573.35,573.73,573.91,573.96,573.98,573.96,573.92,573.97,574.35,574.89,575.49,576.11,576.73,577.28,577.87,578.42,578.75,578.74,578.67,578.59,578.58,578.94,579.33,579.72,580.16,580.71,581.27,581.86,582.48,583.10,583.72,584.33,584.84,585.22,585.68,586.23,586.87
533.17,533.12,532.81,533.15,533.74,534.40,535.03,535.37,535.67,536.00,536.39,536.88,537.23,537.41,537.43,537.35,537.21,537.10,536.99,536.86,536.76,536.63,536.52,536.42,536.28,536.19,536.16,536.38,536.73,536.27,536.01,535.92,535.91,536.02,536.22,536.40,536.59,536.82,536.99,536.88,536.68,536.50,536.19,535.72,535.28,535.01,535.04,535.24,535.62,536.03,536.43,536.82,537.14,537.40,537.66,537.97,538.27,538.53,538.75,538.91,539.14,539.36,539.51,539.60,539.67,539.76,539.88,540.08,540.45,540.78,541.14,541.49,541.80,542.12,542.48,542.83,543.13,543.36,543.50,543.64,543.77,543.85,543.93,543.95,543.95,543.94,543.87,543.80,543.79,543.86,544.08,544.30,544.51,544.78,545.16,545.63,546.10,546.55,547.03,547.57,548.05,548.51,548.82,548.77,548.63,548.49,548.31,548.09,547.78,547.47,547.16,546.88,546.66,546.49,546.23,545.89,545.44,544.75,543.79,542.71,541.65,540.75,539.45,537.15,534.94,534.57,535.44,536.76,538.54,540.59,541.79,543.05,544.37,545.95,548.18,549.80,550.59,550.98,551.36,551.74,552.07,552.42,552.78,553.10,553.36,553.45,553.44,553.38,553.36,553.31,553.24,553.19,553.25,553.44,553.63,553.80,554.03,554.38,554.75,555.08,555.33,555.63,555.88,556.11,556.36,556.65,556.90,557.13,557.39,557.69,557.99,558.25,558.50,558.74,558.99,559.27,559.53,559.78,560.08,560.38,560.68,560.97,561.22,561.53,562.00,562.59,563.20,563.80,564.20,564.50,564.74,565.03,565.49,565.96,566.39,566.73,566.82,566.84,566.88,567.01,567.24,567.48,567.67,567.86,568.06,568.16,568.23,568.33,568.43,568.51,568.77,569.16,569.61,570.08,570.62,571.15,571.72,572.32,572.88,573.42,573.89,574.26,574.45,574.54,574.44,574.29,574.28,574.57,575.02,575.57,576.18,576.79,577.35,577.93,578.54,579.04,579.12,579.06,578.96,578.88,579.05,579.39,579.81,580.30,580.90,581.51,582.12,582.74,583.36,583.98,584.59,585.16,585.66,586.12,586.56,587.13
532.57,532.63,532.80,533.25,533.75,534.28,534.82,535.18,535.53,535.90,536.29,536.71,537.03,537.15,537.12,537.03,536.89,536.79,536.68,536.54,536.45,536.31,536.20,536.11,536.00,536.22,536.62,536.90,536.78,536.15,535.84,535.73,535.70,535.70,535.77,535.92,536.11,536.29,536.38,536.22,536.01,535.79,535.47,534.92,534.63,534.67,534.95,535.25,535.64,536.05,536.43,536.82,537.14,537.43,537.71,538.02,538.30,538.54,538.75,538.91,539.14,539.37,539.55,539.66,539.74,539.81,539.96,540.19,540.54,540.88,541.23,541.58,541.92,542.24,542.57,542.83,542.99,543.17,543.30,543.44,543.57,543.65,543.73,543.72,543.68,543.64,543.60,543.54,543.52,543.63,543.93,544.17,544.43,544.75,545.14,545.60,546.07,546.52,546.99,547.45,547.91,548.31,548.51,548.39,548.24,548.06,547.82,547.51,547.20,546.89,546.58,546.29,546.06,545.87,545.62,545.31,544.88,544.28,543.28,542.05,540.81,539.94,538.65,536.97,535.42,534.78,534.84,535.16,535.85,537.02,538.47,539.91,541.13,542.65,545.59,548.34,549.92,550.68,551.07,551.46,551.81,552.18,552.57,552.94,553.13,553.18,553.13,553.06,553.05,552.99,552.93,552.95,553.15,553.36,553.55,553.76,554.04,554.38,554.75,555.08,555.32,555.59,555.86,556.11,556.35,556.62,556.89,557.13,557.39,557.69,557.97,558.21,558.46,558.72,558.96,559.25,559.52,559.77,560.08,560.38,560.69,560.99,561.27,561.57,562.03,562.59,563.16,563.58,563.88,564.13,564.38,564.73,565.27,565.85,566.38,566.81,567.10,567.31,567.48,567.65,567.84,568.07,568.25,568.42,568.60,568.73,568.78,568.84,568.89,568.87,568.99,569.27,569.68,570.15,570.72,571.27,571.83,572.40,572.98,573.54,574.05,574.51,574.81,574.92,574.83,574.67,574.61,574.87,575.30,575.81,576.38,576.92,577.46,578.02,578.61,579.18,579.44,579.42,579.31,579.22,579.25,579.53,579.97,580.53,581.14,581.76,582.38,583.00,583.62,584.24,584.83,585.38,585.92,586.42,586.86,587.37
532.07,532.30,532.93,533.35,533.74,534.17,534.62,534.99,535.36,535.74,536.14,536.52,536.81,536.86,536.79,536.71,536.57,536.47,536.36,536.23,536.13,536.00,535.89,535.85,535.95,536.54,537.24,537.39,536.70,536.02,535.67,535.56,535.54,535.46,535.39,535.48,535.65,535.76,535.75,535.55,535.29,535.01,534.69,534.20,534.19,534.58,535.00,535.32,535.67,536.05,536.43,536.82,537.15,537.46,537.77,538.07,538.31,538.54,538.75,538.93,539.14,539.37,539.57,539.72,539.80,539.90,540.08,540.33,540.63,540.99,541.33,541.67,542.03,542.31,542.58,542.73,542.77,542.93,543.09,543.25,543.38,543.45,543.51,543.48,543.41,543.34,543.32,543.28,543.32,543.50,543.86,544.13,544.42,544.75,545.14,545.60,546.07,546.52,546.96,547.35,547.80,548.09,548.16,547.99,547.84,547.63,547.34,546.95,546.62,546.31,546.00,545.70,545.44,545.20,544.95,544.64,544.21,543.64,542.64,541.36,540.04,539.15,537.82,536.78,536.07,535.45,534.79,534.13,533.68,533.84,535.27,536.62,537.69,539.17,542.49,546.22,548.91,550.40,550.79,551.18,551.58,551.97,552.36,552.76,552.89,552.88,552.82,552.75,552.74,552.68,552.66,552.79,553.17,553.39,553.58,553.82,554.10,554.39,554.74,555.07,555.31,555.55,555.83,556.10,556.34,556.58,556.87,557.13,557.39,557.69,557.93,558.16,558.42,558.72,558.96,559.25,559.52,559.76,560.07,560.38,560.69,561.00,561.32,561.64,562.05,562.56,563.05,563.32,563.58,563.83,564.13,564.53,565.09,565.68,566.23,566.70,567.17,567.58,567.89,568.13,568.33,568.58,568.79,568.96,569.14,569.29,569.32,569.35,569.38,569.30,569.29,569.44,569.76,570.25,570.84,571.41,571.96,572.52,573.12,573.68,574.23,574.74,575.11,575.24,575.19,575.05,574.98,575.22,575.63,576.13,576.64,577.10,577.62,578.17,578.72,579.31,579.75,579.78,579.66,579.59,579.54,579.76,580.20,580.80,581.40,582.01,582.63,583.25,583.88,584.49,585.05,585.58,586.11,586.63,587.11,587.57
531.91,532.32,532.82,533.22,533.65,534.10,534.54,534.81,535.12,535.51,535.94,536.31,536.47,536.47,536.41,536.39,536.30,536.17,536.06,535.95,535.82,535.72,535.63,535.79,536.59,537.49,537.65,537.27,536.57,535.89,535.51,535.36,535.34,535.27,535.25,535.23,535.23,535.24,535.13,534.79,534.40,534.04,533.70,533.76,534.22,534.81,535.14,535.40,535.70,536.05,536.43,536.82,537.19,537.50,537.77,538.07,538.31,538.54,538.77,538.98,539.16,539.37,539.59,539.78,539.88,540.05,540.27,540.50,540.76,541.08,541.43,541.78,542.07,542.22,542.34,542.43,542.51,542.67,542.88,543.05,543.18,543.24,543.21,543.19,543.14,543.07,543.01,543.04,543.20,543.48,543.81,544.16,544.49,544.80,545.15,545.60,546.07,546.50,546.89,547.28,547.74,547.87,547.75,547.54,547.38,547.22,546.93,546.48,546.05,545.72,545.41,545.09,544.74,544.44,544.11,543.72,543.27,542.83,542.21,541.33,540.24,539.21,538.17,537.36,536.63,535.72,534.85,533.98,533.36,533.20,533.52,533.80,534.46,535.94,538.91,542.95,547.26,550.22,550.66,551.05,551.48,551.90,552.27,552.53,552.60,552.59,552.56,552.48,552.47,552.43,552.50,552.85,553.34,553.62,553.81,553.99,554.17,554.41,554.71,555.02,555.31,555.55,555.79,556.06,556.34,556.58,556.87,557.13,557.39,557.69,557.93,558.16,558.42,558.72,558.96,559.25,559.52,559.75,560.01,560.37,560.69,561.00,561.33,561.69,562.08,562.44,562.76,563.12,563.47,563.83,564.19,564.58,565.00,565.52,566.05,566.52,567.03,567.45,567.82,568.17,568.51,568.87,569.18,569.46,569.71,569.82,569.84,569.82,569.77,569.69,569.68,569.71,569.90,570.43,570.99,571.57,572.17,572.77,573.33,573.88,574.45,575.00,575.37,575.55,575.54,575.47,575.47,575.63,576.02,576.49,576.95,577.37,577.88,578.42,578.97,579.52,580.03,580.14,580.05,580.00,580.03,580.24,580.61,581.12,581.67,582.23,582.82,583.46,584.13,584.75,585.27,585.75,586.23,586.71,587.17,587.64
531.89,532.33,532.79,533.22,533.64,534.09,534.50,534.72,534.95,535.27,535.67,536.05,536.16,536.11,536.03,536.02,535.98,535.88,535.77,535.65,535.55,535.63,535.92,536.50,537.44,537.96,537.71,537.10,536.40,535.75,535.36,535.19,535.15,535.11,534.98,534.81,534.59,534.30,534.13,533.79,533.40,533.14,533.34,533.89,534.50,535.01,535.28,535.52,535.77,536.08,536.44,536.82,537.20,537.53,537.80,538.07,538.31,538.54,538.78,539.00,539.16,539.37,539.60,539.82,539.97,540.22,540.44,540.65,540.89,541.19,541.50,541.77,541.91,541.97,542.04,542.11,542.21,542.40,542.60,542.79,542.95,543.00,542.94,542.89,542.86,542.81,542.75,542.87,543.14,543.48,543.79,544.14,544.48,544.82,545.14,545.56,545.99,546.40,546.78,547.17,547.53,547.56,547.36,547.13,546.94,546.77,546.52,546.11,545.61,545.15,544.69,544.23,543.86,543.57,543.21,542.79,542.31,541.94,541.50,540.89,540.10,539.16,538.23,537.38,536.54,535.58,534.64,533.72,533.09,532.92,532.91,532.85,533.11,534.08,536.52,540.54,546.04,550.15,550.58,550.96,551.38,551.81,552.17,552.29,552.32,552.30,552.26,552.22,552.19,552.25,552.49,552.95,553.45,553.79,554.02,554.17,554.33,554.52,554.74,555.00,555.31,555.55,555.80,556.07,556.35,556.61,556.88,557.15,557.42,557.69,557.93,558.16,558.42,558.72,558.96,559.22,559.49,559.75,560.00,560.36,560.69,561.00,561.33,561.70,562.06,562.39,562.72,563.13,563.52,563.91,564.29,564.64,565.06,565.51,565.97,566.40,566.87,567.33,567.75,568.13,568.49,568.87,569.23,569.58,569.94,570.17,570.28,570.29,570.25,570.21,570.18,570.16,570.29,570.76,571.26,571.82,572.41,572.99,573.56,574.11,574.68,575.21,575.59,575.84,575.97,576.00,576.02,576.10,576.46,576.91,577.34,577.76,578.22,578.71,579.21,579.73,580.26,580.50,580.56,580.57,580.64,580.78,581.11,581.62,582.15,582.66,583.22,583.80,584.39,584.94,585.43,585.89,586.36,586.82,587.28,587.75
531.93,532.34,532.79,533.25,533.67,534.09,534.47,534.65,534.80,535.03,535.37,535.77,535.86,535.77,535.66,535.64,535.63,535.59,535.48,535.38,535.44,535.81,536.56,537.50,538.25,538.16,537.60,536.91,536.23,535.60,535.16,534.88,534.73,534.65,534.35,534.03,533.64,533.12,532.92,532.73,532.53,532.56,533.41,534.27,534.85,535.19,535.42,535.66,535.89,536.14,536.45,536.82,537.20,537.56,537.84,538.09,538.31,538.54,538.78,539.00,539.16,539.37,539.60,539.82,540.05,540.34,540.57,540.76,540.99,541.26,541.50,541.64,541.65,541.65,541.71,541.79,541.91,542.13,542.30,542.51,542.69,542.73,542.68,542.61,542.56,542.54,542.53,542.77,543.11,543.47,543.78,544.10,544.45,544.81,545.13,545.50,545.88,546.27,546.65,547.03,547.25,547.20,546.97,546.74,546.51,546.33,546.12,545.77,545.25,544.59,543.89,543.27,542.90,542.63,542.30,541.87,541.36,541.01,540.62,540.19,539.66,538.93,538.08,537.14,536.17,535.25,534.32,533.39,532.82,532.77,532.76,532.71,532.66,533.04,534.96,538.88,545.21,550.13,550.51,550.90,551.29,551.69,552.04,552.06,552.05,552.01,551.96,551.95,551.91,552.13,552.53,553.06,553.52,553.94,554.22,554.38,554.52,554.67,554.83,555.03,555.32,555.55,555.83,556.10,556.36,556.65,556.90,557.18,557.46,557.70,557.93,558.17,558.43,558.72,558.96,559.20,559.47,559.75,560.01,560.36,560.69,561.01,561.34,561.71,562.04,562.39,562.78,563.23,563.62,564.00,564.37,564.70,565.14,565.55,565.94,566.33,566.74,567.23,567.69,568.06,568.39,568.76,569.15,569.55,570.00,570.39,570.62,570.74,570.78,570.77,570.72,570.69,570.78,571.17,571.63,572.13,572.66,573.21,573.82,574.37,574.90,575.39,575.76,576.08,576.35,576.53,576.57,576.59,576.91,577.34,577.74,578.19,578.58,579.00,579.45,579.91,580.43,580.82,581.06,581.17,581.28,581.37,581.66,582.19,582.72,583.19,583.69,584.19,584.64,585.10,585.56,586.02,586.49,586.94,587.40,587.87
532.00,532.39,532.80,533.25,533.71,534.09,534.36,534.52,534.67,534.85,535.09,535.47,535.58,535.50,535.36,535.26,535.25,535.24,535.18,535.23,535.83,536.63,537.57,538.38,538.59,538.13,537.48,536.78,536.09,535.41,534.70,533.99,533.38,533.11,532.52,532.12,531.89,531.72,531.57,531.77,532.27,533.05,534.05,534.72,535.13,535.39,535.62,535.85,536.04,536.24,536.51,536.83,537.20,537.56,537.86,538.14,538.33,538.54,538.78,539.00,539.16,539.37,539.58,539.76,540.00,540.29,540.58,540.82,540.99,541.13,541.25,541.33,541.33,541.33,541.39,541.49,541.65,541.87,542.04,542.27,542.46,542.43,542.41,542.35,542.28,542.27,542.47,542.76,543.08,543.42,543.78,544.10,544.42,544.76,545.12,545.45,545.78,546.14,546.52,546.88,546.95,546.81,546.58,546.35,546.12,545.94,545.74,545.45,544.95,543.99,543.06,542.36,541.98,541.67,541.36,540.96,540.43,540.00,539.56,539.13,538.71,538.22,537.61,536.79,535.85,534.92,533.99,533.07,532.54,532.57,532.58,532.56,532.51,532.79,534.51,538.67,545.16,550.12,550.45,550.83,551.22,551.56,551.79,551.80,551.75,551.71,551.70,551.72,551.80,552.12,552.60,553.13,553.59,554.09,554.44,554.62,554.72,554.87,554.99,555.13,555.38,555.56,555.84,556.11,556.36,556.65,556.90,557.18,557.46,557.70,557.93,558.20,558.48,558.72,558.96,559.24,559.50,559.76,560.06,560.38,560.69,561.02,561.38,561.72,562.08,562.45,562.84,563.24,563.59,563.95,564.33,564.70,565.10,565.49,565.88,566.27,566.72,567.19,567.62,568.01,568.38,568.75,569.14,569.53,569.96,570.45,570.77,571.05,571.29,571.30,571.28,571.24,571.29,571.63,572.08,572.51,572.96,573.47,574.08,574.63,575.12,575.52,575.85,576.16,576.49,576.80,577.02,577.14,577.39,577.75,578.18,578.59,578.93,579.27,579.63,580.05,580.52,580.96,581.34,581.64,581.89,582.01,582.26,582.71,583.24,583.67,584.08,584.49,584.84,585.24,585.69,586.15,586.61,587.01,587.47,587.93
532.06,532.45,532.84,533.30,533.72,534.04,534.23,534.39,534.54,534.70,534.89,535.16,535.27,535.20,535.05,534.91,534.87,534.88,535.00,535.44,536.60,537.64,538.49,538.94,538.60,537.93,537.20,536.44,535.63,534.84,534.00,533.10,532.22,531.63,531.04,530.74,530.71,530.92,531.29,531.93,532.79,533.78,534.60,535.06,535.35,535.57,535.78,536.00,536.21,536.41,536.65,536.92,537.24,537.57,537.90,538.16,538.34,538.54,538.76,538.96,539.15,539.35,539.54,539.73,539.93,540.22,540.48,540.68,540.82,540.89,540.93,540.97,541.00,541.00,541.06,541.19,541.39,541.62,541.86,542.09,542.22,542.14,542.11,542.07,542.05,542.12,542.42,542.75,543.07,543.39,543.74,544.08,544.40,544.73,545.08,545.42,545.74,546.07,546.42,546.71,546.63,546.42,546.19,545.96,545.73,545.53,545.32,545.01,544.37,543.30,542.30,541.54,541.03,540.59,540.24,539.82,539.24,538.70,538.25,537.90,537.63,537.33,536.96,536.34,535.52,534.59,533.64,532.79,532.35,532.41,532.42,532.42,532.38,532.75,534.83,539.37,545.60,550.14,550.43,550.78,551.13,551.38,551.50,551.50,551.46,551.42,551.41,551.47,551.72,552.15,552.66,553.19,553.66,554.18,554.59,554.84,554.92,555.03,555.15,555.29,555.49,555.67,555.91,556.13,556.36,556.65,556.90,557.18,557.46,557.70,557.93,558.21,558.50,558.72,558.96,559.25,559.52,559.77,560.08,560.38,560.72,561.06,561.41,561.72,562.07,562.45,562.86,563.25,563.57,563.90,564.26,564.62,565.00,565.41,565.83,566.25,566.71,567.17,567.62,568.02,568.41,568.80,569.16,569.52,569.88,570.30,570.68,571.08,571.47,571.63,571.77,571.79,571.82,572.10,572.53,572.96,573.39,573.85,574.38,574.86,575.26,575.61,575.91,576.25,576.60,576.94,577.24,577.46,577.71,578.05,578.47,578.83,579.14,579.45,579.77,580.14,580.56,581.01,581.46,581.86,582.21,582.44,582.73,583.13,583.57,583.97,584.34,584.69,585.03,585.41,585.86,586.31,586.74,587.15,587.59,588.03
532.13,532.51,532.91,533.35,533.70,533.95,534.11,534.26,534.42,534.57,534.72,534.88,534.95,534.87,534.71,534.58,534.51,534.57,534.92,535.84,537.57,538.74,539.32,539.27,538.43,537.62,536.83,535.96,534.98,534.07,533.20,532.26,531.28,530.40,529.99,529.88,530.05,530.63,531.70,532.74,533.70,534.53,535.02,535.31,535.54,535.75,535.92,536.14,536.37,536.60,536.83,537.06,537.30,537.60,537.94,538.17,538.34,538.54,538.74,538.91,539.13,539.30,539.49,539.70,539.87,540.13,540.32,540.43,540.55,540.57,540.58,540.61,540.66,540.68,540.75,540.90,541.14,541.40,541.74,541.93,541.95,541.88,541.81,541.79,541.86,542.06,542.36,542.72,543.06,543.38,543.70,544.07,544.40,544.72,545.04,545.41,545.72,546.03,546.32,546.50,546.31,546.07,545.83,545.59,545.33,545.04,544.76,544.38,543.52,542.48,541.48,540.62,539.90,539.26,538.87,538.46,537.85,537.24,536.79,536.56,536.47,536.30,536.15,535.78,535.16,534.25,533.27,532.54,532.21,532.28,532.28,532.28,532.29,532.92,535.67,540.46,546.13,550.07,550.38,550.69,551.00,551.16,551.18,551.18,551.17,551.14,551.12,551.26,551.67,552.18,552.72,553.25,553.72,554.24,554.69,555.00,555.09,555.18,555.30,555.46,555.63,555.85,556.03,556.19,556.39,556.67,556.91,557.18,557.46,557.70,557.93,558.21,558.50,558.73,558.97,559.25,559.52,559.77,560.08,560.39,560.75,561.10,561.41,561.72,562.03,562.42,562.86,563.25,563.58,563.90,564.23,564.55,564.92,565.35,565.80,566.25,566.72,567.18,567.64,568.08,568.46,568.84,569.17,569.47,569.77,570.04,570.45,570.94,571.43,571.80,572.12,572.28,572.36,572.56,572.99,573.43,573.85,574.24,574.69,575.04,575.36,575.67,575.99,576.36,576.69,577.00,577.30,577.61,577.91,578.26,578.63,578.95,579.27,579.58,579.89,580.22,580.60,581.03,581.48,581.92,582.31,582.68,583.06,583.43,583.77,584.15,584.50,584.83,585.22,585.61,586.05,586.48,586.88,587.34,587.75,588.17
532.19,532.58,532.97,533.38,533.64,533.82,533.98,534.13,534.28,534.44,534.58,534.66,534.61,534.48,534.33,534.20,534.21,534.40,534.92,536.12,538.48,539.83,540.06,539.47,538.36,537.31,536.34,535.38,534.40,533.51,532.57,531.59,530.65,529.96,529.72,529.76,530.13,530.96,532.06,533.21,534.22,534.94,535.26,535.51,535.71,535.90,536.11,536.34,536.57,536.78,536.97,537.19,537.42,537.68,537.94,538.12,538.32,538.51,538.68,538.84,539.07,539.25,539.41,539.58,539.74,539.93,540.09,540.20,540.24,540.25,540.25,540.26,540.29,540.34,540.46,540.66,540.96,541.30,541.63,541.74,541.70,541.62,541.55,541.56,541.73,542.04,542.35,542.68,543.03,543.38,543.69,544.02,544.37,544.71,545.03,545.35,545.63,545.91,546.15,546.17,546.05,545.85,545.61,545.30,544.92,544.30,543.72,543.22,542.33,541.32,540.18,539.01,538.01,537.20,536.83,536.68,536.44,535.77,535.34,535.21,535.23,535.05,535.06,534.96,534.59,533.85,532.93,532.29,532.02,532.09,532.09,532.09,532.40,533.59,536.80,540.90,545.81,549.47,550.16,550.46,550.71,550.85,550.85,550.85,550.85,550.87,550.95,551.17,551.65,552.18,552.73,553.25,553.72,554.25,554.70,555.03,555.16,555.29,555.44,555.61,555.81,556.00,556.16,556.34,556.54,556.74,556.92,557.18,557.46,557.70,557.93,558.21,558.50,558.74,559.01,559.27,559.52,559.77,560.08,560.44,560.78,561.11,561.41,561.72,562.03,562.41,562.86,563.25,563.66,564.05,564.39,564.71,565.09,565.49,565.90,566.32,566.78,567.24,567.68,568.09,568.46,568.76,569.02,569.27,569.54,569.87,570.34,570.85,571.32,571.71,572.12,572.49,572.77,573.01,573.44,573.80,574.11,574.45,574.80,575.12,575.43,575.75,576.11,576.44,576.73,577.00,577.31,577.62,577.97,578.32,578.65,579.01,579.38,579.71,580.03,580.39,580.73,581.12,581.53,581.93,582.32,582.70,583.10,583.47,583.84,584.27,584.63,584.98,585.41,585.81,586.21,586.63,587.08,587.53,587.93,588.37
532.33,532.70,533.02,533.34,533.54,533.69,533.85,534.00,534.13,534.28,534.40,534.44,534.29,534.11,533.94,533.85,534.04,534.37,535.16,536.76,539.37,540.69,540.55,539.49,538.23,537.03,535.92,534.86,533.86,533.02,532.08,531.10,530.20,529.64,529.63,529.90,530.46,531.46,532.53,533.68,534.62,535.16,535.43,535.67,535.85,536.02,536.23,536.46,536.67,536.86,537.03,537.25,537.46,537.68,537.90,538.06,538.27,538.46,538.62,538.78,539.00,539.18,539.33,539.48,539.61,539.71,539.83,539.92,539.90,539.89,539.89,539.89,539.91,540.01,540.19,540.46,540.81,541.18,541.44,541.48,541.40,541.33,541.28,541.38,541.63,542.01,542.35,542.66,543.00,543.35,543.68,544.00,544.34,544.69,545.02,545.30,545.53,545.73,545.88,545.83,545.76,545.62,545.41,545.08,544.47,543.59,542.74,542.02,541.02,539.72,538.28,536.87,535.75,535.02,534.74,534.77,534.84,534.26,533.89,533.81,533.90,533.75,533.85,533.89,533.76,533.33,532.57,532.04,531.83,531.90,531.95,532.35,533.31,535.08,538.06,540.88,544.12,546.92,548.38,549.43,550.14,550.48,550.53,550.53,550.55,550.62,550.78,551.10,551.61,552.15,552.69,553.22,553.71,554.25,554.70,555.03,555.19,555.37,555.53,555.71,555.91,556.09,556.25,556.43,556.63,556.81,556.99,557.25,557.52,557.71,557.96,558.23,558.50,558.74,559.04,559.29,559.53,559.80,560.09,560.43,560.76,561.07,561.38,561.69,562.00,562.38,562.83,563.25,563.71,564.12,564.51,564.92,565.29,565.69,566.09,566.49,566.89,567.28,567.63,567.97,568.29,568.54,568.81,569.10,569.42,569.80,570.28,570.76,571.19,571.61,572.06,572.53,572.95,573.28,573.70,574.01,574.28,574.57,574.87,575.18,575.49,575.81,576.16,576.48,576.76,577.03,577.32,577.64,578.00,578.35,578.69,579.05,579.43,579.79,580.14,580.52,580.86,581.23,581.61,581.97,582.35,582.74,583.13,583.52,583.94,584.37,584.74,585.12,585.58,585.99,586.38,586.81,587.26,587.70,588.12,588.55
532.50,532.83,533.05,533.24,533.40,533.56,533.71,533.86,533.96,534.09,534.20,534.17,533.99,533.76,533.57,533.52,533.96,534.44,535.58,537.67,540.17,541.27,540.75,539.31,538.01,536.77,535.54,534.36,533.32,532.53,531.65,530.73,529.88,529.38,529.64,530.17,530.91,531.97,533.04,534.13,534.88,535.22,535.52,535.77,535.95,536.11,536.28,536.50,536.68,536.85,537.02,537.24,537.42,537.62,537.83,537.99,538.21,538.39,538.55,538.72,538.94,539.11,539.26,539.39,539.47,539.49,539.54,539.58,539.52,539.50,539.50,539.50,539.54,539.69,539.97,540.30,540.68,541.04,541.18,541.16,541.08,541.01,541.02,541.24,541.57,541.95,542.33,542.66,542.97,543.30,543.67,543.99,544.30,544.64,544.98,545.22,545.40,545.49,545.51,545.49,545.43,545.34,545.18,544.82,543.94,542.90,541.86,540.79,539.48,537.61,535.82,534.33,533.30,532.86,532.70,532.81,533.09,532.73,532.50,532.49,532.59,532.54,532.67,532.76,532.80,532.74,532.22,531.88,531.82,532.01,532.30,533.37,535.08,537.22,539.41,540.72,541.84,543.38,545.63,547.74,549.11,549.86,550.09,550.20,550.28,550.41,550.62,551.02,551.55,552.09,552.63,553.17,553.71,554.25,554.71,555.03,555.20,555.41,555.60,555.75,555.93,556.14,556.31,556.48,556.65,556.87,557.10,557.38,557.63,557.75,558.01,558.26,558.50,558.75,559.04,559.29,559.56,559.84,560.09,560.39,560.70,561.00,561.31,561.62,561.94,562.32,562.77,563.23,563.69,564.12,564.56,565.11,565.48,565.88,566.30,566.66,566.98,567.25,567.50,567.75,568.00,568.25,568.58,568.97,569.40,569.79,570.24,570.68,571.09,571.55,572.00,572.47,572.94,573.37,573.77,574.10,574.38,574.63,574.94,575.25,575.55,575.86,576.17,576.48,576.79,577.07,577.33,577.69,578.03,578.37,578.74,579.06,579.43,579.81,580.19,580.58,580.96,581.34,581.70,582.03,582.42,582.81,583.20,583.61,584.05,584.46,584.85,585.25,585.71,586.17,586.58,587.00,587.45,587.85,588.29,588.71
532.50,532.71,532.85,533.05,533.21,533.37,533.52,533.68,533.81,533.92,533.98,533.88,533.66,533.46,533.31,533.31,533.87,534.46,535.83,538.23,540.61,541.28,540.47,538.94,537.59,536.34,535.03,533.72,532.55,531.88,531.13,530.33,529.61,529.31,529.76,530.38,531.12,532.11,533.13,534.13,534.83,535.17,535.43,535.67,535.86,536.01,536.18,536.40,536.58,536.75,536.95,537.13,537.34,537.55,537.76,537.92,538.10,538.30,538.48,538.65,538.88,539.01,539.12,539.20,539.18,539.18,539.19,539.21,539.17,539.13,539.04,539.06,539.27,539.52,539.85,540.23,540.60,540.91,540.95,540.87,540.75,540.71,540.88,541.20,541.54,541.89,542.27,542.64,542.97,543.28,543.62,543.93,544.24,544.54,544.81,545.00,545.13,545.18,545.17,545.12,545.04,544.91,544.63,544.08,543.09,542.05,540.85,539.20,536.77,534.48,532.83,531.79,531.13,530.94,530.91,531.04,531.29,531.27,531.53,531.80,531.93,532.02,532.24,532.30,532.25,532.26,532.11,532.30,532.93,534.04,535.46,536.62,537.84,539.25,540.73,541.85,542.78,543.83,545.12,546.09,546.85,547.84,549.03,549.81,550.10,550.26,550.50,550.96,551.52,552.09,552.63,553.16,553.71,554.29,554.74,555.04,555.25,555.44,555.63,555.82,555.98,556.15,556.36,556.53,556.71,556.94,557.21,557.53,557.83,557.96,558.12,558.29,558.51,558.79,559.05,559.29,559.56,559.85,560.10,560.38,560.66,560.94,561.25,561.56,561.91,562.29,562.71,563.17,563.64,564.09,564.53,565.00,565.51,565.88,566.18,566.47,566.73,567.01,567.26,567.51,567.85,568.18,568.55,568.94,569.35,569.74,570.18,570.63,571.08,571.53,572.00,572.49,572.98,573.39,573.77,574.11,574.41,574.70,575.00,575.31,575.60,575.87,576.17,576.48,576.79,577.09,577.38,577.71,578.07,578.41,578.75,579.11,579.45,579.82,580.20,580.59,580.98,581.36,581.71,582.05,582.53,582.93,583.35,583.77,584.19,584.58,585.00,585.44,585.90,586.32,586.75,587.18,587.59,588.02,588.44,588.84
532.38,532.51,532.62,532.82,533.00,533.17,533.33,533.51,533.65,533.74,533.74,533.57,533.36,533.17,533.04,533.09,533.73,534.39,535.78,538.05,540.09,540.42,539.61,538.30,537.09,535.88,534.53,533.12,531.86,531.15,530.53,529.88,529.34,529.38,529.96,530.60,531.30,532.17,533.07,533.93,534.60,535.02,535.32,535.55,535.73,535.89,536.07,536.28,536.46,536.66,536.88,537.04,537.25,537.48,537.70,537.86,538.01,538.21,538.42,538.58,538.76,538.85,538.91,538.94,538.87,538.85,538.85,538.85,538.82,538.75,538.68,538.78,539.13,539.46,539.81,540.18,540.51,540.71,540.66,540.54,540.46,540.52,540.81,541.16,541.51,541.86,542.24,542.61,542.94,543.25,543.53,543.84,544.13,544.39,544.59,544.73,544.80,544.83,544.81,544.72,544.53,544.27,543.89,543.27,542.25,541.11,539.38,536.76,533.79,531.82,530.72,530.19,529.89,529.86,530.03,530.51,531.36,531.98,532.72,533.35,533.78,534.18,534.51,534.61,534.58,534.59,534.63,534.97,535.67,536.86,538.48,539.44,540.25,541.10,542.00,543.08,544.14,545.13,545.91,546.27,546.55,547.31,548.49,549.22,549.67,550.02,550.39,550.91,551.50,552.05,552.60,553.16,553.71,554.31,554.77,555.08,555.30,555.48,555.68,555.88,556.04,556.20,556.41,556.60,556.77,557.00,557.30,557.66,558.01,558.20,558.32,558.44,558.61,558.85,559.06,559.29,559.56,559.85,560.12,560.40,560.65,560.90,561.21,561.53,561.88,562.26,562.67,563.11,563.57,564.04,564.49,564.91,565.42,565.74,565.97,566.20,566.44,566.73,567.03,567.34,567.74,568.13,568.52,568.93,569.32,569.70,570.14,570.61,571.08,571.56,572.03,572.52,573.00,573.39,573.80,574.14,574.45,574.76,575.07,575.36,575.63,575.89,576.18,576.48,576.79,577.10,577.41,577.72,578.09,578.43,578.76,579.14,579.46,579.80,580.17,580.53,580.89,581.29,581.68,582.09,582.62,583.07,583.51,583.94,584.33,584.73,585.16,585.61,586.07,586.48,586.93,587.36,587.75,588.19,588.60,589.00
532.12,532.26,532.42,532.58,532.78,532.98,533.14,533.36,533.48,533.52,533.47,533.25,533.08,532.88,532.73,532.84,533.52,534.23,535.39,537.06,538.45,538.62,538.11,537.32,536.44,535.32,533.96,532.53,531.26,530.38,529.86,529.39,529.10,529.57,530.22,530.86,531.51,532.22,532.94,533.60,534.23,534.79,535.22,535.44,535.60,535.78,535.99,536.16,536.37,536.59,536.81,536.98,537.19,537.42,537.63,537.79,537.94,538.15,538.35,538.49,538.58,538.61,538.62,538.61,538.55,538.53,538.53,538.51,538.44,538.37,538.43,538.68,539.12,539.50,539.84,540.15,540.39,540.41,540.29,540.19,540.21,540.44,540.79,541.13,541.47,541.85,542.23,542.55,542.86,543.16,543.40,543.70,543.97,544.18,544.32,544.41,544.43,544.44,544.42,544.30,543.88,543.41,542.97,542.48,541.48,539.98,537.28,533.48,530.91,530.07,529.85,529.78,529.76,529.90,530.38,531.64,533.79,535.29,536.36,537.35,538.33,539.19,539.60,539.83,539.94,539.91,539.90,539.84,539.84,540.04,540.61,541.19,541.90,542.65,543.22,544.16,545.33,546.57,547.75,548.54,548.76,548.79,548.75,548.56,549.07,549.70,550.31,550.90,551.45,552.00,552.56,553.16,553.71,554.31,554.80,555.14,555.37,555.53,555.74,555.95,556.10,556.25,556.47,556.66,556.84,557.07,557.37,557.76,558.17,558.45,558.62,558.73,558.82,558.94,559.09,559.31,559.58,559.88,560.18,560.43,560.66,560.91,561.22,561.53,561.84,562.21,562.65,563.05,563.50,563.95,564.41,564.85,565.21,565.48,565.72,565.95,566.19,566.48,566.83,567.22,567.67,568.06,568.49,568.92,569.31,569.70,570.14,570.61,571.09,571.61,572.09,572.56,573.00,573.40,573.85,574.20,574.51,574.82,575.13,575.38,575.65,575.94,576.19,576.48,576.79,577.10,577.41,577.72,578.08,578.43,578.75,579.13,579.45,579.76,580.08,580.40,580.73,581.14,581.62,582.14,582.68,583.21,583.67,584.07,584.46,584.90,585.32,585.74,586.21,586.66,587.12,587.56,587.95,588.34,588.77,589.19
531.86,532.02,532.22,532.38,532.55,532.75,532.94,533.13,533.30,533.31,533.16,532.98,532.78,532.59,532.48,532.63,533.33,534.01,534.82,535.82,536.69,536.71,536.36,535.83,535.10,534.00,532.63,531.32,530.33,529.69,529.22,529.04,529.23,529.89,530.51,531.12,531.74,532.34,532.89,533.43,534.00,534.59,535.09,535.31,535.50,535.69,535.88,536.08,536.30,536.53,536.76,536.96,537.15,537.35,537.57,537.73,537.88,538.08,538.25,538.27,538.29,538.31,538.28,538.24,538.21,538.20,538.18,538.14,538.11,538.07,538.26,538.60,539.02,539.45,539.82,540.06,540.14,540.05,539.90,539.91,540.08,540.41,540.75,541.10,541.46,541.83,542.13,542.37,542.66,542.98,543.22,543.48,543.75,543.96,544.05,544.05,544.05,544.05,544.01,543.81,543.26,542.67,542.17,541.70,540.69,537.87,534.34,531.22,529.91,529.57,529.60,529.72,529.93,530.98,532.58,534.62,536.89,538.26,539.18,540.01,540.82,541.53,541.95,542.12,542.07,541.75,541.42,541.13,540.94,541.02,541.56,542.13,542.72,543.38,544.32,545.35,546.34,547.45,548.75,549.52,549.72,549.68,549.52,549.33,549.54,549.95,550.43,550.95,551.46,551.99,552.56,553.17,553.75,554.33,554.81,555.15,555.38,555.59,555.78,555.97,556.16,556.32,556.53,556.73,556.90,557.14,557.47,557.89,558.32,558.65,558.88,559.02,559.13,559.21,559.32,559.56,559.83,560.10,560.35,560.55,560.77,561.01,561.27,561.53,561.80,562.13,562.54,562.93,563.35,563.74,564.12,564.53,564.89,565.20,565.45,565.69,565.97,566.35,566.74,567.14,567.60,568.00,568.43,568.87,569.26,569.69,570.14,570.63,571.14,571.63,572.10,572.57,573.00,573.40,573.86,574.24,574.58,574.88,575.15,575.42,575.69,575.96,576.24,576.50,576.79,577.10,577.40,577.67,577.99,578.34,578.69,579.03,579.35,579.63,579.92,580.28,580.67,581.14,581.66,582.21,582.75,583.29,583.78,584.21,584.64,585.06,585.48,585.93,586.39,586.86,587.32,587.79,588.23,588.54,588.93,589.36
531.62,531.79,532.00,532.18,532.33,532.52,532.74,532.92,533.10,533.07,532.87,532.69,532.48,532.30,532.21,532.40,533.05,533.66,534.10,534.38,534.68,534.53,534.28,533.94,533.28,532.28,531.12,530.07,529.39,529.07,528.86,529.02,529.56,530.21,530.75,531.32,531.91,532.46,532.93,533.39,533.91,534.47,534.96,535.20,535.40,535.60,535.78,536.00,536.23,536.46,536.69,536.93,537.10,537.29,537.50,537.66,537.81,537.97,538.06,537.99,537.98,537.96,537.93,537.88,537.88,537.86,537.82,537.78,537.79,537.83,538.13,538.51,538.89,539.29,539.67,539.85,539.80,539.65,539.56,539.70,540.02,540.40,540.73,541.08,541.41,541.71,541.92,542.12,542.40,542.74,542.99,543.25,543.51,543.70,543.74,543.67,543.65,543.65,543.59,543.26,542.66,542.00,541.43,540.81,539.11,535.31,531.72,529.82,529.48,529.46,529.76,530.34,531.23,533.18,535.46,537.66,539.44,540.41,541.12,541.76,542.39,543.03,543.35,543.31,543.00,542.51,542.01,541.61,541.38,541.50,542.14,542.80,543.35,543.98,545.07,546.16,547.09,548.14,549.41,550.00,550.20,550.23,550.21,550.20,550.23,550.41,550.75,551.18,551.58,552.06,552.61,553.20,553.79,554.36,554.82,555.15,555.38,555.62,555.81,556.00,556.22,556.38,556.60,556.79,556.97,557.22,557.59,558.02,558.46,558.83,559.12,559.30,559.43,559.53,559.62,559.83,560.07,560.30,560.52,560.69,560.89,561.12,561.34,561.56,561.81,562.11,562.48,562.83,563.16,563.46,563.76,564.15,564.54,564.89,565.20,565.47,565.81,566.24,566.66,567.08,567.53,567.93,568.37,568.81,569.22,569.68,570.16,570.66,571.17,571.63,572.12,572.58,573.01,573.42,573.86,574.26,574.62,574.92,575.17,575.45,575.73,575.99,576.27,576.51,576.81,577.13,577.45,577.71,577.99,578.29,578.62,578.91,579.20,579.49,579.81,580.22,580.69,581.22,581.75,582.30,582.84,583.38,583.89,584.36,584.81,585.22,585.66,586.12,586.59,587.07,587.54,588.03,588.50,588.80,589.14,589.54
531.42,531.58,531.75,531.96,532.14,532.33,532.56,532.77,532.85,532.77,532.59,532.38,532.20,532.00,531.90,532.10,532.63,533.13,533.17,532.70,532.32,531.96,531.79,531.58,530.96,530.23,529.58,529.02,528.62,528.57,528.97,529.53,530.06,530.45,530.90,531.42,531.99,532.58,533.06,533.52,533.99,534.46,534.86,535.11,535.30,535.48,535.71,535.94,536.17,536.40,536.63,536.86,537.03,537.23,537.44,537.59,537.74,537.78,537.73,537.66,537.66,537.61,537.56,537.56,537.55,537.50,537.46,537.46,537.48,537.65,538.02,538.42,538.73,539.00,539.30,539.43,539.35,539.22,539.29,539.60,540.01,540.40,540.77,541.05,541.25,541.38,541.55,541.81,542.12,542.43,542.73,543.03,543.24,543.36,543.35,543.28,543.26,543.26,543.15,542.66,542.06,541.40,540.75,539.73,536.15,532.41,530.05,529.52,529.31,529.55,530.43,531.99,534.29,536.77,538.69,540.00,540.75,541.32,541.88,542.47,543.17,544.08,544.13,543.71,543.19,542.84,542.45,542.10,541.88,541.96,542.60,543.29,543.99,544.66,545.25,546.28,547.48,548.71,549.82,550.14,550.30,550.44,550.56,550.69,550.82,551.01,551.30,551.67,551.89,552.29,552.76,553.26,553.81,554.40,554.85,555.15,555.38,555.62,555.84,556.07,556.29,556.45,556.66,556.86,557.05,557.35,557.72,558.15,558.59,558.97,559.34,559.56,559.71,559.84,559.92,560.02,560.20,560.43,560.65,560.82,561.02,561.23,561.40,561.63,561.91,562.22,562.53,562.79,562.99,563.17,563.40,563.78,564.16,564.58,564.96,565.29,565.72,566.13,566.56,567.01,567.47,567.88,568.31,568.77,569.23,569.69,570.20,570.70,571.17,571.64,572.16,572.61,573.02,573.47,573.87,574.26,574.62,574.93,575.22,575.48,575.75,576.04,576.28,576.51,576.84,577.21,577.58,577.88,578.14,578.37,578.56,578.80,579.04,579.39,579.83,580.29,580.81,581.35,581.88,582.43,582.97,583.50,584.04,584.54,584.95,585.39,585.86,586.32,586.79,587.31,587.79,588.26,588.73,589.15,589.45,589.78
531.20,531.38,531.54,531.73,531.95,532.18,532.42,532.64,532.63,532.48,532.29,532.10,531.90,531.71,531.58,531.64,532.09,532.47,532.13,531.11,530.63,530.37,530.25,530.10,529.63,529.08,528.59,528.41,528.72,529.13,529.57,530.01,530.43,530.71,531.07,531.55,532.10,532.66,533.17,533.65,534.12,534.54,534.80,535.01,535.20,535.41,535.64,535.87,536.10,536.33,536.57,536.80,536.97,537.16,537.37,537.48,537.52,537.48,537.41,537.34,537.33,537.27,537.23,537.23,537.22,537.16,537.13,537.15,537.25,537.46,537.80,538.13,538.40,538.67,538.94,539.04,538.95,538.88,539.12,539.50,539.91,540.29,540.55,540.74,540.88,541.01,541.20,541.49,541.82,542.16,542.48,542.82,542.96,542.98,542.96,542.89,542.88,542.88,542.76,542.27,541.67,541.04,540.09,538.02,533.39,530.62,529.43,529.28,529.48,530.35,531.87,533.93,536.36,538.57,539.92,540.73,541.31,541.89,542.48,543.08,543.75,544.54,544.47,544.05,543.59,543.27,542.93,542.61,542.38,542.41,543.06,543.75,544.49,545.21,545.79,546.61,547.66,548.84,549.91,550.21,550.44,550.63,550.80,550.99,551.15,551.33,551.54,551.80,552.08,552.49,552.95,553.43,553.96,554.43,554.81,555.11,555.38,555.62,555.85,556.08,556.31,556.51,556.73,556.93,557.12,557.47,557.85,558.28,558.72,559.11,559.49,559.75,559.91,560.01,560.05,560.15,560.33,560.56,560.78,560.95,561.10,561.27,561.46,561.65,561.96,562.32,562.66,562.97,563.26,563.44,563.60,563.85,564.08,564.38,564.74,565.14,565.60,566.03,566.48,566.96,567.46,567.97,568.45,568.91,569.38,569.80,570.25,570.71,571.18,571.68,572.18,572.64,573.07,573.49,573.88,574.26,574.64,574.97,575.25,575.52,575.79,576.05,576.29,576.59,576.92,577.28,577.65,577.97,578.29,578.53,578.70,578.93,579.16,579.52,579.99,580.45,580.94,581.47,582.01,582.56,583.10,583.63,584.15,584.65,585.12,585.59,586.07,586.56,587.03,587.53,588.03,588.52,588.98,589.44,589.78,590.09
530.97,531.17,531.34,531.51,531.77,532.04,532.28,532.49,532.40,532.21,531.99,531.82,531.61,531.42,531.25,531.18,531.53,531.73,531.15,529.91,529.47,529.29,529.16,528.99,528.67,528.29,528.04,528.28,529.15,529.83,530.17,530.45,530.74,530.98,531.28,531.69,532.20,532.75,533.30,533.78,534.22,534.59,534.76,534.93,535.12,535.34,535.57,535.80,536.04,536.27,536.50,536.73,536.90,537.08,537.25,537.29,537.24,537.16,537.08,537.01,536.99,536.94,536.91,536.90,536.89,536.83,536.81,536.85,537.01,537.22,537.49,537.78,538.03,538.32,538.58,538.66,538.59,538.60,538.98,539.39,539.76,540.08,540.23,540.33,540.44,540.63,540.88,541.20,541.56,541.94,542.27,542.58,542.63,542.59,542.57,542.50,542.49,542.48,542.38,541.97,541.40,540.80,539.46,536.17,531.26,529.48,529.17,529.22,529.89,531.41,533.47,535.80,538.02,539.66,540.46,540.96,541.61,542.28,542.93,543.56,544.20,544.80,544.73,544.41,544.05,543.75,543.44,543.13,542.88,542.87,543.51,544.21,544.94,545.70,546.39,547.03,547.88,548.90,549.93,550.25,550.53,550.76,550.94,551.15,551.32,551.47,551.64,551.86,552.24,552.68,553.13,553.57,554.05,554.40,554.70,554.99,555.30,555.56,555.80,556.05,556.31,556.56,556.79,557.00,557.21,557.59,557.97,558.40,558.85,559.24,559.62,559.89,560.05,560.11,560.14,560.26,560.45,560.67,560.88,561.05,561.16,561.29,561.50,561.70,562.02,562.39,562.78,563.17,563.55,563.79,563.95,564.12,564.19,564.33,564.61,565.05,565.51,565.99,566.46,566.95,567.50,568.11,568.64,569.12,569.60,570.00,570.37,570.78,571.24,571.74,572.21,572.66,573.11,573.49,573.88,574.26,574.65,575.01,575.26,575.54,575.81,576.05,576.31,576.67,577.01,577.35,577.72,578.04,578.40,578.70,578.89,579.12,579.37,579.73,580.20,580.64,581.11,581.63,582.16,582.69,583.22,583.76,584.26,584.75,585.27,585.75,586.27,586.79,587.26,587.73,588.24,588.75,589.23,589.69,590.09,590.39
530.75,530.93,531.15,531.37,531.60,531.87,532.14,532.31,532.17,531.95,531.72,531.50,531.33,531.13,530.93,530.83,530.99,530.88,530.38,529.61,529.15,528.79,528.49,528.21,527.92,527.76,528.24,529.04,529.81,530.17,530.47,530.77,531.07,531.31,531.60,531.89,532.28,532.88,533.43,533.91,534.29,534.53,534.69,534.91,535.10,535.28,535.51,535.74,535.98,536.21,536.44,536.67,536.84,536.97,537.04,536.98,536.91,536.83,536.76,536.68,536.62,536.59,536.58,536.57,536.51,536.49,536.48,536.52,536.68,536.84,537.10,537.41,537.70,537.95,538.23,538.31,538.24,538.44,538.85,539.23,539.53,539.76,539.81,539.87,540.01,540.25,540.61,540.98,541.40,541.83,542.17,542.28,542.25,542.20,542.19,542.12,542.10,542.07,541.97,541.74,541.25,540.70,538.92,534.46,530.56,529.15,529.05,529.61,530.73,532.66,534.93,537.28,539.37,540.22,540.66,541.12,541.79,542.42,543.10,543.78,544.44,544.97,545.08,544.90,544.57,544.27,543.96,543.65,543.38,543.33,543.97,544.66,545.40,546.15,546.85,547.53,548.30,549.14,549.95,550.25,550.49,550.72,550.93,551.10,551.25,551.40,551.62,551.98,552.42,552.88,553.26,553.54,553.88,554.20,554.48,554.74,555.04,555.35,555.64,555.96,556.31,556.61,556.86,557.08,557.34,557.72,558.11,558.53,558.98,559.37,559.75,559.99,560.12,560.19,560.26,560.39,560.55,560.72,560.89,561.05,561.19,561.34,561.52,561.80,562.11,562.46,562.85,563.23,563.62,563.98,564.29,564.55,564.60,564.59,564.70,565.06,565.51,566.02,566.55,567.09,567.63,568.24,568.80,569.35,569.91,570.32,570.66,571.01,571.41,571.83,572.23,572.66,573.11,573.49,573.88,574.26,574.65,575.01,575.25,575.50,575.76,576.06,576.37,576.74,577.07,577.41,577.78,578.10,578.47,578.81,579.08,579.32,579.61,579.99,580.44,580.85,581.30,581.82,582.33,582.82,583.36,583.84,584.34,584.86,585.35,585.87,586.40,586.94,587.46,587.93,588.40,588.90,589.43,589.94,590.31,590.62
530.56,530.77,531.00,531.23,531.46,531.73,531.98,532.04,531.90,531.68,531.46,531.23,531.03,530.84,530.64,530.49,530.54,530.30,529.86,529.34,528.88,528.47,528.11,527.77,527.55,527.89,528.73,529.60,530.19,530.49,530.76,531.07,531.39,531.63,531.89,532.16,532.51,533.02,533.56,534.01,534.34,534.52,534.68,534.87,535.06,535.25,535.45,535.68,535.91,536.14,536.37,536.60,536.71,536.76,536.74,536.66,536.59,536.51,536.43,536.36,536.28,536.26,536.24,536.20,536.17,536.16,536.20,536.29,536.45,536.60,536.81,537.06,537.33,537.60,537.87,537.97,537.98,538.28,538.62,538.85,538.99,539.06,539.07,539.21,539.56,540.10,540.49,540.88,541.28,541.67,541.91,541.92,541.86,541.81,541.80,541.73,541.71,541.67,541.60,541.48,541.06,540.53,538.18,532.33,529.63,529.00,529.24,530.02,531.67,533.79,536.08,538.26,539.88,540.50,540.87,541.32,541.95,542.60,543.25,543.93,544.58,545.07,545.28,545.27,545.09,544.78,544.48,544.17,543.88,543.79,544.42,545.12,545.85,546.61,547.30,548.00,548.74,549.44,549.93,550.20,550.43,550.66,550.88,551.03,551.22,551.43,551.70,552.05,552.40,552.78,553.12,553.39,553.70,554.01,554.29,554.56,554.83,555.07,555.36,555.68,556.02,556.37,556.69,557.00,557.32,557.71,558.12,558.57,559.01,559.39,559.79,560.01,560.12,560.16,560.24,560.41,560.58,560.74,560.89,561.05,561.22,561.40,561.58,561.87,562.21,562.57,562.96,563.35,563.73,564.12,564.48,564.78,565.02,565.01,564.99,565.16,565.57,566.09,566.63,567.16,567.72,568.32,568.91,569.48,570.00,570.40,570.76,571.12,571.51,571.89,572.25,572.64,573.06,573.44,573.83,574.24,574.65,575.01,575.25,575.48,575.77,576.11,576.43,576.80,577.14,577.47,577.86,578.21,578.55,578.90,579.23,579.51,579.84,580.25,580.70,581.09,581.54,582.04,582.53,582.99,583.49,583.99,584.50,584.99,585.46,585.95,586.48,587.02,587.55,588.02,588.51,589.04,589.56,590.02,590.39,590.72
530.39,530.63,530.87,531.10,531.33,531.60,531.84,531.77,531.63,531.42,531.20,530.97,530.73,530.54,530.36,530.15,530.10,529.82,529.45,529.05,528.61,528.20,527.81,527.48,527.44,528.27,529.25,530.03,530.46,530.79,531.05,531.37,531.71,531.95,532.18,532.46,532.79,533.18,533.68,534.08,534.36,534.51,534.68,534.83,535.02,535.23,535.39,535.61,535.84,536.07,536.30,536.51,536.55,536.50,536.42,536.34,536.26,536.18,536.11,536.04,535.97,535.93,535.89,535.84,535.83,535.85,535.95,536.10,536.25,536.41,536.56,536.74,536.98,537.25,537.50,537.63,537.72,538.03,538.24,538.32,538.30,538.25,538.23,538.51,539.16,540.02,540.43,540.81,541.19,541.50,541.60,541.54,541.48,541.43,541.41,541.34,541.32,541.28,541.22,541.18,540.81,539.92,536.87,530.43,528.86,528.98,529.54,530.54,532.61,534.82,537.04,538.98,540.10,540.67,541.09,541.54,542.10,542.77,543.40,544.03,544.66,545.12,545.41,545.57,545.56,545.30,545.00,544.68,544.37,544.25,544.87,545.57,546.30,547.05,547.75,548.45,549.14,549.67,549.91,550.14,550.37,550.59,550.81,550.98,551.19,551.46,551.76,552.05,552.30,552.59,552.90,553.21,553.52,553.83,554.14,554.42,554.63,554.79,555.03,555.33,555.66,556.05,556.45,556.83,557.20,557.60,558.03,558.47,558.89,559.28,559.69,559.94,560.07,560.10,560.18,560.38,560.57,560.74,560.89,561.06,561.25,561.46,561.64,561.94,562.30,562.69,563.08,563.46,563.85,564.23,564.58,564.91,565.39,565.48,565.39,565.41,565.73,566.19,566.70,567.23,567.79,568.39,568.99,569.55,570.02,570.41,570.79,571.17,571.56,571.93,572.26,572.62,573.00,573.39,573.78,574.21,574.63,575.00,575.25,575.50,575.81,576.18,576.50,576.87,577.21,577.55,577.94,578.32,578.65,579.00,579.37,579.68,580.07,580.49,580.93,581.35,581.80,582.27,582.73,583.19,583.66,584.18,584.67,585.13,585.60,586.06,586.57,587.10,587.62,588.09,588.61,589.15,589.66,590.05,590.43,590.77
530.20,530.45,530.73,530.97,531.20,531.47,531.70,531.59,531.39,531.16,530.93,530.71,530.47,530.25,530.03,529.81,529.62,529.37,529.08,528.74,528.34,527.90,527.49,527.30,527.74,528.71,529.61,530.27,530.67,531.04,531.35,531.69,532.04,532.27,532.50,532.78,533.08,533.37,533.77,534.07,534.29,534.46,534.67,534.83,535.00,535.17,535.32,535.55,535.78,536.01,536.22,536.34,536.32,536.22,536.09,536.01,535.94,535.86,535.80,535.78,535.70,535.60,535.52,535.51,535.51,535.61,535.75,535.90,536.06,536.21,536.37,536.53,536.70,536.89,537.11,537.29,537.40,537.48,537.49,537.48,537.48,537.45,537.40,537.96,538.94,539.99,540.37,540.75,541.10,541.32,541.24,541.15,541.12,541.09,541.02,540.95,540.93,540.89,540.83,540.80,540.47,537.98,533.86,529.74,528.86,529.13,529.93,531.28,533.39,535.62,537.69,539.38,540.26,540.80,541.25,541.73,542.29,542.91,543.49,544.05,544.61,545.06,545.44,545.69,545.84,545.79,545.51,545.16,544.82,544.70,545.33,546.02,546.73,547.45,548.20,548.91,549.38,549.68,549.91,550.08,550.30,550.53,550.76,550.97,551.15,551.37,551.62,551.87,552.15,552.46,552.77,553.08,553.39,553.70,554.01,554.27,554.38,554.53,554.71,554.96,555.34,555.78,556.22,556.62,556.95,557.34,557.68,558.03,558.38,558.78,559.27,559.66,559.91,560.03,560.11,560.31,560.53,560.73,560.89,561.10,561.29,561.47,561.70,562.00,562.37,562.75,563.14,563.53,563.91,564.26,564.59,564.94,565.60,565.88,565.94,566.01,566.15,566.41,566.80,567.31,567.90,568.47,569.03,569.57,570.08,570.48,570.82,571.17,571.55,571.88,572.24,572.62,573.00,573.39,573.77,574.17,574.57,574.94,575.24,575.53,575.87,576.26,576.62,576.95,577.31,577.68,578.06,578.39,578.75,579.13,579.50,579.82,580.24,580.66,581.09,581.59,582.06,582.53,582.99,583.45,583.92,584.40,584.87,585.33,585.80,586.25,586.73,587.21,587.69,588.15,588.67,589.21,589.72,590.12,590.45,590.77
530.04,530.34,530.64,530.88,531.12,531.31,531.42,531.34,531.22,531.02,530.76,530.53,530.27,530.00,529.73,529.44,529.20,528.94,528.67,528.38,528.02,527.61,527.21,527.17,528.07,529.18,529.96,530.48,530.87,531.25,531.63,532.00,532.33,532.59,532.83,533.07,533.28,533.46,533.67,533.87,534.04,534.16,534.33,534.49,534.66,534.87,535.16,535.43,535.65,535.86,536.06,536.12,536.07,535.97,535.86,535.77,535.67,535.58,535.52,535.48,535.40,535.30,535.19,535.15,535.22,535.38,535.56,535.71,535.86,536.02,536.20,536.37,536.52,536.68,536.71,536.74,536.77,536.74,536.70,536.68,536.67,536.63,536.59,537.40,538.66,539.90,540.31,540.65,540.91,541.00,540.86,540.80,540.76,540.71,540.63,540.56,540.54,540.50,540.38,540.06,539.03,535.67,531.53,529.20,528.89,529.33,530.36,532.05,534.02,536.08,538.01,539.59,540.37,540.88,541.35,541.85,542.42,542.98,543.51,544.06,544.58,545.04,545.41,545.73,546.00,546.13,545.96,545.65,545.32,545.19,545.79,546.48,547.17,547.88,548.60,549.13,549.43,549.64,549.87,550.09,550.32,550.54,550.74,550.96,551.13,551.32,551.52,551.73,552.02,552.33,552.64,552.95,553.26,553.57,553.84,554.05,554.13,554.30,554.49,554.73,555.11,555.59,556.01,556.39,556.73,557.08,557.39,557.73,558.07,558.44,558.89,559.28,559.59,559.80,559.98,560.20,560.47,560.74,560.93,561.13,561.32,561.52,561.77,562.10,562.48,562.86,563.24,563.60,563.95,564.28,564.59,564.95,565.63,566.06,566.34,566.59,566.71,566.87,567.12,567.49,568.00,568.54,569.08,569.61,570.10,570.50,570.83,571.16,571.51,571.85,572.20,572.58,572.96,573.35,573.73,574.12,574.51,574.89,575.27,575.64,576.02,576.40,576.76,577.10,577.47,577.84,578.20,578.54,578.91,579.28,579.64,579.99,580.43,580.85,581.26,581.73,582.19,582.68,583.16,583.63,584.13,584.60,585.06,585.53,585.99,586.45,586.89,587.34,587.80,588.26,588.78,589.31,589.79,590.18,590.50,590.81
529.91,530.27,530.58,530.82,531.02,531.10,531.04,531.03,531.04,530.91,530.64,530.39,530.09,529.77,529.42,529.07,528.81,528.52,528.25,528.00,527.69,527.32,527.02,527.21,528.51,529.66,530.29,530.68,531.06,531.45,531.88,532.25,532.55,532.80,533.02,533.20,533.33,533.40,533.43,533.54,533.66,533.74,533.83,533.97,534.16,534.45,534.93,535.27,535.49,535.67,535.86,535.88,535.81,535.72,535.65,535.57,535.43,535.33,535.25,535.16,535.06,534.97,534.86,534.78,534.94,535.18,535.38,535.53,535.70,535.85,536.05,536.25,536.39,536.52,536.29,536.07,535.98,535.91,535.89,535.89,535.87,535.81,535.83,536.86,538.34,539.69,540.19,540.50,540.62,540.57,540.42,540.38,540.32,540.23,540.13,540.04,539.99,539.92,539.69,538.96,537.02,533.41,529.87,528.77,528.90,529.53,530.79,532.69,534.50,536.35,538.16,539.70,540.43,540.95,541.43,541.97,542.56,543.05,543.55,544.06,544.58,545.03,545.38,545.73,546.08,546.34,546.35,546.13,545.83,545.70,546.26,546.93,547.62,548.29,548.89,549.20,549.39,549.58,549.83,550.13,550.38,550.58,550.75,550.97,551.13,551.29,551.45,551.63,551.90,552.20,552.51,552.82,553.13,553.42,553.64,553.79,553.91,554.13,554.36,554.62,554.96,555.45,555.83,556.17,556.54,556.86,557.18,557.54,557.89,558.22,558.60,558.93,559.24,559.54,559.83,560.08,560.39,560.73,560.97,561.15,561.36,561.59,561.84,562.21,562.60,562.98,563.34,563.65,563.97,564.27,564.57,564.92,565.54,566.07,566.55,567.01,567.23,567.38,567.54,567.77,568.15,568.63,569.15,569.65,570.11,570.49,570.82,571.14,571.46,571.83,572.15,572.51,572.90,573.28,573.67,574.06,574.44,574.84,575.29,575.75,576.18,576.57,576.91,577.28,577.66,578.02,578.35,578.72,579.10,579.45,579.79,580.17,580.62,581.04,581.43,581.83,582.27,582.78,583.28,583.76,584.29,584.77,585.23,585.69,586.16,586.62,587.05,587.48,587.94,588.40,588.91,589.42,589.87,590.25,590.57,590.88
529.78,530.15,530.51,530.75,530.79,530.71,530.60,530.59,530.68,530.69,530.56,530.27,529.92,529.51,529.10,528.73,528.43,528.13,527.86,527.62,527.36,527.00,527.13,527.93,529.36,530.10,530.52,530.87,531.25,531.64,532.00,532.33,532.58,532.61,532.72,532.82,532.91,532.98,532.99,533.06,533.15,533.23,533.31,533.45,533.62,533.94,534.64,535.06,535.32,535.52,535.67,535.68,535.57,535.47,535.39,535.31,535.22,535.13,535.02,534.83,534.64,534.49,534.37,534.36,534.66,535.00,535.24,535.41,535.62,535.77,535.98,536.16,536.25,536.29,535.80,535.35,535.15,535.12,535.07,535.05,535.04,535.05,535.20,536.37,537.89,539.20,539.93,540.15,540.13,539.99,539.79,539.66,539.53,539.38,539.19,539.00,538.78,538.54,538.16,537.21,534.94,531.98,529.41,528.51,528.85,529.78,531.14,532.88,534.65,536.44,538.26,539.81,540.46,541.05,541.62,542.22,542.82,543.34,543.71,544.11,544.59,545.03,545.38,545.70,546.04,546.38,546.61,546.56,546.35,546.21,546.72,547.39,548.02,548.55,548.89,549.15,549.36,549.58,549.83,550.13,550.38,550.60,550.80,550.98,551.13,551.29,551.44,551.60,551.80,552.07,552.38,552.69,552.99,553.21,553.39,553.57,553.82,554.10,554.35,554.61,554.94,555.35,555.73,556.08,556.42,556.78,557.15,557.49,557.83,558.19,558.53,558.84,559.15,559.45,559.71,559.99,560.30,560.63,560.97,561.19,561.42,561.65,561.90,562.28,562.66,563.02,563.35,563.66,563.97,564.25,564.51,564.85,565.34,565.87,566.37,566.85,567.28,567.66,568.01,568.30,568.53,568.83,569.21,569.65,570.10,570.44,570.80,571.14,571.45,571.78,572.09,572.45,572.83,573.22,573.60,573.99,574.38,574.77,575.23,575.70,576.18,576.66,577.08,577.47,577.83,578.17,578.53,578.92,579.26,579.61,579.97,580.37,580.82,581.24,581.62,582.01,582.41,582.88,583.35,583.83,584.36,584.84,585.30,585.77,586.23,586.69,587.18,587.66,588.13,588.60,589.07,589.55,589.98,590.32,590.63,590.94
529.65,530.03,530.40,530.62,530.54,530.32,530.16,530.20,530.36,530.46,530.42,530.12,529.63,529.18,528.79,528.43,528.07,527.74,527.47,527.24,527.00,526.66,527.38,528.82,529.94,530.43,530.76,531.10,531.49,531.84,532.07,532.25,532.35,532.26,532.31,532.38,532.46,532.52,532.50,532.53,532.60,532.71,532.79,532.90,533.10,533.50,534.31,534.89,535.22,535.38,535.44,535.45,535.33,535.20,535.13,535.01,534.88,534.77,534.62,534.39,534.16,533.98,533.93,534.07,534.50,534.91,535.18,535.35,535.55,535.71,535.86,535.97,535.98,535.84,535.21,534.62,534.32,534.30,534.26,534.22,534.20,534.24,534.44,535.60,537.02,538.19,538.66,538.79,538.72,538.53,538.34,538.23,538.09,537.93,537.75,537.55,537.29,536.96,536.47,535.56,533.48,531.14,529.18,528.33,528.92,530.09,531.53,533.20,534.94,536.69,538.46,539.97,540.59,541.20,541.82,542.43,543.05,543.62,544.02,544.38,544.76,545.13,545.42,545.72,546.05,546.40,546.71,546.85,546.80,546.71,547.18,547.77,548.28,548.65,548.88,549.12,549.35,549.58,549.83,550.13,550.38,550.59,550.78,550.94,551.13,551.29,551.44,551.60,551.75,551.97,552.25,552.55,552.83,553.04,553.24,553.47,553.78,554.09,554.35,554.61,554.93,555.31,555.67,556.02,556.36,556.72,557.10,557.44,557.77,558.15,558.47,558.78,559.08,559.35,559.62,559.89,560.18,560.51,560.88,561.17,561.45,561.73,562.00,562.35,562.71,563.04,563.34,563.63,563.93,564.21,564.48,564.82,565.25,565.77,566.28,566.75,567.26,567.74,568.19,568.60,568.87,569.13,569.46,569.82,570.18,570.50,570.82,571.14,571.44,571.72,572.05,572.42,572.80,573.16,573.54,573.93,574.30,574.68,575.13,575.60,576.10,576.63,577.12,577.54,577.95,578.34,578.72,579.08,579.42,579.78,580.17,580.56,581.01,581.43,581.82,582.20,582.59,583.03,583.48,583.93,584.43,584.90,585.37,585.83,586.30,586.76,587.27,587.79,588.25,588.71,589.18,589.64,590.07,590.39,590.70,591.01
529.52,529.91,530.26,530.43,530.26,529.95,529.72,529.85,530.06,530.21,530.23,529.94,529.28,528.78,528.44,528.11,527.69,527.36,527.08,526.84,526.62,526.51,527.83,529.70,530.27,530.67,531.01,531.34,531.68,531.96,532.04,532.02,531.95,531.83,531.86,531.93,532.01,532.05,532.00,531.99,532.05,532.19,532.27,532.35,532.59,533.07,533.90,534.65,535.05,535.18,535.12,535.11,534.97,534.85,534.77,534.63,534.45,534.27,534.09,533.87,533.64,533.47,533.52,533.88,534.41,534.88,535.18,535.33,535.48,535.62,535.68,535.68,535.61,535.25,534.56,533.90,533.48,533.46,533.46,533.41,533.37,533.39,533.57,534.59,535.84,536.74,536.67,536.74,536.67,536.48,536.35,536.32,536.22,536.09,535.99,535.85,535.63,535.26,534.72,534.01,532.41,530.60,529.02,528.20,529.05,530.38,531.92,533.64,535.36,537.06,538.74,540.15,540.77,541.38,542.00,542.63,543.24,543.85,544.40,544.79,545.05,545.30,545.53,545.81,546.11,546.42,546.73,547.01,547.15,547.18,547.61,548.06,548.41,548.65,548.88,549.12,549.35,549.58,549.83,550.12,550.36,550.56,550.72,550.88,551.09,551.27,551.43,551.59,551.75,551.91,552.13,552.41,552.67,552.90,553.17,553.47,553.78,554.09,554.35,554.62,554.94,555.30,555.63,555.97,556.34,556.67,557.04,557.38,557.71,558.09,558.41,558.72,558.99,559.24,559.54,559.79,560.06,560.39,560.76,561.08,561.43,561.78,562.09,562.41,562.73,563.04,563.33,563.58,563.88,564.18,564.48,564.82,565.25,565.77,566.27,566.74,567.21,567.67,568.17,568.68,569.12,569.46,569.77,570.06,570.31,570.61,570.87,571.15,571.43,571.69,572.04,572.42,572.79,573.11,573.47,573.85,574.21,574.55,575.00,575.46,575.97,576.50,577.04,577.50,578.00,578.49,578.88,579.23,579.60,579.98,580.37,580.76,581.20,581.63,582.01,582.40,582.78,583.22,583.65,584.05,584.51,584.97,585.43,585.90,586.36,586.83,587.34,587.85,588.31,588.78,589.24,589.70,590.13,590.45,590.76,591.07
529.42,529.83,530.12,530.16,529.91,529.53,529.23,529.44,529.68,529.88,529.96,529.64,529.00,528.37,527.88,527.57,527.27,527.00,526.71,526.39,526.25,527.35,528.86,530.11,530.49,530.83,531.19,531.45,531.57,531.67,531.69,531.65,531.57,531.48,531.49,531.54,531.58,531.56,531.53,531.49,531.52,531.66,531.75,531.82,532.02,532.43,533.22,533.90,534.35,534.52,534.45,534.39,534.14,534.00,534.00,533.95,533.88,533.73,533.53,533.34,533.12,532.98,533.15,533.70,534.33,534.83,535.12,535.26,535.36,535.41,535.39,535.34,535.20,534.64,533.91,533.20,532.69,532.63,532.62,532.61,532.57,532.53,532.54,533.46,534.44,534.89,534.77,534.73,534.63,534.48,534.44,534.43,534.36,534.27,534.19,534.09,533.89,533.56,533.09,532.45,531.07,529.77,528.73,528.15,529.07,530.55,532.26,534.10,535.85,537.56,539.09,540.29,540.90,541.52,542.14,542.76,543.38,543.99,544.56,545.00,545.31,545.54,545.77,546.02,546.28,546.54,546.85,547.12,547.32,547.50,547.84,548.16,548.42,548.65,548.88,549.12,549.35,549.58,549.82,550.07,550.27,550.44,550.61,550.81,550.99,551.15,551.33,551.53,551.69,551.84,552.04,552.30,552.58,552.87,553.16,553.47,553.78,554.09,554.38,554.68,554.98,555.27,555.57,555.91,556.29,556.65,556.99,557.34,557.70,558.03,558.39,558.68,558.92,559.17,559.47,559.72,559.99,560.31,560.64,561.00,561.34,561.69,562.04,562.36,562.70,563.02,563.28,563.57,563.87,564.17,564.48,564.82,565.25,565.74,566.22,566.68,567.14,567.61,568.11,568.64,569.15,569.58,569.89,570.14,570.38,570.63,570.91,571.18,571.45,571.73,572.05,572.45,572.84,573.10,573.38,573.73,574.08,574.41,574.81,575.31,575.84,576.38,576.91,577.39,577.90,578.42,578.91,579.38,579.79,580.18,580.56,580.95,581.40,581.82,582.20,582.59,582.98,583.38,583.78,584.17,584.58,585.03,585.50,585.96,586.43,586.93,587.44,587.92,588.38,588.84,589.31,589.75,590.14,590.46,590.81,591.14
529.35,529.75,530.01,529.91,529.59,529.15,528.80,528.91,529.13,529.35,529.43,529.13,528.59,527.98,527.42,527.01,526.76,526.53,526.32,526.27,526.77,528.40,529.69,530.35,530.66,530.97,531.24,531.38,531.34,531.31,531.28,531.25,531.19,531.12,531.08,531.10,531.12,531.08,531.04,530.98,531.01,531.14,531.20,531.25,531.38,531.70,532.40,532.94,533.28,533.41,533.33,533.23,533.03,532.98,533.07,533.08,533.08,533.02,532.93,532.78,532.54,532.55,532.86,533.45,534.04,534.57,534.95,535.15,535.17,535.01,534.77,534.56,534.38,533.93,533.25,532.52,531.93,531.82,531.79,531.77,531.75,531.67,531.60,532.29,532.91,533.00,532.85,532.73,532.61,532.52,532.55,532.55,532.51,532.45,532.38,532.30,532.14,531.87,531.48,530.92,529.92,529.04,528.42,528.23,529.18,530.74,532.55,534.46,536.29,538.08,539.48,540.43,541.01,541.60,542.19,542.79,543.41,544.00,544.55,545.04,545.43,545.67,545.90,546.14,546.37,546.61,546.88,547.13,547.37,547.60,547.88,548.13,548.36,548.59,548.82,549.05,549.30,549.55,549.78,550.01,550.17,550.31,550.47,550.67,550.84,551.01,551.20,551.40,551.58,551.78,552.00,552.24,552.55,552.86,553.16,553.47,553.78,554.09,554.40,554.70,555.01,555.27,555.55,555.87,556.23,556.62,556.94,557.29,557.65,557.97,558.35,558.63,558.86,559.11,559.41,559.65,559.93,560.24,560.55,560.90,561.23,561.57,561.95,562.34,562.74,563.10,563.37,563.63,563.89,564.16,564.45,564.78,565.22,565.69,566.15,566.61,567.08,567.54,568.03,568.56,569.12,569.62,569.94,570.18,570.41,570.64,570.93,571.20,571.45,571.75,572.07,572.47,572.88,573.19,573.48,573.79,574.11,574.40,574.74,575.21,575.75,576.32,576.85,577.37,577.90,578.45,579.01,579.56,579.97,580.33,580.69,581.08,581.51,581.91,582.31,582.68,583.08,583.46,583.85,584.24,584.62,585.04,585.51,586.00,586.47,587.00,587.49,587.96,588.44,588.91,589.39,589.82,590.18,590.51,590.87,591.22
529.30,529.67,529.88,529.67,529.28,528.83,528.44,528.29,528.42,528.60,528.66,528.41,528.04,527.59,527.05,526.47,526.19,526.03,526.07,526.60,528.12,529.45,530.17,530.47,530.77,531.06,531.17,531.13,531.01,530.93,530.86,530.82,530.79,530.72,530.65,530.62,530.61,530.58,530.50,530.44,530.47,530.58,530.60,530.62,530.67,530.89,531.46,531.82,531.95,531.94,531.85,531.72,531.73,531.86,532.03,532.04,532.05,532.19,532.31,532.19,531.92,532.11,532.55,533.05,533.48,534.03,534.50,534.77,534.68,534.19,533.63,533.21,533.01,532.92,532.40,531.73,531.15,530.99,530.90,530.87,530.84,530.76,530.67,531.00,531.22,531.09,530.89,530.74,530.65,530.62,530.67,530.68,530.67,530.64,530.56,530.49,530.39,530.19,529.85,529.43,529.00,528.48,528.14,528.45,529.46,531.06,532.91,534.85,536.75,538.62,539.90,540.61,541.09,541.63,542.17,542.74,543.33,543.88,544.42,544.96,545.42,545.65,545.89,546.13,546.36,546.59,546.83,547.07,547.29,547.52,547.76,548.00,548.23,548.46,548.69,548.93,549.20,549.48,549.71,549.93,550.06,550.17,550.33,550.49,550.65,550.85,551.05,551.23,551.45,551.72,552.00,552.24,552.55,552.86,553.16,553.47,553.78,554.09,554.40,554.70,555.02,555.32,555.57,555.85,556.18,556.55,556.87,557.23,557.59,557.91,558.29,558.56,558.79,559.04,559.34,559.59,559.86,560.16,560.47,560.78,561.10,561.45,561.86,562.37,562.85,563.27,563.61,563.79,563.98,564.18,564.43,564.74,565.17,565.63,566.09,566.55,567.01,567.47,567.94,568.45,569.04,569.60,569.95,570.18,570.41,570.64,570.93,571.20,571.45,571.76,572.07,572.47,572.92,573.36,573.73,574.03,574.29,574.53,574.78,575.20,575.74,576.34,576.89,577.48,578.05,578.61,579.21,579.75,580.12,580.44,580.77,581.15,581.54,581.92,582.31,582.69,583.08,583.46,583.85,584.24,584.62,585.02,585.48,586.00,586.48,587.00,587.50,587.99,588.51,588.98,589.50,589.93,590.26,590.63,590.97,591.31
529.13,529.41,529.40,529.18,528.88,528.56,528.24,527.90,527.78,527.80,527.83,527.60,527.32,526.95,526.49,525.98,525.67,526.11,526.88,527.85,529.20,529.96,530.36,530.58,530.78,530.87,530.85,530.78,530.67,530.55,530.46,530.40,530.36,530.32,530.25,530.13,530.00,529.90,529.73,529.74,529.80,529.85,529.85,529.93,529.99,530.10,530.40,530.55,530.59,530.56,530.48,530.38,530.56,530.82,531.00,531.01,531.09,531.48,531.80,531.62,531.37,531.36,531.53,531.85,532.23,532.73,532.89,532.73,532.39,531.70,531.16,530.81,530.61,530.54,530.37,530.14,529.92,529.76,529.63,529.52,529.43,529.34,529.18,529.16,529.06,528.86,528.80,528.79,528.82,528.88,528.91,528.91,528.91,528.88,528.80,528.72,528.58,528.36,528.15,528.12,528.16,528.15,528.30,528.97,530.20,531.99,534.01,536.03,537.82,539.33,540.29,540.80,541.27,541.75,542.25,542.75,543.26,543.76,544.30,544.84,545.30,545.50,545.76,546.01,546.26,546.53,546.77,546.97,547.17,547.40,547.63,547.87,548.10,548.33,548.57,548.84,549.11,549.36,549.58,549.77,549.91,550.02,550.14,550.30,550.49,550.68,550.88,551.14,551.42,551.71,552.00,552.24,552.55,552.86,553.16,553.47,553.78,554.13,554.43,554.70,555.02,555.33,555.62,555.90,556.21,556.50,556.81,557.16,557.54,557.89,558.23,558.50,558.73,558.97,559.28,559.52,559.77,560.03,560.30,560.60,560.97,561.40,561.89,562.43,562.95,563.42,563.83,564.13,564.35,564.52,564.66,564.85,565.19,565.59,566.02,566.48,566.95,567.37,567.84,568.36,568.94,569.61,570.01,570.22,570.41,570.64,570.93,571.20,571.45,571.76,572.11,572.50,572.92,573.38,573.77,574.16,574.50,574.77,575.01,575.42,575.94,576.51,577.10,577.72,578.29,578.85,579.45,579.91,580.29,580.60,580.89,581.27,581.65,582.01,582.37,582.75,583.14,583.49,583.85,584.24,584.62,585.04,585.53,586.07,586.58,587.07,587.58,588.10,588.63,589.10,589.62,590.06,590.38,590.76,591.09,591.44
528.85,528.97,528.79,528.57,528.34,528.11,527.84,527.46,527.19,527.07,527.01,526.76,526.53,526.21,525.86,525.58,525.59,526.46,527.61,528.75,529.80,530.18,530.38,530.54,530.61,530.56,530.48,530.39,530.24,530.00,529.81,529.66,529.53,529.44,529.29,529.10,528.90,528.72,528.53,528.67,528.87,528.95,528.97,529.09,529.16,529.20,529.34,529.40,529.43,529.42,529.36,529.27,529.53,529.79,529.92,530.00,530.32,530.90,531.30,531.08,530.87,530.69,530.62,530.67,530.82,531.05,530.93,530.50,530.03,529.33,528.86,528.56,528.32,528.16,528.10,528.07,528.02,527.92,527.88,527.82,527.77,527.74,527.63,527.50,527.35,527.22,527.29,527.36,527.47,527.58,527.63,527.73,527.80,527.86,527.88,527.91,527.83,527.69,527.62,527.85,528.13,528.44,529.01,530.20,531.79,533.63,535.59,537.49,538.93,539.96,540.59,540.99,541.41,541.87,542.33,542.79,543.26,543.72,544.23,544.74,545.17,545.39,545.65,545.91,546.16,546.44,546.68,546.87,547.06,547.28,547.50,547.74,547.97,548.20,548.46,548.75,548.98,549.19,549.39,549.56,549.70,549.83,549.93,550.12,550.35,550.56,550.79,551.10,551.41,551.71,552.00,552.24,552.55,552.86,553.16,553.47,553.79,554.14,554.43,554.71,555.04,555.33,555.63,555.94,556.24,556.50,556.78,557.11,557.48,557.86,558.18,558.44,558.67,558.90,559.16,559.39,559.61,559.85,560.14,560.49,560.92,561.41,561.95,562.49,563.03,563.54,564.00,564.41,564.70,564.86,564.94,565.08,565.35,565.69,566.08,566.50,566.89,567.28,567.76,568.32,568.92,569.63,570.05,570.26,570.44,570.65,570.93,571.22,571.48,571.76,572.13,572.53,572.95,573.39,573.80,574.23,574.64,575.01,575.38,575.78,576.25,576.79,577.39,577.98,578.55,579.11,579.67,580.08,580.45,580.77,581.04,581.40,581.77,582.11,582.46,582.84,583.21,583.55,583.90,584.28,584.65,585.09,585.60,586.13,586.65,587.14,587.66,588.19,588.71,589.20,589.72,590.17,590.51,590.89,591.23,591.59
528.44,528.31,528.09,527.86,527.63,527.40,527.17,526.92,526.68,526.47,526.25,525.96,525.72,525.43,525.22,525.32,526.08,527.01,527.97,528.92,529.81,530.11,530.22,530.26,530.19,530.11,530.01,529.88,529.60,529.14,528.76,528.44,528.16,527.88,527.54,527.31,527.13,526.92,526.83,527.17,527.61,527.89,527.93,528.05,528.12,528.16,528.32,528.45,528.55,528.59,528.57,528.44,528.65,528.78,528.80,529.05,529.80,530.47,530.77,530.53,530.35,530.17,529.96,529.68,529.34,529.09,528.81,528.46,528.06,527.56,527.14,526.82,526.54,526.23,525.98,525.75,525.56,525.57,525.78,525.95,526.07,526.19,526.30,526.40,526.51,526.61,526.69,526.77,526.85,526.96,527.12,527.44,527.70,527.95,528.23,528.50,528.64,528.72,528.82,529.06,529.33,529.69,530.54,532.41,534.43,536.07,537.61,539.07,539.90,540.38,540.78,541.15,541.50,541.94,542.40,542.86,543.32,543.78,544.25,544.69,545.07,545.36,545.61,545.84,546.08,546.32,546.55,546.77,546.97,547.15,547.38,547.61,547.84,548.09,548.38,548.63,548.82,548.98,549.14,549.30,549.46,549.58,549.71,549.98,550.22,550.50,550.79,551.10,551.41,551.71,552.00,552.24,552.55,552.86,553.16,553.47,553.78,554.10,554.41,554.73,555.08,555.34,555.63,555.94,556.25,556.55,556.80,557.08,557.42,557.79,558.11,558.36,558.59,558.80,558.98,559.15,559.35,559.62,560.01,560.50,560.99,561.48,562.02,562.56,563.10,563.61,564.09,564.59,564.93,565.11,565.24,565.45,565.69,565.98,566.30,566.61,566.88,567.23,567.72,568.34,569.00,569.63,570.02,570.26,570.48,570.66,570.93,571.24,571.52,571.77,572.13,572.56,573.00,573.40,573.85,574.26,574.70,575.24,575.86,576.27,576.68,577.17,577.72,578.27,578.82,579.36,579.87,580.27,580.61,580.92,581.22,581.54,581.86,582.21,582.59,582.97,583.29,583.65,584.03,584.40,584.73,585.15,585.65,586.18,586.66,587.18,587.72,588.24,588.72,589.25,589.78,590.25,590.63,591.02,591.39,591.74
527.84,527.66,527.43,527.24,527.05,526.85,526.63,526.43,526.25,526.06,525.85,525.59,525.32,525.02,524.98,525.53,526.44,527.38,528.23,528.97,529.63,529.75,529.66,529.49,529.23,528.93,528.66,528.38,528.03,527.55,527.14,526.77,526.43,526.11,525.74,525.50,525.33,525.17,525.16,525.63,526.21,526.66,526.85,526.98,527.07,527.18,527.33,527.45,527.57,527.67,527.74,527.69,527.81,527.84,527.81,528.14,529.18,529.95,530.13,529.64,529.25,528.88,528.49,528.09,527.68,527.31,526.98,526.65,526.25,525.81,525.48,525.38,525.50,525.56,525.67,525.77,525.83,525.97,526.22,526.44,526.63,526.77,526.89,527.00,527.14,527.33,527.46,527.54,527.64,527.81,528.11,528.52,528.96,529.50,530.10,530.43,530.63,530.79,531.03,531.57,532.15,532.96,534.15,535.85,537.52,538.48,539.17,539.85,540.29,540.59,540.92,541.30,541.66,542.07,542.49,542.89,543.28,543.74,544.20,544.65,545.04,545.31,545.55,545.78,546.00,546.19,546.42,546.65,546.87,547.07,547.25,547.48,547.73,548.01,548.26,548.46,548.60,548.72,548.89,549.08,549.28,549.46,549.65,549.91,550.19,550.48,550.79,551.10,551.41,551.71,552.00,552.24,552.55,552.86,553.16,553.47,553.78,554.09,554.40,554.72,555.05,555.33,555.63,555.94,556.25,556.56,556.80,557.08,557.40,557.73,557.96,558.16,558.35,558.53,558.69,558.88,559.09,559.39,559.91,560.49,561.02,561.54,562.09,562.67,563.19,563.69,564.20,564.73,565.08,565.34,565.55,565.78,566.01,566.27,566.53,566.79,567.03,567.31,567.71,568.20,568.72,569.25,569.70,570.08,570.39,570.64,570.93,571.24,571.53,571.78,572.13,572.57,573.02,573.45,573.87,574.29,574.77,575.34,576.01,576.55,577.06,577.61,578.11,578.64,579.18,579.67,580.08,580.42,580.74,581.05,581.36,581.67,581.98,582.33,582.72,583.10,583.41,583.77,584.14,584.47,584.75,585.13,585.61,586.14,586.66,587.19,587.71,588.20,588.72,589.25,589.76,590.21,590.61,591.03,591.42,591.79
527.25,527.08,526.88,526.71,526.56,526.37,526.15,526.00,525.84,525.70,525.53,525.30,525.00,524.79,524.96,525.76,526.58,527.40,528.12,528.67,529.04,528.89,528.59,528.25,527.84,527.39,526.99,526.61,526.23,525.77,525.38,525.00,524.63,524.30,523.94,523.69,523.53,523.43,523.53,524.08,524.74,525.31,525.71,525.92,526.07,526.22,526.36,526.44,526.57,526.72,526.84,526.88,526.95,526.92,526.88,527.22,528.27,529.00,529.07,528.42,527.87,527.31,526.80,526.35,525.98,525.67,525.45,525.28,525.08,524.81,524.71,524.88,525.33,525.72,526.15,526.54,526.84,527.06,527.27,527.50,527.70,527.83,527.91,527.99,528.14,528.35,528.52,528.64,528.87,529.26,529.81,530.40,531.08,531.94,532.88,533.23,533.41,533.64,534.05,534.85,535.54,536.46,537.58,538.72,539.78,540.12,540.20,540.32,540.53,540.74,541.04,541.42,541.80,542.19,542.58,542.94,543.28,543.72,544.17,544.61,545.01,545.25,545.47,545.69,545.91,546.09,546.30,546.52,546.75,546.97,547.15,547.36,547.61,547.88,548.10,548.27,548.41,548.54,548.72,548.94,549.18,549.41,549.64,549.88,550.17,550.48,550.79,551.10,551.41,551.71,551.98,552.24,552.55,552.86,553.16,553.47,553.78,554.09,554.40,554.70,555.02,555.33,555.63,555.94,556.25,556.54,556.79,557.06,557.34,557.59,557.76,557.92,558.08,558.22,558.39,558.65,558.93,559.25,559.84,560.45,561.02,561.56,562.11,562.72,563.24,563.75,564.29,564.83,565.18,565.47,565.74,565.98,566.22,566.46,566.69,566.92,567.15,567.38,567.69,568.09,568.47,568.91,569.38,569.84,570.24,570.57,570.90,571.22,571.53,571.78,572.14,572.58,573.02,573.48,573.88,574.32,574.82,575.40,576.08,576.73,577.36,577.95,578.45,578.98,579.51,579.97,580.29,580.59,580.89,581.20,581.49,581.80,582.11,582.46,582.84,583.21,583.54,583.88,584.21,584.50,584.75,585.09,585.55,586.09,586.63,587.17,587.67,588.17,588.69,589.23,589.72,590.15,590.56,591.01,591.40,591.79
526.80,526.64,526.48,526.33,526.17,525.99,525.77,525.61,525.45,525.33,525.21,524.98,524.68,524.74,525.14,525.77,526.31,526.84,527.35,527.74,527.73,527.24,526.76,526.35,525.90,525.50,525.11,524.74,524.40,523.95,523.60,523.25,522.87,522.50,522.18,521.92,521.75,521.71,521.95,522.53,523.20,523.83,524.46,524.91,525.17,525.32,525.40,525.48,525.61,525.74,525.84,525.96,526.05,526.04,526.01,526.21,526.84,527.28,527.28,526.72,526.18,525.61,525.08,524.66,524.36,524.26,524.39,524.70,525.02,525.30,525.63,526.05,526.49,526.89,527.28,527.67,528.00,528.17,528.34,528.54,528.73,528.82,528.89,528.97,529.11,529.34,529.55,529.71,530.25,531.15,532.14,533.15,534.17,535.38,536.67,536.96,537.12,537.43,538.02,538.90,539.17,539.38,539.65,539.93,540.19,540.32,540.42,540.57,540.74,540.90,541.15,541.48,541.87,542.25,542.64,543.02,543.40,543.80,544.19,544.59,544.95,545.18,545.36,545.57,545.79,546.01,546.18,546.39,546.63,546.86,547.07,547.25,547.46,547.68,547.85,548.07,548.28,548.49,548.71,548.94,549.18,549.41,549.64,549.88,550.17,550.48,550.79,551.10,551.41,551.67,551.93,552.23,552.55,552.85,553.16,553.47,553.78,554.09,554.40,554.70,555.02,555.33,555.63,555.94,556.24,556.48,556.77,557.00,557.17,557.34,557.50,557.66,557.82,557.98,558.15,558.57,558.96,559.30,559.79,560.38,560.96,561.50,562.05,562.66,563.21,563.75,564.30,564.88,565.20,565.44,565.68,565.92,566.21,566.46,566.69,566.92,567.16,567.39,567.70,568.09,568.47,568.87,569.23,569.61,570.04,570.43,570.81,571.18,571.53,571.78,572.19,572.61,573.02,573.48,573.88,574.32,574.84,575.46,576.15,576.84,577.49,578.10,578.69,579.24,579.74,580.18,580.54,580.80,581.09,581.37,581.63,581.93,582.24,582.59,582.96,583.28,583.65,583.94,584.19,584.45,584.74,585.06,585.48,586.02,586.56,587.10,587.64,588.15,588.63,589.17,589.65,590.11,590.55,590.95,591.34,591.73
526.37,526.25,526.09,525.93,525.78,525.60,525.38,525.22,525.06,524.95,524.85,524.64,524.36,524.30,524.56,525.08,525.51,525.97,526.43,526.72,526.38,525.75,525.14,524.61,524.11,523.64,523.20,522.83,522.54,522.17,521.82,521.46,521.15,520.92,520.69,520.56,520.51,520.55,520.71,521.27,522.05,522.91,523.78,524.30,524.59,524.75,524.84,524.91,525.04,525.16,525.25,525.40,525.40,525.26,525.08,525.08,525.26,525.49,525.45,524.91,524.54,524.41,524.39,524.42,524.51,524.69,525.02,525.45,525.87,526.26,526.70,527.16,527.62,528.05,528.44,528.81,529.13,529.37,529.60,529.81,529.96,530.03,530.03,529.98,530.01,530.21,530.39,530.56,531.06,531.97,533.22,534.84,536.49,537.92,538.83,539.02,539.11,539.27,539.59,540.07,540.19,540.25,540.32,540.37,540.43,540.54,540.66,540.78,540.93,541.12,541.33,541.60,541.99,542.37,542.76,543.14,543.53,543.92,544.30,544.63,544.89,545.12,545.28,545.48,545.72,545.94,546.11,546.31,546.54,546.77,546.96,547.15,547.37,547.59,547.79,548.02,548.25,548.48,548.71,548.94,549.18,549.41,549.64,549.88,550.17,550.48,550.78,551.05,551.36,551.64,551.92,552.23,552.55,552.82,553.11,553.42,553.73,554.04,554.32,554.62,554.97,555.31,555.63,555.92,556.18,556.38,556.60,556.76,556.88,557.04,557.19,557.40,557.67,558.00,558.35,558.85,559.21,559.41,559.70,560.23,560.81,561.38,561.93,562.54,563.13,563.71,564.30,564.89,565.20,565.43,565.68,565.95,566.21,566.46,566.71,566.97,567.21,567.44,567.75,568.14,568.52,568.87,569.19,569.53,569.91,570.30,570.71,571.12,571.50,571.81,572.22,572.62,573.01,573.44,573.87,574.34,574.91,575.57,576.26,576.93,577.56,578.19,578.84,579.44,579.95,580.38,580.75,581.04,581.31,581.58,581.85,582.12,582.42,582.75,583.08,583.35,583.65,583.93,584.19,584.42,584.70,585.02,585.47,586.00,586.50,587.04,587.58,588.10,588.57,589.10,589.59,590.05,590.50,590.89,591.27,591.68
