540.68,540.42,540.25,540.16,540.08,540.06,540.09,540.20,540.49,540.86,541.25,541.65,542.07,542.28,542.30,542.25,542.19,542.18,542.18,542.18,542.19,542.26,542.35,542.47,542.60,542.65,542.65,542.65,542.65,542.65,542.65,542.60,542.50,542.34,542.03,541.72,541.61,541.52,541.25,540.88,540.82,540.93,541.11,541.31,541.23,541.06,540.88,540.65,540.48,540.43,540.47,540.55,540.69,540.90,541.13,541.36,541.58,541.75,541.95,542.18,542.37,542.34,542.16,541.90,541.59,541.28,541.04,540.77,540.44,539.96,538.90,536.79,534.89,534.00,533.40,533.70,534.37,535.95,540.05,543.03,544.55,545.13,545.21,545.29,545.31,545.35,545.43,545.49,545.50,545.55,545.60,545.61,545.61,545.50,545.32,545.11,544.93,544.66,544.39,544.14,543.84,543.53,543.23,542.97,542.87,543.05,543.28,543.49,543.67,543.89,544.12,544.30,544.44,544.50,544.38,544.14,543.97,543.97,543.94,543.46,543.01,542.98,543.73,544.44,544.86,545.02,545.04,545.04,545.04,545.04,545.02,545.02,545.02,545.02,545.00,544.94,544.93,544.92,544.89,544.84,544.84,544.89,545.01,545.18,545.39,545.55,545.75,545.98,546.18,546.28,546.32,546.30,546.22,546.15,546.14,546.13,546.09,545.99,545.84,545.68,545.49,545.25,544.92,543.97,543.91,544.83,545.15,545.34,545.50,545.62,545.64,545.64,545.64,545.64,545.64,545.64,545.69,545.72,545.76,545.91,546.06,546.17,546.22,546.21,546.21,546.21,546.22,546.22,546.23,546.28,546.32,546.35,546.40,546.41,546.30,546.14,545.98,545.75,545.58,545.39,545.20,545.13,545.12,545.13,545.13,545.13,545.05,544.98,544.94,544.93,544.91,544.85,544.82,544.81,544.80,544.74,544.71,544.61,544.37,544.14,543.91,543.64,543.36,543.13,542.89,542.66,542.45,542.27,542.24,542.23,542.23,542.23,542.24,542.30,542.42,542.57,542.74,542.95,543.09,543.18,543.26,543.33,543.35,543.42,543.55,543.64,543.78,543.85,543.82,543.75,543.68,543.81,544.01,544.23,544.40,544.62
541.01,540.83,540.68,540.61,540.48,540.43,540.45,540.51,540.76,541.11,541.50,541.89,542.29,542.63,542.76,542.77,542.76,542.75,542.75,542.75,542.77,542.85,542.92,543.05,543.15,543.12,543.11,543.11,543.11,543.11,543.11,543.10,543.09,543.06,542.85,542.56,542.45,542.30,541.90,541.46,541.29,541.34,541.55,541.76,541.67,541.49,541.25,540.97,540.76,540.69,540.70,540.74,540.83,540.99,541.20,541.43,541.65,541.81,542.02,542.25,542.46,542.57,542.46,542.22,541.91,541.61,541.36,541.12,540.87,540.61,540.12,539.25,537.44,534.85,533.92,533.63,533.91,535.38,539.35,543.27,544.90,545.14,545.27,545.36,545.41,545.48,545.55,545.57,545.58,545.62,545.69,545.73,545.69,545.56,545.40,545.22,545.01,544.77,544.53,544.28,543.97,543.66,543.39,543.15,543.00,543.19,543.42,543.64,543.86,544.09,544.27,544.46,544.64,544.70,544.68,544.53,544.45,544.52,544.36,543.85,543.25,543.00,543.80,544.61,545.06,545.26,545.35,545.37,545.37,545.34,545.30,545.30,545.30,545.30,545.29,545.26,545.21,545.19,545.18,545.17,545.17,545.18,545.24,545.34,545.46,545.62,545.81,546.03,546.20,546.39,546.53,546.55,546.49,546.41,546.39,546.33,546.20,546.00,545.80,545.59,545.39,545.17,544.77,544.11,544.19,544.96,545.18,545.39,545.60,545.78,545.88,545.89,545.89,545.89,545.89,545.89,545.91,545.92,545.94,546.04,546.19,546.33,546.40,546.35,546.35,546.35,546.37,546.42,546.42,546.44,546.48,546.53,546.54,546.54,546.39,546.21,546.04,545.82,545.64,545.48,545.33,545.26,545.30,545.36,545.41,545.45,545.38,545.35,545.31,545.25,545.14,545.10,545.06,545.02,545.01,544.94,544.84,544.65,544.38,544.14,543.91,543.67,543.42,543.18,542.90,542.72,542.61,542.50,542.49,542.49,542.49,542.49,542.50,542.56,542.68,542.84,543.00,543.17,543.39,543.57,543.64,543.72,543.69,543.71,543.82,543.96,544.11,544.20,544.21,544.13,544.06,544.00,544.08,544.31,544.52,544.75
541.42,541.29,541.17,541.06,540.94,540.86,540.82,540.83,541.03,541.37,541.76,542.14,542.53,542.89,543.12,543.25,543.31,543.34,543.34,543.34,543.36,543.43,543.51,543.58,543.61,543.57,543.56,543.56,543.56,543.56,543.56,543.59,543.64,543.69,543.63,543.42,543.25,543.01,542.55,542.09,541.80,541.77,542.00,542.21,542.10,541.88,541.61,541.33,541.10,540.97,540.93,540.96,541.01,541.12,541.28,541.49,541.71,541.88,542.08,542.32,542.54,542.73,542.70,542.52,542.23,541.93,541.71,541.51,541.30,541.07,540.86,540.57,539.32,536.80,534.71,533.82,533.84,535.10,538.76,543.31,545.08,545.18,545.30,545.38,545.48,545.58,545.64,545.67,545.67,545.72,545.79,545.82,545.76,545.63,545.48,545.31,545.08,544.87,544.64,544.38,544.10,543.82,543.57,543.35,543.19,543.30,543.51,543.74,543.98,544.24,544.43,544.64,544.83,544.90,544.91,544.87,544.87,544.91,544.72,544.22,543.58,543.20,543.86,544.65,545.12,545.36,545.53,545.63,545.65,545.63,545.58,545.56,545.55,545.55,545.55,545.51,545.47,545.45,545.45,545.45,545.45,545.45,545.47,545.53,545.62,545.75,545.94,546.13,546.28,546.48,546.67,546.77,546.73,546.63,546.54,546.40,546.20,545.98,545.77,545.55,545.33,545.10,544.63,544.24,544.42,545.06,545.26,545.48,545.72,545.92,546.06,546.10,546.11,546.11,546.11,546.11,546.11,546.11,546.13,546.21,546.33,546.48,546.56,546.52,546.51,546.51,546.54,546.58,546.61,546.61,546.64,546.68,546.70,546.65,546.47,546.26,546.07,545.87,545.71,545.57,545.46,545.43,545.49,545.55,545.60,545.66,545.66,545.67,545.65,545.56,545.41,545.34,545.28,545.24,545.20,545.11,544.93,544.69,544.41,544.15,543.91,543.68,543.44,543.22,542.99,542.88,542.82,542.76,542.76,542.76,542.76,542.76,542.76,542.79,542.94,543.12,543.25,543.40,543.67,543.90,544.02,544.08,544.05,544.03,544.09,544.25,544.42,544.54,544.57,544.52,544.41,544.27,544.27,544.46,544.71,544.90
541.89,541.77,541.67,541.53,541.43,541.31,541.20,541.16,541.30,541.63,542.01,542.39,542.77,543.10,543.40,543.65,543.80,543.89,543.91,543.92,543.94,544.01,544.08,544.07,544.02,544.02,544.01,544.01,544.01,544.02,544.03,544.09,544.16,544.26,544.36,544.25,544.01,543.65,543.17,542.69,542.30,542.22,542.45,542.65,542.50,542.24,541.95,541.71,541.48,541.25,541.15,541.20,541.22,541.29,541.40,541.56,541.78,541.95,542.15,542.39,542.62,542.85,542.91,542.81,542.57,542.28,542.10,541.93,541.75,541.53,541.36,541.05,540.51,539.17,535.52,534.13,533.97,534.98,538.35,543.20,545.14,545.22,545.31,545.38,545.50,545.62,545.70,545.78,545.80,545.85,545.90,545.90,545.83,545.70,545.54,545.38,545.15,544.97,544.74,544.45,544.22,543.99,543.76,543.56,543.42,543.41,543.58,543.80,544.05,544.34,544.58,544.81,545.00,545.08,545.11,545.15,545.19,545.17,545.01,544.56,543.94,543.50,543.92,544.63,545.10,545.38,545.60,545.81,545.89,545.90,545.89,545.83,545.82,545.82,545.79,545.73,545.71,545.71,545.71,545.71,545.71,545.71,545.72,545.74,545.82,545.95,546.11,546.26,546.42,546.58,546.78,546.93,546.95,546.80,546.59,546.37,546.15,545.92,545.75,545.54,545.31,545.03,544.53,544.36,544.62,545.14,545.38,545.61,545.85,546.06,546.20,546.28,546.30,546.31,546.31,546.32,546.32,546.32,546.34,546.41,546.48,546.61,546.70,546.70,546.70,546.70,546.71,546.73,546.79,546.80,546.81,546.83,546.86,546.74,546.53,546.31,546.10,545.94,545.78,545.67,545.61,545.61,545.67,545.70,545.74,545.82,545.89,545.95,545.95,545.86,545.71,545.56,545.50,545.46,545.37,545.23,544.98,544.71,544.46,544.16,543.91,543.68,543.45,543.25,543.15,543.12,543.09,543.03,543.01,543.01,543.01,543.01,543.01,543.02,543.20,543.45,543.53,543.67,543.92,544.20,544.39,544.42,544.42,544.38,544.37,544.52,544.72,544.84,544.89,544.87,544.73,544.59,544.54,544.67,544.93,545.06
542.38,542.26,542.14,542.04,541.91,541.80,541.68,541.58,541.59,541.89,542.25,542.60,542.98,543.29,543.64,543.97,544.20,544.34,544.41,544.47,544.51,544.54,544.56,544.52,544.48,544.48,544.48,544.48,544.48,544.48,544.53,544.60,544.71,544.83,544.92,544.89,544.67,544.26,543.63,543.02,542.65,542.61,542.85,543.04,542.86,542.59,542.32,542.04,541.81,541.58,541.42,541.41,541.46,541.53,541.60,541.68,541.85,542.01,542.25,542.51,542.75,542.98,543.15,543.15,542.96,542.71,542.54,542.35,542.15,541.98,541.82,541.54,541.08,539.77,535.77,534.31,534.11,535.06,538.53,543.27,545.15,545.24,545.36,545.39,545.48,545.59,545.72,545.85,545.91,545.95,545.98,546.01,545.91,545.76,545.60,545.44,545.21,545.04,544.81,544.53,544.35,544.17,543.96,543.75,543.61,543.55,543.67,543.87,544.11,544.36,544.60,544.80,545.00,545.21,545.34,545.39,545.40,545.37,545.17,544.75,544.15,543.70,544.09,544.71,545.13,545.38,545.61,545.84,546.01,546.13,546.15,546.09,546.07,546.07,546.05,545.98,545.96,545.96,545.96,545.96,545.96,545.96,545.99,546.04,546.07,546.16,546.30,546.45,546.61,546.76,546.93,547.05,547.03,546.83,546.56,546.34,546.14,545.91,545.70,545.48,545.25,544.97,544.51,544.54,544.86,545.27,545.51,545.74,546.00,546.25,546.38,546.43,546.47,546.50,546.51,546.56,546.57,546.57,546.57,546.60,546.63,546.74,546.83,546.83,546.83,546.87,546.90,546.91,546.93,546.98,547.00,546.99,546.94,546.76,546.57,546.39,546.22,546.06,545.91,545.79,545.75,545.79,545.83,545.87,545.93,546.01,546.08,546.12,546.12,546.06,545.87,545.75,545.64,545.53,545.40,545.25,545.02,544.75,544.47,544.21,543.94,543.68,543.48,543.41,543.38,543.36,543.36,543.33,543.28,543.27,543.27,543.27,543.27,543.27,543.51,543.81,543.85,543.94,544.15,544.44,544.72,544.79,544.81,544.77,544.73,544.83,544.96,545.05,545.10,545.08,544.94,544.83,544.80,544.90,545.04,545.13
542.87,542.75,542.63,542.52,542.39,542.28,542.17,542.04,541.93,542.15,542.48,542.82,543.17,543.49,543.85,544.21,544.50,544.71,544.84,544.93,544.99,545.00,545.00,544.95,544.89,544.89,544.89,544.89,544.90,544.94,545.01,545.11,545.23,545.34,545.38,545.32,545.08,544.63,543.96,543.29,543.01,543.04,543.26,543.44,543.24,542.97,542.71,542.43,542.17,541.93,541.74,541.65,541.69,541.76,541.81,541.85,541.96,542.11,542.35,542.61,542.82,543.05,543.28,543.38,543.33,543.15,542.99,542.79,542.58,542.43,542.27,542.01,541.48,539.97,535.87,534.44,534.25,535.13,538.49,543.23,545.12,545.21,545.33,545.36,545.42,545.54,545.69,545.82,545.92,546.00,546.05,546.11,546.00,545.86,545.70,545.54,545.34,545.15,544.94,544.69,544.54,544.38,544.18,543.97,543.80,543.69,543.76,543.92,544.13,544.34,544.55,544.75,544.98,545.28,545.50,545.60,545.61,545.53,545.28,544.86,544.32,543.91,544.23,544.77,545.14,545.38,545.61,545.84,546.09,546.29,546.38,546.34,546.32,546.32,546.30,546.24,546.22,546.22,546.22,546.22,546.23,546.25,546.29,546.32,546.33,546.40,546.51,546.65,546.80,546.95,547.11,547.19,547.12,546.90,546.60,546.37,546.17,545.91,545.68,545.44,545.21,544.96,544.60,544.74,545.06,545.38,545.64,545.87,546.15,546.42,546.58,546.60,546.65,546.70,546.71,546.75,546.79,546.80,546.80,546.80,546.80,546.88,546.97,547.00,547.00,547.04,547.08,547.10,547.10,547.14,547.16,547.13,547.02,546.80,546.62,546.47,546.31,546.16,546.00,545.92,545.91,545.95,545.99,546.05,546.13,546.20,546.25,546.29,546.27,546.19,545.97,545.84,545.69,545.53,545.39,545.22,545.00,544.74,544.45,544.21,543.96,543.75,543.63,543.63,543.63,543.63,543.63,543.62,543.55,543.53,543.53,543.53,543.53,543.51,543.78,544.14,544.19,544.25,544.39,544.63,544.93,545.07,545.12,545.10,545.07,545.13,545.18,545.25,545.30,545.28,545.16,545.05,545.03,545.10,545.15,545.17
543.34,543.24,543.13,542.99,542.90,542.77,542.64,542.53,542.34,542.42,542.70,543.07,543.38,543.69,544.05,544.41,544.72,545.01,545.20,545.32,545.38,545.38,545.38,545.33,545.29,545.29,545.29,545.29,545.32,545.38,545.46,545.59,545.71,545.77,545.74,545.55,545.23,544.76,544.13,543.55,543.39,543.49,543.70,543.84,543.67,543.40,543.11,542.87,542.57,542.31,542.07,541.90,541.90,541.96,542.03,542.08,542.12,542.25,542.45,542.65,542.82,543.05,543.28,543.50,543.63,543.57,543.43,543.24,543.04,542.88,542.72,542.46,541.79,540.02,535.99,534.57,534.37,535.12,537.98,542.78,544.89,545.13,545.22,545.28,545.36,545.47,545.61,545.70,545.84,545.98,546.11,546.17,546.12,546.00,545.84,545.68,545.52,545.32,545.12,544.95,544.80,544.64,544.45,544.21,544.00,543.84,543.87,543.99,544.15,544.31,544.46,544.69,544.98,545.28,545.58,545.78,545.82,545.66,545.36,544.94,544.46,544.13,544.31,544.79,545.14,545.38,545.61,545.84,546.13,546.39,546.57,546.59,546.59,546.59,546.57,546.50,546.48,546.48,546.48,546.49,546.50,546.55,546.58,546.59,546.60,546.65,546.74,546.84,546.99,547.15,547.30,547.36,547.25,547.02,546.73,546.47,546.22,545.93,545.69,545.45,545.22,544.98,544.75,544.93,545.20,545.46,545.76,546.00,546.28,546.56,546.76,546.79,546.84,546.88,546.89,546.90,546.95,546.99,546.99,546.99,547.00,547.05,547.13,547.18,547.19,547.20,547.23,547.28,547.29,547.30,547.29,547.24,547.09,546.87,546.70,546.54,546.38,546.23,546.08,546.04,546.09,546.11,546.17,546.24,546.32,546.38,546.40,546.45,546.41,546.25,546.03,545.87,545.67,545.49,545.38,545.18,544.95,544.69,544.40,544.18,544.00,543.91,543.88,543.88,543.88,543.88,543.88,543.88,543.80,543.78,543.78,543.78,543.78,543.72,544.01,544.42,544.56,544.59,544.65,544.80,545.03,545.25,545.35,545.38,545.38,545.39,545.40,545.45,545.50,545.48,545.40,545.27,545.23,545.29,545.27,545.16
543.82,543.75,543.65,543.50,543.42,543.28,543.12,542.94,542.72,542.72,542.95,543.33,543.63,543.94,544.30,544.66,544.97,545.27,545.54,545.68,545.71,545.71,545.71,545.69,545.67,545.67,545.72,545.74,545.75,545.78,545.81,545.94,546.08,546.13,545.97,545.63,545.25,544.76,544.16,543.84,543.81,543.92,544.10,544.23,544.07,543.79,543.50,543.26,542.92,542.58,542.29,542.11,542.14,542.17,542.23,542.30,542.35,542.44,542.54,542.67,542.88,543.10,543.34,543.57,543.78,543.88,543.81,543.66,543.47,543.28,543.12,542.86,542.12,540.34,536.95,535.09,534.45,534.79,536.32,540.31,543.47,545.06,545.14,545.17,545.27,545.39,545.49,545.57,545.75,545.92,546.07,546.19,546.27,546.18,546.03,545.87,545.72,545.54,545.37,545.22,545.06,544.90,544.71,544.47,544.25,544.09,544.11,544.22,544.36,544.47,544.53,544.68,544.92,545.23,545.54,545.84,545.99,545.84,545.49,545.06,544.61,544.31,544.39,544.81,545.14,545.39,545.66,545.90,546.15,546.42,546.68,546.82,546.84,546.84,546.82,546.75,546.74,546.74,546.74,546.75,546.80,546.83,546.84,546.84,546.85,546.91,546.97,547.03,547.19,547.34,547.50,547.53,547.38,547.11,546.84,546.57,546.30,546.03,545.75,545.51,545.27,545.06,544.92,545.09,545.34,545.59,545.89,546.13,546.41,546.70,546.90,546.97,547.01,547.05,547.08,547.09,547.11,547.15,547.18,547.19,547.23,547.27,547.30,547.33,547.38,547.38,547.40,547.43,547.48,547.49,547.43,547.31,547.16,546.98,546.81,546.66,546.50,546.31,546.22,546.20,546.24,546.29,546.36,546.44,546.50,546.53,546.58,546.57,546.49,546.32,546.09,545.93,545.73,545.52,545.38,545.17,544.97,544.75,544.52,544.37,544.26,544.18,544.14,544.14,544.14,544.14,544.14,544.13,544.07,544.05,544.05,544.04,543.99,543.96,544.23,544.66,544.88,544.91,544.96,545.06,545.23,545.49,545.57,545.61,545.66,545.70,545.71,545.73,545.73,545.68,545.61,545.51,545.46,545.45,545.32,545.16
544.30,544.25,544.17,544.02,543.91,543.76,543.56,543.33,543.13,543.04,543.20,543.56,543.89,544.20,544.56,544.93,545.25,545.58,545.88,546.04,546.06,546.06,546.06,546.06,546.06,546.07,546.14,546.16,546.17,546.18,546.19,546.30,546.44,546.49,546.18,545.73,545.29,544.82,544.33,544.23,544.27,544.39,544.53,544.63,544.46,544.17,543.85,543.57,543.20,542.84,542.53,542.34,542.37,542.40,542.44,542.50,542.60,542.68,542.70,542.76,542.94,543.17,543.40,543.63,543.87,544.11,544.14,544.05,543.90,543.70,543.58,543.37,542.63,540.95,538.45,535.85,534.57,534.61,535.13,537.91,541.17,543.59,544.37,544.94,545.17,545.28,545.36,545.47,545.66,545.84,545.99,546.17,546.34,546.34,546.22,546.07,545.91,545.76,545.60,545.45,545.29,545.12,544.88,544.63,544.45,544.39,544.44,544.54,544.64,544.69,544.70,544.77,544.94,545.25,545.56,545.92,546.13,545.99,545.63,545.18,544.77,544.49,544.51,544.87,545.17,545.42,545.70,545.96,546.20,546.45,546.73,546.98,547.08,547.10,547.07,547.01,547.01,547.01,547.01,547.02,547.09,547.11,547.11,547.11,547.13,547.18,547.20,547.25,547.38,547.54,547.69,547.69,547.48,547.20,546.94,546.67,546.39,546.16,545.88,545.63,545.39,545.19,545.11,545.26,545.49,545.74,546.02,546.26,546.54,546.83,547.04,547.15,547.18,547.21,547.27,547.28,547.28,547.32,547.38,547.39,547.43,547.47,547.48,547.49,547.54,547.57,547.58,547.59,547.64,547.63,547.54,547.38,547.23,547.07,546.92,546.76,546.60,546.40,546.36,546.37,546.40,546.48,546.55,546.62,546.66,546.68,546.74,546.68,546.54,546.36,546.16,545.97,545.77,545.58,545.42,545.20,545.02,544.86,544.70,544.63,544.55,544.48,544.43,544.43,544.41,544.40,544.40,544.40,544.35,544.32,544.30,544.29,544.22,544.19,544.44,544.84,545.10,545.19,545.28,545.36,545.45,545.69,545.77,545.83,545.92,545.97,546.00,546.00,545.95,545.88,545.78,545.68,545.60,545.50,545.30,545.14
544.76,544.73,544.68,544.52,544.38,544.18,543.96,543.74,543.56,543.37,543.45,543.77,544.14,544.46,544.82,545.20,545.58,545.96,546.23,546.39,546.45,546.45,546.45,546.45,546.45,546.46,546.53,546.55,546.58,546.63,546.64,546.71,546.83,546.83,546.39,545.88,545.40,545.01,544.76,544.73,544.78,544.89,545.02,545.02,544.84,544.52,544.14,543.78,543.39,543.10,542.83,542.59,542.58,542.63,542.67,542.71,542.85,542.93,542.96,542.98,543.03,543.24,543.47,543.70,543.94,544.23,544.39,544.40,544.30,544.16,544.13,544.06,543.40,541.94,540.46,536.98,534.94,534.83,534.98,536.25,538.06,540.21,542.55,544.34,544.86,545.02,545.24,545.38,545.55,545.71,545.88,546.11,546.33,546.43,546.41,546.26,546.11,545.96,545.80,545.64,545.48,545.27,544.95,544.65,544.54,544.76,544.89,544.94,544.96,544.97,544.97,544.98,545.09,545.39,545.70,546.06,546.26,546.13,545.76,545.32,544.92,544.68,544.70,544.97,545.24,545.47,545.72,546.01,546.26,546.50,546.75,547.04,547.26,547.32,547.28,547.27,547.26,547.26,547.27,547.28,547.35,547.36,547.37,547.38,547.44,547.46,547.46,547.50,547.59,547.74,547.88,547.84,547.57,547.32,547.03,546.76,546.53,546.30,546.06,545.82,545.59,545.38,545.29,545.45,545.69,545.92,546.16,546.39,546.67,546.95,547.18,547.33,547.38,547.41,547.47,547.47,547.47,547.51,547.57,547.57,547.58,547.63,547.67,547.67,547.68,547.74,547.78,547.78,547.78,547.72,547.60,547.45,547.30,547.14,546.98,546.83,546.67,546.52,546.49,546.52,546.59,546.67,546.75,546.78,546.81,546.87,546.88,546.77,546.59,546.38,546.21,545.99,545.81,545.64,545.48,545.26,545.09,544.99,544.95,544.88,544.80,544.76,544.75,544.75,544.69,544.66,544.66,544.66,544.65,544.60,544.57,544.55,544.48,544.41,544.61,544.95,545.18,545.39,545.55,545.65,545.69,545.85,545.94,546.05,546.16,546.18,546.24,546.22,546.14,546.05,545.91,545.76,545.59,545.40,545.23,545.07
545.10,545.11,545.09,544.94,544.78,544.57,544.36,544.17,543.97,543.78,543.79,544.01,544.36,544.75,545.11,545.47,545.86,546.28,546.56,546.74,546.84,546.84,546.84,546.84,546.85,546.89,546.93,546.94,546.97,547.03,547.04,547.10,547.17,547.10,546.61,546.14,545.74,545.41,545.21,545.15,545.20,545.29,545.37,545.31,545.09,544.74,544.37,544.02,543.64,543.37,543.10,542.84,542.82,542.85,542.89,542.95,543.06,543.18,543.22,543.22,543.24,543.33,543.53,543.76,544.00,544.27,544.51,544.64,544.67,544.67,544.74,544.74,544.41,543.60,542.49,539.88,537.76,536.53,535.52,535.57,536.52,538.03,539.81,541.22,541.91,543.19,545.02,545.27,545.42,545.60,545.81,546.04,546.27,546.46,546.54,546.50,546.36,546.20,546.02,545.83,545.62,545.36,545.04,544.73,544.59,544.96,545.19,545.30,545.34,545.34,545.34,545.36,545.45,545.68,545.99,546.35,546.52,546.31,545.90,545.48,545.09,544.83,544.88,545.07,545.30,545.53,545.77,546.03,546.30,546.56,546.80,547.06,547.34,547.49,547.53,547.53,547.53,547.53,547.55,547.59,547.62,547.63,547.64,547.69,547.72,547.72,547.72,547.75,547.83,547.94,548.02,547.94,547.68,547.45,547.19,546.94,546.71,546.49,546.29,546.07,545.81,545.53,545.43,545.59,545.83,546.06,546.29,546.56,546.83,547.08,547.31,547.51,547.57,547.58,547.62,547.66,547.67,547.68,547.73,547.76,547.77,547.79,547.81,547.82,547.86,547.90,547.91,547.92,547.95,547.86,547.72,547.57,547.41,547.26,547.07,546.89,546.75,546.64,546.65,546.71,546.79,546.86,546.90,546.94,547.00,547.05,546.98,546.84,546.65,546.43,546.27,546.05,545.87,545.70,545.50,545.31,545.21,545.15,545.11,545.08,545.01,544.97,544.97,544.96,544.94,544.92,544.91,544.88,544.87,544.85,544.82,544.82,544.78,544.71,544.81,545.02,545.25,545.44,545.64,545.79,545.89,546.04,546.17,546.28,546.38,546.42,546.46,546.39,546.26,546.09,545.89,545.73,545.56,545.37,545.17,544.97
545.38,545.43,545.44,545.30,545.15,544.94,544.74,544.55,544.35,544.19,544.16,544.29,544.62,545.04,545.40,545.75,546.14,546.58,546.88,547.08,547.20,547.23,547.23,547.24,547.27,547.32,547.33,547.34,547.37,547.43,547.45,547.50,547.50,547.35,546.87,546.48,546.16,545.88,545.66,545.55,545.59,545.66,545.70,545.59,545.30,544.95,544.59,544.26,543.90,543.63,543.37,543.12,543.07,543.08,543.13,543.20,543.29,543.43,543.48,543.49,543.50,543.51,543.64,543.84,544.06,544.30,544.59,544.83,545.00,545.13,545.33,545.39,545.32,545.01,544.18,542.69,540.80,538.75,536.88,536.02,536.14,536.74,537.46,538.25,539.06,541.00,543.83,544.91,545.27,545.49,545.72,545.95,546.19,546.43,546.63,546.71,546.61,546.46,546.25,545.99,545.72,545.43,545.13,544.82,544.63,545.05,545.40,545.62,545.73,545.75,545.75,545.79,545.87,546.02,546.32,546.65,546.76,546.46,546.02,545.61,545.25,545.00,545.05,545.17,545.37,545.59,545.83,546.08,546.36,546.63,546.85,547.09,547.38,547.62,547.75,547.78,547.78,547.80,547.83,547.88,547.88,547.90,547.93,547.98,547.98,547.98,548.00,548.03,548.08,548.15,548.15,548.05,547.83,547.60,547.37,547.14,546.92,546.70,546.52,546.32,546.03,545.66,545.56,545.74,545.98,546.21,546.44,546.73,546.98,547.21,547.45,547.68,547.75,547.76,547.77,547.83,547.85,547.87,547.88,547.93,547.96,547.96,547.96,547.98,548.03,548.04,548.05,548.07,548.10,547.99,547.83,547.68,547.52,547.37,547.17,546.98,546.84,546.78,546.83,546.90,546.98,547.03,547.06,547.11,547.18,547.19,547.06,546.89,546.70,546.50,546.33,546.12,545.93,545.75,545.54,545.40,545.35,545.32,545.26,545.24,545.19,545.15,545.14,545.14,545.14,545.14,545.12,545.06,545.05,545.04,545.04,545.04,545.04,544.99,545.01,545.13,545.33,545.50,545.70,545.88,546.04,546.21,546.37,546.49,546.58,546.65,546.63,546.51,546.33,546.11,545.88,545.70,545.52,545.34,545.13,544.90
545.64,545.69,545.72,545.62,545.47,545.26,545.04,544.83,544.66,544.56,544.53,544.63,545.00,545.34,545.69,546.07,546.46,546.86,547.18,547.40,547.54,547.60,547.62,547.66,547.70,547.71,547.71,547.76,547.80,547.83,547.89,547.91,547.81,547.58,547.24,546.91,546.65,546.38,546.11,545.95,545.98,546.06,546.07,545.86,545.51,545.17,544.83,544.47,544.14,543.88,543.64,543.42,543.29,543.31,543.38,543.46,543.55,543.69,543.74,543.77,543.82,543.83,543.85,543.95,544.13,544.36,544.65,544.95,545.24,545.52,545.86,545.97,545.86,545.55,545.13,544.35,542.99,541.19,539.54,538.27,537.36,536.71,536.43,536.96,537.78,538.90,540.74,544.04,545.06,545.36,545.59,545.83,546.06,546.34,546.62,546.84,546.85,546.72,546.46,546.10,545.74,545.48,545.19,544.88,544.68,545.01,545.48,545.88,546.11,546.19,546.20,546.21,546.24,546.36,546.69,546.94,546.91,546.53,546.08,545.68,545.39,545.24,545.19,545.26,545.43,545.66,545.90,546.19,546.45,546.69,546.92,547.16,547.45,547.71,547.90,548.02,548.05,548.09,548.13,548.14,548.14,548.20,548.24,548.24,548.24,548.24,548.28,548.33,548.34,548.36,548.31,548.20,548.02,547.79,547.57,547.37,547.18,546.96,546.73,546.55,546.25,545.81,545.70,545.90,546.17,546.40,546.63,546.88,547.12,547.35,547.58,547.81,547.92,547.96,547.96,547.97,548.03,548.06,548.06,548.08,548.13,548.15,548.15,548.16,548.17,548.17,548.20,548.25,548.18,548.05,547.89,547.74,547.58,547.43,547.27,547.11,546.98,546.96,547.02,547.10,547.16,547.18,547.24,547.31,547.34,547.27,547.12,546.92,546.72,546.56,546.40,546.18,546.00,545.82,545.61,545.56,545.51,545.47,545.44,545.39,545.36,545.32,545.27,545.27,545.27,545.27,545.27,545.25,545.19,545.17,545.17,545.17,545.17,545.16,545.20,545.31,545.47,545.63,545.79,545.95,546.12,546.33,546.50,546.65,546.77,546.83,546.74,546.55,546.34,546.17,545.94,545.72,545.50,545.29,545.12,544.90
545.94,546.00,546.03,545.94,545.80,545.59,545.38,545.19,545.03,544.98,544.98,545.09,545.40,545.74,546.11,546.50,546.89,547.31,547.58,547.78,547.91,547.95,547.95,548.00,548.05,548.06,548.09,548.13,548.17,548.21,548.25,548.25,548.15,547.95,547.71,547.41,547.13,546.86,546.60,546.40,546.38,546.40,546.35,546.08,545.72,545.37,545.05,544.72,544.44,544.17,543.91,543.68,543.50,543.55,543.64,543.72,543.80,543.91,543.98,544.03,544.10,544.11,544.11,544.14,544.23,544.39,544.67,544.98,545.32,545.75,546.21,546.38,546.27,545.92,545.57,545.07,544.07,542.59,540.99,539.78,538.79,537.90,537.18,536.94,537.10,537.71,539.09,541.67,544.09,545.23,545.48,545.75,546.01,546.32,546.62,546.90,547.06,546.95,546.65,546.27,545.89,545.57,545.26,544.96,544.77,545.02,545.47,545.92,546.28,546.51,546.59,546.61,546.62,546.69,547.03,547.15,547.00,546.61,546.19,545.82,545.59,545.49,545.42,545.44,545.55,545.72,545.97,546.27,546.52,546.75,546.99,547.22,547.51,547.78,548.00,548.18,548.28,548.33,548.35,548.36,548.39,548.43,548.45,548.45,548.45,548.49,548.53,548.55,548.55,548.55,548.50,548.39,548.22,547.99,547.79,547.60,547.40,547.21,546.98,546.75,546.40,545.94,545.86,546.07,546.31,546.55,546.78,547.05,547.32,547.58,547.80,548.00,548.08,548.12,548.15,548.15,548.18,548.22,548.25,548.25,548.29,548.30,548.30,548.30,548.30,548.33,548.37,548.38,548.30,548.16,548.01,547.85,547.69,547.51,547.34,547.20,547.12,547.14,547.18,547.25,547.31,547.36,547.43,547.47,547.46,547.34,547.19,546.97,546.78,546.62,546.43,546.23,546.06,545.89,545.72,545.70,545.67,545.64,545.60,545.56,545.52,545.48,545.44,545.41,545.40,545.40,545.40,545.39,545.36,545.35,545.34,545.30,545.30,545.34,545.40,545.50,545.65,545.81,545.96,546.12,546.28,546.47,546.63,546.78,546.91,546.93,546.81,546.60,546.38,546.18,545.95,545.72,545.51,545.32,545.12,544.90
546.25,546.32,546.35,546.26,546.11,545.90,545.72,545.58,545.43,545.42,545.48,545.60,545.83,546.18,546.57,546.97,547.36,547.81,548.04,548.18,548.29,548.29,548.29,548.33,548.38,548.40,548.46,548.48,548.51,548.57,548.58,548.58,548.50,548.34,548.16,547.89,547.61,547.34,547.10,546.87,546.80,546.74,546.60,546.28,545.91,545.56,545.24,544.93,544.69,544.40,544.14,543.91,543.73,543.78,543.89,543.99,544.05,544.13,544.21,544.29,544.35,544.36,544.36,544.38,544.44,544.56,544.83,545.15,545.52,546.03,546.56,546.76,546.63,546.24,545.85,545.46,544.76,543.61,542.02,540.95,540.13,539.32,538.44,537.52,536.92,537.08,538.09,539.40,542.80,544.84,545.37,545.68,545.99,546.31,546.64,546.97,547.28,547.17,546.85,546.47,546.08,545.69,545.35,545.05,544.87,545.03,545.44,545.92,546.39,546.79,546.94,546.99,547.00,547.04,547.36,547.34,547.07,546.70,546.32,546.00,545.81,545.73,545.67,545.66,545.70,545.81,546.05,546.34,546.58,546.82,547.05,547.30,547.59,547.84,548.07,548.30,548.49,548.55,548.55,548.56,548.63,548.65,548.65,548.65,548.67,548.72,548.75,548.75,548.75,548.75,548.69,548.58,548.41,548.18,548.02,547.82,547.61,547.44,547.24,546.94,546.53,546.08,546.03,546.22,546.47,546.71,546.96,547.25,547.55,547.84,548.07,548.21,548.25,548.27,548.33,548.35,548.35,548.38,548.43,548.43,548.44,548.45,548.45,548.45,548.45,548.50,548.53,548.51,548.42,548.28,548.13,547.97,547.81,547.60,547.42,547.31,547.26,547.32,547.34,547.39,547.47,547.54,547.61,547.62,547.56,547.40,547.25,547.04,546.85,546.67,546.45,546.28,546.13,545.98,545.86,545.84,545.83,545.81,545.75,545.73,545.68,545.64,545.61,545.56,545.55,545.54,545.53,545.53,545.53,545.53,545.50,545.45,545.45,545.51,545.59,545.69,545.85,545.99,546.14,546.29,546.45,546.60,546.76,546.91,547.03,547.00,546.86,546.65,546.42,546.19,545.95,545.72,545.53,545.36,545.13,544.89
546.57,546.62,546.62,546.57,546.38,546.20,546.06,545.96,545.82,545.88,546.02,546.17,546.35,546.65,547.06,547.49,547.88,548.34,548.52,548.61,548.68,548.68,548.68,548.69,548.72,548.78,548.80,548.80,548.84,548.89,548.90,548.90,548.82,548.65,548.44,548.25,548.07,547.84,547.56,547.32,547.22,547.09,546.85,546.49,546.10,545.72,545.35,545.00,544.75,544.51,544.27,544.07,544.01,544.03,544.12,544.24,544.32,544.39,544.47,544.55,544.62,544.63,544.63,544.71,544.91,545.17,545.48,545.82,546.19,546.56,547.08,547.21,547.00,546.57,546.17,545.79,545.27,544.42,542.96,541.83,541.00,540.30,539.59,538.68,537.74,537.30,537.67,538.87,541.27,543.66,545.30,545.61,545.92,546.32,546.73,547.11,547.52,547.38,547.05,546.66,546.27,545.88,545.51,545.17,544.92,544.99,545.41,545.96,546.53,547.03,547.25,547.34,547.38,547.42,547.70,547.53,547.15,546.83,546.51,546.20,546.00,545.94,545.93,545.92,545.89,545.94,546.17,546.41,546.65,546.88,547.13,547.42,547.67,547.91,548.14,548.38,548.65,548.74,548.74,548.75,548.82,548.84,548.84,548.86,548.91,548.94,548.94,548.94,548.94,548.94,548.89,548.77,548.61,548.38,548.21,548.01,547.80,547.65,547.48,547.13,546.66,546.21,546.16,546.39,546.69,546.98,547.27,547.52,547.81,548.12,548.38,548.43,548.44,548.45,548.47,548.53,548.54,548.55,548.56,548.57,548.62,548.64,548.64,548.64,548.64,548.65,548.66,548.63,548.49,548.35,548.19,548.04,547.88,547.71,547.55,547.45,547.44,547.46,547.51,547.58,547.66,547.73,547.75,547.72,547.63,547.47,547.31,547.10,546.91,546.74,546.51,546.35,546.19,546.07,546.04,545.98,545.96,545.95,545.93,545.88,545.85,545.81,545.76,545.74,545.74,545.70,545.66,545.66,545.66,545.66,545.65,545.64,545.64,545.71,545.79,545.89,546.03,546.13,546.27,546.42,546.58,546.73,546.89,547.04,547.15,547.07,546.88,546.65,546.42,546.19,545.95,545.72,545.53,545.36,545.13,544.85
546.87,546.90,546.93,546.90,546.73,546.56,546.43,546.33,546.32,546.44,546.60,546.75,546.95,547.18,547.56,548.00,548.40,548.85,549.00,549.02,549.04,549.07,549.08,549.05,549.05,549.12,549.13,549.13,549.14,549.18,549.22,549.23,549.13,548.94,548.74,548.58,548.41,548.20,547.96,547.73,547.56,547.34,547.02,546.64,546.25,545.88,545.52,545.15,544.84,544.61,544.42,544.31,544.36,544.38,544.42,544.50,544.57,544.65,544.77,544.91,545.02,545.09,545.19,545.38,545.69,546.00,546.28,546.59,546.94,547.30,547.72,547.70,547.39,546.94,546.54,546.05,545.44,544.68,543.70,542.92,542.19,541.48,540.73,539.67,538.56,537.71,537.47,538.40,540.03,542.70,545.20,545.54,545.86,546.27,546.74,547.19,547.64,547.64,547.36,546.94,546.56,546.14,545.72,545.33,545.05,545.14,545.53,546.07,546.68,547.24,547.50,547.65,547.74,547.78,547.90,547.68,547.32,547.00,546.66,546.37,546.21,546.18,546.18,546.15,546.11,546.12,546.26,546.49,546.72,546.95,547.19,547.50,547.74,547.97,548.20,548.45,548.75,548.89,548.95,548.99,549.03,549.04,549.05,549.09,549.13,549.14,549.14,549.13,549.09,549.09,549.06,548.97,548.80,548.58,548.41,548.21,548.00,547.85,547.72,547.33,546.79,546.36,546.44,546.69,546.96,547.24,547.55,547.82,548.12,548.40,548.61,548.64,548.64,548.64,548.65,548.68,548.69,548.71,548.74,548.74,548.78,548.79,548.79,548.79,548.79,548.79,548.79,548.76,548.61,548.45,548.30,548.13,547.95,547.79,547.66,547.59,547.60,547.63,547.70,547.78,547.85,547.88,547.92,547.84,547.69,547.53,547.35,547.15,546.97,546.80,546.58,546.41,546.29,546.23,546.19,546.15,546.11,546.09,546.08,546.04,546.00,545.97,545.93,545.90,545.89,545.87,545.83,545.79,545.79,545.79,545.79,545.80,545.83,545.90,546.00,546.12,546.23,546.31,546.44,546.60,546.75,546.91,547.06,547.22,547.30,547.14,546.90,546.65,546.42,546.19,545.95,545.72,545.53,545.36,545.13,544.80
547.15,547.20,547.25,547.23,547.10,546.95,546.81,546.74,546.88,547.04,547.20,547.38,547.60,547.76,548.09,548.50,548.92,549.41,549.52,549.45,549.40,549.47,549.48,549.42,549.38,549.44,549.45,549.44,549.44,549.47,549.55,549.55,549.42,549.22,549.05,548.89,548.70,548.50,548.32,548.10,547.88,547.59,547.21,546.81,546.42,546.07,545.73,545.35,544.96,544.73,544.60,544.58,544.77,544.84,544.85,544.87,544.95,545.04,545.21,545.41,545.57,545.72,545.94,546.24,546.60,546.91,547.14,547.41,547.74,548.09,548.38,548.19,547.78,547.34,546.91,546.30,545.57,544.86,544.41,544.07,543.50,542.75,541.88,540.60,539.37,538.24,537.51,538.01,539.06,541.75,544.72,545.41,545.80,546.22,546.71,547.22,547.71,547.89,547.71,547.26,546.85,546.40,545.94,545.51,545.22,545.40,545.77,546.25,546.86,547.43,547.74,547.92,548.06,548.11,548.05,547.81,547.50,547.18,546.82,546.55,546.44,546.44,546.42,546.37,546.34,546.34,546.37,546.55,546.78,547.01,547.27,547.56,547.81,548.04,548.27,548.52,548.81,549.02,549.15,549.22,549.23,549.23,549.27,549.32,549.32,549.31,549.31,549.30,549.24,549.22,549.22,549.15,548.98,548.77,548.59,548.40,548.21,548.07,547.96,547.51,546.92,546.53,546.76,547.02,547.26,547.51,547.82,548.13,548.43,548.68,548.81,548.83,548.83,548.83,548.83,548.84,548.84,548.87,548.92,548.93,548.93,548.93,548.93,548.92,548.93,548.93,548.92,548.88,548.72,548.57,548.41,548.24,548.03,547.86,547.76,547.73,547.75,547.82,547.89,547.97,548.02,548.04,548.08,547.95,547.75,547.59,547.37,547.20,547.04,546.87,546.64,546.49,546.43,546.40,546.34,546.32,546.27,546.24,546.23,546.22,546.16,546.13,546.10,546.04,546.03,546.02,546.00,545.94,545.93,545.93,545.93,545.95,546.02,546.11,546.23,546.35,546.43,546.51,546.64,546.79,546.95,547.10,547.26,547.40,547.45,547.22,546.93,546.67,546.43,546.19,545.95,545.72,545.53,545.36,545.12,544.76
547.45,547.52,547.57,547.55,547.42,547.31,547.26,547.32,547.52,547.73,547.91,548.08,548.30,548.42,548.60,548.93,549.46,550.13,550.17,549.98,549.86,549.98,549.95,549.85,549.76,549.78,549.78,549.73,549.72,549.80,549.92,549.86,549.71,549.53,549.32,549.15,548.99,548.80,548.60,548.42,548.24,547.97,547.57,547.13,546.73,546.36,545.99,545.60,545.21,544.95,544.79,544.83,545.34,545.60,545.64,545.64,545.77,545.90,546.06,546.25,546.46,546.62,546.87,547.18,547.52,547.87,548.03,548.25,548.55,548.80,548.90,548.62,548.19,547.76,547.26,546.66,546.07,545.58,545.34,545.09,544.69,544.08,543.09,541.61,540.18,538.96,538.08,537.77,538.55,540.42,542.89,545.07,545.77,546.22,546.67,547.13,547.74,548.12,548.01,547.50,547.06,546.60,546.13,545.72,545.49,545.76,546.18,546.65,547.15,547.64,547.98,548.18,548.32,548.37,548.21,547.94,547.63,547.32,547.00,546.79,546.70,546.69,546.63,546.61,546.61,546.58,546.55,546.64,546.84,547.10,547.38,547.63,547.87,548.10,548.35,548.64,548.89,549.12,549.30,549.41,549.42,549.42,549.46,549.51,549.46,549.45,549.45,549.44,549.42,549.37,549.35,549.28,549.13,548.95,548.75,548.59,548.48,548.37,548.19,547.67,547.07,546.72,546.96,547.30,547.59,547.84,548.14,548.46,548.73,548.93,549.01,549.03,549.03,549.03,549.03,549.03,549.03,549.04,549.06,549.12,549.13,549.13,549.11,549.07,549.11,549.13,549.07,548.94,548.79,548.63,548.49,548.32,548.14,547.94,547.86,547.88,547.94,548.01,548.09,548.14,548.16,548.21,548.19,548.02,547.82,547.66,547.43,547.25,547.10,546.93,546.71,546.64,546.59,546.54,546.52,546.47,546.44,546.42,546.41,546.36,546.34,546.29,546.25,546.23,546.17,546.15,546.14,546.13,546.13,546.08,546.08,546.14,546.22,546.35,546.46,546.55,546.63,546.70,546.83,546.99,547.14,547.30,547.45,547.54,547.52,547.28,546.99,546.73,546.47,546.19,545.95,545.72,545.53,545.36,545.12,544.76
547.74,547.80,547.87,547.88,547.78,547.68,547.67,547.80,548.13,548.42,548.62,548.79,548.98,549.10,549.24,549.53,550.15,551.15,551.60,551.67,551.61,551.77,551.82,551.73,551.58,551.44,551.21,551.00,550.93,551.02,551.04,550.75,550.38,550.01,549.64,549.42,549.26,549.08,548.86,548.73,548.58,548.33,547.96,547.50,547.10,546.71,546.35,546.02,545.66,545.35,545.18,545.36,546.16,546.58,546.66,546.61,546.73,546.86,546.98,547.13,547.33,547.51,547.82,548.14,548.46,548.80,548.93,549.09,549.28,549.39,549.36,549.06,548.68,548.29,547.76,547.16,546.68,546.38,546.15,545.87,545.53,545.05,544.21,542.87,541.39,539.94,538.67,537.96,538.33,539.47,541.56,544.76,545.63,546.14,546.66,547.20,547.88,548.38,548.33,547.80,547.30,546.80,546.33,545.94,545.78,546.13,546.59,547.05,547.51,547.96,548.25,548.44,548.57,548.59,548.36,548.07,547.76,547.46,547.18,547.02,546.94,546.91,546.87,546.83,546.82,546.80,546.74,546.77,546.93,547.18,547.47,547.70,547.94,548.17,548.42,548.72,548.97,549.20,549.41,549.57,549.61,549.62,549.64,549.67,549.63,549.62,549.60,549.58,549.57,549.53,549.52,549.45,549.30,549.14,548.98,548.86,548.77,548.65,548.41,547.86,547.24,546.87,547.12,547.60,547.96,548.16,548.43,548.74,549.00,549.17,549.21,549.22,549.22,549.22,549.22,549.22,549.22,549.22,549.23,549.27,549.28,549.28,549.26,549.23,549.27,549.28,549.21,549.05,548.89,548.72,548.55,548.39,548.23,548.04,548.00,548.05,548.12,548.17,548.25,548.29,548.33,548.36,548.25,548.07,547.88,547.72,547.50,547.32,547.15,546.97,546.85,546.79,546.75,546.71,546.67,546.63,546.60,546.58,546.57,546.53,546.49,546.45,546.41,546.38,546.34,546.30,546.28,546.28,546.28,546.25,546.26,546.33,546.41,546.56,546.66,546.74,546.82,546.90,547.03,547.18,547.34,547.49,547.65,547.68,547.59,547.35,547.05,546.79,546.53,546.24,546.00,545.74,545.53,545.36,545.12,544.76
548.02,548.08,548.15,548.20,548.14,548.07,548.05,548.22,548.71,549.08,549.36,549.56,549.75,549.92,550.09,550.37,551.01,552.32,553.41,554.00,554.14,554.36,554.53,554.50,554.32,553.97,553.41,552.98,552.78,552.78,552.58,552.01,551.35,550.69,550.10,549.76,549.54,549.34,549.14,549.04,548.91,548.67,548.34,547.89,547.50,547.12,546.79,546.54,546.23,545.88,545.73,546.10,547.13,547.71,547.81,547.70,547.77,547.85,547.92,548.02,548.19,548.41,548.80,549.25,549.71,550.08,550.23,550.31,550.33,550.24,550.01,549.63,549.24,548.87,548.35,547.76,547.38,547.16,546.85,546.48,546.15,545.77,545.19,544.20,542.83,541.09,539.28,538.41,538.29,538.85,540.60,544.07,545.34,546.03,546.66,547.35,548.05,548.65,548.65,548.12,547.58,547.05,546.55,546.18,546.13,546.51,546.97,547.43,547.89,548.34,548.55,548.70,548.81,548.77,548.51,548.20,547.89,547.61,547.37,547.27,547.19,547.13,547.11,547.05,547.02,546.99,546.93,546.92,547.02,547.24,547.53,547.77,548.00,548.24,548.49,548.78,549.03,549.26,549.49,549.69,549.80,549.83,549.83,549.83,549.83,549.82,549.77,549.72,549.71,549.70,549.70,549.64,549.49,549.35,549.26,549.18,549.08,548.91,548.61,548.05,547.42,547.01,547.25,547.90,548.34,548.49,548.72,549.01,549.26,549.41,549.41,549.41,549.41,549.41,549.41,549.41,549.41,549.41,549.41,549.42,549.42,549.42,549.41,549.40,549.41,549.40,549.32,549.17,549.01,548.80,548.62,548.46,548.31,548.16,548.17,548.24,548.30,548.32,548.38,548.46,548.51,548.48,548.29,548.10,547.95,547.78,547.56,547.38,547.21,547.04,547.01,546.95,546.92,546.89,546.84,546.82,546.76,546.72,546.72,546.70,546.65,546.61,546.59,546.53,546.51,546.46,546.42,546.41,546.41,546.41,546.45,546.53,546.62,546.75,546.86,546.94,547.01,547.10,547.23,547.37,547.52,547.67,547.83,547.83,547.65,547.41,547.12,546.86,546.60,546.30,546.06,545.78,545.54,545.36,545.12,544.77
548.33,548.39,548.46,548.47,548.46,548.39,548.40,548.61,549.13,549.65,550.18,550.66,550.98,551.29,551.54,551.77,552.19,553.36,554.75,555.94,556.71,556.96,557.17,557.23,557.07,556.62,555.93,555.48,555.04,554.45,553.91,553.25,552.53,551.77,551.00,550.37,549.92,549.62,549.45,549.37,549.23,549.00,548.67,548.27,547.92,547.63,547.36,547.11,546.76,546.42,546.44,547.07,548.07,548.86,549.03,548.79,548.81,548.84,548.86,548.93,549.10,549.32,549.95,551.00,552.27,553.04,553.34,553.37,553.16,552.58,551.72,550.74,549.92,549.42,548.98,548.48,548.10,547.82,547.45,547.07,546.73,546.35,545.82,545.18,544.18,542.34,539.98,538.93,538.36,538.57,539.59,541.57,544.55,545.96,546.60,547.32,548.11,548.88,549.00,548.50,547.96,547.42,546.86,546.48,546.55,546.91,547.36,547.80,548.22,548.67,548.83,548.97,549.05,548.92,548.64,548.33,548.04,547.79,547.56,547.53,547.48,547.37,547.32,547.29,547.25,547.20,547.17,547.12,547.14,547.30,547.60,547.83,548.07,548.30,548.55,548.85,549.09,549.32,549.56,549.79,550.03,550.12,550.12,550.08,550.07,550.03,549.96,549.89,549.85,549.84,549.84,549.80,549.69,549.60,549.56,549.47,549.34,549.16,548.78,548.21,547.59,547.14,547.38,548.04,548.61,548.90,549.05,549.33,549.52,549.61,549.61,549.61,549.61,549.61,549.61,549.61,549.57,549.57,549.61,549.61,549.61,549.57,549.54,549.54,549.54,549.50,549.39,549.24,549.08,548.91,548.72,548.52,548.38,548.32,548.36,548.42,548.45,548.50,548.57,548.65,548.68,548.57,548.35,548.17,548.02,547.84,547.63,547.45,547.31,547.21,547.21,547.19,547.15,547.10,547.08,547.02,546.95,546.91,546.90,546.85,546.82,546.78,546.74,546.70,546.66,546.62,546.59,546.54,546.54,546.58,546.64,546.73,546.86,546.97,547.05,547.13,547.21,547.34,547.45,547.55,547.66,547.81,547.97,547.93,547.72,547.48,547.18,546.92,546.66,546.37,546.13,545.84,545.57,545.36,545.13,544.81
548.64,548.70,548.74,548.77,548.77,548.74,548.77,549.00,549.53,550.30,551.15,551.93,552.37,552.76,553.06,553.28,553.56,554.44,555.97,557.50,558.63,558.93,559.16,559.26,559.14,558.72,558.07,557.42,556.69,555.85,555.14,554.44,553.69,552.89,552.07,551.29,550.65,550.18,549.91,549.72,549.55,549.34,549.04,548.72,548.45,548.21,547.96,547.66,547.32,546.97,547.12,547.98,549.02,549.96,550.25,550.04,549.96,549.93,549.92,550.05,550.44,550.95,551.84,552.96,554.11,554.79,555.06,555.07,554.81,554.19,553.19,551.90,550.79,550.09,549.62,549.17,548.77,548.42,548.04,547.68,547.33,546.93,546.41,545.98,545.32,543.90,541.68,539.62,538.66,538.54,538.97,540.12,543.85,545.82,546.72,547.53,548.40,549.18,549.33,548.89,548.35,547.76,547.12,546.73,546.94,547.33,547.75,548.16,548.58,548.99,549.12,549.21,549.25,549.06,548.77,548.48,548.21,547.99,547.79,547.82,547.79,547.65,547.55,547.51,547.45,547.40,547.39,547.35,547.34,547.43,547.64,547.89,548.13,548.37,548.62,548.91,549.13,549.36,549.58,549.81,550.13,550.32,550.40,550.40,550.40,550.36,550.27,550.18,550.11,550.08,550.05,550.02,549.98,549.97,549.91,549.76,549.58,549.43,548.98,548.38,547.74,547.28,547.54,548.19,548.85,549.32,549.47,549.66,549.77,549.80,549.80,549.80,549.80,549.80,549.80,549.77,549.73,549.73,549.77,549.77,549.77,549.74,549.70,549.70,549.67,549.61,549.50,549.34,549.16,549.00,548.81,548.62,548.49,548.50,548.54,548.58,548.62,548.69,548.77,548.81,548.79,548.64,548.42,548.24,548.07,547.88,547.68,547.52,547.43,547.44,547.43,547.43,547.39,547.33,547.30,547.25,547.18,547.13,547.12,547.05,547.03,547.00,546.93,546.90,546.86,546.82,546.79,546.74,546.71,546.76,546.85,546.96,547.08,547.17,547.25,547.33,547.44,547.57,547.66,547.74,547.82,547.97,548.11,548.05,547.81,547.55,547.25,546.99,546.73,546.43,546.19,545.90,545.63,545.39,545.13,544.83
548.96,549.00,549.03,549.09,549.10,549.09,549.16,549.39,549.98,551.05,552.24,553.28,553.83,554.25,554.58,554.84,555.06,555.60,557.10,558.71,559.88,560.22,560.48,560.58,560.48,560.18,559.67,558.74,557.78,557.02,556.32,555.61,554.83,554.00,553.23,552.46,551.71,551.05,550.57,550.19,549.98,549.76,549.51,549.27,549.07,548.85,548.58,548.22,547.89,547.53,547.74,548.81,550.04,551.06,551.51,551.43,551.23,551.14,551.14,551.42,552.17,553.09,554.12,554.83,555.10,555.26,555.36,555.33,555.21,554.92,554.22,552.99,551.74,550.87,550.31,549.83,549.40,549.01,548.63,548.30,547.94,547.51,547.03,546.70,546.28,545.62,544.13,540.71,539.27,538.75,538.76,539.75,543.05,545.40,546.86,547.86,548.85,549.52,549.64,549.26,548.70,548.03,547.31,546.93,547.32,547.77,548.14,548.52,548.95,549.32,549.40,549.44,549.43,549.19,548.90,548.64,548.41,548.19,548.04,548.12,548.12,547.96,547.82,547.74,547.66,547.60,547.60,547.59,547.59,547.60,547.68,547.96,548.20,548.42,548.67,548.96,549.14,549.35,549.56,549.76,550.11,550.42,550.64,550.76,550.79,550.78,550.69,550.56,550.49,550.42,550.34,550.29,550.32,550.43,550.28,550.02,549.81,549.74,549.24,548.59,547.91,547.44,547.70,548.34,549.07,549.71,549.92,549.99,550.01,550.01,550.01,550.01,550.01,550.01,549.99,549.93,549.92,549.92,549.92,549.93,549.94,549.93,549.92,549.90,549.82,549.74,549.61,549.45,549.23,549.06,548.90,548.75,548.63,548.67,548.70,548.74,548.81,548.88,548.95,548.95,548.86,548.69,548.48,548.30,548.12,547.90,547.74,547.59,547.59,547.68,547.69,547.69,547.65,547.58,547.51,547.50,547.44,547.39,547.38,547.31,547.29,547.25,547.18,547.12,547.10,547.05,547.00,546.97,546.91,546.95,547.07,547.20,547.29,547.37,547.44,547.54,547.68,547.77,547.85,547.93,548.02,548.17,548.26,548.17,547.92,547.62,547.31,547.05,546.79,546.50,546.25,545.96,545.68,545.44,545.14,544.84
549.22,549.28,549.34,549.41,549.42,549.42,549.51,549.85,550.75,551.97,553.23,554.38,555.22,555.73,556.08,556.35,556.57,556.87,558.12,559.42,560.31,560.74,561.13,561.19,560.99,560.64,560.21,559.63,558.95,558.24,557.54,556.76,555.94,555.11,554.34,553.61,552.88,552.25,551.76,551.32,550.98,550.67,550.35,550.07,549.77,549.48,549.18,548.84,548.49,548.17,548.38,549.52,551.45,552.48,552.88,552.85,552.59,552.52,552.70,553.18,553.95,554.47,554.98,555.32,555.48,555.60,555.60,555.49,555.31,555.07,554.58,553.54,552.43,551.63,551.07,550.55,550.05,549.59,549.21,548.89,548.50,548.11,547.83,547.56,547.10,546.61,545.77,543.40,540.59,539.14,538.94,539.32,540.87,543.66,546.13,547.44,548.96,549.77,549.92,549.57,548.88,548.14,547.44,547.15,547.65,548.20,548.62,548.98,549.34,549.65,549.72,549.68,549.57,549.33,549.07,548.84,548.60,548.40,548.34,548.40,548.40,548.29,548.13,548.00,547.90,547.84,547.80,547.79,547.79,547.79,547.83,548.03,548.26,548.47,548.67,548.92,549.13,549.32,549.52,549.74,550.06,550.38,550.66,550.90,551.09,551.12,551.03,550.90,550.82,550.74,550.63,550.55,550.58,550.71,550.52,550.28,550.12,550.08,549.76,549.14,548.39,547.76,547.79,548.46,549.29,549.98,550.22,550.30,550.32,550.32,550.32,550.32,550.32,550.30,550.26,550.23,550.22,550.22,550.23,550.28,550.33,550.32,550.26,550.20,550.03,549.86,549.69,549.52,549.30,549.13,548.97,548.85,548.80,548.82,548.86,548.92,549.00,549.08,549.12,549.06,548.91,548.72,548.53,548.37,548.18,547.96,547.80,547.76,547.81,547.89,547.89,547.89,547.88,547.84,547.77,547.76,547.70,547.64,547.59,547.56,547.52,547.48,547.43,547.37,547.36,547.30,547.22,547.13,547.05,547.12,547.26,547.40,547.48,547.56,547.64,547.74,547.88,547.97,548.05,548.12,548.21,548.36,548.38,548.25,547.99,547.69,547.38,547.12,546.86,546.55,546.27,545.96,545.69,545.44,545.14,544.88
549.49,549.57,549.70,549.93,549.84,549.82,549.97,550.46,551.63,552.91,554.17,555.38,556.46,557.15,557.58,557.86,558.04,558.21,559.07,559.97,560.63,561.12,561.59,561.62,561.33,560.95,560.58,560.27,559.87,559.30,558.71,557.90,557.05,556.24,555.48,554.76,554.09,553.49,553.03,552.59,552.17,551.78,551.42,551.09,550.71,550.32,549.92,549.51,549.09,548.80,548.96,550.10,552.79,553.76,554.00,553.99,553.80,553.78,554.03,554.50,555.08,555.27,555.43,555.59,555.75,555.88,555.81,555.61,555.36,555.11,554.75,553.94,553.09,552.43,551.88,551.33,550.79,550.28,549.84,549.50,549.17,548.88,548.69,548.44,548.00,547.61,547.11,545.63,542.69,540.42,539.29,539.20,539.48,541.70,544.43,546.59,548.60,549.75,550.13,549.85,549.12,548.33,547.66,547.46,548.02,548.62,549.10,549.45,549.71,549.94,550.00,549.92,549.72,549.49,549.26,549.03,548.80,548.61,548.61,548.67,548.69,548.62,548.48,548.32,548.18,548.08,548.00,547.99,547.99,547.99,548.01,548.14,548.32,548.49,548.65,548.87,549.09,549.29,549.49,549.74,550.06,550.37,550.69,551.02,551.31,551.40,551.34,551.22,551.14,551.04,550.92,550.84,550.84,550.95,550.74,550.55,550.44,550.40,550.23,549.72,548.96,548.16,547.85,548.58,549.51,550.19,550.45,550.62,550.66,550.64,550.64,550.64,550.63,550.59,550.55,550.55,550.55,550.55,550.56,550.64,550.72,550.68,550.57,550.40,550.16,549.92,549.74,549.59,549.38,549.20,549.05,548.96,548.96,548.98,549.04,549.12,549.19,549.25,549.24,549.14,548.97,548.75,548.58,548.43,548.25,548.03,547.91,547.96,548.05,548.11,548.11,548.11,548.10,548.07,548.02,547.99,547.95,547.88,547.82,547.82,547.76,547.70,547.68,547.62,547.59,547.52,547.40,547.27,547.20,547.30,547.45,547.57,547.67,547.75,547.83,547.93,548.08,548.16,548.24,548.33,548.43,548.56,548.48,548.28,548.00,547.72,547.41,547.14,546.87,546.55,546.25,545.96,545.68,545.42,545.12,544.89
549.91,550.03,550.32,550.85,550.54,550.43,550.63,551.26,552.59,553.88,555.11,556.31,557.51,558.49,559.06,559.33,559.43,559.59,559.95,560.44,560.98,561.50,561.98,561.98,561.66,561.28,560.96,560.69,560.43,560.13,559.76,558.99,558.17,557.41,556.65,555.94,555.29,554.72,554.27,553.87,553.43,553.03,552.70,552.33,551.94,551.44,550.85,550.26,549.71,549.38,549.45,550.52,553.87,554.72,554.76,554.76,554.73,554.80,554.95,555.16,555.38,555.53,555.69,555.84,556.00,556.12,555.98,555.71,555.43,555.19,554.83,554.31,553.75,553.26,552.72,552.17,551.63,551.07,550.51,550.15,549.96,549.81,549.58,549.29,549.01,548.73,548.22,546.92,545.46,542.73,540.01,539.71,539.45,539.91,541.83,545.25,547.56,549.31,550.17,550.13,549.49,548.63,547.97,547.85,548.46,549.02,549.55,549.90,550.06,550.17,550.24,550.14,549.91,549.69,549.45,549.22,548.99,548.82,548.86,548.93,548.97,548.95,548.86,548.66,548.48,548.34,548.21,548.18,548.18,548.19,548.21,548.30,548.38,548.51,548.66,548.83,549.06,549.28,549.50,549.76,550.12,550.44,550.78,551.15,551.44,551.62,551.62,551.54,551.45,551.32,551.22,551.14,551.10,551.16,550.98,550.83,550.75,550.68,550.58,550.22,549.54,548.61,547.90,548.72,549.71,550.32,550.64,550.93,551.01,550.97,550.97,550.96,550.92,550.88,550.87,550.87,550.87,550.87,550.89,550.96,551.03,550.96,550.75,550.47,550.17,549.93,549.77,549.66,549.50,549.30,549.16,549.10,549.10,549.16,549.24,549.31,549.37,549.38,549.33,549.21,549.04,548.82,548.65,548.50,548.32,548.12,548.09,548.19,548.31,548.37,548.37,548.37,548.33,548.28,548.27,548.21,548.18,548.14,548.08,548.07,548.01,547.94,547.88,547.86,547.80,547.68,547.53,547.40,547.38,547.50,547.62,547.72,547.86,547.95,548.03,548.13,548.27,548.36,548.43,548.54,548.67,548.75,548.61,548.32,547.97,547.72,547.42,547.11,546.80,546.49,546.18,545.92,545.66,545.36,545.06,544.87
551.91,552.49,553.04,553.38,552.80,552.22,551.90,552.17,553.68,555.21,556.35,557.28,558.49,559.49,560.04,560.28,560.33,560.52,560.77,561.08,561.45,561.90,562.36,562.34,562.01,561.71,561.40,561.08,560.78,560.50,560.18,559.75,559.21,558.58,557.86,557.16,556.51,555.97,555.55,555.12,554.69,554.31,553.94,553.56,553.17,552.65,551.97,551.13,550.36,549.96,549.96,550.87,554.08,554.88,554.90,554.90,554.93,555.14,555.36,555.53,555.65,555.80,555.95,556.09,556.19,556.28,556.08,555.80,555.56,555.37,555.08,554.77,554.46,554.08,553.51,552.89,552.30,551.76,551.21,550.82,550.64,550.52,550.33,550.07,549.86,549.64,549.17,547.90,546.64,544.82,543.02,542.25,540.28,539.64,540.47,542.53,544.89,547.63,549.64,550.44,549.87,549.00,548.28,548.11,548.81,549.45,549.88,550.15,550.29,550.41,550.42,550.29,550.07,549.88,549.65,549.42,549.20,549.07,549.12,549.19,549.25,549.27,549.19,549.02,548.86,548.69,548.50,548.40,548.41,548.48,548.56,548.64,548.68,548.75,548.88,549.04,549.26,549.46,549.66,549.91,550.25,550.56,550.91,551.28,551.58,551.84,551.88,551.81,551.73,551.62,551.54,551.46,551.40,551.42,551.24,551.12,551.07,550.98,550.83,550.47,549.85,548.96,548.01,548.86,549.85,550.36,550.73,551.12,551.29,551.29,551.29,551.25,551.21,551.19,551.19,551.19,551.15,551.16,551.21,551.28,551.28,551.12,550.85,550.54,550.23,550.01,549.88,549.79,549.68,549.55,549.42,549.32,549.29,549.35,549.43,549.49,549.51,549.51,549.41,549.27,549.10,548.88,548.71,548.56,548.40,548.30,548.32,548.42,548.53,548.62,548.58,548.57,548.56,548.53,548.52,548.45,548.40,548.36,548.33,548.28,548.25,548.19,548.12,548.07,547.96,547.82,547.66,547.53,547.52,547.63,547.77,547.90,548.05,548.14,548.22,548.32,548.47,548.55,548.63,548.72,548.83,548.90,548.84,548.57,548.16,547.83,547.44,547.08,546.74,546.43,546.12,545.87,545.60,545.29,545.00,544.88
554.65,555.54,556.21,556.31,555.57,554.69,553.71,553.19,555.04,556.81,557.85,558.48,559.44,560.28,560.80,561.04,561.09,561.31,561.55,561.79,562.05,562.40,562.76,562.69,562.35,562.09,561.78,561.42,561.07,560.76,560.46,560.26,559.98,559.55,558.98,558.37,557.76,557.23,556.81,556.36,555.95,555.57,555.18,554.79,554.41,553.89,553.13,551.99,550.98,550.55,550.53,551.29,554.11,554.86,554.90,554.91,555.00,555.33,555.64,555.84,555.93,556.08,556.22,556.34,556.42,556.44,556.22,555.96,555.74,555.57,555.36,555.17,554.99,554.73,554.19,553.55,552.96,552.44,551.91,551.50,551.30,551.17,550.97,550.73,550.51,550.26,549.79,548.62,547.38,546.35,545.54,544.59,541.99,540.71,540.37,540.72,542.61,545.57,548.29,550.06,550.21,549.39,548.56,548.33,549.11,549.78,550.12,550.33,550.49,550.63,550.59,550.43,550.23,550.07,549.85,549.61,549.42,549.32,549.40,549.48,549.55,549.58,549.51,549.36,549.18,548.97,548.74,548.66,548.70,548.80,548.93,549.00,549.02,549.06,549.15,549.30,549.50,549.66,549.85,550.12,550.39,550.69,551.03,551.39,551.71,552.03,552.12,552.07,552.00,551.91,551.84,551.76,551.70,551.66,551.50,551.40,551.38,551.27,551.02,550.62,550.04,549.21,548.18,549.03,549.99,550.42,550.81,551.26,551.52,551.61,551.59,551.53,551.52,551.52,551.51,551.49,551.44,551.46,551.53,551.57,551.47,551.22,550.92,550.63,550.32,550.15,550.05,549.98,549.90,549.84,549.74,549.62,549.58,549.61,549.65,549.67,549.66,549.63,549.50,549.33,549.15,548.94,548.77,548.63,548.51,548.49,548.57,548.65,548.76,548.85,548.81,548.80,548.78,548.77,548.76,548.71,548.64,548.59,548.58,548.51,548.48,548.44,548.37,548.25,548.10,547.95,547.79,547.66,547.66,547.77,547.92,548.07,548.22,548.33,548.41,548.51,548.64,548.74,548.82,548.90,548.98,549.03,549.04,548.83,548.43,548.02,547.58,547.16,546.78,546.46,546.11,545.82,545.53,545.23,544.96,544.91
557.95,558.70,559.18,559.18,558.57,557.80,556.15,554.36,556.80,558.67,559.64,560.02,560.36,560.85,561.36,561.71,561.80,562.02,562.30,562.56,562.80,563.04,563.19,563.01,562.65,562.35,562.04,561.68,561.33,561.02,560.72,560.53,560.35,560.14,559.90,559.50,559.00,558.50,558.05,557.59,557.18,556.80,556.41,556.02,555.64,555.15,554.28,552.74,551.54,551.14,551.18,551.83,554.16,554.83,554.90,554.95,555.17,555.53,555.90,556.17,556.26,556.40,556.51,556.62,556.72,556.66,556.46,556.22,555.99,555.78,555.60,555.40,555.23,555.07,554.67,554.14,553.62,553.13,552.61,552.20,551.96,551.77,551.48,551.18,550.84,550.45,549.92,549.02,547.96,547.00,546.24,545.69,544.83,543.46,542.00,541.09,541.74,543.38,545.75,548.46,550.48,549.81,548.82,548.54,549.34,549.93,550.24,550.47,550.68,550.83,550.74,550.59,550.43,550.26,550.04,549.81,549.64,549.59,549.71,549.80,549.85,549.85,549.82,549.63,549.37,549.08,548.86,548.98,549.09,549.17,549.26,549.33,549.34,549.38,549.47,549.56,549.71,549.83,550.01,550.35,550.54,550.83,551.14,551.47,551.84,552.16,552.31,552.32,552.25,552.17,552.10,552.02,551.95,551.88,551.79,551.70,551.63,551.51,551.13,550.68,550.10,549.30,548.39,549.25,550.15,550.55,550.94,551.39,551.75,551.92,551.86,551.84,551.84,551.84,551.83,551.77,551.75,551.78,551.84,551.82,551.59,551.29,551.00,550.75,550.45,550.37,550.32,550.24,550.17,550.14,550.09,550.02,550.01,549.96,549.90,549.87,549.84,549.71,549.56,549.37,549.16,549.00,548.84,548.69,548.62,548.68,548.82,548.91,549.00,549.06,549.05,549.05,549.01,548.97,548.97,548.95,548.89,548.86,548.84,548.76,548.70,548.66,548.60,548.39,548.23,548.08,547.92,547.80,547.85,547.93,548.05,548.21,548.36,548.50,548.61,548.69,548.78,548.92,549.02,549.10,549.16,549.17,549.17,549.04,548.73,548.29,547.88,547.45,547.03,546.64,546.20,545.82,545.48,545.18,544.95,544.96
559.63,560.05,560.29,560.27,559.91,559.42,557.75,555.69,558.28,559.81,560.56,560.93,561.15,561.54,561.99,562.34,562.50,562.69,562.94,563.19,563.41,563.59,563.59,563.34,562.96,562.61,562.26,561.92,561.59,561.28,561.02,560.84,560.68,560.53,560.36,560.12,559.84,559.53,559.18,558.80,558.42,558.01,557.61,557.29,556.89,556.27,555.23,553.50,552.12,551.73,551.83,552.38,554.22,554.77,554.91,555.08,555.40,555.78,556.16,556.45,556.58,556.73,556.82,556.92,557.00,556.91,556.71,556.48,556.25,556.02,555.82,555.63,555.43,555.20,554.87,554.40,553.94,553.50,553.01,552.64,552.35,552.04,551.69,551.34,550.96,550.56,550.09,549.40,548.56,547.67,546.90,546.43,545.94,544.98,543.67,542.33,541.88,542.63,544.24,546.83,550.47,550.09,549.11,548.79,549.45,549.97,550.27,550.52,550.79,551.00,550.93,550.80,550.67,550.51,550.33,550.14,550.00,549.99,550.05,550.13,550.16,550.14,550.00,549.68,549.41,549.25,549.25,549.38,549.48,549.56,549.62,549.66,549.70,549.76,549.83,549.87,549.93,550.01,550.19,550.51,550.76,551.02,551.31,551.63,551.97,552.29,552.48,552.55,552.51,552.43,552.38,552.33,552.26,552.18,552.10,552.00,551.87,551.63,551.21,550.72,550.12,549.34,548.61,549.40,550.24,550.64,551.07,551.52,551.92,552.16,552.16,552.16,552.16,552.15,552.11,552.07,552.07,552.09,552.08,551.95,551.70,551.40,551.12,550.89,550.67,550.61,550.57,550.50,550.43,550.41,550.39,550.37,550.36,550.33,550.27,550.15,549.97,549.75,549.57,549.40,549.22,549.06,548.90,548.83,548.84,548.92,549.03,549.15,549.25,549.30,549.27,549.26,549.24,549.21,549.21,549.17,549.13,549.09,549.05,549.02,548.94,548.87,548.75,548.53,548.36,548.21,548.07,547.98,548.00,548.10,548.23,548.39,548.54,548.66,548.77,548.88,548.97,549.11,549.21,549.27,549.31,549.31,549.31,549.23,549.00,548.55,548.15,547.74,547.32,546.90,546.47,546.05,545.65,545.30,544.98,545.11
560.62,560.77,560.83,560.77,560.59,560.30,558.80,556.84,559.37,560.55,561.15,561.61,561.89,562.26,562.64,562.96,563.18,563.33,563.53,563.75,563.96,564.07,563.96,563.66,563.27,562.89,562.50,562.16,561.85,561.55,561.33,561.17,561.02,560.88,560.73,560.60,560.48,560.35,560.11,559.83,559.50,559.13,558.77,558.54,558.14,557.35,556.08,554.26,552.70,552.32,552.47,552.93,554.27,554.73,554.95,555.25,555.63,556.01,556.40,556.72,556.89,557.04,557.14,557.21,557.23,557.11,556.90,556.66,556.43,556.20,555.96,555.77,555.56,555.25,554.91,554.47,554.05,553.65,553.23,552.89,552.54,552.15,551.76,551.38,551.00,550.63,550.20,549.63,548.96,548.17,547.39,546.88,546.34,545.79,544.91,543.55,542.41,542.51,543.38,545.59,550.25,550.32,549.44,549.05,549.51,549.98,550.27,550.54,550.85,551.13,551.13,551.04,550.93,550.79,550.64,550.49,550.40,550.39,550.39,550.44,550.44,550.34,550.09,549.65,549.43,549.48,549.69,549.80,549.88,549.95,550.00,550.01,550.06,550.13,550.17,550.17,550.17,550.21,550.36,550.65,550.96,551.24,551.52,551.82,552.13,552.43,552.66,552.78,552.77,552.69,552.66,552.63,552.56,552.49,552.39,552.28,552.08,551.72,551.26,550.73,550.08,549.33,548.80,549.54,550.31,550.71,551.17,551.63,552.06,552.38,552.47,552.48,552.47,552.44,552.39,552.39,552.39,552.38,552.29,552.05,551.80,551.52,551.25,551.04,550.90,550.88,550.84,550.76,550.70,550.68,550.68,550.69,550.69,550.69,550.59,550.37,550.05,549.76,549.56,549.41,549.29,549.16,549.02,549.00,549.07,549.16,549.25,549.38,549.49,549.54,549.48,549.47,549.47,549.47,549.45,549.39,549.38,549.34,549.28,549.25,549.18,549.06,548.88,548.66,548.49,548.34,548.21,548.14,548.14,548.25,548.41,548.56,548.71,548.81,548.94,549.08,549.16,549.31,549.41,549.45,549.43,549.43,549.43,549.40,549.25,548.83,548.42,548.03,547.62,547.18,546.77,546.33,545.90,545.49,545.09,545.38
561.03,561.22,561.30,561.09,560.76,560.40,559.06,557.40,559.70,560.81,561.52,562.16,562.59,562.98,563.32,563.61,563.82,563.92,564.07,564.27,564.46,564.48,564.31,563.98,563.60,563.21,562.83,562.45,562.11,561.82,561.65,561.54,561.41,561.28,561.19,561.10,560.97,560.80,560.57,560.39,560.19,560.02,559.88,559.70,559.39,558.41,556.86,555.02,553.27,552.90,553.12,553.48,554.33,554.75,555.07,555.44,555.83,556.21,556.60,556.94,557.20,557.31,557.44,557.49,557.39,557.14,556.90,556.66,556.43,556.19,555.91,555.71,555.49,555.16,554.73,554.28,553.85,553.48,553.14,552.83,552.47,552.09,551.70,551.31,550.98,550.63,550.18,549.52,548.83,548.15,547.48,546.84,546.22,545.66,544.98,544.07,543.18,542.90,543.43,545.40,549.70,550.53,549.90,549.29,549.54,549.98,550.27,550.54,550.85,551.15,551.34,551.34,551.20,551.11,550.96,550.85,550.77,550.72,550.71,550.73,550.60,550.34,550.02,549.53,549.56,549.87,550.09,550.24,550.34,550.38,550.39,550.39,550.41,550.42,550.43,550.43,550.43,550.44,550.52,550.73,551.09,551.45,551.75,552.01,552.32,552.63,552.88,553.03,553.02,552.95,552.88,552.85,552.82,552.74,552.61,552.50,552.30,551.80,551.28,550.69,549.99,549.19,548.92,549.65,550.37,550.77,551.24,551.70,552.15,552.55,552.77,552.75,552.73,552.73,552.72,552.71,552.71,552.64,552.48,552.18,551.88,551.62,551.38,551.18,551.14,551.13,551.09,551.03,551.01,550.96,550.97,551.01,551.01,551.01,550.73,550.34,550.00,549.74,549.52,549.40,549.38,549.35,549.26,549.20,549.22,549.36,549.50,549.60,549.68,549.74,549.74,549.73,549.73,549.71,549.65,549.64,549.63,549.60,549.53,549.46,549.33,549.19,549.01,548.79,548.62,548.47,548.34,548.27,548.26,548.38,548.54,548.69,548.85,548.99,549.14,549.27,549.36,549.50,549.60,549.63,549.57,549.56,549.56,549.56,549.47,549.13,548.70,548.29,547.89,547.49,547.04,546.63,546.21,545.75,545.37,545.90
561.47,561.61,561.58,561.19,560.77,560.38,559.39,558.29,560.01,561.00,561.80,562.59,563.18,563.63,563.98,564.26,564.47,564.56,564.67,564.79,564.88,564.87,564.62,564.26,563.88,563.49,563.10,562.69,562.35,562.15,562.09,561.99,561.87,561.76,561.68,561.57,561.43,561.25,561.03,560.87,560.71,560.62,560.55,560.39,560.08,559.05,557.38,555.41,553.83,553.54,553.77,554.05,554.54,554.89,555.25,555.63,556.02,556.44,556.84,557.21,557.51,557.62,557.70,557.65,557.44,557.14,556.90,556.69,556.47,556.20,555.89,555.64,555.39,555.08,554.56,554.11,553.71,553.34,553.03,552.72,552.38,552.02,551.63,551.25,550.92,550.59,550.17,549.47,548.38,547.52,546.91,546.34,545.75,545.27,544.75,544.07,543.36,543.10,543.50,544.81,547.50,550.47,550.61,549.53,549.56,549.94,550.25,550.54,550.84,551.12,551.38,551.52,551.52,551.44,551.32,551.21,551.12,551.08,551.00,550.87,550.64,550.33,549.98,549.59,549.68,550.04,550.30,550.53,550.68,550.74,550.74,550.74,550.74,550.74,550.73,550.70,550.69,550.69,550.72,550.85,551.17,551.55,551.90,552.20,552.51,552.79,553.06,553.24,553.23,553.20,553.13,553.09,553.07,552.96,552.85,552.67,552.35,551.77,551.20,550.60,549.88,549.13,549.10,549.79,550.44,550.86,551.39,551.93,552.44,552.86,553.06,553.05,553.04,553.04,553.03,553.00,552.96,552.82,552.58,552.30,552.00,551.74,551.54,551.41,551.39,551.39,551.36,551.30,551.29,551.26,551.28,551.34,551.32,551.19,550.79,550.34,549.98,549.75,549.60,549.56,549.59,549.59,549.55,549.47,549.42,549.50,549.62,549.73,549.85,549.95,550.02,550.04,550.02,549.98,549.94,549.90,549.92,549.88,549.74,549.61,549.47,549.31,549.14,548.91,548.75,548.62,548.50,548.41,548.43,548.56,548.72,548.86,548.98,549.13,549.28,549.43,549.55,549.70,549.77,549.77,549.70,549.69,549.69,549.69,549.64,549.39,548.99,548.57,548.20,547.88,547.41,546.94,546.48,546.04,545.76,546.40
561.92,561.96,561.76,561.24,560.76,560.34,559.71,559.20,560.33,561.22,562.08,562.97,563.73,564.24,564.59,564.86,565.06,565.16,565.24,565.28,565.26,565.20,564.89,564.50,564.12,563.72,563.33,562.91,562.60,562.51,562.57,562.47,562.36,562.28,562.18,562.05,561.89,561.71,561.50,561.33,561.18,561.09,561.01,560.78,560.40,559.38,557.71,555.63,554.36,554.19,554.43,554.68,554.91,555.19,555.52,555.89,556.26,556.69,557.09,557.47,557.81,557.92,557.92,557.76,557.46,557.16,556.90,556.70,556.50,556.20,555.89,555.59,555.30,555.00,554.43,553.99,553.60,553.24,552.93,552.61,552.29,551.96,551.58,551.21,550.88,550.56,550.17,549.46,547.95,546.78,546.12,545.66,545.17,544.79,544.39,543.86,543.33,543.25,543.62,544.26,545.32,550.37,551.28,549.81,549.63,549.91,550.23,550.54,550.83,551.09,551.38,551.64,551.79,551.76,551.68,551.56,551.44,551.38,551.20,550.92,550.62,550.30,549.94,549.71,549.81,550.13,550.43,550.74,550.95,551.05,551.05,551.05,551.05,551.05,551.03,550.97,550.96,550.95,550.95,551.00,551.25,551.61,552.00,552.37,552.69,552.94,553.22,553.43,553.45,553.45,553.39,553.35,553.31,553.18,553.09,552.82,552.35,551.71,551.09,550.46,549.76,549.12,549.29,550.00,550.65,551.11,551.71,552.32,552.86,553.23,553.33,553.34,553.34,553.34,553.33,553.26,553.16,552.95,552.67,552.41,552.13,551.89,551.72,551.66,551.65,551.65,551.62,551.55,551.56,551.56,551.60,551.64,551.59,551.30,550.82,550.35,549.98,549.76,549.72,549.77,549.86,549.90,549.90,549.81,549.71,549.71,549.77,549.88,550.01,550.16,550.31,550.35,550.33,550.27,550.25,550.19,550.19,550.11,549.89,549.74,549.58,549.43,549.26,549.04,548.89,548.79,548.69,548.57,548.61,548.74,548.88,549.02,549.12,549.26,549.41,549.57,549.73,549.89,549.94,549.91,549.85,549.84,549.83,549.83,549.79,549.64,549.32,548.90,548.54,548.30,547.82,547.29,546.77,546.33,546.21,546.93
562.36,562.26,561.89,561.36,560.88,560.39,559.93,559.79,560.71,561.58,562.46,563.38,564.23,564.75,565.08,565.30,565.47,565.61,565.70,565.71,565.62,565.38,565.07,564.70,564.30,563.86,563.47,563.11,562.92,562.96,563.02,562.97,562.88,562.79,562.65,562.55,562.38,562.18,562.00,561.80,561.67,561.53,561.27,560.72,560.20,559.20,557.63,555.69,554.87,554.84,555.12,555.43,555.62,555.80,556.07,556.38,556.66,556.99,557.32,557.66,558.01,558.17,558.03,557.78,557.52,557.22,556.92,556.68,556.45,556.20,555.89,555.59,555.28,554.94,554.41,553.99,553.60,553.23,552.92,552.56,552.23,551.91,551.59,551.26,550.90,550.56,550.20,549.56,547.93,546.36,545.30,544.96,544.65,544.31,543.91,543.52,543.27,543.49,543.90,544.36,545.31,550.42,551.54,550.21,549.87,549.96,550.23,550.54,550.84,551.13,551.44,551.71,551.92,552.06,552.01,551.88,551.69,551.44,551.11,550.80,550.49,550.19,549.94,549.80,549.95,550.25,550.56,550.87,551.15,551.30,551.30,551.30,551.30,551.30,551.30,551.28,551.23,551.20,551.20,551.22,551.29,551.65,552.07,552.45,552.82,553.12,553.38,553.60,553.69,553.70,553.65,553.58,553.52,553.43,553.34,553.00,552.39,551.66,550.97,550.34,549.67,549.13,549.45,550.46,551.35,551.91,552.47,553.08,553.48,553.63,553.61,553.61,553.61,553.61,553.59,553.52,553.30,553.04,552.78,552.49,552.24,552.08,551.99,551.91,551.90,551.90,551.88,551.83,551.88,551.89,551.90,551.89,551.78,551.34,550.86,550.39,550.00,549.82,549.83,549.96,550.17,550.38,550.42,550.32,550.19,550.15,550.16,550.14,550.21,550.36,550.51,550.63,550.68,550.64,550.59,550.51,550.37,550.18,549.96,549.81,549.65,549.50,549.34,549.17,549.07,548.98,548.90,548.81,548.76,548.83,548.95,549.10,549.24,549.39,549.54,549.70,549.86,550.07,550.13,550.12,550.10,550.04,549.98,549.95,549.94,549.89,549.72,549.38,549.00,548.66,548.25,547.78,547.19,546.65,546.74,547.55
562.73,562.50,562.03,561.53,561.06,560.54,560.21,560.35,561.18,562.02,562.89,563.81,564.66,565.19,565.53,565.75,565.90,566.02,566.11,566.07,565.86,565.53,565.18,564.81,564.42,564.02,563.61,563.36,563.29,563.36,563.43,563.44,563.38,563.27,563.14,563.03,562.85,562.64,562.47,562.25,562.11,561.85,561.37,560.69,560.10,559.07,557.57,555.88,555.43,555.60,555.96,556.31,556.36,556.44,556.64,556.94,557.21,557.51,557.80,558.09,558.36,558.35,558.11,557.82,557.55,557.24,556.96,556.69,556.43,556.16,555.85,555.57,555.28,554.94,554.51,554.12,553.74,553.39,553.05,552.64,552.27,551.92,551.55,551.24,550.89,550.56,550.13,549.14,547.08,545.54,544.76,544.46,544.19,543.84,543.57,543.50,543.54,543.88,544.34,545.15,547.23,551.11,551.86,550.82,550.42,550.18,550.33,550.62,550.92,551.20,551.51,551.77,552.00,552.21,552.23,552.14,551.94,551.59,551.20,550.83,550.47,550.15,549.94,549.89,550.08,550.38,550.69,551.00,551.34,551.56,551.61,551.61,551.61,551.59,551.57,551.56,551.52,551.49,551.46,551.46,551.47,551.73,552.11,552.53,552.94,553.26,553.55,553.78,553.91,553.93,553.89,553.84,553.76,553.68,553.61,553.39,552.92,552.06,551.16,550.35,549.61,549.14,549.59,550.79,551.92,552.70,553.25,553.72,553.93,553.95,553.91,553.91,553.89,553.86,553.83,553.67,553.41,553.16,552.91,552.61,552.39,552.30,552.25,552.21,552.17,552.16,552.15,552.12,552.16,552.20,552.21,552.14,551.86,551.39,550.98,550.62,550.29,550.13,550.13,550.26,550.50,550.79,550.79,550.66,550.55,550.51,550.47,550.41,550.44,550.60,550.75,550.88,550.94,550.94,550.82,550.69,550.48,550.25,550.03,549.87,549.72,549.56,549.42,549.34,549.29,549.21,549.14,549.07,549.02,549.02,549.08,549.20,549.33,549.45,549.59,549.75,549.95,550.24,550.39,550.44,550.40,550.33,550.27,550.24,550.22,550.24,550.17,549.95,549.63,549.21,548.65,548.09,547.44,546.93,547.27,548.18
563.05,562.71,562.20,561.73,561.26,560.74,560.54,560.90,561.71,562.50,563.35,564.24,565.02,565.53,565.90,566.17,566.34,566.44,566.49,566.36,566.04,565.66,565.27,564.90,564.53,564.20,563.79,563.65,563.67,563.75,563.83,563.90,563.87,563.74,563.64,563.50,563.30,563.10,562.93,562.70,562.50,562.09,561.42,560.75,560.11,559.04,557.60,556.18,556.10,556.45,556.89,557.21,557.11,557.08,557.24,557.54,557.84,558.15,558.40,558.60,558.71,558.46,558.16,557.86,557.55,557.25,557.00,556.72,556.41,556.11,555.81,555.55,555.30,555.00,554.68,554.31,553.95,553.60,553.21,552.77,552.36,551.95,551.52,551.18,550.86,550.55,549.97,548.34,545.91,544.65,544.39,544.09,543.80,543.50,543.42,543.70,544.01,544.69,545.39,546.65,549.82,551.97,552.20,551.54,551.11,550.52,550.50,550.74,551.04,551.29,551.58,551.84,552.08,552.29,552.41,552.37,552.17,551.79,551.40,550.96,550.55,550.20,549.98,550.00,550.23,550.52,550.83,551.13,551.50,551.78,551.91,551.92,551.92,551.88,551.82,551.82,551.82,551.78,551.73,551.73,551.73,551.85,552.15,552.60,553.04,553.39,553.70,553.96,554.11,554.13,554.13,554.09,554.01,553.94,553.87,553.86,553.66,552.72,551.62,550.50,549.58,549.17,549.69,551.09,552.47,553.45,553.96,554.23,554.28,554.24,554.22,554.22,554.17,554.11,554.04,553.77,553.51,553.28,553.03,552.75,552.60,552.54,552.54,552.51,552.45,552.43,552.42,552.42,552.44,552.50,552.52,552.38,551.96,551.52,551.23,551.00,550.77,550.61,550.56,550.64,550.85,551.15,551.08,550.92,550.82,550.81,550.75,550.67,550.71,550.86,551.00,551.09,551.16,551.17,551.00,550.79,550.55,550.32,550.10,549.94,549.80,549.66,549.55,549.55,549.54,549.48,549.40,549.33,549.32,549.28,549.29,549.37,549.44,549.52,549.64,549.80,550.04,550.40,550.67,550.79,550.74,550.66,550.64,550.60,550.57,550.62,550.63,550.53,550.30,549.85,549.10,548.37,547.65,547.20,547.75,548.72
563.32,562.92,562.45,561.97,561.46,560.97,560.90,561.47,562.24,563.02,563.82,564.58,565.19,565.63,566.05,566.43,566.73,566.93,566.82,566.54,566.17,565.79,565.40,565.05,564.71,564.36,564.10,564.03,564.06,564.14,564.22,564.29,564.30,564.24,564.11,563.96,563.75,563.55,563.38,563.15,562.78,562.27,561.68,561.03,560.37,559.31,557.92,556.66,556.98,557.48,557.82,557.95,557.82,557.75,557.88,558.18,558.44,558.73,558.93,558.95,558.77,558.47,558.16,557.86,557.55,557.25,557.00,556.72,556.41,556.11,555.85,555.61,555.39,555.17,554.87,554.50,554.10,553.67,553.24,552.82,552.43,552.01,551.56,551.19,550.83,550.49,549.68,547.11,545.26,544.40,544.13,543.83,543.62,543.63,543.83,544.14,544.57,546.85,548.61,549.53,551.07,552.22,552.51,552.23,551.69,550.99,550.73,550.81,551.12,551.40,551.66,551.93,552.21,552.43,552.63,552.60,552.37,551.98,551.59,551.14,550.75,550.43,550.18,550.24,550.44,550.72,551.02,551.27,551.63,551.96,552.17,552.18,552.18,552.14,552.09,552.09,552.09,552.07,552.04,551.99,551.99,552.02,552.24,552.66,553.12,553.50,553.83,554.13,554.36,554.38,554.35,554.31,554.27,554.20,554.17,554.17,554.07,553.55,552.50,550.92,549.61,549.28,549.78,551.60,553.22,554.09,554.50,554.58,554.57,554.54,554.49,554.48,554.43,554.32,554.13,553.88,553.60,553.35,553.12,552.94,552.87,552.86,552.84,552.79,552.76,552.71,552.68,552.70,552.75,552.83,552.79,552.63,552.33,552.03,551.82,551.62,551.39,551.18,551.06,551.09,551.26,551.44,551.34,551.18,551.09,551.08,551.01,550.97,551.00,551.12,551.26,551.31,551.36,551.35,551.14,550.91,550.68,550.45,550.22,550.02,549.94,549.89,549.86,549.86,549.86,549.77,549.66,549.60,549.59,549.61,549.67,549.73,549.76,549.83,549.89,549.98,550.23,550.54,550.84,551.05,551.11,551.04,550.99,550.95,550.93,550.96,551.01,550.96,550.77,550.35,549.75,548.94,548.08,547.50,547.98,548.91
563.56,563.13,562.67,562.20,561.69,561.21,561.20,561.82,562.55,563.27,564.02,564.74,565.26,565.66,566.08,566.51,566.92,567.26,567.15,566.84,566.45,566.10,565.71,565.39,565.07,564.68,564.47,564.42,564.45,564.53,564.61,564.71,564.77,564.75,564.57,564.39,564.17,563.96,563.76,563.54,563.05,562.47,561.82,561.02,560.23,559.19,558.07,557.42,557.99,558.49,558.71,558.68,558.53,558.42,558.51,558.79,559.04,559.22,559.24,559.10,558.79,558.47,558.16,557.87,557.58,557.28,557.01,556.72,556.42,556.15,555.93,555.75,555.57,555.36,555.00,554.60,554.18,553.73,553.27,552.88,552.48,552.05,551.62,551.20,550.81,550.45,549.45,546.19,544.83,544.29,543.97,543.68,543.64,543.88,544.22,544.81,546.52,548.92,550.53,551.22,551.92,552.68,553.03,552.90,552.25,551.52,551.01,550.90,551.19,551.49,551.76,552.03,552.31,552.57,552.83,552.80,552.56,552.18,551.79,551.39,551.01,550.69,550.41,550.49,550.71,550.97,551.25,551.49,551.81,552.13,552.37,552.43,552.44,552.42,552.38,552.38,552.38,552.37,552.33,552.29,552.28,552.31,552.41,552.67,553.15,553.57,553.96,554.30,554.54,554.60,554.57,554.55,554.53,554.46,554.44,554.44,554.42,554.19,553.26,551.33,549.67,549.39,549.84,552.21,554.05,554.63,554.86,554.87,554.83,554.80,554.75,554.74,554.65,554.47,554.24,553.98,553.68,553.44,553.29,553.20,553.16,553.14,553.13,553.08,553.05,553.01,552.97,552.96,553.03,553.12,553.09,552.96,552.76,552.55,552.40,552.24,552.00,551.80,551.62,551.58,551.68,551.75,551.61,551.47,551.36,551.30,551.23,551.23,551.28,551.37,551.49,551.54,551.56,551.50,551.27,551.04,550.81,550.58,550.36,550.18,550.14,550.13,550.11,550.11,550.08,550.01,549.92,549.85,549.84,549.88,549.95,550.01,550.01,550.05,550.11,550.20,550.42,550.72,551.02,551.29,551.45,551.40,551.35,551.32,551.32,551.32,551.37,551.30,551.06,550.60,550.07,549.28,548.40,547.78,548.22,549.10
563.78,563.33,562.87,562.40,561.93,561.48,561.45,562.02,562.70,563.34,564.04,564.73,565.24,565.65,566.05,566.46,566.94,567.46,567.49,567.24,566.87,566.55,566.19,565.89,565.59,565.17,564.93,564.86,564.88,564.94,565.03,565.17,565.27,565.24,565.01,564.78,564.55,564.32,564.10,563.86,563.35,562.68,561.83,560.72,559.80,558.87,558.21,558.40,559.05,559.43,559.52,559.39,559.24,559.10,559.14,559.37,559.61,559.60,559.39,559.10,558.79,558.49,558.17,557.90,557.64,557.33,557.04,556.74,556.46,556.24,556.07,555.95,555.79,555.52,555.08,554.63,554.20,553.79,553.34,552.94,552.51,552.07,551.67,551.22,550.82,550.44,549.30,545.63,544.56,544.22,543.90,543.62,543.82,544.16,544.67,545.90,549.28,550.66,551.29,551.88,552.56,553.31,553.68,553.52,552.78,552.07,551.36,551.05,551.26,551.56,551.87,552.14,552.39,552.70,553.00,553.00,552.76,552.38,552.00,551.66,551.31,550.95,550.68,550.75,550.99,551.27,551.51,551.75,552.04,552.32,552.54,552.68,552.71,552.71,552.71,552.71,552.70,552.65,552.61,552.61,552.61,552.66,552.64,552.66,553.14,553.61,554.07,554.46,554.69,554.79,554.81,554.80,554.78,554.72,554.70,554.71,554.73,554.68,553.94,551.80,549.87,549.52,549.88,552.80,554.83,555.04,555.10,555.10,555.06,555.00,555.00,554.99,554.83,554.60,554.35,554.05,553.76,553.58,553.51,553.49,553.44,553.41,553.40,553.39,553.33,553.30,553.26,553.22,553.30,553.38,553.40,553.34,553.19,553.03,552.92,552.78,552.57,552.40,552.21,552.10,552.10,552.08,551.88,551.75,551.64,551.51,551.42,551.46,551.55,551.62,551.70,551.78,551.76,551.64,551.40,551.17,550.94,550.71,550.51,550.41,550.39,550.36,550.31,550.30,550.24,550.20,550.17,550.11,550.09,550.10,550.14,550.19,550.20,550.21,550.30,550.45,550.63,550.91,551.22,551.52,551.76,551.73,551.71,551.71,551.71,551.71,551.71,551.56,551.22,550.69,550.14,549.42,548.61,548.03,548.47,549.30
563.99,563.52,563.06,562.60,562.13,561.78,561.81,562.32,562.96,563.58,564.17,564.71,565.14,565.58,565.99,566.42,566.95,567.58,567.81,567.70,567.38,567.07,566.78,566.50,566.19,565.85,565.65,565.56,565.52,565.52,565.64,565.79,565.82,565.70,565.42,565.13,564.88,564.67,564.47,564.14,563.75,562.92,561.60,560.28,559.57,559.18,559.09,559.44,559.89,560.09,560.11,560.04,559.89,559.78,559.77,559.85,559.87,559.73,559.47,559.16,558.85,558.54,558.23,557.93,557.64,557.35,557.08,556.85,556.65,556.47,556.32,556.14,555.90,555.54,555.09,554.67,554.24,553.81,553.39,552.96,552.54,552.12,551.68,551.27,550.88,550.47,549.27,545.51,544.47,544.16,543.88,543.76,544.06,544.39,545.72,548.45,550.65,551.54,552.04,552.57,553.22,553.88,554.13,553.89,553.18,552.48,551.80,551.40,551.40,551.69,552.00,552.26,552.52,552.83,553.13,553.20,553.01,552.64,552.30,551.95,551.60,551.27,550.99,551.03,551.25,551.54,551.77,552.00,552.29,552.57,552.80,552.99,553.03,553.03,553.03,553.02,552.98,552.95,552.93,552.93,552.93,552.99,552.93,552.84,553.13,553.60,554.09,554.52,554.87,555.03,555.07,555.04,555.00,554.97,554.96,554.99,555.04,555.02,554.72,552.80,550.66,549.75,549.96,552.97,555.00,555.13,555.27,555.30,555.25,555.20,555.19,555.15,554.97,554.71,554.42,554.12,553.94,553.82,553.76,553.76,553.74,553.70,553.66,553.66,553.64,553.59,553.53,553.48,553.55,553.63,553.66,553.63,553.52,553.38,553.24,553.11,552.98,552.83,552.69,552.58,552.47,552.36,552.14,551.98,551.86,551.75,551.63,551.70,551.80,551.88,551.95,552.03,551.99,551.81,551.54,551.30,551.07,550.86,550.70,550.62,550.60,550.58,550.55,550.50,550.43,550.40,550.37,550.30,550.25,550.27,550.31,550.34,550.39,550.40,550.52,550.71,550.87,551.07,551.38,551.73,551.99,552.08,552.10,552.10,552.10,552.09,552.05,551.82,551.41,550.87,550.28,549.55,548.76,548.24,548.72,549.49
564.16,563.68,563.22,562.76,562.32,562.06,562.13,562.58,563.13,563.71,564.21,564.63,565.02,565.45,565.91,566.41,567.02,567.67,568.12,568.19,567.93,567.65,567.38,567.11,566.83,566.59,566.44,566.35,566.27,566.22,566.30,566.40,566.34,566.12,565.83,565.53,565.25,565.04,564.88,564.56,564.24,563.36,561.82,560.43,559.98,559.93,560.06,560.39,560.66,560.71,560.66,560.60,560.47,560.37,560.30,560.22,560.06,559.80,559.50,559.19,558.88,558.58,558.27,557.95,557.66,557.40,557.21,557.03,556.88,556.72,556.55,556.28,555.94,555.51,555.06,554.66,554.23,553.78,553.39,552.96,552.54,552.12,551.68,551.27,550.88,550.47,549.27,545.51,544.46,544.15,543.91,543.88,544.19,544.52,546.33,549.98,551.48,552.28,552.82,553.27,553.85,554.35,554.49,554.23,553.56,552.89,552.21,551.70,551.53,551.82,552.11,552.38,552.65,552.95,553.26,553.39,553.28,552.93,552.62,552.25,551.90,551.59,551.32,551.33,551.53,551.81,552.06,552.29,552.58,552.86,553.08,553.28,553.32,553.32,553.32,553.32,553.27,553.25,553.25,553.25,553.26,553.32,553.25,553.10,553.16,553.58,554.08,554.58,555.00,555.19,555.27,555.26,555.20,555.22,555.22,555.25,555.29,555.28,555.17,553.78,551.72,549.99,550.07,552.91,554.91,555.17,555.37,555.44,555.43,555.39,555.38,555.27,555.06,554.80,554.50,554.25,554.15,554.10,554.06,554.05,554.03,553.99,553.94,553.93,553.92,553.87,553.78,553.74,553.82,553.89,553.92,553.90,553.82,553.69,553.55,553.41,553.31,553.18,553.07,552.94,552.78,552.63,552.38,552.21,552.09,551.98,551.86,551.92,552.04,552.13,552.21,552.27,552.19,551.98,551.70,551.46,551.23,551.03,550.89,550.81,550.79,550.79,550.77,550.70,550.62,550.59,550.57,550.49,550.44,550.46,550.50,550.50,550.55,550.60,550.76,550.97,551.13,551.27,551.56,551.90,552.21,552.41,552.45,552.45,552.45,552.45,552.38,552.06,551.57,550.99,550.36,549.64,548.91,548.46,548.94,549.63
564.31,563.82,563.35,562.90,562.51,562.34,562.42,562.75,563.21,563.68,564.12,564.51,564.89,565.29,565.82,566.45,567.12,567.75,568.39,568.67,568.52,568.29,568.00,567.74,567.53,567.38,567.28,567.19,567.12,567.04,566.97,566.96,566.81,566.53,566.28,565.98,565.68,565.45,565.34,565.11,564.81,563.99,562.60,561.27,561.07,561.03,561.00,561.24,561.40,561.34,561.20,561.07,560.96,560.82,560.67,560.49,560.19,559.84,559.50,559.19,558.88,558.58,558.27,557.97,557.70,557.53,557.42,557.30,557.14,556.97,556.74,556.36,555.92,555.47,555.01,554.60,554.17,553.73,553.34,552.94,552.51,552.07,551.67,551.22,550.82,550.43,549.27,545.56,544.53,544.21,543.98,543.94,544.21,544.52,546.37,550.15,551.94,553.00,553.61,553.98,554.47,554.71,554.78,554.57,553.96,553.32,552.54,551.91,551.67,551.94,552.19,552.47,552.78,553.09,553.40,553.60,553.57,553.26,552.95,552.58,552.24,551.93,551.65,551.66,551.83,552.09,552.37,552.62,552.90,553.18,553.40,553.55,553.59,553.59,553.59,553.59,553.58,553.58,553.58,553.58,553.58,553.64,553.60,553.44,553.29,553.56,554.08,554.64,555.06,555.25,555.40,555.45,555.41,555.46,555.48,555.48,555.49,555.46,555.28,554.63,552.90,550.27,550.21,552.69,554.64,555.20,555.38,555.53,555.59,555.59,555.55,555.36,555.13,554.88,554.60,554.43,554.39,554.38,554.38,554.37,554.31,554.28,554.25,554.19,554.18,554.13,554.05,554.00,554.07,554.15,554.18,554.16,554.09,554.00,553.87,553.72,553.58,553.49,553.36,553.20,553.04,552.87,552.60,552.43,552.32,552.19,552.10,552.15,552.26,552.39,552.47,552.48,552.35,552.12,551.88,551.65,551.42,551.22,551.09,551.01,550.99,550.99,550.97,550.89,550.82,550.79,550.76,550.69,550.68,550.69,550.69,550.69,550.71,550.83,551.02,551.23,551.38,551.53,551.75,552.05,552.41,552.71,552.78,552.78,552.78,552.77,552.71,552.29,551.67,551.05,550.38,549.68,549.05,548.71,549.14,549.73
564.50,563.98,563.48,563.05,562.82,562.75,562.76,562.88,563.24,563.65,564.05,564.42,564.77,565.24,565.83,566.50,567.14,567.81,568.50,568.97,569.11,568.98,568.74,568.50,568.33,568.29,568.14,568.04,567.96,567.86,567.65,567.50,567.26,566.97,566.73,566.43,566.13,565.88,565.74,565.52,565.19,564.48,563.39,562.40,562.14,562.00,561.91,562.06,562.06,561.91,561.70,561.51,561.34,561.10,560.85,560.59,560.27,559.90,559.53,559.19,558.88,558.58,558.30,558.06,557.87,557.76,557.67,557.58,557.43,557.17,556.82,556.38,555.94,555.51,555.05,554.61,554.16,553.71,553.32,552.90,552.48,552.05,551.62,551.20,550.81,550.40,549.23,545.56,544.54,544.25,544.04,544.01,544.26,544.54,546.39,550.29,552.48,553.73,554.39,554.68,554.93,555.02,555.05,554.88,554.37,553.63,552.82,552.13,551.79,552.03,552.30,552.60,552.90,553.22,553.57,553.82,553.88,553.68,553.34,553.00,552.67,552.36,552.08,552.05,552.18,552.39,552.65,552.93,553.20,553.47,553.71,553.82,553.84,553.84,553.86,553.90,553.90,553.90,553.90,553.90,553.91,553.97,553.95,553.81,553.61,553.62,554.08,554.69,555.08,555.31,555.51,555.63,555.65,555.67,555.68,555.68,555.67,555.61,555.40,555.02,553.59,550.98,550.54,552.48,554.31,555.15,555.38,555.58,555.72,555.75,555.65,555.47,555.25,555.03,554.83,554.72,554.66,554.64,554.64,554.64,554.62,554.57,554.53,554.50,554.46,554.38,554.30,554.26,554.34,554.41,554.44,554.42,554.34,554.26,554.16,554.04,553.90,553.81,553.63,553.46,553.27,552.99,552.80,552.66,552.53,552.39,552.35,552.40,552.50,552.61,552.71,552.66,552.49,552.25,552.02,551.79,551.59,551.44,551.34,551.26,551.20,551.18,551.16,551.10,551.05,551.01,550.95,550.89,550.88,550.88,550.88,550.89,550.95,551.08,551.28,551.49,551.64,551.80,551.98,552.22,552.56,552.91,553.06,553.11,553.11,553.10,553.03,552.49,551.75,551.12,550.43,549.81,549.25,548.95,549.34,549.84
564.66,564.08,563.60,563.31,563.22,563.19,563.14,563.13,563.35,563.68,564.05,564.40,564.75,565.45,566.19,566.79,567.20,567.87,568.56,569.18,569.60,569.58,569.43,569.24,569.13,569.15,569.01,568.85,568.70,568.53,568.24,567.99,567.72,567.42,567.19,566.87,566.53,566.22,565.98,565.71,565.35,564.79,564.04,563.41,563.09,562.83,562.68,562.70,562.54,562.30,562.05,561.80,561.54,561.26,560.96,560.65,560.34,559.97,559.58,559.21,558.89,558.62,558.41,558.24,558.12,558.04,557.96,557.85,557.65,557.29,556.85,556.38,555.94,555.55,555.09,554.63,554.17,553.73,553.33,552.89,552.47,552.05,551.61,551.20,550.81,550.38,549.17,545.53,544.52,544.25,544.07,544.08,544.31,544.57,546.45,550.52,553.19,554.43,554.99,555.21,555.29,555.30,555.27,555.11,554.67,553.89,553.06,552.35,551.95,552.13,552.42,552.74,553.06,553.40,553.78,554.04,554.15,554.05,553.74,553.43,553.13,552.81,552.49,552.39,552.52,552.74,552.95,553.23,553.49,553.75,554.00,554.09,554.11,554.11,554.12,554.17,554.20,554.20,554.20,554.21,554.22,554.29,554.30,554.21,554.00,553.77,554.12,554.73,555.09,555.34,555.58,555.78,555.87,555.88,555.88,555.88,555.85,555.72,555.50,555.22,554.08,551.79,550.84,552.31,554.06,555.11,555.38,555.61,555.81,555.89,555.77,555.62,555.41,555.22,555.10,554.99,554.93,554.90,554.90,554.88,554.88,554.84,554.80,554.79,554.72,554.64,554.58,554.54,554.60,554.67,554.70,554.68,554.61,554.55,554.46,554.35,554.22,554.11,553.89,553.67,553.44,553.12,553.00,552.88,552.73,552.62,552.61,552.66,552.74,552.83,552.94,552.82,552.62,552.38,552.15,551.92,551.76,551.64,551.57,551.49,551.41,551.38,551.36,551.29,551.28,551.23,551.16,551.11,551.08,551.06,551.06,551.10,551.20,551.36,551.55,551.75,551.90,552.05,552.23,552.44,552.73,553.08,553.33,553.43,553.43,553.42,553.38,552.79,551.95,551.22,550.50,549.92,549.45,549.22,549.54,550.00
564.75,564.09,563.73,563.74,563.73,563.67,563.60,563.54,563.58,563.84,564.15,564.48,564.91,566.08,567.07,567.50,567.39,567.97,568.63,569.34,569.92,570.00,570.00,569.93,569.87,569.88,569.85,569.60,569.28,568.99,568.68,568.43,568.15,567.85,567.59,567.23,566.82,566.38,565.96,565.59,565.22,564.84,564.45,564.09,563.78,563.48,563.21,563.02,562.74,562.45,562.15,561.85,561.55,561.30,561.02,560.71,560.40,560.03,559.64,559.27,558.92,558.73,558.62,558.53,558.44,558.37,558.28,558.08,557.75,557.31,556.85,556.38,555.95,555.55,555.09,554.63,554.20,553.78,553.34,552.93,552.50,552.07,551.66,551.21,550.81,550.30,549.00,545.45,544.50,544.23,544.06,544.19,544.35,544.62,546.62,550.96,554.11,555.07,555.33,555.48,555.55,555.56,555.42,555.18,554.80,554.06,553.28,552.58,552.13,552.27,552.55,552.89,553.27,553.65,554.04,554.27,554.37,554.33,554.16,553.89,553.58,553.24,552.82,552.63,552.84,553.16,553.28,553.50,553.78,554.06,554.26,554.35,554.36,554.36,554.37,554.38,554.44,554.46,554.46,554.48,554.54,554.61,554.65,554.60,554.42,554.04,554.22,554.73,555.09,555.34,555.62,555.88,556.05,556.07,556.07,556.07,556.01,555.80,555.56,555.28,554.42,552.63,551.05,552.20,553.93,555.11,555.38,555.61,555.84,555.99,555.95,555.81,555.61,555.44,555.34,555.20,555.16,555.16,555.14,555.08,555.07,555.06,555.06,555.05,554.98,554.90,554.86,554.85,554.87,554.93,554.96,554.94,554.87,554.85,554.75,554.63,554.53,554.37,554.11,553.81,553.53,553.30,553.20,553.07,552.94,552.87,552.86,552.92,553.00,553.08,553.14,552.98,552.75,552.52,552.29,552.05,551.92,551.84,551.76,551.69,551.61,551.58,551.56,551.49,551.47,551.42,551.37,551.35,551.29,551.22,551.22,551.30,551.45,551.66,551.85,552.01,552.16,552.32,552.52,552.72,552.92,553.23,553.58,553.75,553.75,553.75,553.74,553.24,552.38,551.39,550.59,549.99,549.61,549.51,549.76,550.24
564.84,564.28,564.12,564.23,564.20,564.10,563.98,563.87,563.80,564.02,564.33,564.73,565.57,567.43,568.57,568.83,568.52,568.53,568.81,569.35,569.96,570.18,570.36,570.41,570.38,570.38,570.30,570.03,569.70,569.40,569.09,568.77,568.37,567.89,567.40,566.96,566.51,566.05,565.61,565.25,564.94,564.67,564.43,564.13,563.82,563.51,563.22,562.98,562.68,562.37,562.08,561.81,561.50,561.22,560.95,560.69,560.41,560.12,559.76,559.39,559.10,559.04,558.97,558.89,558.82,558.74,558.59,558.27,557.82,557.36,556.90,556.43,555.99,555.55,555.09,554.66,554.23,553.79,553.34,552.94,552.50,552.05,551.62,551.16,550.72,549.49,547.26,545.07,544.45,544.27,544.21,544.36,544.52,544.84,547.39,552.58,554.75,555.35,555.59,555.79,555.85,555.72,555.51,555.25,554.87,554.11,553.33,552.68,552.32,552.45,552.73,553.09,553.47,553.86,554.24,554.47,554.57,554.56,554.53,554.29,554.02,553.71,553.15,552.86,553.16,553.63,553.74,553.85,554.07,554.33,554.52,554.56,554.60,554.63,554.63,554.63,554.69,554.72,554.74,554.79,554.86,554.94,554.98,554.92,554.67,554.29,554.35,554.73,555.09,555.38,555.65,555.92,556.15,556.25,556.26,556.22,556.10,555.86,555.59,555.32,554.75,553.51,551.69,552.28,553.75,555.06,555.37,555.65,555.92,556.13,556.14,556.01,555.83,555.67,555.54,555.40,555.37,555.37,555.35,555.28,555.26,555.26,555.26,555.25,555.18,555.14,555.10,555.08,555.12,555.19,555.22,555.21,555.17,555.13,555.01,554.88,554.78,554.55,554.22,553.91,553.67,553.53,553.41,553.27,553.15,553.13,553.13,553.18,553.25,553.33,553.35,553.16,552.93,552.70,552.47,552.23,552.11,552.03,551.96,551.88,551.87,551.85,551.82,551.78,551.74,551.70,551.66,551.62,551.58,551.52,551.49,551.56,551.76,551.98,552.17,552.32,552.48,552.63,552.84,553.00,553.12,553.41,553.78,554.01,554.08,554.08,554.08,553.69,552.92,551.87,550.91,550.20,549.84,549.81,549.98,550.47
564.99,564.56,564.64,564.93,564.87,564.60,564.34,564.18,564.04,564.24,564.52,565.05,566.40,568.66,569.82,570.03,569.70,569.29,569.19,569.48,570.00,570.31,570.60,570.76,570.80,570.78,570.62,570.34,570.03,569.72,569.39,569.00,568.44,567.77,567.08,566.54,566.06,565.61,565.20,564.90,564.66,564.47,564.28,563.98,563.67,563.37,563.09,562.85,562.55,562.25,561.98,561.72,561.42,561.12,560.86,560.63,560.40,560.18,559.87,559.55,559.34,559.38,559.36,559.29,559.20,559.07,558.83,558.42,557.90,557.43,556.96,556.50,556.03,555.57,555.11,554.68,554.24,553.78,553.32,552.92,552.49,552.02,551.56,551.10,550.62,548.69,545.62,544.72,544.40,544.33,544.40,544.61,545.10,546.33,549.46,554.19,555.22,555.56,555.83,556.08,556.12,555.86,555.59,555.31,554.92,554.15,553.36,552.80,552.64,552.84,553.10,553.40,553.73,554.08,554.44,554.67,554.76,554.79,554.86,554.70,554.50,554.20,553.53,553.12,553.45,554.03,554.24,554.28,554.42,554.62,554.79,554.82,554.89,554.92,554.91,554.91,554.98,555.02,555.08,555.17,555.25,555.27,555.26,555.15,554.84,554.49,554.49,554.75,555.10,555.40,555.66,555.93,556.22,556.40,556.44,556.35,556.16,555.90,555.61,555.35,554.97,554.12,552.27,552.41,553.64,555.02,555.38,555.70,556.01,556.27,556.33,556.22,556.07,555.91,555.76,555.61,555.57,555.56,555.54,555.49,555.46,555.46,555.46,555.45,555.38,555.36,555.33,555.30,555.36,555.43,555.47,555.48,555.47,555.37,555.23,555.09,554.95,554.67,554.31,554.02,553.84,553.74,553.60,553.46,553.38,553.38,553.38,553.44,553.51,553.57,553.53,553.34,553.10,552.87,552.64,552.44,552.32,552.24,552.15,552.10,552.17,552.19,552.14,552.12,552.06,552.03,552.00,551.94,551.92,551.85,551.78,551.79,552.03,552.28,552.48,552.65,552.80,552.96,553.16,553.31,553.36,553.60,553.95,554.25,554.40,554.40,554.40,554.15,553.52,552.46,551.45,550.60,550.21,550.33,550.52,550.94
565.28,564.92,565.30,566.09,566.01,565.29,564.68,564.51,564.37,564.47,564.69,565.37,567.32,569.18,570.21,570.58,570.47,570.16,569.95,569.96,570.20,570.44,570.69,570.94,571.13,571.09,570.84,570.53,570.23,569.90,569.53,569.04,568.37,567.57,566.82,566.14,565.61,565.19,564.88,564.69,564.47,564.27,564.09,563.78,563.47,563.20,562.96,562.72,562.42,562.16,561.89,561.60,561.29,561.03,560.80,560.57,560.34,560.16,559.94,559.73,559.65,559.71,559.72,559.67,559.55,559.28,558.94,558.51,558.02,557.50,557.03,556.56,556.10,555.64,555.17,554.67,554.18,553.71,553.25,552.86,552.42,551.96,551.49,551.03,550.52,548.41,545.13,544.58,544.37,544.42,544.62,545.00,546.56,550.50,553.99,555.11,555.49,555.79,556.06,556.27,556.31,556.01,555.69,555.36,554.94,554.26,553.45,553.05,553.24,553.63,553.86,554.01,554.15,554.35,554.65,554.86,554.98,555.05,555.12,555.15,555.05,554.71,553.98,553.44,553.68,554.32,554.74,554.85,554.89,554.99,555.13,555.20,555.27,555.31,555.29,555.24,555.30,555.41,555.55,555.68,555.76,555.63,555.45,555.22,554.92,554.65,554.65,554.85,555.11,555.35,555.63,555.93,556.24,556.51,556.57,556.45,556.21,555.91,555.61,555.35,554.97,554.16,552.47,552.55,553.68,555.04,555.44,555.76,556.11,556.41,556.53,556.46,556.33,556.17,556.02,555.87,555.79,555.75,555.75,555.73,555.68,555.65,555.65,555.64,555.57,555.55,555.55,555.54,555.56,555.62,555.69,555.74,555.71,555.53,555.36,555.18,554.97,554.73,554.42,554.18,554.02,553.88,553.73,553.65,553.64,553.64,553.64,553.70,553.78,553.81,553.68,553.47,553.23,553.00,552.79,552.67,552.59,552.48,552.36,552.35,552.51,552.61,552.58,552.52,552.50,552.45,552.41,552.39,552.32,552.20,552.03,551.94,552.22,552.52,552.77,552.97,553.12,553.28,553.49,553.65,553.72,553.77,554.09,554.45,554.72,554.72,554.72,554.60,554.12,553.14,552.36,551.30,550.89,551.36,551.80,551.91
566.27,566.23,566.85,567.74,567.96,567.69,566.77,565.38,564.73,564.69,565.06,565.90,567.56,569.23,570.35,570.98,571.12,570.83,570.57,570.47,570.55,570.77,571.00,571.26,571.43,571.31,571.00,570.68,570.37,570.04,569.58,568.96,568.22,567.42,566.65,565.91,565.32,564.90,564.64,564.45,564.25,564.08,563.90,563.63,563.33,563.06,562.83,562.59,562.29,562.04,561.77,561.48,561.25,561.04,560.85,560.66,560.47,560.31,560.13,559.97,559.92,559.98,560.03,559.98,559.78,559.44,559.03,558.56,558.06,557.56,557.09,556.63,556.15,555.65,555.18,554.69,554.19,553.69,553.24,552.80,552.36,551.88,551.38,550.91,550.42,548.31,545.01,544.56,544.47,545.06,546.63,549.32,550.90,553.39,555.29,555.52,555.75,556.02,556.27,556.47,556.55,556.25,555.88,555.52,555.10,554.51,553.75,553.35,553.58,554.19,554.53,554.67,554.73,554.85,555.00,555.15,555.28,555.36,555.43,555.48,555.34,554.96,554.31,553.72,553.95,554.61,555.06,555.17,555.25,555.40,555.60,555.64,555.65,555.63,555.59,555.56,555.59,555.70,555.86,556.00,556.08,555.89,555.62,555.33,555.00,554.78,554.77,554.91,555.11,555.38,555.68,555.98,556.29,556.59,556.71,556.60,556.32,556.01,555.67,555.37,554.97,554.16,552.53,552.80,553.93,555.10,555.51,555.86,556.23,556.56,556.72,556.67,556.57,556.43,556.28,556.13,556.00,555.95,555.95,555.94,555.88,555.85,555.85,555.84,555.77,555.75,555.75,555.76,555.80,555.83,555.90,555.92,555.84,555.65,555.46,555.25,555.03,554.83,554.61,554.39,554.21,554.06,553.90,553.87,553.89,553.89,553.90,553.95,554.02,554.01,553.82,553.60,553.36,553.15,553.01,552.92,552.82,552.70,552.60,552.57,552.77,552.94,552.99,552.95,552.91,552.88,552.84,552.79,552.68,552.50,552.27,552.12,552.37,552.67,552.98,553.25,553.45,553.60,553.78,553.94,554.04,554.06,554.27,554.60,554.92,555.03,555.05,554.98,554.70,554.08,553.22,551.95,551.61,552.45,553.13,553.38
567.58,567.88,568.71,569.48,569.97,570.23,569.19,566.73,565.42,565.17,565.74,566.81,567.93,569.33,570.52,571.37,571.70,571.41,571.15,570.99,570.97,571.17,571.39,571.61,571.71,571.50,571.15,570.82,570.50,570.16,569.65,568.94,568.17,567.40,566.62,565.80,565.14,564.71,564.47,564.24,564.06,563.89,563.72,563.49,563.20,562.94,562.71,562.48,562.20,561.96,561.72,561.47,561.31,561.15,561.00,560.84,560.68,560.53,560.38,560.25,560.21,560.26,560.31,560.22,559.94,559.54,559.10,558.59,558.08,557.61,557.14,556.67,556.18,555.66,555.18,554.72,554.21,553.70,553.23,552.80,552.36,551.87,551.33,550.83,550.35,548.26,545.00,544.56,544.59,546.00,549.15,553.76,554.99,555.33,555.55,555.78,556.01,556.25,556.48,556.69,556.79,556.49,556.10,555.71,555.30,554.79,554.09,553.64,553.75,554.52,555.02,555.23,555.29,555.35,555.38,555.50,555.62,555.69,555.77,555.76,555.55,555.12,554.58,553.98,554.18,554.80,555.23,555.38,555.53,555.77,556.04,556.05,555.99,555.91,555.86,555.86,555.87,555.97,556.12,556.26,556.32,556.10,555.79,555.47,555.11,554.92,554.91,555.01,555.20,555.49,555.79,556.09,556.39,556.69,556.87,556.75,556.43,556.11,555.74,555.41,554.98,554.15,552.53,553.06,554.23,555.18,555.59,555.98,556.36,556.70,556.90,556.87,556.79,556.68,556.54,556.38,556.23,556.15,556.14,556.14,556.07,556.05,556.05,556.03,555.97,555.95,555.94,555.96,556.03,556.05,556.10,556.09,555.93,555.76,555.55,555.32,555.12,554.97,554.83,554.64,554.43,554.26,554.11,554.12,554.17,554.17,554.16,554.21,554.25,554.18,553.96,553.72,553.50,553.32,553.26,553.18,553.05,552.92,552.84,552.78,553.00,553.23,553.36,553.38,553.33,553.30,553.26,553.17,553.01,552.79,552.51,552.31,552.50,552.80,553.14,553.48,553.72,553.91,554.08,554.24,554.38,554.39,554.50,554.75,555.08,555.30,555.35,555.31,555.19,554.86,553.88,552.50,552.26,553.39,554.25,554.71
569.16,569.72,570.58,570.96,571.36,571.51,570.83,569.08,567.07,566.44,567.20,568.60,569.38,570.10,571.00,571.82,572.17,571.98,571.74,571.55,571.47,571.57,571.78,571.94,571.94,571.65,571.33,570.98,570.63,570.31,569.94,569.26,568.49,567.72,566.91,565.88,565.11,564.64,564.41,564.18,563.96,563.74,563.53,563.35,563.07,562.80,562.59,562.42,562.23,562.06,561.91,561.78,561.63,561.47,561.32,561.16,561.01,560.85,560.70,560.59,560.58,560.59,560.57,560.38,560.00,559.55,559.10,558.62,558.13,557.61,557.14,556.67,556.18,555.66,555.18,554.67,554.17,553.68,553.18,552.92,552.58,552.12,551.50,550.86,550.30,548.19,544.95,544.56,544.67,547.27,551.42,554.58,555.34,555.59,555.81,556.04,556.27,556.50,556.74,556.93,556.99,556.68,556.30,555.89,555.45,555.03,554.39,553.83,553.70,554.41,555.03,555.42,555.60,555.63,555.74,555.88,556.01,556.09,556.15,556.03,555.71,555.26,554.77,554.18,554.19,554.63,555.12,555.41,555.64,555.95,556.30,556.32,556.26,556.17,556.11,556.12,556.18,556.26,556.38,556.51,556.53,556.29,555.99,555.67,555.36,555.17,555.16,555.29,555.51,555.82,556.08,556.33,556.59,556.88,557.02,556.86,556.48,556.12,555.79,555.47,555.00,554.11,552.53,553.29,554.52,555.32,555.72,556.11,556.49,556.85,557.10,557.06,556.98,556.90,556.79,556.64,556.49,556.38,556.34,556.33,556.26,556.24,556.24,556.24,556.22,556.17,556.14,556.15,556.23,556.29,556.33,556.28,556.06,555.84,555.62,555.41,555.25,555.15,555.06,554.93,554.73,554.47,554.35,554.41,554.50,554.49,554.43,554.47,554.46,554.31,554.09,553.85,553.66,553.54,553.51,553.44,553.31,553.16,553.03,552.96,553.19,553.46,553.64,553.75,553.76,553.71,553.65,553.55,553.35,553.07,552.78,552.54,552.59,552.91,553.25,553.56,553.86,554.20,554.41,554.59,554.76,554.78,554.80,554.96,555.23,555.50,555.60,555.57,555.40,554.95,553.95,552.79,552.67,553.75,554.69,555.09
