721.71,718.27,713.88,710.36,706.90,703.12,700.47,699.55,698.83,699.15,701.33,705.25,709.90,711.17,711.35,711.36,711.45,711.27,711.15,711.21,711.55,712.25,712.73,712.76,712.34,711.49,710.91,710.36,709.48,707.71,704.28,700.86,697.51,694.38,691.95,689.94,687.95,685.88,684.50,686.82,689.75,692.78,696.00,699.46,701.40,702.52,702.43,699.97,696.59,694.04,691.91,689.77,687.47,684.95,683.26,683.05,685.13,687.91,691.79,696.41,701.06,703.91,702.50,698.28,692.36,686.66,681.82,679.49,679.90,683.57,690.71,697.17,701.51,702.72,700.36,695.17,689.65,684.70,680.48,676.80,672.86,669.74,669.00,670.06,672.83,675.90,677.09,672.23,666.90,662.52,659.97,660.71,664.66,669.04,672.96,676.28,679.55,682.77,685.90,688.83,691.27,692.68,690.39,685.81,681.00,677.13,678.91,684.08,690.72,696.07,700.73,704.96,707.90,707.94,708.07,708.19,706.84,703.05,698.78,693.95,690.22,688.17,687.75,689.31,692.74,697.00,701.08,704.80,706.39,706.06,704.27,702.80,703.81,707.01,710.81,712.82,714.74,715.32,715.05,714.46,713.97,712.61,710.67,709.42,711.52,714.12,716.14,717.75,719.44,721.51,724.04,726.52,728.72,730.80,733.04,733.83,732.57,728.81,724.40,718.80,713.02,707.86,702.75,697.12,691.27,685.62,681.17,680.06,682.35,687.30,694.30,701.03,706.07,709.82,712.67,715.48,718.31,722.03,726.68,732.08,738.16,742.63,746.01,748.76,749.81,748.52,744.50,738.03,730.60,722.52,714.12,706.59,701.49,697.03,693.17,689.50,685.75,681.71,677.10,672.52,667.66,661.89,659.23,657.70,656.60,656.09,656.86,657.90,658.76,659.04,658.15,656.62,654.99,653.90,653.98,653.98,654.33,654.82,654.96,653.73,652.41,653.02,655.33,657.67,660.90,664.36,667.63,670.62,674.01,678.32,682.04,682.97,677.29,669.45,659.94,651.29,647.05,643.89,644.28,646.94,651.41,658.49,667.95,678.70,688.43,692.82,695.34,697.38,697.90,695.58,693.10,689.96,685.77,680.59,675.42,670.69
718.47,715.27,710.46,706.20,702.56,700.99,700.42,700.10,699.56,701.29,705.13,709.55,711.79,712.95,713.30,713.36,713.36,712.86,712.14,711.80,711.94,712.15,712.28,712.19,711.81,711.09,710.57,709.47,707.35,704.02,700.01,695.37,691.74,689.30,687.45,686.75,686.87,687.41,688.37,690.63,693.16,696.01,699.08,701.83,703.64,703.54,701.72,698.38,694.02,691.00,688.75,686.66,684.69,684.41,684.64,685.34,687.59,691.17,695.55,699.77,702.82,704.45,702.47,698.03,692.17,686.89,682.17,680.04,681.04,685.69,691.85,697.59,701.72,702.90,699.75,693.67,687.73,682.88,678.96,675.76,672.86,670.68,670.30,672.84,676.40,678.67,678.08,673.49,668.47,664.38,662.01,662.66,665.98,669.73,673.31,676.60,679.79,682.71,685.47,688.22,691.15,694.13,692.70,688.40,683.70,679.50,679.24,683.08,689.92,695.28,700.41,705.67,709.57,709.40,709.45,709.57,708.39,704.99,701.00,696.50,693.08,691.04,689.70,689.93,692.72,696.76,700.63,704.97,708.03,708.92,707.58,705.96,705.04,707.09,710.77,712.85,715.05,716.53,717.01,716.42,715.69,714.39,712.75,711.65,713.00,715.74,718.51,720.97,723.02,724.54,726.58,728.79,730.88,732.86,734.79,734.59,732.34,729.08,725.28,720.97,715.94,710.04,704.17,697.78,691.73,686.49,682.49,681.84,684.50,689.56,696.36,703.32,708.44,712.21,715.11,718.02,721.99,726.64,731.74,737.09,741.85,745.83,748.66,749.89,749.99,746.71,741.16,734.15,726.53,717.91,710.20,703.85,698.93,694.52,690.57,686.94,683.34,678.77,672.78,666.82,661.88,659.13,657.52,657.13,657.35,657.83,658.84,660.84,662.91,664.06,662.78,660.56,658.48,657.09,656.86,656.94,657.59,657.89,657.07,655.01,653.59,654.26,656.65,659.39,664.81,669.18,672.45,675.38,678.88,682.75,684.40,682.37,676.50,667.81,657.34,648.24,644.95,644.57,646.44,649.93,655.19,662.71,672.20,682.44,691.79,697.23,698.65,699.13,698.88,697.15,694.57,691.56,687.30,681.67,676.06,671.20
715.11,712.19,707.66,703.85,702.29,702.59,703.43,704.01,704.00,705.65,708.74,711.97,713.13,714.20,714.75,714.96,714.92,714.31,713.38,712.56,712.04,711.83,711.76,711.61,711.26,710.55,709.44,707.22,703.91,699.63,695.25,691.04,688.69,688.00,687.60,688.34,689.78,691.39,692.90,694.75,696.77,699.07,701.61,703.92,704.66,703.32,700.09,695.32,691.10,688.41,686.88,686.18,685.55,686.35,687.20,688.13,690.60,694.62,698.78,702.38,704.64,704.62,702.12,697.52,691.63,686.92,682.96,681.76,683.39,687.60,692.89,698.09,702.08,703.27,699.48,692.96,687.19,682.95,679.44,676.66,674.09,672.12,671.93,675.18,678.67,680.20,678.69,674.45,669.92,666.24,663.92,663.89,666.63,669.56,672.73,676.53,680.45,684.02,686.95,689.44,692.17,695.50,694.67,690.88,686.34,682.05,680.15,682.73,689.44,694.69,699.70,705.35,710.21,711.32,711.45,711.34,710.16,707.14,703.23,699.14,696.43,694.92,692.76,691.21,692.92,696.51,700.18,704.87,708.80,710.78,710.38,708.77,707.07,707.97,710.78,713.15,715.60,717.58,718.57,718.22,717.39,716.19,714.80,713.97,715.41,718.20,721.29,724.25,726.72,728.11,729.65,731.38,733.12,734.50,735.06,733.93,731.46,728.58,725.40,721.97,717.48,711.23,704.42,697.57,691.65,686.95,683.52,683.60,686.28,690.96,697.49,704.26,709.55,713.68,717.04,720.48,725.08,729.90,734.67,739.50,743.65,747.37,749.80,749.92,748.32,743.85,737.61,730.31,722.81,714.29,707.20,701.61,696.90,692.47,688.39,684.67,680.82,675.07,668.13,662.48,659.05,658.24,657.77,658.24,659.33,660.72,662.27,664.74,667.23,668.68,667.49,665.47,663.78,662.76,662.40,661.58,661.26,660.35,658.16,655.68,654.55,655.48,658.21,662.18,668.56,673.32,676.83,680.26,684.04,686.42,685.53,680.90,673.97,662.64,652.61,646.19,644.93,646.42,649.42,653.59,659.31,667.14,676.33,686.09,694.90,699.61,700.54,700.40,699.89,698.77,696.77,693.62,689.04,683.07,676.77,671.59
711.82,709.30,705.82,703.51,704.97,706.47,707.90,709.35,710.01,710.76,711.86,713.17,714.29,715.31,716.08,716.52,716.46,715.73,714.70,713.37,711.98,711.39,711.21,711.02,710.60,709.57,707.40,703.91,699.66,695.05,690.78,688.28,688.20,689.77,691.23,693.28,695.27,696.77,697.63,698.88,700.36,701.97,703.80,705.83,704.84,702.13,697.82,691.67,688.41,686.74,686.56,687.84,688.96,689.97,690.62,691.49,694.20,698.25,701.73,704.50,706.13,704.30,701.27,696.61,690.80,686.82,684.08,684.17,686.39,689.50,694.11,698.85,702.63,703.77,699.51,693.11,688.00,684.59,681.46,678.89,676.07,673.76,673.58,676.93,679.92,680.85,679.09,675.20,671.18,667.91,665.58,664.64,666.77,668.85,671.66,676.11,680.97,685.66,689.21,691.66,693.97,696.87,696.50,693.39,688.88,684.58,681.46,682.94,689.25,694.22,698.75,704.32,710.02,713.26,713.81,713.37,712.01,709.30,705.51,701.96,700.03,699.08,696.33,692.98,693.46,696.45,699.83,704.58,708.92,711.84,712.66,711.25,709.61,709.47,710.95,713.66,716.37,718.56,719.90,720.01,719.16,718.05,716.87,716.39,718.38,721.18,724.28,727.45,730.30,731.90,732.90,733.87,734.87,735.30,734.06,732.19,730.02,727.46,724.83,721.85,717.61,711.22,703.58,696.59,691.06,687.05,684.25,685.09,687.61,691.62,697.79,704.14,709.72,714.45,718.47,722.57,727.26,731.69,735.77,739.88,744.03,747.71,749.79,748.95,745.47,740.45,734.07,726.71,719.46,711.54,704.98,699.75,695.24,690.73,686.47,682.48,678.07,671.07,663.82,659.59,658.43,658.72,659.50,660.72,662.37,664.47,666.69,669.19,671.50,672.88,672.13,670.85,669.94,669.46,668.98,666.92,665.01,662.34,658.61,656.00,655.39,656.67,659.86,665.35,671.88,676.82,680.85,684.94,688.71,688.90,685.39,678.45,669.22,655.58,647.41,645.20,646.42,649.16,653.00,657.69,663.58,671.57,680.22,689.52,697.66,700.46,701.34,701.27,700.87,700.25,699.13,695.72,690.69,684.39,677.36,671.84
709.19,707.32,706.36,706.82,708.74,709.80,710.47,711.20,711.81,712.46,713.38,714.47,715.42,716.37,717.38,718.09,718.02,716.99,715.51,713.82,712.16,711.08,710.68,710.41,709.45,706.79,703.51,699.63,695.40,691.38,689.08,689.09,691.14,694.31,697.02,699.65,701.27,702.07,702.33,702.45,703.28,704.53,706.09,707.61,704.79,700.23,695.01,689.83,687.86,687.97,689.21,691.12,692.83,694.09,695.03,696.20,698.75,702.11,705.05,706.52,705.47,702.62,698.95,694.44,689.67,686.76,685.39,686.20,688.68,692.18,696.43,700.51,703.55,704.13,699.94,694.97,690.90,687.78,684.64,681.33,677.82,674.98,674.39,677.66,680.54,681.39,679.64,676.03,671.97,668.82,666.73,665.71,666.67,668.25,670.90,675.02,679.27,684.39,689.06,692.85,695.93,698.49,698.81,696.43,691.29,686.75,682.98,683.76,689.46,693.73,697.91,703.17,708.96,713.57,715.65,715.25,713.44,710.87,707.99,705.40,703.37,701.61,699.06,695.23,695.09,697.40,700.07,704.46,708.80,712.24,714.08,713.50,712.22,711.36,711.74,714.34,717.16,719.57,721.40,722.25,721.30,720.16,719.22,719.11,721.05,723.85,726.87,730.00,733.18,735.39,735.52,734.89,734.19,733.34,731.76,729.89,727.83,725.50,723.19,720.02,715.34,708.64,701.08,694.40,689.66,686.75,684.58,685.61,687.97,691.50,696.89,703.09,709.28,714.67,719.00,723.07,727.01,730.92,734.86,738.89,742.99,747.00,748.71,746.21,742.38,737.27,730.98,723.85,716.87,709.86,703.69,698.45,693.98,689.22,684.55,679.90,674.82,668.25,662.40,659.31,658.95,660.42,662.63,664.86,667.02,669.20,671.45,673.41,675.21,676.59,676.67,676.03,675.10,673.97,672.50,670.52,667.97,664.07,659.05,656.43,656.25,657.83,661.17,667.00,673.90,679.69,684.46,688.30,690.11,688.07,682.84,673.63,659.05,650.25,646.38,646.02,648.58,652.70,657.18,662.08,667.95,675.54,683.65,692.25,699.43,701.00,701.90,702.01,701.66,701.12,700.14,696.77,691.43,684.52,677.19,671.74
709.50,708.19,708.81,710.55,712.18,712.62,712.67,712.86,713.22,713.76,714.62,715.64,716.50,717.41,718.55,719.34,719.03,717.30,715.40,713.58,711.91,710.44,709.10,707.79,705.97,702.81,699.27,695.50,692.04,689.61,689.26,691.25,694.97,699.45,703.13,705.53,706.47,706.60,706.41,705.94,706.28,707.17,708.36,709.01,704.76,698.65,692.72,688.88,688.26,689.83,692.16,694.53,696.66,698.25,699.53,700.93,703.28,705.82,707.41,707.05,703.91,700.31,696.23,692.19,688.76,686.91,686.78,688.32,691.20,695.16,699.13,702.74,704.82,704.10,700.16,696.50,693.36,690.40,686.89,682.90,678.96,675.84,674.94,678.03,680.92,681.95,680.50,677.10,672.71,669.50,667.59,666.57,666.94,668.22,670.42,673.70,677.38,682.35,687.78,692.97,696.91,699.89,700.78,698.84,693.57,688.66,684.56,684.79,689.73,693.55,697.38,702.36,708.26,713.94,717.33,717.18,715.24,712.76,710.37,708.25,706.18,704.03,701.57,697.56,697.04,698.85,700.94,704.73,708.77,712.40,715.06,715.86,715.09,713.93,713.47,715.10,717.76,720.26,722.41,723.95,723.95,723.05,722.28,722.33,723.92,726.45,729.45,732.58,735.29,736.09,735.08,733.44,731.76,730.22,728.58,726.85,725.02,722.95,720.29,716.61,711.53,704.83,698.14,692.39,688.44,686.33,685.26,686.21,688.12,691.13,696.06,702.30,708.82,714.51,718.93,722.81,726.25,729.82,733.65,737.70,742.39,746.20,746.99,743.32,739.24,734.19,728.13,721.39,715.05,708.76,702.86,697.59,693.07,688.16,683.11,678.02,672.74,666.92,661.96,659.45,659.65,662.38,665.73,669.11,672.03,674.22,676.40,678.22,679.85,681.16,681.58,681.07,679.55,677.36,674.96,672.72,669.87,665.48,659.93,657.16,657.01,658.79,662.29,667.88,675.16,681.57,686.69,690.07,690.53,686.36,679.77,669.84,653.11,647.36,646.24,647.38,651.14,656.47,661.29,666.13,671.80,678.90,686.66,694.41,700.46,701.56,702.52,702.69,702.25,701.46,700.45,696.45,690.41,683.18,676.31,671.18
712.40,711.58,712.71,714.19,715.12,715.01,714.75,714.75,714.79,715.09,715.76,716.67,717.53,718.47,719.57,720.16,719.28,716.50,714.16,712.25,710.58,708.84,706.14,703.23,700.50,698.10,695.25,692.14,690.06,689.85,691.15,694.46,699.28,704.68,708.85,710.44,710.63,710.29,709.83,709.39,709.43,709.89,710.45,709.95,704.74,697.51,691.10,688.64,689.28,691.84,694.89,697.73,700.27,702.26,703.83,705.32,707.36,708.98,708.48,705.93,701.67,697.54,693.40,690.19,688.29,687.40,688.35,690.71,694.15,698.45,702.10,705.30,706.26,703.83,700.27,697.59,695.12,692.21,688.07,683.59,679.49,676.37,675.41,678.20,681.17,682.53,681.50,678.20,673.33,669.94,668.18,667.21,667.61,668.83,670.51,672.71,675.81,680.14,685.91,692.26,697.01,701.09,702.36,700.56,695.73,690.37,686.12,685.91,690.02,693.65,697.13,701.90,707.99,714.57,718.81,719.10,717.36,715.03,712.65,710.50,708.52,706.51,703.94,699.90,699.10,700.57,702.41,705.36,708.83,712.36,715.64,718.13,718.08,717.03,716.00,716.06,718.25,720.68,722.99,725.13,726.88,726.58,725.99,726.01,727.09,729.19,732.06,734.86,736.14,733.93,731.69,729.71,727.87,726.22,724.50,722.83,721.21,719.39,716.00,711.81,706.61,700.33,695.02,690.70,687.55,685.95,686.37,687.15,688.34,690.66,695.31,701.62,708.14,713.81,718.20,721.90,725.22,728.69,732.44,736.58,742.33,745.31,744.63,740.34,735.96,731.12,725.45,719.26,713.82,708.04,702.33,697.05,692.43,687.48,682.20,676.97,671.95,666.93,662.19,659.76,660.37,664.42,668.68,673.27,677.20,679.56,681.61,683.57,685.21,686.26,686.38,685.30,682.62,679.15,676.02,673.17,670.16,666.07,661.05,658.12,657.66,659.51,663.17,668.20,675.78,682.48,687.58,690.51,690.45,684.33,676.58,667.17,651.83,646.63,646.48,649.00,653.98,660.22,665.16,669.74,675.04,681.68,689.30,696.14,700.91,702.18,703.24,703.33,702.62,701.38,700.18,694.96,687.97,680.79,674.94,670.30
714.82,714.71,716.24,717.59,717.59,717.17,716.81,716.61,716.42,716.42,716.86,717.66,718.54,719.66,720.52,720.23,717.87,714.13,710.85,707.79,704.96,702.86,700.68,698.27,696.03,694.59,693.46,692.14,691.54,692.44,694.75,698.86,704.04,709.06,711.74,713.18,713.45,713.17,712.84,712.56,712.54,712.35,711.69,710.01,704.35,696.67,690.26,689.04,690.28,693.29,696.75,699.96,702.85,705.28,707.13,708.46,709.32,709.62,707.20,703.14,698.74,694.50,691.26,689.48,689.02,688.79,690.59,693.92,698.09,702.30,705.46,707.26,706.97,704.22,701.17,699.33,696.94,693.41,688.82,683.85,679.68,676.84,676.19,678.61,681.64,683.01,681.72,678.15,673.00,669.71,668.33,667.77,668.41,670.33,672.81,675.04,675.68,679.38,685.22,691.89,697.51,702.45,703.87,702.08,697.68,692.07,687.52,686.82,690.31,693.61,696.95,701.57,707.77,715.17,719.69,720.31,719.11,717.36,715.03,712.92,710.94,708.86,706.02,702.14,700.82,701.89,704.27,706.06,708.61,711.82,715.50,719.05,720.24,719.73,718.48,717.80,719.03,721.30,723.88,726.38,728.71,729.63,729.70,729.63,730.60,733.23,734.69,734.57,732.87,729.82,727.17,725.00,723.18,721.37,718.94,716.40,714.06,712.06,709.43,706.17,702.02,696.88,692.14,688.97,687.03,686.46,687.82,689.09,689.58,690.41,693.58,699.38,705.79,711.47,716.00,720.18,723.79,727.53,731.57,736.03,742.04,743.59,741.09,736.01,731.86,727.63,722.77,717.40,712.31,706.98,701.71,696.63,691.82,686.95,681.89,676.86,672.04,667.48,663.15,660.54,660.97,666.33,671.82,677.45,682.55,686.11,687.62,688.57,689.18,689.26,688.15,684.77,680.13,675.45,671.98,669.18,665.85,663.00,661.17,659.04,658.24,659.80,663.40,668.26,675.75,682.54,687.86,691.00,690.41,683.01,673.68,663.56,650.83,646.63,647.01,650.32,656.58,663.23,668.32,672.71,677.49,683.99,691.95,698.01,701.36,702.77,704.08,703.93,702.82,701.37,699.41,693.45,686.33,679.65,674.07,669.73
717.17,717.67,719.39,720.63,719.96,719.21,718.66,718.29,718.02,717.85,718.05,718.71,719.78,721.07,721.26,719.75,716.15,711.76,707.52,703.62,700.32,698.21,697.11,695.97,694.85,694.29,694.30,694.17,694.45,695.89,699.22,703.89,708.81,712.82,714.26,715.60,716.09,716.04,715.80,715.51,714.97,713.87,712.02,709.23,703.72,696.36,690.27,689.63,690.77,693.88,697.64,701.28,704.60,707.39,709.28,710.18,710.07,708.79,705.09,700.47,696.45,692.52,690.94,691.04,691.89,691.67,693.84,697.66,702.13,706.05,708.38,708.77,707.47,704.80,702.44,701.14,698.95,695.12,689.58,683.92,679.71,677.27,677.13,679.41,682.56,683.57,681.30,677.18,672.28,669.41,668.47,668.47,669.60,672.38,675.79,678.22,676.91,679.56,684.97,691.70,698.04,704.16,705.96,704.11,699.75,694.03,689.04,687.71,690.54,693.60,696.82,701.29,707.43,715.13,719.88,721.17,720.71,719.45,717.40,715.35,713.33,711.16,708.30,704.63,702.84,703.59,706.60,707.85,709.23,711.63,715.30,719.41,721.61,721.87,720.90,719.93,720.30,722.27,724.92,727.60,730.22,732.20,733.16,733.46,734.38,735.77,735.10,732.53,728.85,725.27,722.21,719.67,717.56,715.34,712.73,710.04,707.47,705.23,703.12,700.55,697.34,693.46,689.87,687.73,686.92,687.54,689.83,692.07,692.81,692.98,694.41,698.24,703.33,708.61,713.65,718.64,722.80,726.85,731.12,735.95,742.24,742.26,737.95,732.33,728.31,724.57,720.37,715.62,710.86,706.06,701.21,696.24,691.10,686.29,681.47,676.65,672.00,667.81,663.80,661.38,662.00,667.88,674.11,680.59,686.45,690.45,691.65,691.56,691.00,689.81,686.82,681.87,676.25,671.25,668.23,666.13,663.19,661.11,660.63,659.29,658.51,659.73,663.00,667.94,675.29,682.23,687.93,691.31,690.04,682.09,671.75,660.86,650.17,646.94,647.65,651.41,658.91,665.77,670.86,675.12,679.64,685.99,694.18,699.63,701.88,703.41,704.91,704.56,703.12,701.48,699.03,692.74,685.85,679.78,674.03,669.67
719.80,720.63,722.23,723.27,722.33,721.21,720.35,719.85,719.64,719.47,719.47,719.93,721.36,722.65,721.66,718.77,714.51,709.88,704.85,700.79,698.17,696.62,696.89,697.56,698.06,698.21,698.35,698.37,698.68,700.18,704.47,709.41,713.39,715.94,716.96,718.08,718.76,718.96,718.65,718.06,716.39,714.13,711.36,707.67,702.93,696.66,691.28,690.45,690.82,693.51,697.37,701.53,705.34,708.46,710.06,710.29,709.70,706.64,702.48,698.43,695.25,692.30,693.00,695.27,697.14,696.19,698.22,701.86,705.96,709.35,710.56,709.83,707.93,705.51,704.07,702.96,701.16,697.54,690.43,683.83,679.61,677.71,678.19,680.71,683.93,684.11,680.18,675.27,671.28,669.21,668.75,669.39,671.30,674.97,679.08,681.67,679.58,680.72,685.15,691.71,698.53,706.21,708.74,706.78,702.05,696.40,690.84,688.63,690.70,693.68,696.78,701.07,706.90,714.18,719.32,721.65,722.10,721.21,719.71,717.75,715.64,713.43,710.88,707.44,705.31,705.76,709.30,710.97,711.13,712.22,715.31,719.35,722.08,723.30,723.26,722.38,722.21,723.69,726.06,728.72,731.54,734.23,736.18,737.36,738.05,735.95,732.66,728.95,725.03,720.78,717.11,713.90,710.99,708.08,706.13,704.37,702.42,700.01,697.73,695.26,692.60,690.00,688.38,687.19,687.33,689.17,692.51,696.16,698.38,699.18,699.05,699.41,701.76,705.97,711.73,717.69,722.57,726.90,731.24,736.39,743.10,741.66,735.75,730.01,725.85,722.26,718.31,713.87,709.51,705.34,700.83,695.76,690.15,685.36,680.70,676.01,671.48,667.67,663.86,662.19,663.64,669.01,675.29,682.36,688.42,691.63,692.76,691.89,690.20,687.49,682.24,677.14,672.17,668.18,666.57,665.81,664.14,661.94,659.87,658.96,658.52,659.35,661.97,667.21,674.40,681.61,687.82,691.39,689.27,681.51,671.09,659.71,649.92,647.46,648.37,652.34,660.86,667.78,672.68,676.89,681.55,687.69,695.78,700.80,702.48,704.08,705.70,705.25,703.62,701.81,699.35,693.17,686.79,681.34,675.13,670.27
724.92,725.47,726.01,725.92,724.81,723.75,722.96,722.47,722.12,721.79,721.63,721.95,723.13,723.30,721.38,717.95,713.57,708.93,703.82,699.92,697.94,697.67,699.71,702.36,704.55,705.46,705.64,705.66,706.00,707.29,710.54,714.32,717.16,718.80,719.51,720.18,720.54,720.50,719.91,718.70,716.42,713.75,710.80,707.09,702.66,697.10,692.63,692.57,693.24,693.80,695.92,700.38,704.63,708.34,710.17,710.15,708.98,704.74,700.54,697.08,694.79,694.96,697.08,699.59,701.10,699.93,702.27,705.70,708.90,711.02,711.67,710.64,708.64,706.61,706.49,705.45,703.02,698.60,691.12,683.91,679.64,678.19,679.37,682.54,684.50,683.23,678.50,673.17,670.39,669.30,669.31,670.50,673.58,677.71,681.89,684.45,682.02,682.83,686.51,692.18,699.02,707.23,710.31,708.84,704.58,699.41,693.32,689.94,690.82,693.83,696.93,701.02,706.21,712.29,718.39,721.28,722.38,722.74,721.75,719.89,717.72,715.44,713.02,709.90,707.25,706.94,710.58,713.63,714.50,714.97,716.30,719.09,721.86,724.15,725.47,725.03,724.79,725.48,727.11,729.66,732.69,735.82,738.08,738.99,738.11,735.04,731.22,727.19,722.96,718.15,713.74,709.53,705.49,702.15,700.55,699.14,697.34,695.04,693.03,691.31,689.68,688.17,687.47,687.42,688.47,691.01,695.34,699.94,703.51,705.61,705.94,705.91,706.80,708.89,712.62,718.34,723.27,727.80,732.34,737.40,743.42,741.25,735.15,729.84,725.27,720.76,716.27,711.93,707.95,704.09,699.49,694.18,688.59,683.83,679.22,674.62,670.24,666.86,663.68,663.19,665.63,670.22,676.95,684.36,690.32,692.89,692.58,691.02,688.04,683.59,678.45,673.97,671.28,670.15,670.07,669.88,668.48,666.05,663.15,661.49,659.95,659.57,661.30,666.52,673.40,680.63,687.31,691.53,688.67,681.06,671.13,660.11,650.13,647.89,649.23,653.55,662.03,668.79,673.66,678.06,683.11,689.48,696.77,701.20,702.81,704.48,706.14,706.03,704.64,702.66,700.36,694.71,688.70,683.44,677.79,671.57
730.35,730.43,729.92,728.78,727.46,726.49,725.83,725.37,724.84,724.35,724.08,724.16,724.59,723.52,720.92,717.26,712.84,708.17,703.24,699.68,698.41,699.75,703.78,708.06,711.37,712.80,713.02,713.04,713.35,714.31,716.21,718.54,720.33,721.36,721.75,721.87,721.65,721.08,720.00,718.07,715.63,713.00,710.10,706.50,702.30,697.33,693.81,694.93,696.18,694.88,694.95,698.71,702.96,707.40,709.83,709.93,708.12,703.11,699.12,696.61,695.78,698.41,701.32,703.52,704.35,703.23,705.75,708.75,711.02,712.22,712.57,711.42,709.54,708.04,708.88,707.56,704.34,699.29,691.90,684.35,679.98,678.78,680.48,684.03,685.16,683.01,677.83,672.30,670.20,669.95,670.68,672.50,676.75,681.54,685.55,687.27,684.55,685.00,688.05,693.01,699.58,707.82,711.50,710.88,707.29,702.67,696.58,692.08,691.09,693.78,696.91,700.80,705.27,710.14,716.52,720.12,722.12,723.52,723.46,721.94,719.85,717.57,715.18,712.20,709.17,708.19,711.56,715.72,717.75,718.18,717.97,719.22,721.72,724.71,727.14,727.48,727.40,727.55,728.64,731.18,734.42,737.53,739.51,739.62,737.03,733.57,729.63,725.43,720.89,715.49,710.57,705.79,701.13,697.40,695.69,694.38,692.88,691.16,689.83,688.99,688.37,687.81,687.60,687.85,689.33,692.46,697.33,702.61,707.25,710.57,711.92,712.53,712.98,713.63,715.38,720.14,724.87,729.45,734.10,738.99,743.02,740.14,734.33,729.46,724.53,719.24,714.31,710.03,706.24,702.35,697.48,691.98,686.63,681.92,677.37,672.90,668.79,665.73,663.83,664.61,667.75,672.17,679.21,686.46,691.94,693.77,691.98,689.33,685.19,679.86,675.74,673.22,673.13,674.44,675.52,675.50,673.81,671.01,667.73,665.41,662.98,661.38,661.78,666.13,672.36,679.35,686.42,691.54,688.07,680.63,671.45,661.12,650.57,648.27,649.92,654.45,662.55,669.34,674.31,678.95,684.40,690.94,697.49,701.62,703.49,705.16,706.81,707.01,705.85,703.67,701.45,696.57,690.93,685.59,680.51,672.88
735.18,734.77,733.65,732.04,730.34,729.34,728.75,728.28,727.56,726.97,726.61,726.27,725.31,723.32,720.43,716.70,712.14,707.37,702.75,699.74,699.39,702.61,708.78,713.94,717.25,718.73,719.00,719.07,719.27,719.77,720.73,721.74,722.71,723.43,723.42,722.89,721.88,720.46,718.52,715.85,713.86,711.77,709.03,705.40,701.52,697.12,694.54,697.11,699.05,697.16,695.46,696.76,700.14,705.36,708.93,709.66,707.16,701.95,698.45,697.48,699.11,702.04,704.89,706.65,706.85,706.03,708.25,710.45,712.01,713.24,713.57,712.32,710.71,709.94,710.82,708.62,704.85,699.90,692.93,685.44,680.87,679.55,681.43,684.65,686.36,684.63,679.34,673.87,671.31,671.56,673.45,676.09,681.33,687.21,690.93,690.53,687.39,686.88,689.40,694.27,700.24,708.08,712.51,713.09,710.21,706.11,700.99,695.62,691.78,693.43,696.54,700.16,703.94,707.92,713.05,717.85,721.26,722.91,724.56,723.91,722.19,720.03,717.57,714.39,711.30,710.05,712.64,716.93,720.11,721.25,720.52,720.25,722.11,725.01,727.88,729.44,729.79,730.02,731.15,733.88,737.25,739.63,740.49,739.33,735.39,731.47,727.25,722.78,718.00,711.92,706.97,702.62,698.39,694.30,691.81,690.48,689.80,689.43,689.35,689.36,689.45,689.61,689.52,688.39,689.33,693.03,697.65,703.30,708.50,712.60,715.11,716.91,718.23,719.19,720.35,723.35,727.70,732.14,736.66,741.39,741.57,737.64,732.41,727.71,722.62,717.36,712.55,708.34,704.34,699.91,694.63,689.08,684.17,679.63,675.14,670.93,667.27,664.38,664.76,666.73,669.98,675.49,682.35,688.70,693.08,693.89,691.16,686.67,681.72,677.23,674.81,676.34,678.69,680.82,682.29,682.05,679.55,676.17,672.93,670.65,668.34,665.85,664.26,666.29,671.29,677.66,685.00,691.28,687.41,680.21,671.97,662.57,651.32,648.60,650.20,654.61,662.11,669.36,674.62,679.53,685.33,691.73,697.96,702.40,704.95,706.53,708.02,708.29,707.19,704.79,702.41,698.52,693.35,687.56,682.64,674.00
738.66,738.27,737.18,735.22,733.14,731.96,731.19,730.37,729.11,727.80,726.63,725.52,724.13,722.21,718.91,714.78,710.44,706.35,702.40,700.65,702.25,707.34,713.25,717.63,720.38,721.85,722.23,722.40,722.64,723.05,723.72,724.41,724.50,723.97,723.14,722.12,720.38,717.95,714.94,711.80,709.83,708.14,706.13,703.29,700.14,696.75,695.26,698.58,701.30,699.65,697.20,696.63,697.88,701.81,706.48,709.50,706.96,701.62,699.12,699.61,702.26,705.47,708.07,709.19,708.81,708.47,710.06,711.70,713.02,714.25,714.74,713.87,712.75,712.19,712.01,709.14,704.97,700.03,693.98,687.58,682.86,680.86,682.46,685.44,687.79,686.95,682.42,677.21,673.18,673.59,676.92,680.11,685.30,690.64,694.40,694.90,691.27,689.19,690.63,695.17,700.78,708.11,712.74,714.31,713.01,709.55,704.94,700.03,696.03,695.58,696.62,699.19,702.66,706.07,709.88,714.23,718.18,721.02,723.29,724.40,724.22,722.71,720.02,716.92,713.93,712.53,714.47,717.94,721.43,723.49,723.61,723.00,723.45,725.58,728.66,731.09,732.33,733.27,734.70,737.04,739.67,740.97,740.41,737.61,732.37,727.91,723.29,718.29,712.96,707.61,703.07,698.99,695.22,691.89,690.67,691.01,692.15,693.19,694.13,694.83,695.43,695.65,694.15,690.73,689.81,692.51,696.86,702.12,707.66,712.63,716.13,719.15,721.30,722.77,724.08,726.75,730.66,734.80,738.97,742.68,740.23,735.54,730.47,725.60,720.57,716.11,711.80,707.31,702.24,696.90,691.36,686.02,681.43,677.29,673.07,669.20,666.31,665.23,666.63,669.27,673.04,678.83,685.44,691.09,694.16,693.13,689.19,684.05,679.38,676.45,677.06,680.91,684.57,687.28,689.07,689.25,686.77,682.73,678.31,675.67,673.35,670.34,667.20,666.29,670.25,675.92,683.27,690.76,687.38,679.95,671.60,662.91,653.72,649.80,649.68,652.58,658.77,666.56,672.79,678.68,685.24,691.89,697.97,702.85,706.27,708.01,709.09,709.36,708.53,706.23,703.60,700.31,695.66,689.87,684.66,677.16
741.29,740.88,739.83,737.66,735.31,733.86,732.75,731.48,729.65,727.61,725.64,723.86,722.26,720.27,716.58,712.26,708.45,705.21,702.65,702.59,705.90,712.00,717.05,720.41,722.59,724.07,724.65,724.95,725.27,725.63,725.91,726.16,725.35,723.67,722.10,720.42,717.92,714.63,710.77,707.25,705.22,703.87,702.61,700.72,698.64,696.69,696.45,700.07,703.48,702.48,699.88,697.86,696.81,698.73,703.71,708.63,706.62,701.67,700.37,702.14,705.26,708.48,710.72,711.32,710.56,710.55,711.61,712.87,714.11,715.32,716.01,715.66,715.05,714.44,712.85,709.41,704.96,700.00,694.94,689.78,685.17,682.55,683.52,686.23,689.12,689.25,685.69,680.68,675.33,675.63,679.93,683.64,688.49,693.00,696.88,698.87,695.36,691.96,692.15,695.98,701.24,708.07,712.70,715.14,715.63,712.94,708.62,704.27,700.70,698.36,697.42,698.82,701.72,704.43,707.10,710.54,714.43,718.22,721.01,723.98,725.62,725.16,722.33,719.39,716.57,715.09,716.48,719.20,722.73,725.57,726.78,726.21,725.44,726.55,729.31,732.33,734.53,736.39,738.21,740.03,741.63,741.70,739.55,735.06,728.91,723.89,718.78,713.29,707.73,703.30,699.24,695.67,692.88,691.22,691.91,694.09,696.83,699.03,700.72,701.79,702.34,701.86,698.55,693.20,690.40,691.67,695.74,700.41,706.01,711.57,715.80,719.82,722.64,724.64,726.44,729.39,733.07,737.03,740.80,742.92,738.90,733.89,728.81,723.43,718.43,714.59,710.54,705.60,699.61,693.69,688.14,683.07,678.73,674.94,671.15,667.84,665.93,666.80,668.91,672.05,676.28,681.96,688.22,693.30,695.18,692.15,687.07,681.81,678.03,677.14,680.75,685.83,690.09,693.21,695.34,695.94,693.64,689.25,684.01,681.01,678.43,675.00,670.74,667.21,669.63,674.39,681.52,689.76,687.54,679.94,671.28,663.19,656.24,651.44,649.53,650.47,654.76,662.33,669.42,676.52,684.18,691.33,697.35,702.68,707.06,709.27,710.11,710.35,709.72,707.63,704.79,701.85,697.64,692.05,686.62,680.47
742.67,741.70,740.19,738.11,735.82,733.95,732.28,730.54,728.41,726.02,723.89,722.04,720.03,716.80,712.86,709.19,706.47,703.89,704.43,706.71,710.17,714.96,719.42,722.47,724.48,726.07,727.04,727.56,727.92,728.05,727.10,725.73,724.07,722.30,720.54,717.63,714.23,710.56,706.69,702.87,700.89,699.77,698.86,697.73,697.34,697.58,698.90,702.14,705.93,706.10,704.15,701.39,698.56,698.14,701.34,705.71,705.25,702.06,702.14,704.79,708.07,710.46,712.25,712.77,712.13,711.95,712.97,714.20,715.38,716.53,717.42,717.57,717.32,716.41,713.29,709.44,704.86,699.93,695.61,691.29,687.46,684.86,684.61,686.94,690.04,690.88,688.19,683.05,677.62,677.33,681.13,685.49,690.00,694.22,698.14,700.81,699.16,695.68,694.58,696.86,701.56,708.00,712.57,715.68,717.85,716.20,711.86,707.30,703.60,700.86,699.86,700.35,701.66,703.08,705.17,707.71,710.60,713.92,717.88,722.16,725.54,726.77,724.14,721.43,718.80,717.31,718.42,721.28,724.80,727.94,729.79,729.25,728.44,728.39,729.61,732.65,735.69,738.49,740.77,742.19,742.65,741.33,737.40,731.35,725.37,719.82,714.03,708.41,703.70,699.60,695.94,693.58,693.23,694.83,697.57,700.60,703.55,706.13,708.05,708.69,707.86,705.05,700.10,694.52,690.94,690.77,694.62,698.76,703.86,709.12,713.46,717.93,721.00,723.42,726.03,729.76,733.84,738.13,741.45,741.16,737.49,733.16,727.92,721.39,716.18,711.81,707.00,701.39,695.61,690.43,685.37,680.52,676.31,672.59,669.53,667.35,666.69,668.63,671.63,675.16,679.30,684.55,690.15,694.92,696.04,691.26,685.48,680.52,678.48,680.38,685.83,690.55,694.37,697.58,700.13,700.71,698.34,694.54,690.50,687.42,683.98,680.05,675.55,670.80,670.19,673.49,679.97,687.68,687.73,680.48,671.84,664.23,657.71,653.59,651.03,649.93,651.30,656.47,663.50,671.91,681.27,689.28,695.38,701.11,706.44,709.81,711.15,711.29,710.52,708.65,705.84,702.80,698.81,693.69,688.42,682.55
742.80,741.47,739.73,737.27,734.75,732.68,730.70,728.58,726.38,724.13,721.86,719.34,716.10,712.82,709.62,707.17,706.03,705.23,706.87,709.91,713.78,717.97,721.63,724.48,726.58,727.97,728.81,729.23,729.14,728.30,726.42,724.42,722.48,720.25,716.97,713.67,710.60,707.56,704.43,701.73,700.90,700.61,700.20,699.78,700.11,701.12,702.95,705.88,708.36,708.59,706.68,702.98,699.35,698.45,700.29,703.13,703.47,702.91,704.13,706.74,709.67,711.65,713.33,714.13,713.95,713.72,714.38,715.39,716.50,717.56,718.45,718.93,718.82,717.47,713.72,709.40,704.57,699.66,695.70,691.84,688.65,686.33,685.49,687.41,690.56,692.38,691.13,685.74,680.19,678.52,680.83,685.95,690.75,694.93,698.83,701.89,701.57,698.55,697.30,699.08,703.01,708.41,712.64,716.02,718.85,718.49,714.50,709.80,705.81,702.73,701.88,702.30,703.24,704.23,705.56,706.87,708.60,711.44,715.94,721.20,725.78,728.14,726.00,723.64,721.23,719.69,720.40,722.91,726.20,729.40,731.72,731.99,731.43,731.21,732.03,734.76,738.02,740.92,742.76,742.98,742.05,739.65,735.02,728.72,722.90,716.73,710.72,705.26,700.79,696.97,695.06,694.88,696.40,699.28,702.68,706.12,709.35,712.08,714.13,714.24,712.38,708.38,702.68,696.40,691.78,690.66,694.99,698.60,702.67,707.01,711.01,715.18,718.35,721.35,724.85,729.10,733.45,737.97,741.32,740.32,736.53,731.77,725.90,718.78,713.15,708.23,703.00,697.37,692.13,687.93,683.83,679.44,674.74,670.99,668.43,667.34,668.36,671.96,675.99,679.51,682.95,687.66,692.60,696.30,696.49,691.28,684.73,680.47,679.88,683.22,689.02,693.59,697.55,701.20,704.26,705.21,703.23,700.21,697.09,693.39,688.74,684.33,680.22,675.79,672.60,673.83,678.75,685.58,688.97,682.35,673.66,666.52,660.74,656.86,654.05,652.25,652.27,655.15,659.83,666.80,676.30,685.50,692.64,699.08,705.09,709.69,711.50,711.81,711.17,709.49,706.80,703.74,699.87,695.06,690.02,683.82
742.52,740.90,738.92,735.98,733.14,730.84,728.58,726.14,723.94,721.85,719.40,716.22,712.05,709.49,707.57,706.50,706.81,707.83,709.86,713.09,717.26,721.12,724.05,726.59,728.61,729.64,730.17,730.33,729.61,727.68,725.06,722.67,720.30,717.32,712.81,709.61,707.31,705.36,703.56,702.54,703.02,703.58,703.72,703.88,704.49,705.56,707.25,709.63,710.40,710.21,707.93,703.27,699.66,699.20,700.29,701.69,702.27,703.90,705.95,708.29,710.81,712.63,714.34,715.48,715.80,715.57,715.81,716.56,717.56,718.54,719.41,720.07,719.84,717.89,713.86,709.11,704.07,699.27,695.66,692.18,689.49,687.49,686.49,687.91,691.33,694.33,694.55,688.82,683.08,679.78,680.24,685.86,691.09,695.38,699.33,702.80,703.53,701.19,700.33,702.04,704.94,709.13,712.94,716.37,719.40,720.12,716.49,711.73,707.47,704.17,703.67,704.39,705.45,706.36,707.09,707.35,708.02,710.19,714.78,720.63,726.04,729.30,727.95,726.03,723.88,722.37,722.64,724.41,727.27,730.40,733.15,734.56,734.48,734.50,735.37,737.67,740.78,743.19,744.03,742.78,740.57,737.36,732.63,726.76,721.21,714.56,708.41,703.08,698.67,695.34,695.49,697.69,700.96,704.21,707.63,711.21,714.68,717.40,719.37,718.85,716.16,711.52,705.52,698.45,692.74,690.87,695.92,699.42,702.62,705.95,709.46,713.17,716.35,719.72,723.75,728.21,732.68,737.37,740.88,739.85,735.48,729.73,723.19,716.18,710.37,705.00,699.36,693.62,689.03,685.67,682.37,678.32,673.21,669.72,667.81,667.80,670.38,675.67,680.71,684.24,687.00,691.15,695.35,697.74,696.96,691.86,684.96,681.16,681.41,685.39,690.75,695.37,699.74,703.97,707.59,709.18,707.90,705.72,703.33,699.15,693.71,688.78,684.74,680.98,676.14,675.15,677.93,683.73,690.51,684.83,676.27,669.59,664.59,660.74,657.84,655.88,655.41,657.30,659.47,663.77,671.82,681.87,690.04,697.05,703.45,709.17,711.51,712.22,711.86,710.29,707.77,704.67,700.76,696.07,691.16,684.44
742.52,740.51,737.96,734.80,731.71,728.82,726.05,723.42,721.10,718.58,715.83,712.83,709.84,709.07,708.95,709.10,709.73,711.26,713.92,717.37,721.24,724.67,727.38,729.13,730.13,730.58,730.94,730.65,729.37,726.92,723.81,720.52,716.49,712.24,709.29,706.74,705.12,704.58,705.15,705.85,706.69,707.42,707.95,708.39,708.96,709.55,710.25,711.11,711.14,710.27,707.02,701.60,699.61,700.30,702.11,703.73,703.60,704.75,706.87,709.43,711.99,713.89,715.66,716.93,717.44,717.24,717.32,717.81,718.58,719.50,720.65,721.12,720.20,717.32,712.98,708.01,703.05,698.70,695.93,693.01,690.54,688.79,688.15,688.88,693.47,698.00,699.02,692.87,686.72,681.95,680.57,685.62,691.11,695.55,699.91,704.30,705.78,704.18,704.04,705.82,706.96,710.31,713.70,716.94,719.97,720.65,717.05,712.34,708.11,704.90,705.23,706.48,707.67,708.64,709.52,709.78,709.87,710.77,714.73,720.25,725.86,730.02,730.21,728.86,727.12,725.85,725.76,726.12,728.07,730.94,734.21,736.98,737.77,738.17,739.02,740.94,743.51,744.45,743.56,741.01,738.19,734.73,730.52,725.74,720.78,714.30,707.75,701.97,697.84,695.81,697.24,701.25,706.55,709.68,712.73,716.13,719.52,722.04,723.33,721.95,718.59,713.75,707.89,700.35,693.78,691.22,696.85,701.70,705.21,708.05,711.13,714.85,717.92,720.79,723.96,727.85,732.22,736.94,740.53,739.44,733.56,726.28,719.58,714.40,709.49,704.15,697.54,690.56,686.53,683.25,679.49,675.12,670.71,668.56,668.19,669.31,672.47,678.70,684.51,688.63,691.63,695.19,698.47,699.69,698.09,693.21,687.49,682.80,682.16,685.77,690.00,694.97,699.96,704.73,708.94,711.72,711.54,710.14,708.24,704.80,700.51,694.90,688.95,684.99,681.14,678.26,678.07,682.80,691.69,687.67,679.97,673.61,669.16,665.26,662.25,660.23,660.14,665.44,667.65,668.63,671.80,681.01,689.05,695.68,701.75,708.18,711.30,712.82,712.91,711.13,708.86,705.53,701.20,696.10,690.98,683.85
742.35,740.35,737.60,734.33,731.06,727.71,724.41,721.33,718.71,715.98,713.40,711.20,709.77,710.02,710.89,711.83,712.84,715.00,718.36,722.16,725.76,728.18,729.88,730.89,731.28,731.08,730.96,729.93,727.90,724.87,721.21,716.80,712.55,709.04,707.03,705.93,705.76,706.59,708.56,710.76,712.36,713.13,713.15,713.04,712.81,712.36,711.92,711.75,711.17,709.51,705.84,701.05,701.29,703.64,705.85,706.86,705.90,706.12,707.85,710.38,713.00,715.25,717.14,718.45,719.07,719.15,719.12,719.45,720.16,721.10,722.19,721.80,719.81,716.18,711.47,705.77,701.08,697.87,695.62,693.20,691.27,690.24,690.58,692.16,697.45,702.38,703.53,697.75,691.12,685.26,682.46,686.08,691.22,695.61,700.25,705.45,708.25,707.32,707.59,709.49,710.01,712.52,715.68,718.86,721.36,721.26,717.29,712.46,708.46,706.10,706.99,708.72,710.35,711.68,712.83,713.16,712.87,712.66,714.84,719.25,724.63,729.51,731.42,731.35,730.28,729.24,729.00,728.75,729.84,732.15,735.47,738.92,740.63,741.63,742.66,744.24,744.95,744.01,741.63,738.17,734.99,731.49,727.79,723.92,719.61,713.84,707.55,701.72,697.73,696.78,699.50,704.59,710.62,714.29,717.72,721.23,724.50,726.49,726.53,724.00,719.82,714.54,708.67,701.38,694.74,691.78,697.44,703.29,707.59,710.79,713.84,717.34,720.08,722.46,724.95,728.10,732.25,736.93,740.16,737.71,730.53,723.15,717.13,712.74,708.08,702.92,696.36,689.15,684.44,680.48,676.23,672.21,669.70,669.09,670.03,671.55,673.91,679.26,685.55,690.60,694.40,698.02,700.60,700.43,698.05,694.01,689.57,685.27,683.57,685.18,688.56,693.14,698.24,703.40,708.16,712.00,713.81,713.84,712.16,709.27,705.59,700.61,694.97,690.38,685.93,682.02,680.03,682.37,690.85,689.97,684.48,678.04,673.50,669.93,667.63,666.58,667.39,672.30,673.40,672.35,672.78,680.64,688.38,694.82,700.56,706.87,710.71,713.01,713.66,712.12,709.99,706.16,701.26,695.73,690.03,683.09
741.71,739.97,737.32,733.98,730.60,726.99,723.29,719.70,716.66,714.15,712.25,711.09,711.02,711.71,713.07,714.53,716.05,719.23,723.09,726.96,730.10,731.24,731.62,731.91,731.92,731.12,730.21,728.30,725.52,721.93,717.75,712.64,709.14,707.35,706.05,706.66,708.33,710.54,713.17,716.34,718.49,718.96,717.87,716.56,715.15,713.60,712.26,711.59,710.58,708.24,704.72,701.59,703.95,707.80,710.12,710.14,708.40,707.70,708.92,711.27,713.97,716.64,718.76,720.21,720.98,721.35,721.21,721.43,722.12,723.02,723.60,722.05,718.93,714.64,709.50,703.17,698.93,696.95,695.01,693.10,692.02,692.04,693.55,696.56,702.14,706.73,707.64,702.75,695.75,689.10,685.10,686.87,691.34,695.61,700.46,706.34,710.68,710.45,710.94,712.98,713.72,715.30,718.17,721.34,723.19,721.92,717.39,712.43,708.74,707.59,709.03,711.27,713.51,715.36,716.79,717.06,716.36,715.21,715.31,718.25,722.96,728.14,731.66,733.23,733.19,732.63,732.48,732.27,732.70,734.24,737.11,740.69,743.27,744.89,745.99,746.84,745.27,742.46,738.82,734.62,731.07,727.54,724.25,721.11,717.46,712.86,707.41,701.96,698.07,698.00,701.87,707.60,713.70,718.33,722.53,726.24,729.19,730.47,729.05,725.27,720.19,714.43,708.48,701.82,695.61,692.52,697.78,704.32,709.54,713.46,716.72,719.92,722.33,724.38,726.47,729.03,732.99,737.42,739.73,734.97,727.04,720.42,715.31,710.98,706.12,701.21,695.26,688.45,682.53,677.64,673.35,670.45,670.34,671.27,673.25,674.71,675.51,678.75,685.05,691.10,696.05,700.09,701.83,700.22,697.19,694.33,691.13,687.93,685.46,684.65,687.05,690.84,695.72,701.13,706.39,711.17,715.15,716.87,715.50,713.02,709.58,705.75,701.52,696.43,690.96,686.41,683.17,682.70,689.08,691.86,689.34,682.84,677.92,674.80,673.49,673.77,675.65,678.42,677.91,675.59,674.45,680.36,687.63,694.04,699.62,705.43,709.90,712.90,714.16,713.18,711.08,706.75,701.35,695.37,688.92,682.42
739.41,738.12,735.86,732.48,729.09,725.65,722.12,718.48,714.93,713.95,713.67,713.30,712.88,713.60,715.21,717.13,719.58,724.90,728.31,730.70,732.38,732.57,732.16,731.70,731.18,730.22,727.93,725.25,722.12,718.32,713.92,710.33,708.17,707.38,707.74,709.21,712.52,716.19,718.85,721.21,721.96,720.92,718.22,714.91,712.48,710.86,709.97,709.72,708.97,706.58,704.29,703.84,706.53,710.07,712.07,711.84,709.56,708.93,710.14,712.41,715.13,717.88,720.68,722.84,723.98,724.23,723.86,723.85,724.30,724.77,723.65,721.30,717.69,712.69,707.01,701.63,698.16,696.34,694.54,693.34,693.65,694.98,696.98,700.34,705.51,709.41,710.01,706.28,699.67,692.58,687.36,687.29,691.34,695.65,700.72,707.09,712.44,713.13,713.89,715.96,717.72,718.01,719.97,723.00,724.94,722.40,717.56,712.70,709.29,709.10,711.75,714.85,717.64,719.98,721.46,721.13,719.53,717.52,717.09,718.75,721.91,726.08,730.39,733.30,735.24,736.40,736.81,737.38,737.80,738.43,739.86,742.84,745.96,747.81,748.02,746.40,743.81,740.11,735.52,730.38,725.95,721.98,718.73,716.03,713.13,710.32,706.58,702.23,698.63,699.23,703.65,709.75,716.31,722.08,726.86,730.29,732.36,732.76,730.47,725.51,719.63,713.93,707.91,701.88,696.37,693.46,697.81,704.80,710.48,714.67,718.19,721.36,723.95,726.19,728.43,731.51,735.63,739.05,739.02,731.16,724.12,718.41,713.40,708.52,703.32,698.55,693.13,686.81,680.47,675.35,672.87,672.71,674.35,676.58,679.03,680.13,679.44,679.62,684.58,691.15,697.54,701.99,701.64,698.81,695.83,693.95,691.77,689.48,687.64,686.58,686.69,689.70,694.29,699.65,705.35,710.88,715.76,718.66,718.64,716.56,713.30,709.68,705.92,701.90,697.69,692.15,687.12,685.29,688.13,693.34,693.84,688.40,683.46,680.29,679.14,679.84,682.32,685.11,684.00,680.46,677.18,679.53,685.86,692.49,698.44,704.18,709.08,712.44,714.30,714.28,711.93,707.79,702.40,695.92,688.79,682.43
734.71,734.01,732.54,729.84,726.96,723.78,720.47,717.26,714.68,715.34,716.34,716.35,715.03,714.90,716.60,719.76,724.20,729.41,731.80,732.66,732.68,732.03,730.70,729.14,727.65,726.28,724.07,721.65,718.79,715.23,711.31,709.26,708.44,708.93,711.60,714.22,717.90,721.54,723.75,724.79,723.57,720.77,716.82,712.53,710.12,708.92,708.33,707.90,707.11,705.83,705.34,706.61,709.50,712.88,714.60,713.97,711.29,710.23,711.35,713.65,716.32,719.39,723.06,725.86,727.07,726.99,726.49,726.23,726.07,725.32,723.11,720.02,715.94,710.66,705.01,700.65,697.80,696.04,694.53,693.85,694.89,696.82,699.01,702.55,707.28,710.89,711.76,708.78,702.65,695.38,689.33,687.97,691.55,695.91,701.18,707.76,713.52,715.49,716.62,718.24,720.54,720.83,722.26,724.77,726.50,722.88,717.79,713.13,710.27,711.23,714.55,718.84,722.90,725.32,726.21,725.11,722.83,720.22,718.95,720.32,722.81,725.76,729.04,732.29,735.36,737.88,739.51,741.15,741.77,742.27,743.42,745.94,748.28,748.90,747.70,744.96,741.95,737.47,732.08,726.48,721.55,717.14,713.57,710.74,708.12,706.30,704.03,701.34,699.34,701.19,706.01,712.06,718.49,724.68,730.01,733.59,735.24,734.52,731.08,725.34,719.12,713.49,707.57,702.03,697.08,694.46,698.18,704.75,710.47,714.94,718.70,721.98,724.89,727.66,730.62,734.51,738.10,739.42,736.82,728.18,721.86,716.37,711.08,705.87,700.97,696.33,690.88,684.53,678.55,674.88,674.65,676.80,679.90,683.01,685.27,686.10,685.29,684.41,687.65,693.29,699.61,703.79,701.50,698.39,696.51,696.22,695.20,693.55,691.61,689.51,687.60,689.38,693.35,698.33,703.72,709.57,715.24,719.28,720.57,719.44,716.87,713.63,710.15,706.76,703.19,698.02,692.67,689.13,688.30,692.93,695.53,693.46,689.92,687.39,687.13,688.55,690.48,691.80,689.45,684.92,680.36,679.76,684.34,690.42,696.55,702.46,707.71,711.59,714.31,715.44,713.03,709.19,704.10,697.63,690.16,683.59
728.49,728.36,727.81,726.27,724.32,721.52,718.57,716.25,715.81,717.95,719.64,719.54,717.14,715.75,717.52,722.33,729.11,732.56,733.50,732.71,730.88,729.46,727.31,724.77,722.32,720.53,719.42,717.94,715.74,712.82,710.11,709.64,710.21,712.12,716.92,720.69,723.78,726.25,727.64,727.07,723.72,719.23,714.44,710.25,708.83,708.36,707.82,706.65,705.61,706.15,707.64,709.78,712.90,716.32,717.67,716.50,713.52,711.62,712.53,714.91,717.53,721.13,725.65,728.90,729.96,729.50,728.92,728.35,727.32,725.01,722.33,718.58,714.00,708.82,703.69,700.17,697.79,696.15,695.01,694.58,695.67,697.58,699.82,703.51,707.86,711.55,713.14,710.45,704.81,697.59,691.06,688.86,692.02,696.48,701.94,708.51,714.20,717.63,719.21,720.10,722.36,723.62,724.96,726.72,727.87,723.40,718.13,713.77,711.64,713.80,717.39,722.86,728.43,730.64,730.59,728.80,726.15,723.25,720.94,722.66,725.24,727.19,728.39,731.11,734.30,737.51,740.54,743.33,744.48,745.53,747.30,749.35,749.83,748.25,745.45,742.74,739.55,734.42,728.50,722.90,717.88,713.22,709.31,706.24,703.89,702.47,701.25,700.32,700.62,703.92,708.88,714.47,720.33,726.36,732.15,736.24,737.85,735.78,731.02,724.97,718.86,713.25,707.50,702.26,697.77,695.50,698.92,704.52,709.92,714.59,718.53,721.95,725.22,728.69,732.69,737.42,739.97,738.59,733.52,725.98,719.98,714.20,708.54,703.35,699.11,694.44,688.53,681.87,676.98,676.08,678.29,682.13,686.25,689.75,691.48,692.23,692.45,692.31,693.84,697.41,702.18,705.48,701.68,699.05,698.96,700.65,700.89,699.59,696.90,693.14,689.67,689.77,692.66,696.91,701.46,707.14,713.44,718.59,721.29,721.60,720.18,717.58,714.35,711.16,707.56,703.68,699.16,693.93,689.88,691.52,695.03,697.67,696.87,695.82,696.88,698.92,699.30,697.94,693.91,688.70,683.75,681.11,683.28,688.05,694.05,700.21,705.79,710.35,714.12,716.44,714.32,710.84,706.24,700.22,692.86,685.94
724.01,723.48,723.07,722.22,720.98,719.13,717.44,716.75,718.07,721.01,722.11,720.73,717.88,716.77,719.18,724.36,730.78,733.82,732.96,729.56,725.20,723.03,721.50,720.17,718.94,717.82,716.87,715.32,713.42,711.65,711.12,713.49,716.04,718.42,721.94,725.14,727.70,729.43,729.71,727.51,722.90,717.49,712.46,709.57,709.80,710.13,709.42,707.51,706.94,708.33,710.67,713.49,717.00,719.76,720.27,718.53,715.45,712.92,713.58,715.98,718.68,722.95,727.51,730.68,731.77,731.32,730.54,729.29,727.59,725.32,722.20,718.00,713.19,708.19,703.75,700.60,698.61,697.39,696.26,695.35,696.06,697.86,700.29,704.25,708.42,712.29,714.45,711.51,706.16,699.25,692.59,689.63,692.88,697.84,703.60,709.98,715.39,719.76,721.89,722.44,723.98,725.73,727.39,728.84,729.00,724.01,718.98,715.10,713.43,716.04,720.24,725.71,730.90,733.00,732.85,731.24,728.94,726.33,723.88,725.05,727.66,730.21,731.43,733.14,735.06,737.21,739.86,743.42,746.16,748.30,749.87,750.32,748.74,745.80,742.33,739.11,735.13,730.04,724.57,719.33,714.53,710.39,707.47,706.09,706.30,705.84,704.80,703.96,704.58,707.67,711.73,716.46,721.91,727.98,733.88,738.15,739.50,735.86,730.49,724.92,719.33,713.60,707.75,702.45,698.33,696.68,700.02,705.35,710.21,714.38,718.16,721.35,724.84,728.78,733.27,738.25,740.08,737.13,730.75,723.99,717.55,711.72,706.54,702.01,697.54,692.12,685.74,679.53,676.77,678.80,683.25,688.11,691.76,694.67,696.47,697.89,699.28,700.57,701.64,702.94,704.83,706.91,702.79,700.82,701.93,704.94,706.31,704.82,701.61,697.37,693.16,690.94,691.75,694.65,698.47,703.23,709.14,715.37,720.61,722.46,722.52,720.89,718.14,715.34,711.84,708.14,704.16,699.61,694.88,692.74,694.69,699.82,702.89,704.62,705.81,706.05,704.22,701.20,696.47,691.35,686.89,683.80,683.21,685.89,691.18,697.15,703.11,708.54,713.23,716.29,715.49,712.57,708.37,703.01,696.62,690.00
722.08,721.12,720.53,719.97,719.21,718.23,717.83,718.80,721.55,724.26,724.05,721.23,718.27,717.86,721.07,726.45,732.04,733.90,731.18,726.21,721.07,718.97,718.17,717.75,717.29,716.57,715.83,714.68,713.63,713.31,714.51,717.99,721.13,723.52,726.13,728.68,730.70,731.57,730.35,726.64,721.33,715.69,711.06,709.87,711.37,712.24,711.40,708.84,708.23,709.86,712.61,715.89,719.55,722.32,722.47,720.18,716.95,714.13,714.56,716.84,719.64,724.32,728.66,731.75,733.15,732.89,731.94,730.44,728.74,726.96,723.02,718.20,713.22,708.55,704.83,701.97,700.12,698.97,697.69,696.37,696.57,698.05,700.60,704.73,709.10,713.25,715.62,712.33,707.19,700.65,694.21,691.11,694.93,700.25,705.90,711.72,716.84,721.77,724.51,725.17,725.96,727.67,729.53,730.74,729.88,724.69,719.82,716.32,715.14,717.85,722.64,727.84,732.31,734.62,734.93,733.63,731.59,729.32,727.02,727.19,729.26,732.19,734.21,735.90,737.18,738.46,740.45,743.89,747.41,750.13,751.26,750.04,747.00,743.22,739.22,735.23,730.47,725.43,720.39,715.62,711.57,708.72,707.51,708.17,710.41,710.70,709.92,709.10,709.36,711.57,714.70,718.83,724.15,730.23,736.02,739.86,740.43,735.79,730.25,725.12,719.92,714.09,708.08,702.63,698.86,697.94,701.51,706.76,710.99,714.34,717.69,720.70,724.26,728.30,732.80,737.59,738.87,735.23,728.44,722.13,715.16,709.38,704.60,700.28,695.50,688.94,682.51,677.93,677.63,682.65,688.63,693.70,696.97,699.63,701.77,703.70,705.62,707.44,707.71,707.39,707.55,708.92,705.03,703.48,705.09,708.81,711.05,709.51,706.01,701.64,697.39,694.21,693.36,694.22,696.08,700.03,705.69,712.44,719.12,722.35,724.01,723.58,721.54,719.26,715.88,712.23,708.57,704.75,699.85,695.15,695.17,700.48,705.69,709.51,711.05,710.27,707.07,703.26,698.52,693.83,689.90,686.74,684.26,684.95,688.92,694.65,700.96,707.25,712.87,716.67,717.12,714.84,710.81,705.57,700.06,693.86
722.99,721.74,720.81,720.13,719.59,719.36,720.13,722.47,726.07,727.47,725.45,721.33,718.56,719.07,723.11,728.71,733.34,732.88,728.36,723.27,719.53,718.41,718.25,717.98,717.37,716.56,716.26,716.16,716.62,717.98,720.03,722.46,724.67,726.80,729.51,731.56,732.85,732.53,729.51,724.56,719.17,714.05,710.49,711.14,713.30,714.43,713.58,710.49,709.11,710.38,713.16,716.64,720.13,723.83,724.31,721.53,718.05,715.27,715.48,717.53,720.38,725.12,729.10,732.20,734.18,734.32,733.30,732.06,731.02,729.85,724.81,719.24,714.14,709.93,706.85,704.26,702.27,700.75,699.21,697.67,697.29,698.24,700.79,705.01,710.00,714.51,716.68,713.02,708.00,701.85,695.93,693.42,698.15,703.62,708.73,713.63,718.46,723.65,727.05,728.24,728.41,729.62,731.43,732.39,730.54,725.46,720.54,717.29,716.62,719.13,724.32,729.18,732.99,735.85,737.15,736.17,734.21,732.21,730.19,729.16,730.06,732.75,735.93,738.71,740.36,741.44,742.86,745.30,748.51,751.00,751.46,748.75,745.00,740.80,736.29,731.37,726.07,721.03,716.27,712.05,709.38,708.48,709.46,712.09,715.25,716.00,715.74,715.13,714.65,715.63,718.03,721.92,727.32,733.28,738.73,741.46,740.67,735.74,730.43,725.51,720.42,714.56,708.42,702.80,699.37,699.27,703.40,708.68,712.26,714.68,717.34,720.25,723.69,727.45,731.51,735.70,736.49,732.90,726.54,720.37,712.95,707.29,702.66,697.93,692.81,685.07,679.23,677.41,679.87,687.61,694.22,698.74,702.04,704.95,707.50,709.64,711.29,712.41,711.29,710.26,710.39,711.61,708.32,706.89,708.36,712.20,715.06,713.70,710.18,705.87,702.22,699.73,697.94,696.27,694.90,698.03,703.63,710.32,716.98,721.32,724.55,725.52,724.54,722.89,719.66,716.05,712.55,709.04,704.23,698.62,696.71,699.86,705.02,709.87,712.30,711.85,708.34,704.53,700.39,696.38,692.82,689.71,686.36,685.37,687.62,693.23,699.77,706.77,713.27,717.84,719.15,717.58,713.56,707.83,702.83,697.07
726.23,724.92,723.76,722.81,722.24,723.25,725.14,727.40,729.38,728.99,725.94,721.66,719.34,720.92,725.69,731.14,734.20,730.99,725.37,721.12,719.41,719.33,719.87,719.60,718.64,717.78,717.89,718.51,720.27,723.03,724.32,725.94,728.01,730.58,733.57,734.19,733.41,731.22,727.16,722.05,717.50,713.82,711.87,713.57,715.91,717.32,716.86,713.75,711.18,711.21,713.27,716.66,719.83,724.92,726.28,723.34,719.26,716.41,716.47,718.39,721.25,725.34,729.07,732.31,734.82,735.89,735.04,734.00,733.08,731.43,726.61,721.28,716.36,712.29,709.22,706.77,704.65,702.70,700.80,698.95,697.96,698.34,700.87,705.62,711.53,716.36,717.98,713.87,708.89,702.89,697.29,695.56,700.65,706.25,711.15,715.50,720.04,725.54,729.59,731.36,731.30,732.19,733.83,734.32,731.44,726.20,721.23,718.11,717.62,719.64,724.24,728.86,732.91,736.56,738.99,738.80,737.19,735.15,733.29,731.90,731.96,733.75,736.96,739.94,742.43,744.47,746.11,747.98,750.67,751.95,750.55,747.05,742.86,738.22,733.30,728.21,722.99,718.57,714.56,711.17,710.58,711.29,713.50,716.94,720.15,721.60,721.80,721.33,720.72,721.19,723.28,726.83,731.69,737.01,741.65,742.87,740.54,735.53,730.33,725.34,720.16,714.43,708.56,702.95,699.90,700.70,705.68,710.71,714.25,716.67,718.71,721.07,724.10,727.50,731.10,734.40,733.97,730.25,724.51,718.24,710.97,705.53,700.99,695.89,689.65,682.81,678.72,679.35,685.56,693.49,699.50,703.75,707.33,710.00,712.37,714.47,715.79,715.14,712.91,712.33,713.52,714.22,711.05,709.76,711.32,715.31,718.70,717.74,714.35,710.15,707.35,705.52,703.40,700.57,697.36,697.07,701.67,708.29,714.85,719.89,723.62,726.23,727.45,726.31,723.20,719.61,716.08,712.65,708.85,703.75,699.79,699.12,703.98,709.69,713.42,713.88,710.01,706.27,702.62,699.15,695.88,692.50,688.11,686.23,688.16,693.99,700.56,707.58,714.21,719.03,720.10,719.38,716.03,710.19,704.79,699.29
731.89,729.82,727.63,726.06,725.48,727.15,729.51,731.28,731.37,729.50,725.94,722.07,720.77,723.26,728.42,733.16,734.07,728.96,723.34,720.50,720.79,721.53,722.41,721.90,720.44,719.38,720.11,721.83,724.85,728.53,729.15,730.40,732.35,734.61,736.31,735.23,732.68,729.11,724.50,719.78,716.16,714.05,713.91,716.21,718.74,720.46,720.38,717.31,713.96,712.52,713.39,716.39,719.35,725.67,728.11,725.40,720.66,717.58,717.56,719.45,722.26,725.68,729.17,732.59,735.67,737.56,736.88,736.03,735.21,733.24,728.85,723.84,719.03,714.87,711.57,708.98,706.67,704.44,702.24,700.09,698.64,698.53,700.83,706.12,712.97,718.07,719.17,714.89,709.97,704.05,698.53,696.88,702.01,707.76,712.63,716.63,720.95,726.69,731.31,733.86,734.38,734.99,736.30,736.29,732.51,727.20,722.01,719.00,718.90,720.29,723.63,727.77,732.15,736.41,739.81,740.72,739.85,737.95,736.23,734.76,734.10,734.83,737.68,740.64,743.82,746.80,749.01,750.74,752.37,751.98,748.79,744.60,740.05,735.14,730.00,724.84,720.22,716.51,713.59,711.96,713.13,715.00,717.83,721.43,724.64,727.03,727.93,727.74,727.14,727.39,729.23,732.36,736.55,741.03,744.25,743.82,740.21,735.23,730.10,724.94,719.65,714.14,708.56,703.10,700.84,702.88,708.11,712.77,716.41,719.08,720.88,722.85,725.36,728.42,731.69,733.65,732.03,728.05,722.55,715.98,709.09,703.59,698.73,693.38,686.58,681.29,679.06,681.52,690.63,698.25,703.75,708.00,711.82,714.40,716.59,718.36,718.94,716.85,714.55,714.81,716.77,716.67,713.39,712.37,714.14,718.14,722.01,721.26,718.01,714.22,712.49,711.45,709.17,705.51,701.04,697.66,700.38,706.22,712.77,718.23,722.43,726.39,729.44,729.04,726.24,722.75,719.20,715.82,712.70,708.46,703.53,700.18,703.96,709.86,714.67,716.34,712.84,708.93,705.37,702.06,698.69,694.56,689.30,687.10,689.29,695.54,701.97,708.97,715.53,719.91,720.70,720.47,717.63,711.87,705.90,700.45
740.35,736.42,732.02,729.36,728.87,730.14,731.91,732.96,731.56,728.92,725.47,722.55,723.03,726.15,731.18,734.48,732.58,727.11,722.97,722.11,724.02,725.26,725.86,724.79,722.69,721.14,722.80,726.20,730.48,734.45,735.13,736.57,738.10,738.65,736.64,733.78,730.44,726.49,721.90,718.15,715.25,714.59,716.33,718.75,721.66,723.74,723.86,720.79,717.39,714.47,713.73,715.96,718.89,726.04,729.62,727.70,722.36,718.79,718.73,720.78,723.55,726.48,729.71,733.32,736.98,739.31,738.75,738.06,737.49,735.81,731.76,726.86,721.94,717.45,713.76,710.64,708.04,705.77,703.45,700.99,699.36,698.95,700.72,706.43,714.03,719.37,720.13,716.13,711.32,705.49,699.72,697.01,701.78,707.70,712.72,716.56,720.84,726.63,731.70,735.30,737.52,737.87,738.67,738.14,733.72,728.62,722.98,720.12,720.84,721.60,723.00,726.16,730.58,735.04,739.13,741.42,741.83,740.48,738.98,737.50,736.27,735.99,738.16,741.08,744.49,748.00,751.05,753.09,752.89,750.47,746.02,741.11,736.26,731.37,726.26,721.01,717.59,714.58,713.17,714.48,716.64,719.10,721.89,725.03,728.45,732.07,734.05,734.46,733.92,734.13,735.70,738.35,741.84,745.28,746.26,744.06,739.66,734.83,729.77,724.38,718.98,713.78,708.40,703.28,702.43,706.16,710.63,714.86,718.56,721.58,723.73,725.73,727.76,730.58,733.65,733.59,731.08,726.67,720.75,713.64,707.32,701.23,695.48,690.05,683.89,680.54,679.94,683.37,693.48,700.89,706.46,711.06,714.97,717.83,720.04,721.10,720.33,717.71,716.88,718.22,720.08,718.91,715.34,714.72,716.80,720.59,724.91,724.05,720.96,717.99,717.52,717.42,715.03,710.64,705.40,700.39,700.19,704.09,710.77,716.33,721.31,726.11,729.98,730.75,728.54,725.26,721.78,718.45,715.24,711.87,707.70,704.07,705.67,710.79,716.13,719.18,717.23,712.86,708.77,705.01,700.96,695.50,689.74,687.80,690.71,697.57,703.71,710.88,717.24,720.30,721.10,720.73,717.94,712.37,705.87,700.20
744.70,740.72,736.19,732.50,731.86,732.97,733.71,732.90,730.65,727.55,724.53,722.95,725.15,728.75,733.58,735.61,731.57,726.70,724.29,724.82,727.32,728.50,728.66,727.20,724.90,723.34,724.51,728.02,732.99,737.95,739.00,739.94,740.28,739.20,735.57,732.13,728.13,723.93,720.18,717.50,716.01,716.35,718.49,721.21,724.57,726.89,727.02,723.74,719.63,716.38,714.97,716.01,718.80,726.05,730.23,729.17,724.12,720.10,719.49,721.80,725.95,728.66,731.31,734.63,738.33,740.55,740.54,740.18,739.67,738.10,734.19,729.51,724.53,719.61,715.77,712.43,709.53,706.95,704.48,701.84,700.13,699.67,701.46,707.58,715.20,720.54,721.44,717.48,712.78,707.15,701.40,697.97,701.26,707.08,712.48,716.39,720.70,726.46,731.83,736.11,739.11,739.74,739.91,738.71,734.57,730.01,724.65,722.27,723.77,724.84,725.27,726.46,729.02,733.40,737.75,740.95,742.91,743.34,741.90,740.19,738.69,737.95,739.13,741.81,745.23,748.97,752.48,753.83,752.02,748.10,742.78,737.55,732.77,728.12,723.42,718.84,715.98,714.90,715.40,717.43,719.87,722.59,725.44,728.59,732.62,736.92,740.01,741.49,741.37,741.80,743.56,745.87,748.04,749.05,747.43,743.78,739.12,734.61,729.75,723.73,717.81,712.99,708.07,704.04,704.17,708.38,712.70,716.93,720.61,723.68,726.23,728.86,732.38,735.52,736.69,733.80,729.83,724.89,718.81,711.38,705.36,698.73,692.42,687.55,682.86,681.72,683.22,687.51,695.72,702.73,708.76,713.99,718.12,720.76,722.76,723.19,721.41,718.74,718.95,721.04,722.89,721.02,717.51,716.75,718.75,722.90,727.62,727.63,725.25,722.58,722.27,722.12,719.55,714.95,709.51,703.88,701.11,702.80,708.99,714.72,720.22,725.72,730.40,731.98,730.04,726.91,723.52,720.18,717.14,714.02,710.39,707.05,707.07,711.53,716.78,720.35,719.77,716.27,711.50,706.68,701.97,696.04,690.07,688.26,691.63,699.22,705.44,712.81,718.93,720.79,721.40,720.84,717.77,711.82,704.71,699.15
747.11,743.30,739.10,735.15,734.62,735.26,734.69,732.07,729.24,725.95,723.88,724.02,727.42,731.50,735.39,735.84,730.69,726.62,725.89,727.46,730.01,731.09,730.77,729.11,726.96,725.62,726.13,729.32,734.48,740.05,741.56,741.92,741.07,738.65,734.13,730.13,725.65,721.56,718.96,717.42,717.23,718.32,720.60,723.58,727.14,729.53,729.70,726.44,721.66,718.24,716.41,716.49,719.17,725.96,730.54,730.55,725.84,721.50,720.59,723.20,728.40,730.95,733.13,736.01,739.38,741.42,742.18,741.98,741.10,739.37,735.69,731.38,726.47,721.18,717.25,713.81,710.69,707.85,705.25,702.53,701.14,701.19,703.29,709.20,716.38,721.62,722.84,719.01,714.47,709.20,703.64,699.45,700.85,706.33,712.07,716.11,720.45,726.15,731.73,736.48,739.94,741.05,740.75,738.98,735.26,731.15,726.30,724.61,726.99,728.78,728.55,727.88,728.38,731.95,736.28,740.10,743.30,745.33,744.58,742.99,741.49,740.55,740.82,743.07,746.23,750.04,753.83,753.68,750.29,745.20,739.31,733.99,729.56,725.32,721.13,717.42,715.56,716.42,718.49,720.76,723.38,726.29,729.24,732.50,736.93,741.51,745.42,748.00,748.66,749.43,751.11,752.48,752.66,751.34,747.71,743.13,738.46,734.28,729.53,723.07,716.78,712.17,707.68,704.96,705.94,710.22,714.50,718.74,722.37,725.51,728.59,732.28,736.90,739.74,738.70,733.48,728.23,722.79,716.59,709.02,702.81,695.92,689.67,685.71,683.31,684.27,687.41,692.18,698.29,705.08,711.58,717.21,721.24,723.62,725.36,725.22,722.65,720.15,721.20,723.84,725.65,723.19,719.65,718.58,720.39,724.89,729.79,731.10,729.81,727.47,727.05,726.32,723.32,718.54,713.11,707.35,702.78,702.50,707.76,713.52,719.33,725.40,730.82,733.01,731.00,727.99,724.79,721.56,718.96,715.91,712.56,709.51,708.44,712.33,717.27,721.04,721.65,719.07,713.51,707.59,702.44,696.32,690.33,688.59,692.21,700.44,706.93,714.41,720.25,721.32,721.72,720.93,717.44,710.87,703.22,697.81
747.60,743.37,739.21,736.76,737.12,736.45,734.17,730.58,727.34,724.33,724.13,726.61,730.15,734.78,736.07,734.10,729.80,726.37,727.11,729.25,731.30,732.44,731.71,730.18,728.65,727.84,728.13,731.00,735.57,740.44,742.44,742.46,740.90,737.77,732.69,727.49,722.87,719.60,718.37,718.04,718.44,720.01,722.74,725.80,728.93,731.09,731.48,728.89,723.95,719.98,717.71,717.68,720.38,725.87,730.71,732.25,727.42,723.06,722.72,725.66,730.20,732.59,734.74,737.17,739.73,741.76,743.51,743.00,740.85,738.46,735.32,731.69,727.11,721.68,717.65,714.15,711.03,708.21,705.53,702.88,702.70,704.35,707.09,711.38,717.55,722.58,724.22,720.87,716.64,711.99,706.84,701.59,700.92,705.68,711.47,715.63,719.94,725.63,731.28,736.20,739.95,741.69,741.34,739.32,735.83,731.74,727.48,726.73,730.22,733.10,732.34,730.73,729.83,731.10,735.01,739.09,742.58,745.16,746.63,746.06,744.96,744.07,743.88,745.34,747.85,751.49,755.37,752.50,747.47,741.66,735.61,730.50,726.82,723.24,719.55,716.72,717.22,719.27,721.89,724.72,727.71,730.82,733.95,737.29,741.37,745.60,749.68,753.10,755.17,756.39,757.06,756.02,753.09,750.53,746.50,741.96,737.55,733.57,728.64,722.42,716.36,711.56,707.22,705.88,707.68,711.81,715.92,719.89,723.52,726.99,730.82,736.17,739.81,740.54,737.61,731.75,726.03,720.17,713.77,706.41,699.00,692.52,687.48,684.92,686.14,688.74,692.23,696.63,702.05,709.11,715.83,721.16,724.30,726.63,728.15,727.49,724.41,722.40,724.03,726.95,728.61,725.57,721.61,720.17,721.75,726.20,730.86,733.80,734.12,732.50,732.06,730.15,726.16,720.96,715.67,710.32,705.42,703.99,707.66,713.06,718.90,725.34,731.31,733.83,731.22,728.25,725.50,722.71,720.95,717.97,714.49,711.34,709.96,713.38,717.91,721.69,723.11,720.77,714.28,707.56,702.47,696.24,690.49,688.78,692.30,700.88,707.84,715.19,720.75,721.92,722.10,721.06,717.03,709.67,701.68,696.33
747.66,743.83,740.73,739.58,739.43,737.56,734.24,730.09,726.59,724.73,725.76,729.46,734.62,737.53,736.50,733.21,729.49,727.22,728.36,730.37,732.15,733.50,733.01,731.83,731.00,731.44,732.10,734.77,738.41,741.86,743.41,742.62,740.11,736.04,730.11,724.42,720.91,719.38,719.35,719.42,720.40,722.43,725.36,728.37,730.99,732.71,732.83,730.09,725.42,721.28,718.67,718.43,721.16,726.12,731.25,733.68,728.85,724.64,724.37,727.03,730.92,733.39,735.66,737.95,740.09,741.70,742.67,741.86,739.65,736.91,733.94,730.44,726.07,720.88,716.55,712.87,709.97,707.63,705.31,703.68,704.40,706.67,709.68,713.84,719.27,724.00,726.05,723.05,719.51,715.51,710.89,705.70,702.49,705.14,710.04,714.56,719.15,724.79,730.38,735.41,739.50,741.72,741.79,740.04,736.57,732.32,728.92,729.27,733.63,737.08,736.89,735.10,733.30,733.27,735.82,739.24,742.55,745.34,747.79,748.57,748.42,747.85,747.45,748.33,750.66,753.42,754.55,750.12,744.44,738.48,732.68,728.23,724.69,721.48,718.62,717.01,718.54,721.21,724.16,727.35,731.50,735.45,738.91,742.09,745.74,749.56,753.54,756.96,758.83,759.65,759.03,756.58,752.50,748.84,744.51,740.20,736.17,732.25,726.79,720.90,715.41,710.78,706.62,706.71,709.25,712.98,716.81,720.60,724.29,728.09,732.51,738.16,740.77,739.90,735.56,729.50,723.46,717.21,710.95,705.15,697.74,691.41,687.31,686.59,689.48,693.73,698.05,702.44,707.90,714.52,720.39,724.89,727.66,729.71,729.95,728.35,725.63,724.95,726.71,729.24,730.42,727.11,723.40,722.48,723.96,727.30,731.92,736.00,737.71,736.93,735.61,732.56,728.06,722.78,717.35,712.00,707.13,705.31,708.13,713.32,719.33,725.86,731.91,734.76,731.61,728.58,726.56,725.09,723.88,721.03,717.56,714.17,711.80,714.50,718.58,722.38,724.46,721.53,714.48,707.54,702.60,696.75,691.11,689.15,692.29,700.89,708.27,715.63,721.10,722.44,722.32,721.09,716.49,708.36,700.58,695.19
747.76,744.98,743.31,742.78,741.67,738.93,734.99,730.38,726.57,725.73,727.76,732.42,738.89,739.82,736.99,732.89,729.50,728.34,729.48,731.20,732.85,734.38,734.49,733.92,733.83,735.31,736.44,738.90,741.61,743.48,743.90,742.11,738.72,733.89,727.47,721.86,719.79,720.03,721.03,721.41,722.86,725.24,728.27,731.23,733.39,734.37,733.71,730.62,726.45,722.37,719.60,719.29,721.98,726.73,732.09,735.01,730.15,726.09,725.82,728.14,731.41,733.96,736.37,738.60,740.47,741.53,741.36,740.12,738.00,735.00,731.97,728.36,724.10,719.30,714.78,711.08,708.47,706.64,704.95,704.52,705.95,708.63,712.13,716.70,721.55,725.86,728.12,725.48,722.61,719.22,715.16,710.33,704.99,704.95,708.34,713.24,718.11,723.64,729.10,734.15,738.52,741.33,742.19,741.04,737.61,733.31,730.60,731.79,736.75,740.34,741.00,739.48,737.27,736.52,737.60,740.06,742.96,745.77,748.65,750.68,751.64,751.65,751.22,751.72,753.70,755.07,752.93,747.40,741.57,735.81,730.49,726.76,723.23,720.30,718.23,717.66,719.57,722.51,725.67,729.14,734.50,739.48,743.49,746.70,749.93,753.40,757.05,760.03,761.17,761.20,759.14,755.61,751.08,746.54,742.09,738.09,734.43,730.50,724.83,719.36,714.40,710.01,706.51,707.89,710.98,714.30,717.74,721.26,724.89,728.90,733.78,739.37,741.03,738.86,733.46,727.31,721.00,714.49,708.50,704.22,697.33,691.22,687.89,688.91,692.95,698.50,703.65,708.27,713.93,720.10,724.98,728.54,731.04,732.40,731.16,728.80,726.88,727.57,729.50,731.35,731.65,728.26,725.24,725.00,726.39,728.63,733.28,737.96,740.52,740.26,737.93,734.10,729.38,724.09,718.36,712.84,708.26,706.53,708.98,714.17,720.33,726.74,732.59,735.82,732.58,729.72,728.41,728.12,727.23,724.44,720.91,717.22,713.96,715.76,719.46,723.36,725.65,721.87,714.48,707.58,702.91,697.65,692.07,689.66,692.18,700.63,708.28,715.77,721.37,722.91,722.54,721.02,715.90,707.20,699.77,694.35
748.38,747.95,747.84,746.01,743.88,741.22,737.30,732.09,727.69,726.47,729.51,735.45,740.73,741.13,737.91,733.47,729.92,729.20,730.23,731.81,733.47,735.02,736.16,736.85,737.47,738.54,739.87,742.04,744.03,744.69,742.72,739.86,736.05,731.30,725.85,721.34,720.43,721.65,723.30,724.54,726.13,728.52,731.64,734.63,736.59,736.04,733.58,730.34,726.96,723.26,720.81,720.94,723.45,728.14,733.45,736.25,731.17,727.07,727.12,729.53,732.24,734.68,737.08,739.25,740.88,741.46,740.77,738.79,735.93,732.66,729.21,725.26,720.96,716.52,712.44,709.38,707.03,705.36,704.71,705.05,706.87,710.30,715.41,720.54,724.99,728.63,730.48,728.40,725.75,722.78,719.25,714.55,708.95,705.78,706.62,711.72,716.51,721.79,727.00,731.89,736.33,740.21,742.54,742.54,739.40,735.61,732.80,733.86,738.72,741.58,742.92,742.35,740.83,740.08,740.30,741.83,744.07,746.62,749.46,752.07,754.12,755.26,755.13,755.71,756.24,755.33,751.25,744.86,739.38,734.43,729.90,726.60,723.30,720.65,718.88,718.38,719.97,722.76,725.95,729.63,735.48,741.42,746.56,750.60,753.72,756.98,759.83,761.82,762.31,761.13,757.45,752.83,748.07,743.22,739.13,735.55,732.05,728.03,723.45,718.64,713.74,709.47,708.16,710.30,713.41,716.51,719.45,722.27,725.36,729.17,734.26,740.09,741.09,738.08,732.16,725.87,719.26,712.88,707.28,702.99,696.97,691.54,688.81,690.73,696.26,701.99,707.46,712.76,718.31,724.71,729.27,732.20,734.15,733.76,731.49,729.41,728.86,730.11,732.79,733.75,732.26,729.01,727.38,727.46,728.62,730.88,735.58,739.72,741.63,740.79,737.88,734.35,729.88,724.47,718.22,712.32,708.48,707.58,710.42,716.15,722.28,728.15,733.46,737.13,735.23,733.36,732.42,731.94,730.94,727.95,724.01,719.91,716.77,717.47,721.05,725.22,726.48,721.81,714.36,707.82,703.66,699.15,693.66,690.46,691.79,699.90,707.42,715.36,721.54,723.33,722.94,720.77,715.24,706.65,699.40,694.05
749.96,750.18,749.91,747.45,744.86,742.16,738.33,733.08,728.33,727.10,730.96,737.85,742.58,742.59,739.29,734.91,731.41,730.63,731.46,732.83,734.32,735.77,737.23,738.35,739.35,740.65,742.24,744.24,745.41,744.58,741.28,738.06,734.51,730.38,725.69,721.90,721.66,723.37,725.26,726.96,729.22,732.08,735.26,737.78,738.84,736.98,733.29,729.68,726.57,723.71,722.53,724.01,726.75,730.78,735.26,737.40,732.09,728.23,728.48,730.91,733.49,736.02,738.30,740.20,741.37,741.10,739.53,736.80,733.31,729.46,725.48,721.68,718.00,714.37,710.93,708.34,706.78,706.10,705.85,705.72,707.38,711.25,717.21,722.16,726.27,730.08,732.72,731.32,728.91,725.98,722.51,718.09,712.46,707.76,706.47,709.89,714.50,719.69,724.73,729.43,734.07,738.82,742.29,743.40,741.09,737.61,734.71,735.41,739.79,742.47,744.53,745.08,744.49,743.77,743.44,744.24,745.82,748.00,750.89,754.05,756.62,758.10,758.16,757.96,756.63,753.79,748.89,742.27,737.37,733.42,729.91,727.10,724.51,721.75,719.37,718.89,720.24,723.06,726.44,730.32,736.25,742.32,747.69,752.18,755.98,759.33,762.01,763.32,762.15,759.56,754.94,749.86,745.08,740.41,736.42,732.94,729.64,726.06,722.17,717.48,712.68,709.16,709.67,712.60,715.92,718.87,721.32,723.65,726.29,729.85,735.06,740.94,741.53,737.98,731.69,725.41,718.94,712.68,707.15,702.89,697.41,692.24,689.92,692.91,699.74,706.10,711.81,717.14,722.53,728.47,732.88,735.63,736.76,735.34,733.21,731.94,732.46,734.68,736.21,735.61,733.31,730.98,730.17,730.20,731.29,734.02,738.05,741.51,742.61,740.66,736.43,732.21,727.33,722.03,716.84,711.49,709.04,709.43,712.73,718.38,724.01,729.58,734.84,738.63,738.27,737.03,735.71,734.19,732.44,729.44,725.68,721.74,718.92,719.38,723.09,727.16,726.95,721.35,714.19,708.24,704.41,700.31,695.21,691.78,692.23,699.18,706.42,714.82,721.61,723.63,723.31,721.05,715.77,707.86,701.09,695.37
752.01,751.89,750.65,747.95,745.15,742.35,738.59,733.53,728.64,727.65,732.30,740.04,744.67,744.20,740.76,736.55,733.25,732.28,733.01,734.23,735.48,736.72,738.05,739.22,740.47,742.24,744.07,745.98,746.38,744.18,740.27,736.99,733.79,730.26,726.25,723.02,723.18,725.09,727.05,729.17,732.31,735.71,738.75,740.53,740.40,737.49,733.05,729.06,725.99,724.09,724.38,727.32,730.51,733.91,737.36,738.61,733.28,729.74,730.08,732.51,735.14,737.67,739.64,741.09,741.69,740.58,737.84,734.27,730.21,725.75,721.44,718.03,715.13,712.46,709.83,707.85,707.35,707.88,707.71,706.65,707.75,711.59,717.81,722.46,726.39,730.73,734.64,734.38,732.31,729.16,725.41,721.18,715.67,710.31,707.23,708.17,712.39,717.59,722.55,727.16,731.96,737.30,741.60,743.80,742.74,739.46,736.48,736.70,740.38,743.17,745.89,747.56,748.03,747.45,746.82,747.10,748.14,749.97,752.94,756.37,758.96,760.28,760.32,758.94,755.76,751.35,746.09,739.89,735.74,732.74,730.29,728.23,726.52,723.47,720.15,719.62,720.89,723.88,727.50,731.44,737.07,742.74,747.88,752.57,757.33,760.99,763.66,764.27,761.27,757.22,752.08,746.90,742.23,737.86,733.87,730.37,727.25,724.23,720.70,715.96,711.51,709.36,711.24,714.84,718.34,721.13,723.20,725.22,727.55,730.87,736.03,741.73,742.28,738.53,731.81,725.50,719.17,712.97,707.36,703.11,697.93,693.23,691.68,695.82,703.53,710.53,716.48,721.67,726.84,732.03,736.23,738.88,739.14,737.23,735.81,735.48,736.67,739.64,739.29,737.13,734.70,733.79,733.47,733.17,734.07,737.22,740.45,743.26,743.48,740.22,734.29,728.88,723.51,718.62,715.03,710.97,710.19,711.90,715.52,720.70,725.66,731.07,736.50,740.15,741.08,740.14,738.11,735.41,732.78,729.83,726.53,723.13,720.67,721.44,725.33,728.93,727.00,720.62,713.87,708.54,705.00,701.16,696.55,693.26,693.14,698.75,705.74,714.48,721.69,723.90,723.67,721.51,716.79,709.86,703.66,697.48
754.12,753.10,750.82,748.08,745.10,742.14,738.29,733.25,728.58,728.10,733.75,742.67,747.62,746.05,741.77,737.38,734.52,733.74,734.87,736.31,737.45,738.21,739.04,740.30,741.96,743.85,745.70,747.57,747.72,745.10,741.19,737.82,734.09,730.10,726.95,724.40,724.79,726.72,728.85,731.91,735.82,739.15,741.27,742.19,741.04,737.70,733.26,729.22,726.27,725.00,725.82,728.94,732.72,736.75,739.77,740.21,735.73,732.24,732.52,734.96,737.59,739.38,740.53,741.21,741.28,740.04,735.69,730.86,726.18,721.58,717.95,714.88,712.27,710.22,708.81,708.30,708.88,709.94,709.84,708.33,708.28,710.88,716.59,721.82,726.06,730.72,735.64,738.03,736.57,732.89,728.36,723.88,718.53,712.94,708.63,707.39,710.63,715.85,721.12,725.92,730.55,735.71,740.31,743.63,744.47,741.26,738.26,737.98,740.75,743.69,746.75,749.30,750.86,750.84,750.39,750.58,751.49,753.30,756.20,758.85,760.66,761.38,760.68,758.22,754.07,748.70,742.77,738.47,735.27,732.73,731.00,730.63,729.60,726.35,722.42,721.49,723.25,726.59,730.25,733.84,738.50,743.17,747.85,752.68,757.90,762.30,764.28,763.61,759.99,754.64,749.27,744.30,739.78,735.41,731.52,728.08,725.00,722.07,718.38,713.84,710.74,711.07,713.38,717.04,720.33,722.77,724.88,726.82,729.20,732.47,737.08,742.01,743.58,740.38,732.75,725.94,719.05,712.54,706.85,702.48,697.31,694.69,695.66,700.88,708.26,715.03,721.28,726.99,731.71,736.35,739.85,741.78,741.61,740.01,739.27,739.37,740.33,742.30,740.84,738.34,736.67,737.59,737.53,736.49,736.45,739.09,742.23,744.76,744.20,739.57,731.90,725.32,720.32,716.57,713.80,712.15,712.96,715.25,718.59,722.91,727.45,732.87,738.33,741.39,742.39,741.09,738.53,735.59,732.67,729.64,726.85,724.36,722.15,723.69,727.56,729.98,726.00,719.56,713.11,708.13,704.99,701.43,697.19,694.33,694.39,699.39,706.59,715.12,722.01,724.27,724.01,721.67,717.46,711.69,705.84,699.81
755.92,754.21,751.17,748.03,744.78,741.44,737.36,732.42,728.26,728.98,736.16,745.93,749.43,746.84,742.14,737.83,735.44,734.97,736.46,738.10,739.17,739.75,740.27,741.43,743.18,745.19,747.17,748.94,748.98,746.37,742.39,738.45,734.02,729.66,727.13,725.59,726.39,728.55,731.21,734.50,738.22,741.35,743.16,743.00,741.01,737.57,733.43,729.60,726.86,725.88,726.79,729.77,734.08,738.63,741.59,741.83,738.20,735.28,735.25,737.07,739.31,740.49,741.08,741.24,740.69,738.49,732.94,727.25,722.36,718.42,715.29,712.96,711.31,710.33,709.85,710.81,712.48,713.84,713.15,710.92,709.45,710.25,714.51,720.13,724.67,729.31,734.57,739.41,739.54,736.56,732.04,727.13,721.72,716.06,711.07,708.21,709.68,714.67,720.21,725.24,729.85,734.73,739.33,743.33,745.59,743.09,740.46,739.73,741.44,744.38,747.51,750.47,752.85,753.96,754.04,754.26,755.10,756.83,759.25,761.25,762.11,761.69,760.13,756.34,751.52,746.09,740.55,737.35,735.09,733.61,733.13,733.67,732.83,729.64,725.83,725.00,726.59,729.79,733.39,736.86,740.94,745.00,749.14,753.60,758.74,763.49,764.76,762.80,758.25,752.37,747.00,742.14,737.59,733.13,729.34,725.95,722.84,719.88,716.33,713.19,711.92,713.53,715.88,719.34,722.40,724.69,726.91,729.03,731.72,735.14,739.36,743.63,744.86,742.18,735.26,726.23,718.14,711.38,705.87,701.50,696.71,696.05,699.15,705.17,711.94,718.68,725.57,732.10,736.69,740.66,743.62,745.15,744.61,743.22,743.12,743.63,744.18,744.58,742.42,740.29,739.59,741.09,740.77,739.44,739.16,741.53,744.66,745.95,744.18,738.88,730.85,723.77,718.74,715.68,714.61,714.91,716.57,718.94,721.82,725.43,729.75,734.95,740.20,743.33,743.49,741.54,738.74,735.84,732.82,730.35,728.29,726.21,723.51,725.59,728.92,729.48,722.99,715.80,709.46,705.08,702.87,700.36,696.81,694.92,695.97,700.93,708.33,716.27,722.51,724.87,724.34,721.80,717.86,712.77,707.22,701.21
757.48,755.19,751.57,747.78,744.16,740.32,735.93,731.24,728.11,730.63,739.30,749.19,750.26,746.80,742.05,738.04,736.13,736.13,737.93,739.71,740.77,741.35,741.71,742.61,744.14,746.29,748.42,750.09,750.13,747.74,743.57,738.77,733.66,729.13,727.08,726.74,728.02,730.43,733.60,736.56,739.60,742.60,744.62,743.32,740.63,737.19,733.47,730.01,727.56,726.72,727.51,730.28,735.02,739.88,742.99,743.41,740.51,738.48,738.07,738.89,740.41,741.13,741.36,741.18,739.98,736.11,729.76,723.72,719.05,716.25,713.72,712.43,712.11,712.39,712.65,714.76,717.20,718.57,717.02,714.10,711.34,710.20,712.34,717.82,722.51,726.99,732.22,739.00,741.31,739.88,736.00,730.71,725.20,719.57,714.27,710.27,709.48,713.94,719.61,724.86,729.58,734.19,738.65,742.94,746.17,744.96,743.00,741.91,742.49,745.22,748.18,751.25,754.25,756.69,757.54,757.86,758.62,760.28,761.99,763.24,762.97,761.17,758.55,753.58,748.41,743.52,739.19,736.62,735.33,735.20,736.15,737.24,736.46,733.59,730.28,729.52,730.36,733.19,736.77,740.33,744.18,747.96,751.60,755.38,760.01,764.75,765.33,762.15,756.51,750.63,745.41,740.57,735.89,731.20,727.40,724.01,720.83,717.83,714.82,713.81,714.52,716.54,718.94,722.10,724.93,727.18,729.49,731.94,735.00,738.62,742.56,746.15,746.07,743.66,738.26,726.34,716.95,710.00,704.72,700.42,696.48,697.51,702.18,708.69,714.73,721.65,729.37,736.87,741.60,745.01,747.58,748.88,747.99,746.71,747.13,747.93,747.96,746.67,744.28,742.98,743.21,744.29,743.43,742.22,742.23,744.55,747.56,747.00,743.72,738.19,730.81,723.73,718.42,715.81,716.92,718.68,720.73,722.90,725.29,728.30,732.49,737.41,742.37,745.76,744.56,741.81,738.89,736.26,733.56,731.98,730.51,728.29,724.94,727.44,729.52,727.40,718.42,710.21,704.18,700.64,699.52,698.44,695.99,695.44,697.85,703.15,710.60,717.68,723.10,725.56,724.70,721.95,718.07,713.27,707.95,701.88
758.91,755.80,751.43,747.02,742.94,738.68,734.11,730.03,729.43,734.55,742.88,750.37,750.42,746.30,741.64,738.08,736.67,737.58,739.75,741.70,742.85,743.23,743.50,743.87,744.83,746.98,749.05,750.93,751.19,748.74,744.16,738.73,733.34,729.04,727.69,728.29,729.84,731.86,734.22,736.82,739.88,743.31,745.79,743.82,740.40,736.69,733.09,729.95,727.88,727.50,728.57,731.35,736.34,741.33,744.42,744.84,742.25,740.91,740.49,740.65,741.17,741.50,741.29,740.79,739.02,733.13,726.38,721.01,717.36,715.35,714.91,714.78,715.07,716.02,717.17,719.13,720.79,721.32,719.75,717.19,714.57,712.52,712.19,715.59,720.03,724.86,730.42,737.53,741.73,741.85,738.85,734.09,729.02,723.40,717.93,713.36,710.36,713.60,718.95,724.38,729.18,733.74,738.15,742.45,746.14,746.98,745.88,744.57,744.24,746.06,748.64,751.82,755.25,758.26,760.01,760.47,761.16,762.91,764.21,763.45,761.60,758.82,754.56,749.85,745.14,741.01,738.24,736.96,736.91,737.54,738.93,741.52,741.80,739.67,736.35,733.90,733.45,736.44,740.60,744.27,748.11,751.85,755.37,758.74,762.34,766.73,766.54,762.36,756.17,750.47,745.34,740.56,735.83,730.47,726.22,722.59,719.33,716.50,714.96,715.59,717.48,720.07,723.77,727.00,729.42,731.31,733.56,736.29,739.27,742.57,746.15,748.43,747.12,744.06,738.59,726.13,716.89,709.91,704.22,699.68,697.69,699.98,705.08,711.50,717.06,724.23,732.63,740.88,745.89,749.71,752.06,752.72,751.40,750.35,750.83,751.27,750.53,748.61,746.96,746.60,747.18,747.38,746.28,745.40,745.81,748.07,750.50,748.29,743.49,737.44,731.24,724.10,719.11,717.45,719.81,722.59,725.09,727.26,729.30,731.86,735.74,740.85,745.97,748.16,745.86,742.31,739.06,737.01,736.28,734.94,732.61,729.45,727.00,730.26,729.22,722.63,712.68,704.70,700.38,698.18,697.16,696.75,696.26,697.14,700.16,705.95,712.86,718.91,723.54,726.02,725.27,722.27,718.21,713.43,708.09,701.93
759.81,755.99,751.01,746.04,741.21,736.31,732.26,730.47,732.96,738.86,745.91,751.30,750.41,745.91,741.37,738.33,737.74,739.29,741.65,743.80,745.16,745.36,745.30,745.20,745.69,747.57,749.45,751.66,752.08,749.22,744.00,738.33,733.12,729.36,728.81,729.87,731.49,733.26,735.13,737.37,740.63,744.52,747.21,744.32,740.18,736.15,732.59,729.78,728.40,728.58,730.11,733.25,738.42,743.83,746.60,746.29,744.13,743.13,742.58,742.19,741.93,741.72,741.14,740.05,737.43,730.89,724.02,719.30,716.81,716.17,717.29,717.86,718.48,719.77,721.30,722.98,723.86,723.57,722.10,720.37,718.35,715.98,713.80,714.52,718.37,723.46,729.25,736.05,741.32,743.03,741.39,737.10,732.43,727.09,721.63,716.56,712.39,713.81,718.14,723.51,728.26,732.93,737.61,742.22,746.37,748.62,748.23,747.02,746.27,747.21,749.45,752.55,756.07,759.45,762.02,762.62,763.18,764.82,765.26,762.80,759.61,756.14,751.38,747.03,742.95,739.83,738.71,739.01,740.35,742.02,743.98,746.81,747.09,744.74,740.67,736.59,735.62,738.77,743.29,747.25,751.33,755.28,758.78,761.85,764.88,768.62,767.75,762.95,756.38,750.90,745.99,741.30,736.45,730.73,725.81,721.72,718.32,715.86,715.89,717.86,720.74,724.20,728.72,731.63,733.66,735.46,737.74,740.53,743.49,746.56,749.45,750.11,747.73,743.83,737.61,725.08,716.21,709.28,703.44,699.38,699.22,702.68,707.98,713.85,719.50,727.20,735.80,743.91,749.45,754.11,756.41,756.52,755.08,754.13,754.45,754.40,753.00,751.01,750.15,750.33,750.81,750.29,749.11,748.62,749.37,751.40,752.63,749.52,743.95,737.42,731.62,724.42,720.10,719.75,723.52,727.15,729.65,731.50,733.20,735.54,739.97,745.02,749.13,749.79,747.16,743.50,740.39,738.95,738.80,737.06,733.89,730.24,728.69,731.60,728.05,718.83,709.33,702.26,698.88,697.50,697.20,697.78,698.95,701.03,704.40,709.63,715.51,720.32,724.07,726.46,725.74,722.57,718.28,713.24,707.53,701.88
759.93,755.56,750.18,744.77,738.98,733.61,731.02,732.87,738.25,743.07,748.31,752.28,750.31,745.72,741.32,738.84,739.33,741.19,743.64,746.00,747.64,747.59,747.02,746.59,746.78,748.12,749.75,752.33,752.82,749.23,743.25,737.78,733.16,730.12,730.30,731.40,732.94,734.67,736.54,738.53,742.14,746.33,748.77,744.75,739.98,735.68,732.17,729.90,729.60,730.35,732.29,735.96,741.33,747.22,749.31,747.79,746.25,745.29,744.44,743.59,742.77,741.87,740.98,739.08,735.40,729.53,722.80,718.60,717.32,718.49,720.38,721.29,722.11,723.50,724.89,726.21,726.47,725.59,724.28,723.65,722.51,720.25,716.83,714.69,717.71,722.88,728.73,734.86,740.40,743.65,743.75,739.77,735.34,730.51,725.25,719.81,715.37,714.49,717.24,722.33,726.93,731.85,737.04,742.24,746.88,749.82,750.02,749.25,748.55,748.82,750.77,753.58,756.87,760.48,763.73,764.42,764.82,766.12,765.34,761.80,757.73,753.83,749.72,745.82,742.53,740.59,741.01,742.88,745.52,748.37,751.01,752.75,751.72,748.06,742.71,737.54,736.93,740.17,744.73,749.08,753.52,757.82,761.39,764.31,767.33,770.23,768.86,763.81,756.95,751.71,747.10,742.45,737.39,731.66,726.06,721.37,717.82,715.94,717.37,720.36,724.17,728.65,733.41,735.75,737.45,739.40,741.81,744.49,747.48,750.43,752.36,751.13,747.78,742.81,735.30,723.14,714.73,708.01,702.49,699.70,701.10,705.51,710.77,715.75,721.90,730.30,738.63,745.89,752.16,757.84,760.32,760.20,758.94,757.96,757.97,757.41,755.57,753.95,753.76,754.02,754.00,753.05,751.91,751.74,752.75,754.46,754.07,750.72,745.12,738.19,731.91,724.74,721.46,722.78,728.08,732.34,734.51,735.82,737.27,739.65,745.07,749.58,751.61,750.63,748.35,745.29,742.76,741.73,740.62,738.00,734.35,730.80,730.08,731.51,726.34,716.67,708.79,703.03,699.58,698.32,699.33,701.44,703.83,706.83,710.37,714.13,718.52,721.90,724.67,726.93,726.16,722.88,718.28,712.74,706.53,701.95
758.19,753.42,748.04,742.54,736.19,733.03,733.70,737.88,742.23,746.00,750.44,753.48,750.03,745.66,741.65,739.64,740.89,743.16,745.93,748.53,750.09,749.25,748.52,748.09,748.03,748.64,750.25,753.07,753.47,749.29,743.04,738.33,734.53,731.85,731.67,732.79,734.25,735.87,737.79,740.31,744.74,748.49,749.32,744.85,739.90,735.67,732.84,732.39,733.78,734.72,736.13,739.38,745.41,749.88,750.85,749.38,748.69,747.88,746.59,745.20,743.97,742.33,740.94,738.44,734.23,728.90,722.43,719.04,718.88,720.73,722.90,724.67,726.23,727.71,728.93,728.95,728.35,727.51,726.79,727.06,726.78,724.60,719.74,715.78,718.09,723.13,728.99,734.86,740.31,744.61,746.10,742.21,737.82,733.35,728.58,723.33,718.22,715.23,716.54,721.40,726.25,731.40,736.76,742.13,747.05,750.70,751.77,751.65,751.26,751.49,753.11,755.45,758.33,761.90,765.57,766.27,766.40,767.38,766.10,762.76,758.81,754.77,750.93,748.75,746.96,745.93,746.71,748.83,751.47,754.11,756.34,757.22,753.60,748.01,742.08,737.64,737.87,741.18,745.54,749.87,754.10,758.25,761.98,765.28,768.50,771.42,769.94,764.72,757.71,752.50,747.84,742.92,737.48,731.85,726.26,721.51,718.11,717.04,718.81,722.38,726.82,731.78,737.18,739.83,741.42,743.07,745.60,748.32,751.13,753.75,755.00,751.44,746.63,739.69,730.09,720.40,712.99,707.13,702.89,701.82,704.67,708.62,712.71,717.03,722.86,731.25,739.44,746.53,753.37,759.35,762.60,763.38,762.35,761.28,760.87,760.06,758.46,757.37,757.53,757.54,756.94,755.81,754.73,754.50,755.55,757.39,755.93,752.33,746.68,739.43,732.29,725.57,724.34,727.81,733.38,737.80,740.37,742.09,743.81,746.49,750.05,752.82,753.63,751.18,748.94,746.69,744.56,742.67,740.52,737.65,734.24,731.51,732.39,732.17,726.05,716.98,710.69,705.66,701.48,699.39,700.73,705.27,708.78,712.10,715.53,718.70,721.38,723.33,725.32,727.52,727.11,723.56,718.24,712.09,706.71,702.96
755.38,750.58,745.56,740.32,734.62,734.13,737.22,741.98,745.19,748.37,752.20,754.35,749.85,745.83,742.25,740.64,742.40,744.94,747.87,750.65,752.39,751.38,750.48,750.07,749.97,750.12,751.48,754.03,754.02,749.32,742.84,738.69,735.54,733.27,733.04,734.22,735.62,737.10,739.08,742.46,747.34,750.21,749.25,744.54,739.79,736.27,734.66,735.83,738.27,739.87,741.32,743.86,748.80,751.88,752.40,751.39,750.98,750.05,748.54,747.02,745.82,743.72,741.44,738.20,733.75,728.88,723.01,720.26,720.68,722.93,725.27,727.84,730.28,732.18,733.09,732.05,730.70,729.79,729.73,730.59,730.24,727.54,721.94,717.10,718.87,723.71,729.59,735.36,740.80,745.70,748.10,744.70,740.37,736.06,731.66,726.80,721.23,716.73,716.57,720.55,725.50,730.85,736.42,741.94,746.97,751.00,752.82,753.64,754.09,754.41,755.81,758.03,760.91,764.42,767.72,768.09,767.99,768.78,767.31,764.21,760.47,756.57,753.12,752.06,751.49,751.37,752.43,754.61,757.07,758.84,759.31,758.13,752.76,746.36,740.77,737.89,738.59,741.86,746.11,750.39,754.51,758.58,762.45,766.08,769.52,772.46,770.89,765.56,758.52,753.33,748.49,743.22,737.42,731.88,726.60,722.00,718.67,718.04,720.07,724.21,729.20,734.38,739.90,742.97,744.90,746.73,749.39,752.17,754.80,756.76,756.47,750.78,744.45,736.08,725.56,717.88,711.42,706.41,703.58,704.67,708.50,712.13,715.45,719.18,724.32,731.79,739.34,746.34,753.57,760.01,764.50,766.54,765.60,764.38,763.56,762.63,761.41,760.76,760.96,760.75,759.86,758.64,757.61,757.28,758.19,759.87,757.49,753.56,747.87,740.42,732.57,727.11,727.81,732.66,738.03,742.40,745.44,747.73,749.82,752.59,754.58,755.60,755.08,751.95,749.61,747.58,745.42,742.83,740.09,737.24,734.49,732.97,734.88,732.96,726.37,718.26,713.05,708.55,703.94,701.02,701.97,708.14,712.82,716.64,720.09,723.05,724.54,725.25,726.33,728.21,728.08,724.25,718.50,712.19,707.34,704.30
751.62,747.28,743.01,738.48,734.96,736.88,740.69,744.14,747.12,750.35,753.55,754.66,749.86,746.29,743.13,741.85,743.86,746.41,749.26,752.23,754.53,754.27,753.17,752.72,752.81,752.92,753.70,755.27,754.41,749.31,742.58,738.56,735.78,734.03,734.39,735.70,737.11,738.53,740.55,744.94,749.62,751.20,748.63,743.83,739.64,737.60,737.75,739.88,742.39,745.25,747.72,749.42,750.96,753.16,754.24,753.94,753.00,751.63,750.19,749.10,748.40,746.20,742.67,738.54,734.10,729.48,724.64,722.21,722.48,725.03,727.53,730.71,734.09,736.78,737.25,735.74,733.85,732.62,733.18,734.14,732.48,728.50,723.16,718.46,719.94,724.55,730.47,736.28,741.89,746.87,749.59,747.33,743.15,738.75,734.49,730.08,724.50,719.25,717.51,719.77,724.47,729.93,735.85,741.62,746.54,750.46,752.76,754.77,756.69,757.27,758.77,761.43,764.84,768.22,770.18,769.89,769.61,770.33,768.88,765.72,762.08,758.57,755.84,754.84,754.94,755.75,757.28,759.54,761.80,762.05,759.30,754.61,749.04,743.62,739.57,738.74,739.15,742.25,746.56,750.93,755.24,759.39,763.34,767.08,770.65,773.40,771.66,766.32,759.40,754.26,749.22,743.65,737.61,732.12,727.31,722.92,719.48,718.67,721.12,725.86,731.30,736.46,741.38,744.81,747.66,750.41,753.27,756.09,758.53,759.37,756.35,748.96,741.13,732.31,722.74,715.90,710.16,705.93,704.42,707.99,712.20,716.06,719.48,722.75,726.92,732.50,738.75,745.52,753.06,760.34,766.37,769.75,768.78,767.36,766.22,765.24,764.39,763.99,763.91,763.60,762.85,761.60,760.60,760.19,760.77,761.71,758.44,754.13,748.38,740.90,732.73,729.56,731.75,736.77,741.57,745.75,749.13,751.92,754.32,756.86,758.39,757.98,755.87,753.09,750.49,747.88,745.21,742.47,739.77,737.16,735.43,735.38,737.34,733.78,727.20,720.26,715.38,711.32,706.81,703.32,703.25,709.60,715.50,720.23,723.99,726.98,728.13,727.94,727.99,729.26,729.00,724.85,719.17,713.29,708.25,705.84
748.14,744.55,741.00,737.62,736.59,738.94,742.43,745.82,749.09,752.43,754.77,754.67,749.99,747.02,744.14,742.99,745.20,747.72,750.83,754.18,756.86,756.95,755.97,755.70,756.03,756.29,756.76,756.47,754.28,749.44,742.94,738.96,736.32,734.84,735.50,737.09,738.91,740.78,743.10,747.38,751.29,751.79,748.35,743.87,740.35,739.25,740.36,743.09,745.85,749.07,751.84,753.29,753.24,754.36,755.65,756.24,755.18,753.83,752.51,751.44,750.41,747.77,744.14,740.01,735.38,730.02,725.73,723.59,723.78,726.43,729.27,733.38,737.61,740.58,740.94,739.08,737.10,736.06,736.53,736.48,733.61,728.87,723.72,719.41,721.11,725.87,731.93,737.87,743.36,747.99,750.85,750.11,746.53,741.92,737.33,733.01,728.11,721.75,718.34,719.05,722.83,728.40,734.47,740.21,744.96,748.60,750.86,753.15,755.98,758.73,761.99,765.45,768.71,771.06,772.03,771.70,771.44,771.58,769.37,766.08,762.54,759.41,757.81,757.61,758.49,760.00,761.87,764.00,764.49,762.07,756.68,751.08,746.12,743.21,742.05,741.45,740.15,742.91,747.78,752.73,757.30,761.15,764.87,768.60,772.06,774.35,772.36,767.14,760.67,755.67,751.26,746.26,740.39,734.82,729.80,725.09,721.17,719.69,722.10,726.91,732.33,737.35,742.11,746.38,750.34,754.01,757.21,759.74,761.42,760.82,755.50,746.49,736.95,728.09,720.49,714.39,709.35,706.40,706.38,710.56,715.01,719.29,723.33,727.12,730.81,735.30,740.41,746.72,755.69,763.32,769.00,772.27,772.25,770.95,769.84,768.84,767.89,767.37,767.07,766.68,766.03,764.91,763.88,763.48,763.41,762.66,758.80,754.07,747.94,740.39,733.26,732.80,736.26,740.96,744.82,748.46,752.04,754.99,757.16,759.63,760.43,759.21,756.56,753.74,750.92,748.22,745.56,742.88,740.31,737.98,736.94,737.67,739.28,735.10,728.71,722.38,717.63,713.83,709.10,705.38,705.17,710.50,716.99,722.71,727.08,729.89,731.47,731.53,731.72,732.83,730.49,725.43,719.64,713.94,708.84,707.40
745.20,742.63,740.39,738.75,739.31,741.33,744.27,747.88,751.59,754.90,756.11,754.56,750.08,747.56,745.01,744.06,746.44,749.08,752.53,756.23,759.26,759.78,758.96,758.88,759.45,759.83,759.85,758.04,754.83,750.25,744.11,740.03,737.33,735.88,736.35,738.24,740.64,743.12,745.79,749.75,752.67,752.20,748.28,744.27,741.69,741.45,743.13,746.07,749.07,752.40,755.29,756.72,755.79,755.70,756.86,758.21,757.47,756.14,754.68,753.25,751.65,748.74,745.28,741.38,736.66,730.51,726.69,724.77,724.79,727.45,730.76,735.74,740.64,743.83,744.44,742.63,740.85,739.98,739.80,738.25,734.26,729.08,724.23,720.57,722.70,727.60,733.59,739.55,744.83,749.10,752.09,752.83,749.87,745.26,740.39,735.84,731.13,724.16,719.62,718.95,721.47,726.70,732.50,737.95,742.52,745.96,748.28,750.82,754.31,758.93,763.70,767.97,771.35,773.18,773.75,773.56,773.17,772.41,769.58,766.28,762.99,760.44,760.10,760.91,762.49,764.39,766.27,767.87,766.38,761.63,754.44,748.51,744.88,744.51,745.62,744.64,741.69,743.94,749.24,754.91,759.63,763.20,766.65,770.26,773.50,775.25,772.98,767.97,762.24,757.43,753.54,749.19,743.73,737.92,732.46,727.36,723.09,721.19,723.49,728.02,733.15,738.06,742.83,747.83,752.75,757.20,760.63,763.03,763.74,761.59,754.62,744.27,733.89,725.24,718.85,713.32,708.82,707.11,708.49,712.75,717.38,722.15,726.83,731.11,734.54,738.48,743.12,749.42,759.23,766.82,771.84,774.77,775.68,774.99,774.29,773.50,772.51,771.77,771.11,770.37,769.46,768.35,767.23,766.49,765.48,763.23,759.17,754.20,747.76,740.25,734.47,736.34,740.75,745.20,748.55,751.71,755.16,757.96,759.75,761.99,761.90,760.03,757.15,754.21,751.27,748.62,746.28,744.18,741.80,739.53,738.76,739.88,741.39,737.01,730.77,724.74,720.06,716.22,711.16,707.23,706.89,711.12,717.75,724.28,729.38,731.99,734.06,734.90,735.52,736.00,731.86,726.09,720.14,714.46,709.43,709.07
743.24,742.09,742.34,743.23,743.52,744.67,747.11,750.91,755.07,758.00,757.67,754.40,750.01,747.59,745.54,745.05,747.51,750.64,754.37,758.30,761.70,762.99,762.25,762.27,763.06,763.45,762.61,760.37,756.96,752.31,746.57,742.09,739.09,737.35,736.85,739.00,742.09,745.24,748.28,751.97,753.74,752.44,748.48,745.01,743.87,744.57,746.43,749.00,752.11,755.50,758.47,760.02,758.75,757.38,757.89,759.64,759.80,758.35,756.16,753.86,751.67,748.91,745.63,742.00,737.48,730.91,727.63,725.83,725.52,728.09,732.02,737.58,742.86,746.36,747.82,746.79,745.50,744.47,742.88,739.47,734.53,729.27,725.00,722.32,725.04,729.91,735.38,741.07,746.15,750.22,753.44,755.38,752.84,748.68,743.90,738.63,732.91,726.39,721.81,720.06,720.99,724.99,729.79,734.56,738.92,742.44,745.29,748.40,752.36,757.36,762.36,767.25,771.57,774.32,775.51,775.52,774.57,772.56,769.75,766.72,764.00,762.39,763.35,765.22,767.23,769.05,770.36,770.74,767.69,761.82,754.15,747.84,746.55,747.98,749.49,747.84,744.05,745.59,750.83,757.20,761.81,765.33,768.64,771.97,774.88,776.08,773.48,768.76,764.15,759.57,755.65,751.68,746.93,740.59,734.56,729.18,724.98,723.46,725.71,729.57,734.10,739.01,743.86,749.17,754.63,759.63,762.94,765.73,765.38,761.63,754.05,742.86,733.41,725.29,718.18,712.90,708.66,707.88,710.35,714.54,719.32,724.61,729.71,733.96,737.40,741.41,746.82,754.08,763.06,770.07,774.73,777.54,778.91,779.59,779.80,779.61,778.98,777.96,776.63,774.94,773.15,771.75,770.44,768.66,766.36,763.43,759.82,754.97,748.50,741.24,736.77,740.00,744.88,749.44,753.34,756.28,759.07,761.25,762.64,764.24,763.17,760.63,757.55,754.62,751.69,749.15,747.51,746.83,744.74,742.07,740.92,742.06,744.08,739.85,733.56,727.49,722.85,718.47,713.06,708.79,707.93,711.50,717.70,724.63,730.53,733.01,735.30,737.35,738.42,737.19,732.70,726.90,720.81,714.93,710.23,710.94
744.47,745.33,746.96,748.37,747.38,747.93,750.34,754.27,758.16,760.16,758.64,754.42,750.06,747.76,746.31,746.39,748.94,752.43,756.26,760.31,764.13,766.29,765.70,765.77,766.70,767.17,765.63,762.85,759.21,754.58,748.94,744.56,741.06,738.53,737.99,740.64,744.07,747.44,750.74,754.36,754.82,752.79,749.18,745.99,746.20,747.63,749.44,751.66,754.80,758.02,760.66,761.84,760.29,759.10,759.64,761.06,760.59,758.57,756.03,753.45,751.00,748.33,745.26,741.82,737.46,731.02,728.07,726.62,726.46,728.83,733.31,739.36,744.93,748.62,750.66,750.30,749.24,747.58,743.99,739.39,734.70,730.18,726.27,724.25,727.05,731.85,737.22,742.57,747.38,751.35,754.70,757.21,755.69,752.10,747.47,741.93,735.31,729.14,724.90,722.76,722.20,723.81,727.06,730.98,734.88,739.07,742.88,746.57,750.52,755.45,760.59,765.77,770.73,774.81,776.89,776.88,775.43,772.92,770.10,767.40,765.78,765.63,767.02,768.75,770.53,772.00,772.54,771.57,767.92,761.83,754.07,748.05,748.09,750.54,752.26,749.91,746.17,747.56,752.84,759.62,763.77,767.23,770.57,773.90,776.90,777.34,774.18,769.37,765.12,760.84,756.95,753.13,748.64,742.06,735.79,730.11,726.06,726.03,728.72,732.50,736.57,740.71,745.05,750.09,755.56,760.81,764.48,767.68,766.84,762.02,753.60,742.28,733.46,725.93,718.92,713.35,709.31,709.19,712.30,716.25,721.16,726.78,732.22,736.75,740.57,744.60,751.10,759.76,766.93,773.61,778.19,781.04,782.81,783.58,783.75,783.16,781.70,779.88,777.33,774.82,772.70,771.20,769.46,767.45,765.07,762.19,759.16,754.68,748.64,742.14,738.92,742.28,747.36,752.58,757.56,760.62,763.05,764.82,765.86,766.93,765.30,762.04,758.35,755.66,753.03,751.12,750.04,749.51,747.78,744.98,743.80,745.15,747.12,742.66,736.11,729.74,724.70,720.14,714.86,710.71,709.79,713.32,718.89,725.32,731.11,733.77,736.24,738.78,739.83,737.40,732.48,726.98,721.15,715.30,710.86,712.78
746.99,749.59,751.95,752.88,750.82,751.23,753.79,757.62,760.92,761.90,759.48,754.69,750.19,747.97,747.18,747.87,750.55,754.27,758.17,762.33,766.47,769.38,769.22,769.40,770.27,770.62,768.38,765.09,761.22,756.60,750.91,746.54,742.56,739.46,739.58,742.93,746.61,750.08,753.47,756.68,755.87,753.25,750.07,747.22,748.33,750.29,752.14,754.17,757.24,760.22,762.49,763.30,761.71,761.10,761.56,762.09,760.52,757.80,755.01,752.32,749.66,747.09,744.28,741.00,736.73,730.90,728.30,727.30,727.44,729.61,734.77,741.16,746.88,750.77,753.17,753.36,752.45,750.22,745.14,739.68,735.33,731.42,727.53,726.11,728.93,733.64,739.00,743.97,748.50,752.40,755.88,758.76,758.36,755.40,751.06,745.56,738.44,732.49,728.46,726.07,724.39,723.78,725.18,727.77,730.89,735.53,740.45,744.81,748.66,753.36,758.57,763.96,769.50,774.94,778.13,778.11,776.25,773.53,770.73,768.55,768.04,769.11,770.59,771.91,773.31,774.27,773.84,771.60,767.58,761.53,754.05,748.77,750.11,753.23,754.76,751.69,748.19,749.83,755.23,761.96,765.78,769.20,772.60,775.99,779.00,778.72,775.16,770.29,766.07,761.90,757.99,754.15,749.68,742.96,736.53,730.74,727.10,728.80,732.10,736.01,739.79,743.14,746.79,751.34,756.59,761.92,766.10,769.55,768.27,762.53,753.16,742.05,733.62,726.52,719.86,714.07,710.34,710.87,714.50,718.23,723.08,728.75,734.39,739.28,743.62,748.49,756.00,765.16,770.94,777.31,781.87,784.76,786.64,786.84,786.18,784.60,782.05,779.38,775.79,772.56,770.09,768.30,766.20,764.33,762.31,759.77,757.13,753.19,748.04,742.91,741.39,744.55,749.96,756.09,761.61,764.76,766.84,768.19,768.88,769.47,767.71,764.15,759.99,757.15,754.74,753.43,752.70,751.88,750.40,747.67,746.68,748.16,749.34,744.38,737.45,730.68,725.28,720.76,715.87,712.40,712.24,715.88,720.83,726.43,731.62,734.48,737.10,740.11,741.10,737.40,731.97,726.78,721.41,715.85,711.67,714.65
750.42,753.52,755.66,755.07,753.36,754.67,757.54,760.67,763.09,763.24,760.48,755.56,750.43,748.20,748.06,749.45,752.33,756.04,760.07,764.39,768.65,771.78,772.81,773.31,773.65,773.15,770.15,766.47,762.43,757.72,751.78,746.80,742.52,739.94,741.89,746.31,750.34,753.88,757.07,758.62,756.83,753.96,751.13,748.92,749.73,751.81,754.17,756.43,759.27,761.99,764.13,765.08,764.01,763.87,763.42,762.03,759.34,755.85,752.84,750.01,746.96,744.56,742.20,738.95,734.64,730.34,728.40,727.91,728.38,730.40,736.69,743.05,748.57,752.84,755.16,755.67,754.90,752.70,748.08,742.09,737.38,732.99,728.29,727.57,730.68,735.39,740.53,745.08,749.37,753.24,756.87,760.13,760.59,758.38,754.65,749.71,743.16,737.15,732.64,729.71,727.95,726.58,725.76,725.82,727.46,731.36,737.44,742.80,746.60,751.07,756.19,761.85,768.05,774.63,779.27,779.45,777.37,774.71,772.04,770.89,771.05,772.12,773.46,774.67,775.85,776.10,774.23,771.15,766.49,760.53,754.08,750.17,753.63,757.07,757.44,753.59,750.13,752.69,758.35,764.02,768.09,771.60,775.00,778.27,780.80,780.11,776.79,772.28,767.77,763.09,758.96,754.91,750.12,743.19,736.60,731.26,728.73,731.87,735.82,740.04,743.88,746.98,749.94,753.98,758.74,763.85,768.60,771.85,769.84,763.05,752.70,742.10,733.63,726.48,720.17,714.80,711.83,713.13,717.32,721.07,725.28,730.44,735.91,741.11,746.11,754.23,762.19,768.84,775.27,781.28,785.65,788.48,789.70,788.50,785.59,782.17,778.81,775.55,771.87,768.21,764.84,762.07,760.06,758.62,757.18,755.17,752.29,749.11,745.79,743.47,744.95,748.02,754.38,761.58,765.69,768.55,770.04,770.79,771.13,771.19,770.17,767.59,763.68,759.41,756.75,755.47,754.58,753.29,751.71,749.39,748.88,750.11,748.89,742.99,735.48,728.29,722.99,718.87,714.72,713.11,715.65,719.29,723.88,728.44,732.41,735.27,737.97,742.01,743.26,737.63,731.56,726.49,721.72,716.97,713.14,716.67
