1190.89,1185.25,1178.53,1172.30,1166.29,1158.90,1150.22,1141.83,1138.76,1138.00,1136.93,1134.75,1131.48,1128.17,1126.21,1125.63,1126.28,1127.05,1127.31,1127.31,1127.37,1127.90,1129.20,1133.32,1139.25,1145.15,1151.35,1157.39,1165.81,1178.14,1192.14,1202.00,1207.52,1207.86,1200.33,1189.70,1180.61,1172.87,1165.45,1158.24,1151.99,1146.91,1142.69,1138.12,1134.39,1130.83,1127.14,1123.06,1117.60,1112.24,1106.69,1100.93,1096.40,1092.67,1087.87,1082.06,1076.71,1071.75,1066.93,1062.38,1058.23,1053.68,1049.73,1046.56,1043.88,1040.71,1037.69,1035.24,1033.14,1030.98,1028.77,1028.07,1027.59,1026.36,1024.91,1023.95,1023.59,1023.45,1022.79,1022.34,1021.30,1019.58,1017.22,1014.74,1012.53,1010.33,1008.63,1009.46,1014.75,1019.97,1023.42,1024.32,1023.66,1020.82,1016.03,1010.37,1008.19,1009.14,1012.70,1018.52,1025.89,1030.88,1033.52,1036.52,1041.83,1044.26,1046.63,1049.63,1052.84,1054.25,1053.37,1051.09,1047.74,1043.29,1039.10,1035.19,1030.83,1025.29,1018.65,1012.14,1005.36,998.44,992.29,987.77,984.31,982.11,981.77,982.05,981.67,981.43,981.46,980.50,979.35,978.97,979.13,979.06,978.99,978.51,977.51,975.92,973.90,971.50,969.29,967.36,965.51,963.80,962.25,960.94,960.04,959.38,957.91,955.96,953.79,951.60,948.75,945.33,943.31,945.84,945.68,945.86,947.16,949.59,951.86,953.74,955.25,956.86,959.63,962.55,965.49,968.68,972.64,977.63,981.36,984.19,986.56,988.75,989.53,987.22,982.51,977.37,971.32,965.82,960.74,955.75,950.85,945.72,941.14,938.38,939.65,941.76,943.60,944.81,945.13,944.80,944.34,943.72,942.84,941.70,939.92,937.27,934.00,930.69,927.00,923.02,919.13,916.42,917.74,920.01,922.39,924.74,927.16,929.01,930.19,930.79,930.75,930.35,929.03,927.25,925.70,925.92,926.99,927.79,928.51,930.04,929.55,927.55,926.55,928.25,928.52,928.02,928.32,930.41,935.06,941.34,948.49,955.84,962.60,968.43,972.99,977.08,981.25,985.50,989.49,993.38,997.23,1001.06,1005.06,1008.82,1011.80,1012.98,1011.04,1007.56,1003.69,999.27,992.87,986.88
1196.13,1190.01,1182.09,1175.19,1169.41,1163.08,1155.92,1148.80,1144.94,1143.78,1142.68,1140.84,1138.24,1134.76,1132.51,1131.84,1132.71,1133.45,1133.98,1134.37,1135.13,1137.47,1140.01,1143.95,1148.78,1153.58,1158.88,1165.49,1174.48,1186.31,1198.58,1207.12,1209.32,1205.13,1195.67,1187.07,1178.77,1170.75,1163.04,1155.02,1148.56,1143.30,1138.96,1135.15,1131.56,1127.85,1124.26,1120.78,1114.21,1107.41,1101.58,1097.19,1093.56,1089.67,1084.57,1078.83,1074.29,1069.70,1064.95,1060.40,1056.41,1052.41,1049.20,1047.34,1046.12,1042.74,1039.51,1037.10,1035.02,1032.43,1030.19,1029.91,1029.76,1028.48,1026.96,1026.44,1026.56,1026.91,1026.89,1026.95,1026.47,1024.41,1020.13,1017.13,1014.60,1012.07,1009.98,1010.29,1015.57,1020.91,1024.91,1027.34,1027.30,1024.17,1018.93,1013.12,1011.03,1012.00,1015.34,1021.04,1029.23,1034.29,1038.55,1042.89,1047.19,1049.76,1051.81,1054.06,1056.23,1056.67,1054.52,1051.64,1048.34,1044.04,1039.95,1035.77,1031.06,1025.32,1018.42,1011.35,1004.59,998.25,992.51,988.61,985.69,983.69,983.11,983.66,983.47,983.14,982.83,981.70,981.19,980.98,980.81,980.57,980.42,979.91,978.93,977.35,975.07,972.49,970.17,968.27,966.68,965.14,963.65,962.44,961.70,960.50,958.69,956.59,954.38,952.17,949.33,946.96,946.42,949.16,948.40,947.63,948.25,950.71,953.22,955.46,957.51,959.64,962.51,965.39,968.70,972.79,977.81,981.75,984.88,987.56,989.91,991.81,990.86,986.96,981.24,975.50,969.48,963.71,958.48,953.97,949.78,945.43,941.71,939.85,941.90,944.50,946.30,947.22,947.37,947.04,946.08,944.79,943.34,941.83,939.86,936.98,933.48,930.06,926.71,922.92,919.85,918.91,919.86,921.42,923.24,925.37,927.97,930.25,931.81,932.55,932.31,931.55,930.45,928.86,927.37,928.61,930.08,930.86,931.31,932.55,932.51,930.88,930.19,932.42,933.86,933.27,932.88,933.61,935.32,940.50,947.60,955.47,963.16,969.22,974.42,979.44,984.40,988.80,992.65,996.44,1000.31,1004.24,1008.38,1013.09,1016.66,1016.83,1013.56,1009.07,1004.49,999.66,993.16,986.88
1199.01,1194.38,1186.00,1177.66,1172.00,1166.21,1160.05,1154.34,1151.30,1150.08,1148.71,1146.69,1144.19,1141.52,1139.94,1139.57,1140.25,1140.84,1141.91,1143.38,1145.37,1148.27,1151.07,1154.38,1158.67,1164.27,1169.08,1174.28,1181.75,1192.18,1202.71,1209.06,1208.59,1202.18,1193.09,1185.87,1177.98,1169.70,1161.62,1152.88,1146.60,1141.41,1136.66,1132.39,1128.51,1124.57,1120.71,1116.80,1109.95,1103.21,1097.74,1093.84,1090.37,1086.20,1081.46,1076.67,1072.61,1068.31,1063.80,1059.49,1055.83,1052.74,1050.62,1049.60,1048.83,1045.47,1041.76,1038.77,1036.23,1033.59,1032.06,1031.96,1031.66,1030.31,1029.19,1029.46,1030.48,1031.75,1032.76,1032.97,1031.87,1029.32,1025.33,1021.64,1017.96,1014.70,1012.35,1011.86,1016.56,1021.75,1026.15,1029.65,1030.37,1027.32,1021.99,1016.29,1014.41,1015.29,1018.75,1024.67,1032.47,1037.56,1042.83,1048.15,1052.33,1055.01,1056.60,1057.92,1058.87,1058.11,1055.20,1051.88,1048.49,1044.59,1040.80,1036.41,1031.33,1025.38,1018.38,1011.22,1004.69,998.91,993.60,989.73,986.92,985.02,984.37,985.22,985.22,984.75,984.03,982.89,982.55,982.33,982.02,981.72,981.52,980.97,980.07,978.69,976.41,973.73,971.19,969.09,967.72,966.35,964.96,963.67,962.55,960.99,959.02,956.88,954.68,952.44,949.57,947.98,948.52,951.28,950.31,949.17,949.47,951.77,954.34,956.90,959.48,962.16,965.15,968.54,972.70,977.37,981.98,985.32,988.19,990.76,992.80,993.83,991.26,986.04,979.58,973.71,968.20,962.91,958.07,953.94,950.05,946.41,943.60,942.61,945.02,947.42,948.89,949.43,949.12,948.24,946.82,945.15,943.38,941.66,939.45,936.38,932.76,929.38,926.25,922.95,920.69,920.73,921.57,923.06,924.79,926.62,928.60,930.92,932.98,934.24,934.11,933.44,932.31,930.62,929.13,930.80,932.73,933.89,934.52,935.53,935.76,935.06,934.97,936.88,939.11,939.17,938.86,938.85,938.75,941.20,947.17,955.25,963.05,968.88,974.55,980.40,986.17,991.06,995.14,999.09,1003.09,1007.16,1012.37,1017.38,1020.33,1019.22,1015.13,1010.20,1005.24,1000.06,993.65,987.31
1199.48,1197.84,1190.20,1180.40,1174.52,1168.97,1163.75,1159.87,1158.76,1158.13,1156.69,1154.36,1151.70,1150.24,1149.72,1149.69,1149.88,1150.21,1151.98,1154.70,1157.79,1160.28,1162.59,1164.96,1168.76,1175.41,1179.78,1182.74,1187.73,1196.22,1204.71,1208.40,1206.18,1199.61,1192.21,1185.77,1177.97,1169.43,1160.90,1151.62,1145.73,1140.75,1135.48,1130.13,1125.70,1121.47,1117.11,1112.24,1105.77,1099.96,1095.04,1090.93,1087.14,1082.75,1078.75,1075.23,1071.47,1067.40,1063.29,1059.44,1056.33,1054.30,1053.16,1052.38,1051.17,1047.94,1043.70,1039.96,1036.95,1034.74,1034.23,1034.04,1033.31,1031.98,1031.70,1033.02,1035.09,1037.40,1039.39,1039.58,1037.32,1034.20,1031.47,1027.19,1022.20,1018.03,1015.31,1013.82,1017.63,1022.52,1027.20,1031.41,1033.03,1030.33,1025.17,1019.78,1018.13,1018.91,1022.70,1028.99,1035.74,1040.86,1046.78,1052.76,1057.11,1059.72,1060.67,1060.95,1060.60,1058.61,1055.29,1051.70,1048.18,1044.76,1041.33,1036.82,1031.45,1025.34,1018.38,1011.47,1005.33,1000.02,995.16,991.06,988.09,986.20,985.59,986.72,986.91,986.25,985.12,984.18,983.72,983.38,983.03,982.69,982.45,981.84,981.00,979.89,977.84,975.16,972.38,969.97,968.67,967.43,966.11,964.62,962.88,961.09,959.09,956.97,954.79,952.53,949.71,948.65,949.84,952.52,951.85,950.83,951.01,953.08,955.45,958.17,961.26,964.58,967.85,972.13,977.16,981.97,985.47,988.59,991.44,993.88,995.46,995.11,991.05,984.84,977.97,972.22,967.42,962.97,958.79,954.96,951.28,948.33,946.36,946.02,948.44,950.33,951.19,951.05,949.86,947.98,946.19,944.44,942.66,940.95,938.59,935.43,931.86,928.61,925.63,923.17,921.87,922.26,922.98,924.75,926.71,928.33,929.38,931.44,933.93,935.88,936.12,935.80,934.47,932.48,930.93,932.77,935.15,936.93,938.07,939.02,939.49,939.93,940.57,941.80,944.30,945.25,945.40,945.13,944.30,943.69,947.82,955.34,962.67,968.10,974.05,980.45,986.78,992.23,996.80,1001.17,1005.53,1010.08,1016.60,1021.41,1023.12,1020.74,1016.16,1011.12,1005.94,1000.49,994.34,988.14
1195.46,1197.97,1194.53,1185.29,1177.83,1172.59,1169.96,1170.07,1171.02,1172.56,1172.65,1171.11,1168.86,1167.67,1167.09,1166.67,1166.25,1166.06,1168.47,1171.28,1173.42,1174.90,1176.29,1177.67,1179.63,1182.83,1185.58,1188.19,1192.25,1198.14,1202.93,1204.76,1203.07,1198.61,1192.80,1186.64,1178.84,1170.01,1160.80,1151.51,1145.80,1140.89,1135.44,1129.59,1124.78,1120.05,1115.09,1109.85,1104.22,1098.90,1093.86,1089.10,1084.69,1080.61,1077.01,1073.80,1070.55,1066.85,1063.26,1060.30,1058.41,1057.02,1055.46,1053.46,1050.86,1047.57,1043.35,1039.85,1037.62,1036.89,1036.63,1035.85,1034.66,1033.76,1035.01,1037.49,1040.26,1042.83,1044.57,1044.77,1042.40,1038.75,1035.13,1031.26,1026.63,1021.99,1017.94,1015.50,1018.57,1023.19,1027.97,1032.64,1035.42,1033.26,1028.50,1023.67,1021.98,1023.01,1026.98,1033.13,1039.24,1044.56,1051.41,1057.71,1060.60,1062.52,1062.62,1061.80,1060.24,1057.45,1053.89,1050.33,1046.98,1043.77,1040.40,1035.99,1030.74,1024.74,1018.04,1011.71,1005.99,1000.91,996.44,992.52,989.47,987.42,986.84,988.12,988.36,987.51,986.15,985.89,985.39,984.82,984.24,983.70,983.37,982.64,981.71,980.64,979.13,976.66,973.89,971.35,969.62,968.38,966.91,965.13,963.14,961.20,959.19,957.08,954.87,952.67,950.37,949.63,950.71,953.13,954.25,953.84,953.83,955.59,957.15,959.35,962.74,967.10,971.36,976.74,981.51,985.50,988.93,991.93,994.68,997.17,998.50,996.05,990.68,984.18,977.57,971.85,967.28,963.13,959.22,955.73,953.02,950.98,949.35,948.72,950.65,952.57,952.47,950.51,947.35,944.07,942.08,940.72,939.53,938.44,936.36,933.64,930.60,927.58,924.81,923.99,924.25,924.53,924.31,926.06,928.46,930.48,931.21,932.88,935.25,937.49,938.39,938.24,936.68,934.33,932.60,935.04,937.76,940.16,942.11,943.39,944.40,945.43,946.61,948.02,949.69,950.58,950.91,950.88,950.69,950.14,951.96,956.38,962.73,968.13,974.08,980.17,985.95,991.35,996.56,1001.78,1007.31,1013.64,1019.90,1024.19,1025.42,1022.53,1017.66,1012.21,1006.67,1001.10,995.39,989.63
1189.39,1193.95,1194.07,1188.26,1181.27,1176.76,1175.86,1178.54,1181.47,1184.03,1184.80,1183.88,1182.31,1180.96,1179.93,1179.20,1178.81,1178.74,1180.69,1182.73,1184.10,1185.26,1186.48,1187.74,1189.07,1190.55,1192.21,1194.20,1196.98,1200.42,1202.65,1203.31,1202.11,1199.16,1194.57,1188.90,1180.99,1171.57,1161.53,1151.99,1146.01,1140.94,1135.49,1129.56,1124.41,1119.38,1114.30,1109.24,1104.22,1099.18,1094.15,1089.19,1084.51,1080.49,1077.17,1074.28,1071.26,1067.98,1064.86,1062.32,1060.63,1058.82,1056.46,1053.54,1050.21,1046.93,1043.61,1040.94,1039.36,1039.22,1038.73,1037.43,1036.23,1036.38,1039.61,1043.10,1046.17,1049.08,1052.27,1052.13,1049.32,1045.19,1040.60,1035.50,1030.63,1025.67,1020.80,1017.52,1019.71,1024.23,1029.41,1034.34,1038.13,1036.30,1031.82,1027.62,1025.87,1026.89,1030.84,1036.82,1042.56,1048.24,1055.17,1061.20,1063.66,1064.79,1064.03,1062.17,1059.49,1055.95,1052.01,1048.09,1044.44,1041.36,1038.15,1034.03,1029.09,1023.39,1017.28,1011.45,1006.03,1001.15,997.03,993.30,990.28,988.47,988.58,990.01,989.96,988.80,987.48,987.74,987.23,986.45,985.64,984.86,984.36,983.45,982.33,981.21,980.03,977.90,975.37,972.84,970.83,969.30,967.58,965.63,963.60,961.59,959.84,958.06,956.04,953.65,951.43,950.87,951.96,954.03,956.10,956.53,956.89,958.45,959.76,961.74,965.34,970.45,975.68,981.05,985.32,988.83,992.20,995.18,997.96,1000.17,1000.62,996.76,990.71,984.22,977.95,972.33,967.79,963.86,960.40,957.55,955.36,953.51,952.00,951.36,952.80,953.96,952.97,949.66,944.54,940.98,939.54,938.52,937.02,935.35,933.54,931.35,928.99,927.08,925.70,926.04,926.94,927.10,926.32,927.30,929.58,932.24,933.50,934.61,936.65,939.04,940.42,940.36,938.78,936.23,934.24,937.10,940.61,943.86,946.47,948.03,949.38,950.75,952.20,953.67,954.81,955.53,955.92,956.18,956.77,956.77,957.30,959.29,963.81,969.02,974.73,980.54,986.20,991.49,996.66,1002.55,1009.33,1016.73,1022.71,1026.75,1027.73,1024.31,1019.01,1013.42,1007.84,1002.35,997.12,991.95
1182.18,1186.66,1189.11,1188.48,1184.05,1180.84,1180.86,1184.56,1189.14,1191.70,1192.35,1191.82,1191.07,1189.45,1187.91,1187.08,1187.33,1187.91,1188.63,1189.41,1190.37,1191.78,1193.40,1195.10,1196.82,1198.45,1199.62,1200.64,1201.86,1203.30,1204.31,1204.40,1203.32,1200.96,1197.05,1192.02,1183.89,1173.73,1162.87,1152.93,1146.25,1140.78,1135.42,1129.76,1124.37,1119.28,1114.50,1110.03,1105.37,1100.55,1095.76,1091.12,1086.53,1082.36,1079.13,1076.50,1073.41,1070.46,1067.61,1064.96,1062.50,1059.53,1056.33,1053.04,1049.74,1046.72,1044.94,1043.41,1042.15,1041.61,1040.53,1038.88,1038.13,1039.89,1045.17,1049.45,1052.79,1056.40,1061.75,1060.77,1057.07,1052.46,1047.15,1039.73,1034.06,1028.93,1023.85,1019.90,1021.21,1025.78,1031.53,1036.53,1040.97,1039.39,1035.22,1031.65,1029.89,1030.61,1034.29,1040.10,1045.67,1051.81,1058.23,1063.70,1066.53,1066.73,1065.03,1062.23,1058.58,1054.40,1049.88,1045.20,1040.95,1037.95,1034.98,1031.20,1026.61,1021.36,1016.01,1010.65,1005.50,1000.86,997.12,993.56,990.80,989.63,990.86,992.35,991.69,990.17,989.02,989.63,989.05,988.09,987.10,986.14,985.43,984.30,982.97,981.71,980.61,978.87,976.66,974.27,972.17,970.17,968.18,966.21,964.27,962.36,961.08,959.84,958.06,955.29,952.90,952.57,953.88,955.44,957.49,958.86,960.03,961.57,963.17,965.26,969.02,974.54,980.44,984.91,988.66,992.06,995.31,998.36,1001.29,1002.92,1001.97,997.37,991.19,984.92,979.02,973.55,968.89,965.18,962.31,960.19,958.02,955.80,954.32,954.02,954.93,954.62,952.84,948.83,942.14,939.55,939.19,938.32,935.67,932.32,930.63,929.04,927.54,927.39,928.12,929.02,929.71,929.86,928.95,928.56,930.22,933.67,936.08,936.55,938.10,940.50,942.14,942.18,940.71,938.10,935.84,938.79,943.52,947.79,950.90,952.74,954.30,955.84,957.33,958.66,959.69,960.24,960.59,961.12,962.44,963.04,963.30,963.90,966.04,970.71,975.95,981.58,987.48,992.63,997.29,1003.62,1011.55,1019.12,1025.02,1029.11,1030.00,1026.03,1020.24,1014.76,1009.43,1004.19,999.43,994.91
1176.06,1179.71,1182.38,1183.50,1182.38,1181.93,1183.68,1187.94,1192.55,1196.06,1197.53,1197.49,1197.22,1196.41,1195.34,1194.98,1196.01,1196.91,1197.52,1198.06,1198.69,1199.54,1200.48,1201.43,1202.42,1203.45,1203.96,1204.63,1205.49,1206.49,1207.27,1207.38,1205.99,1202.97,1198.43,1193.45,1185.10,1174.66,1163.89,1154.24,1146.56,1140.28,1134.95,1129.72,1124.47,1119.63,1115.23,1111.15,1106.95,1102.71,1098.62,1094.65,1090.32,1086.24,1082.49,1078.99,1075.60,1072.23,1068.93,1065.66,1062.38,1059.27,1056.21,1053.15,1050.42,1048.88,1048.13,1047.01,1045.55,1044.14,1042.27,1040.54,1040.71,1044.21,1050.23,1054.70,1060.04,1065.69,1067.60,1064.50,1059.50,1054.18,1048.89,1042.12,1036.65,1031.56,1026.52,1022.57,1023.86,1028.32,1033.91,1038.73,1042.74,1042.17,1039.30,1036.27,1034.64,1034.70,1037.74,1043.15,1048.54,1054.83,1062.19,1068.19,1069.79,1068.26,1065.09,1061.36,1057.47,1053.38,1047.76,1042.45,1038.21,1035.39,1032.51,1028.35,1023.59,1018.77,1013.72,1009.32,1004.89,1000.64,997.64,994.53,992.80,992.64,993.82,994.65,993.37,991.55,990.51,991.33,990.24,988.92,987.98,987.33,986.60,985.42,984.04,982.67,981.26,979.44,977.32,975.06,972.84,970.81,968.87,966.96,965.13,963.88,963.15,961.82,959.35,956.53,954.99,955.81,957.62,957.84,959.69,961.56,963.32,965.13,966.91,969.08,973.09,978.80,984.01,988.28,991.91,995.27,998.55,1001.77,1004.64,1005.79,1003.89,998.45,992.23,986.29,980.75,975.40,970.49,967.01,964.42,962.14,959.88,957.61,956.45,956.53,956.54,954.90,952.50,948.37,941.89,941.45,941.69,940.31,936.54,931.70,929.54,928.82,928.92,929.79,930.58,931.30,932.04,932.56,931.69,930.14,931.30,935.45,938.63,938.74,939.62,941.57,943.45,944.09,942.31,939.43,937.35,939.70,945.55,950.82,954.44,956.96,959.01,960.87,962.47,963.63,964.44,964.88,965.20,965.87,967.74,968.73,969.08,969.27,970.14,973.22,977.75,982.93,988.25,993.18,997.92,1004.73,1013.12,1020.20,1026.29,1030.62,1031.64,1027.65,1021.76,1016.32,1011.25,1006.42,1001.91,997.68
1170.61,1173.49,1175.85,1177.69,1179.04,1180.74,1183.63,1187.98,1192.57,1196.99,1199.63,1200.64,1201.17,1201.62,1201.53,1201.82,1203.23,1204.44,1205.31,1205.97,1206.51,1207.05,1207.60,1208.07,1208.39,1208.50,1208.47,1208.69,1209.29,1210.10,1210.21,1209.40,1206.99,1203.14,1198.55,1193.81,1185.80,1175.42,1164.32,1155.13,1146.86,1140.09,1134.93,1130.30,1125.47,1120.96,1116.88,1113.14,1109.39,1105.68,1102.09,1098.41,1093.86,1089.27,1084.72,1080.44,1076.83,1073.15,1069.51,1065.82,1062.09,1058.94,1056.41,1054.06,1052.06,1051.38,1051.14,1050.11,1048.36,1046.38,1044.11,1043.39,1044.97,1049.38,1055.67,1060.53,1066.55,1072.14,1071.15,1066.54,1060.70,1054.90,1049.67,1044.05,1039.08,1034.14,1029.14,1025.16,1026.13,1030.47,1036.31,1041.74,1045.57,1045.68,1043.65,1041.02,1039.65,1039.64,1042.13,1046.72,1051.68,1058.63,1066.34,1071.89,1072.09,1069.14,1064.85,1060.49,1056.48,1052.47,1045.89,1040.13,1035.97,1032.93,1029.65,1025.15,1020.42,1016.07,1011.38,1007.80,1004.20,1000.66,998.54,996.73,996.12,996.42,997.04,997.00,995.15,993.15,992.22,993.01,991.53,989.96,989.03,988.67,987.85,986.56,985.03,983.41,981.66,979.72,977.67,975.56,973.37,971.42,969.57,967.85,966.50,965.90,965.19,963.36,960.23,957.47,956.91,958.66,960.89,960.72,962.45,964.53,966.68,968.92,970.88,973.22,977.27,982.75,987.42,991.62,995.26,998.61,1001.97,1005.32,1008.02,1008.63,1005.89,999.79,993.52,987.79,982.51,977.38,972.49,968.96,966.31,964.00,961.76,959.68,958.73,958.62,957.25,954.29,951.07,947.48,943.65,944.64,943.90,941.10,936.71,932.06,930.04,930.19,931.51,932.52,933.07,933.56,934.33,935.33,935.18,932.93,933.09,936.72,940.37,941.07,941.87,943.41,945.21,946.17,944.29,941.16,938.85,940.68,947.10,953.13,957.50,961.00,963.78,966.02,967.75,968.81,969.37,969.74,969.95,970.43,972.32,973.61,974.37,974.77,975.17,976.79,980.28,984.76,989.67,994.65,999.53,1006.26,1014.29,1020.94,1027.29,1031.91,1033.11,1029.17,1023.42,1018.04,1013.14,1008.60,1004.13,999.89
1165.79,1168.17,1170.10,1172.13,1174.64,1177.31,1180.44,1184.36,1189.13,1194.16,1198.10,1200.76,1202.52,1204.48,1205.84,1207.04,1208.61,1210.29,1211.66,1212.70,1213.46,1214.09,1214.76,1215.29,1215.27,1214.37,1213.89,1213.42,1213.47,1213.86,1212.45,1209.54,1205.46,1200.96,1197.30,1193.20,1186.15,1176.09,1164.05,1155.39,1147.25,1140.52,1135.63,1131.70,1127.53,1123.39,1119.53,1116.12,1112.69,1109.30,1105.75,1101.65,1096.33,1090.41,1084.96,1080.37,1076.72,1073.12,1069.44,1065.72,1062.11,1058.92,1057.20,1055.90,1054.64,1053.83,1053.55,1052.38,1050.40,1048.28,1046.16,1047.62,1051.02,1055.41,1061.72,1067.31,1072.01,1074.74,1072.72,1067.63,1061.59,1055.65,1050.42,1045.86,1041.50,1036.82,1031.81,1027.65,1027.69,1031.91,1038.76,1045.95,1050.15,1050.32,1048.36,1045.88,1044.92,1045.58,1047.69,1050.97,1055.31,1063.71,1070.68,1074.22,1073.11,1069.27,1064.42,1059.77,1055.68,1051.56,1044.38,1038.42,1034.21,1030.47,1026.22,1021.67,1017.35,1013.50,1009.44,1006.50,1003.72,1001.14,1000.02,1000.33,1000.64,1000.64,1000.31,999.31,997.02,994.98,994.21,994.70,993.16,991.51,990.51,990.22,989.13,987.60,985.79,983.78,981.75,979.76,977.83,975.90,973.91,972.09,970.31,968.93,968.44,968.31,967.01,964.38,960.80,958.18,958.49,960.68,963.15,963.93,965.70,967.75,970.15,972.93,975.11,977.70,981.48,986.29,990.91,995.08,998.73,1002.13,1005.57,1008.95,1011.33,1011.31,1007.80,1001.30,994.99,989.30,984.14,979.36,974.84,970.98,967.95,965.88,963.86,962.12,961.07,960.11,956.98,952.68,948.64,946.35,947.33,948.35,944.95,940.11,936.09,933.59,932.48,933.29,934.98,935.18,935.59,935.93,936.63,938.08,939.35,937.06,935.69,937.30,941.05,943.32,944.84,946.17,947.56,948.44,946.81,943.54,940.48,942.08,948.35,954.82,960.19,964.87,968.59,971.31,973.19,974.24,974.59,974.91,974.88,974.81,976.16,977.71,979.13,980.24,980.87,981.54,983.64,987.18,992.06,997.42,1002.39,1008.39,1015.28,1021.67,1028.30,1033.22,1034.53,1030.59,1025.18,1019.89,1015.05,1010.59,1005.98,1001.35
1161.31,1163.82,1165.89,1167.99,1170.55,1173.38,1176.47,1179.97,1184.04,1188.84,1193.17,1196.71,1199.48,1202.26,1205.60,1209.50,1213.71,1217.18,1219.30,1220.91,1222.10,1222.17,1222.36,1222.41,1222.11,1221.24,1220.16,1218.62,1216.89,1214.75,1210.93,1206.66,1202.39,1198.51,1195.53,1192.32,1185.48,1175.26,1163.28,1155.56,1148.58,1142.31,1137.14,1133.31,1129.48,1125.61,1121.97,1118.85,1115.16,1111.28,1106.52,1100.61,1094.99,1087.85,1082.19,1078.48,1075.43,1072.28,1068.97,1065.85,1063.25,1060.93,1059.76,1058.66,1057.31,1056.32,1056.04,1055.07,1053.16,1050.63,1048.99,1051.42,1055.96,1061.42,1068.15,1074.05,1077.54,1078.02,1075.09,1069.71,1063.18,1057.04,1052.43,1048.19,1044.08,1039.68,1034.93,1030.66,1029.28,1033.27,1041.84,1052.33,1056.83,1056.88,1054.52,1051.40,1051.08,1051.92,1053.04,1055.03,1060.26,1070.66,1076.38,1076.95,1073.81,1069.16,1063.72,1058.77,1054.69,1050.37,1043.52,1037.58,1032.89,1028.27,1023.35,1019.48,1015.97,1012.44,1009.92,1008.49,1006.19,1003.55,1003.71,1004.07,1004.03,1003.46,1002.27,1000.72,998.29,996.52,996.20,996.51,995.35,993.84,992.57,991.70,990.02,988.13,986.16,984.11,982.04,980.30,978.50,976.62,974.97,973.29,971.63,970.42,970.17,970.17,968.71,965.78,961.91,959.29,960.09,962.50,965.11,966.66,968.57,971.11,974.11,977.25,979.77,982.05,985.41,990.05,994.78,998.78,1002.23,1005.50,1008.85,1011.97,1013.68,1012.96,1009.03,1002.73,996.48,990.75,985.63,981.22,976.89,973.04,969.94,967.82,966.00,964.08,962.40,960.47,956.55,951.38,948.84,948.87,949.94,948.83,944.10,940.80,940.91,939.64,938.60,938.34,938.42,937.82,937.96,938.27,938.71,939.58,941.33,940.22,938.38,937.86,940.97,943.91,946.34,948.25,949.51,950.54,949.34,946.34,943.29,945.22,950.75,956.95,962.85,968.35,972.86,976.25,978.62,979.85,980.12,980.10,979.73,979.42,980.61,982.45,984.06,985.25,986.03,986.50,987.68,990.25,994.69,1000.28,1005.70,1011.43,1017.50,1023.58,1030.49,1035.20,1036.08,1031.93,1026.77,1021.43,1016.55,1012.15,1007.41,1002.13
1156.57,1159.26,1161.75,1164.14,1166.59,1169.44,1172.55,1175.84,1179.30,1183.58,1188.01,1192.17,1195.74,1199.31,1204.22,1210.20,1216.46,1221.14,1224.18,1226.83,1228.97,1229.19,1229.46,1229.58,1229.32,1228.21,1225.74,1222.53,1218.56,1213.69,1208.27,1203.28,1199.10,1195.79,1193.29,1190.16,1183.55,1173.91,1162.87,1155.83,1149.65,1143.56,1137.93,1134.03,1130.30,1126.60,1123.19,1120.23,1116.10,1111.30,1105.29,1098.18,1092.34,1085.05,1079.90,1077.21,1074.84,1072.14,1069.41,1067.10,1065.52,1063.89,1062.78,1061.45,1059.83,1058.82,1058.57,1057.87,1056.16,1053.30,1051.91,1054.64,1059.99,1066.81,1074.09,1079.91,1082.38,1081.43,1078.09,1072.89,1065.81,1059.04,1054.63,1050.68,1046.97,1042.86,1038.28,1034.04,1031.83,1035.91,1045.64,1057.64,1062.18,1062.55,1060.47,1057.41,1057.69,1058.23,1058.44,1059.99,1067.10,1076.99,1080.59,1078.75,1074.11,1068.83,1063.02,1057.90,1053.75,1049.37,1043.24,1037.43,1032.19,1026.89,1021.63,1018.28,1015.55,1012.75,1011.65,1010.97,1009.01,1006.73,1007.63,1007.32,1006.53,1005.34,1003.49,1001.55,999.24,997.96,998.16,998.29,997.39,996.00,994.42,992.77,990.63,988.49,986.45,984.49,982.52,980.93,979.23,977.44,976.09,974.61,973.13,972.04,971.76,971.51,969.99,967.05,963.19,960.79,961.95,964.45,967.08,969.16,971.35,974.32,977.74,981.11,983.90,986.19,989.53,994.13,998.62,1002.21,1005.50,1008.80,1012.17,1015.02,1015.84,1014.24,1009.96,1003.92,997.78,992.06,987.03,982.99,978.85,975.08,971.91,969.56,967.74,965.45,963.06,960.28,955.83,951.14,950.35,951.66,951.25,948.15,944.00,943.23,946.61,946.50,945.23,943.81,942.46,941.23,940.95,941.09,941.22,941.42,943.00,943.06,941.30,939.26,941.31,944.45,947.59,950.09,951.43,952.65,951.59,948.79,946.03,948.22,953.16,959.02,965.10,971.06,976.44,980.77,983.86,985.38,985.75,985.51,984.98,984.71,985.97,987.94,989.50,990.64,991.57,991.99,992.44,994.04,997.68,1003.07,1008.70,1014.24,1019.80,1025.84,1033.04,1037.40,1037.67,1033.35,1028.28,1022.92,1018.02,1013.66,1008.93,1003.23
1151.30,1154.01,1157.11,1160.16,1162.69,1165.67,1169.00,1172.47,1175.81,1179.51,1183.87,1188.50,1192.56,1197.11,1202.64,1208.88,1215.15,1219.55,1223.71,1228.06,1232.00,1233.82,1235.42,1236.81,1237.17,1234.95,1229.80,1224.04,1217.53,1210.48,1205.24,1200.31,1196.02,1192.66,1190.29,1185.79,1179.81,1172.23,1163.20,1156.32,1149.82,1143.25,1137.14,1133.11,1129.15,1125.52,1122.31,1119.29,1114.62,1108.51,1101.79,1095.05,1089.00,1083.44,1079.78,1077.81,1075.98,1073.60,1071.64,1070.29,1069.33,1067.69,1065.89,1063.91,1062.07,1061.31,1061.15,1060.68,1059.22,1056.32,1054.65,1057.07,1062.91,1071.21,1079.02,1084.23,1086.00,1084.76,1081.83,1077.53,1069.99,1061.93,1056.64,1053.28,1050.31,1046.52,1041.86,1037.85,1036.08,1040.86,1050.50,1060.24,1064.36,1065.86,1065.49,1063.96,1064.71,1064.33,1064.05,1066.65,1076.47,1081.41,1081.64,1078.78,1073.82,1068.20,1062.46,1057.35,1053.05,1048.85,1043.73,1038.16,1032.45,1026.88,1021.75,1018.38,1016.19,1014.88,1014.59,1013.01,1011.31,1010.43,1011.00,1009.63,1007.93,1006.13,1003.95,1001.72,999.89,999.35,1000.06,999.97,998.97,997.51,995.66,993.18,990.89,988.75,986.77,984.97,983.21,981.54,979.85,978.26,977.12,975.91,974.68,973.70,973.15,972.10,970.53,967.90,964.51,962.79,964.30,966.76,969.21,971.48,974.14,977.24,980.61,984.04,986.94,990.00,994.02,998.68,1002.24,1005.11,1008.37,1012.06,1015.69,1018.41,1018.04,1015.30,1010.62,1004.73,998.75,993.16,988.28,984.61,980.74,977.03,973.70,970.97,968.77,965.93,962.93,959.54,954.80,952.68,953.03,953.38,950.75,946.92,946.01,947.99,951.66,952.87,951.21,949.22,947.56,945.95,945.09,944.78,944.59,944.40,945.04,945.72,944.56,942.19,942.75,945.62,948.97,951.83,953.50,954.84,953.41,950.51,948.20,950.35,955.18,960.84,966.64,972.53,978.95,984.58,988.68,990.61,991.43,991.34,991.04,991.19,992.73,994.45,995.77,996.85,997.98,998.33,998.24,998.86,1001.23,1005.73,1010.97,1016.25,1021.69,1028.20,1035.70,1039.63,1039.34,1034.95,1029.77,1024.49,1019.61,1015.23,1010.80,1005.19
1147.31,1149.33,1151.92,1155.03,1158.34,1161.49,1164.89,1168.72,1172.52,1176.57,1181.07,1185.70,1189.87,1194.90,1200.50,1206.82,1213.55,1217.98,1222.79,1227.94,1232.88,1236.49,1239.81,1242.60,1243.93,1241.72,1234.23,1226.22,1217.79,1209.38,1204.21,1198.02,1192.69,1188.63,1184.98,1180.22,1175.09,1169.20,1162.13,1155.61,1148.30,1141.49,1135.99,1131.83,1127.79,1124.04,1120.44,1116.65,1111.99,1105.61,1098.83,1092.77,1088.26,1084.66,1081.97,1079.96,1078.09,1076.23,1075.39,1074.73,1073.16,1070.75,1068.33,1066.17,1064.58,1064.17,1064.04,1063.12,1061.18,1058.36,1056.73,1059.72,1066.98,1077.12,1084.57,1088.46,1089.22,1087.59,1084.71,1081.18,1074.80,1066.74,1059.31,1055.95,1053.28,1049.88,1045.60,1041.74,1041.05,1046.77,1055.98,1062.87,1066.78,1069.12,1070.21,1070.25,1070.78,1070.17,1070.74,1074.12,1081.25,1083.80,1082.45,1078.64,1073.25,1067.51,1061.99,1057.16,1053.09,1048.99,1044.19,1038.88,1033.28,1027.77,1023.05,1019.98,1018.32,1017.80,1017.15,1015.32,1014.05,1013.64,1012.88,1010.87,1008.85,1006.85,1004.61,1002.59,1001.32,1001.03,1001.56,1001.63,1000.44,998.72,996.62,993.86,991.29,989.09,987.13,985.32,983.59,982.00,980.53,979.20,978.15,977.08,975.75,974.34,973.08,971.74,970.25,968.01,965.32,964.66,966.50,969.09,971.69,974.13,976.78,979.98,983.48,986.98,990.02,993.42,997.94,1002.85,1005.56,1008.43,1012.00,1016.02,1019.83,1022.20,1020.41,1016.42,1011.32,1005.54,999.72,994.16,989.24,985.61,981.99,978.50,975.24,972.31,969.61,965.81,961.91,958.46,955.84,955.07,954.54,953.36,951.09,949.03,949.35,951.88,955.77,957.86,956.45,954.34,952.45,950.69,949.69,949.02,948.32,947.52,947.56,948.00,947.59,946.27,945.84,947.60,950.59,953.78,956.11,957.28,955.95,953.18,950.84,953.09,957.59,962.57,967.62,973.17,979.75,986.02,991.27,994.92,997.33,998.31,998.65,999.00,1000.22,1001.27,1001.96,1002.62,1003.74,1004.67,1004.67,1004.66,1005.64,1008.48,1012.61,1017.30,1022.66,1029.53,1036.74,1040.77,1040.86,1036.72,1031.68,1026.51,1021.52,1016.84,1012.47,1007.41
1143.69,1145.08,1147.18,1150.43,1154.39,1157.73,1161.19,1165.30,1169.65,1174.22,1178.89,1183.43,1187.60,1192.73,1198.23,1204.74,1212.31,1217.29,1222.65,1228.30,1233.83,1238.58,1243.12,1246.91,1249.05,1247.43,1239.41,1229.13,1218.64,1209.53,1204.22,1197.04,1190.66,1185.61,1180.82,1175.96,1171.22,1166.10,1160.17,1154.23,1146.43,1139.75,1135.06,1130.55,1126.38,1122.38,1118.28,1113.73,1109.10,1103.17,1097.16,1092.29,1089.41,1087.26,1085.12,1082.90,1080.92,1079.66,1079.56,1079.08,1076.67,1073.48,1070.60,1068.47,1067.33,1067.17,1066.88,1065.54,1063.26,1060.64,1059.12,1063.07,1071.82,1083.16,1089.62,1092.30,1092.23,1090.21,1087.24,1084.24,1079.43,1072.12,1063.01,1059.28,1056.43,1053.13,1049.26,1045.82,1046.31,1052.47,1060.77,1065.41,1069.27,1072.38,1074.71,1076.03,1076.27,1076.06,1077.74,1081.38,1084.81,1085.37,1082.92,1078.44,1072.72,1066.92,1061.61,1057.09,1053.30,1049.27,1044.54,1039.44,1034.18,1029.02,1024.86,1022.31,1021.17,1020.97,1019.66,1017.83,1016.87,1016.41,1014.37,1011.93,1009.70,1007.60,1005.49,1003.88,1003.08,1002.86,1003.01,1003.07,1001.68,999.71,997.38,994.45,991.58,989.31,987.40,985.62,983.94,982.52,981.27,980.14,979.09,977.94,976.33,974.41,972.51,971.03,969.67,967.89,966.08,966.50,968.63,971.40,974.25,976.80,979.33,982.60,986.36,990.13,993.15,997.26,1002.28,1007.06,1009.22,1012.16,1016.06,1020.41,1024.22,1025.73,1022.48,1017.36,1011.94,1006.27,1000.58,995.06,990.07,986.35,982.87,979.53,976.36,973.33,970.19,965.57,961.19,958.21,957.42,956.97,955.51,953.63,952.61,952.35,953.10,955.41,959.16,961.74,960.91,959.03,957.06,955.30,954.26,953.31,952.22,951.03,950.51,950.32,950.24,949.97,949.11,949.73,952.31,955.82,958.65,959.73,958.65,956.11,953.65,955.72,959.84,964.22,968.63,973.87,980.20,986.66,992.73,997.96,1002.31,1004.82,1006.03,1006.51,1007.46,1008.10,1008.38,1008.75,1009.78,1011.00,1011.01,1010.46,1010.22,1011.63,1014.52,1018.52,1023.69,1030.49,1037.23,1041.55,1042.29,1038.58,1033.82,1028.75,1023.60,1018.62,1014.23,1009.90
1140.07,1141.54,1144.02,1148.01,1151.82,1155.32,1158.92,1162.99,1167.70,1172.55,1177.31,1181.83,1186.03,1190.66,1196.06,1203.17,1212.19,1218.83,1224.87,1230.87,1236.51,1240.58,1244.83,1248.47,1250.79,1250.40,1246.26,1233.39,1220.05,1211.40,1205.41,1198.97,1192.17,1185.83,1181.24,1175.96,1170.21,1163.83,1156.98,1152.00,1144.95,1139.05,1134.93,1129.55,1124.99,1120.60,1116.08,1111.32,1106.40,1101.96,1098.39,1095.82,1093.52,1091.31,1089.03,1086.74,1084.87,1084.25,1083.72,1082.31,1079.36,1075.93,1072.88,1071.02,1070.47,1070.25,1069.42,1068.16,1066.45,1064.27,1062.77,1068.06,1077.80,1088.40,1092.99,1095.22,1094.97,1092.63,1089.48,1086.49,1083.13,1077.55,1068.88,1064.28,1060.30,1056.31,1052.57,1050.30,1051.81,1056.94,1063.33,1067.70,1071.77,1075.66,1078.86,1080.71,1081.00,1082.26,1084.70,1087.53,1088.63,1086.30,1082.69,1078.19,1072.51,1066.68,1061.42,1057.03,1053.37,1049.43,1044.61,1039.61,1034.81,1030.53,1027.10,1025.46,1024.78,1024.14,1022.27,1020.65,1019.53,1018.41,1015.98,1013.30,1010.75,1008.51,1006.82,1005.74,1005.13,1004.82,1004.61,1003.88,1002.37,1000.35,997.83,994.65,991.49,989.19,987.41,985.86,984.51,983.28,982.14,981.02,979.78,978.11,976.02,973.78,971.74,970.15,968.91,967.76,967.10,968.40,970.71,973.64,976.72,979.31,981.77,985.04,989.23,993.82,996.40,1002.47,1008.11,1011.67,1013.90,1016.58,1020.68,1025.38,1028.80,1028.30,1023.63,1017.84,1012.35,1006.78,1001.19,995.73,990.75,986.88,983.24,979.79,976.55,973.51,970.28,965.44,961.90,960.34,958.91,956.99,955.94,955.90,956.56,956.36,956.91,958.63,961.41,963.83,963.92,962.76,961.08,959.52,958.39,957.31,956.29,955.40,954.24,952.96,952.15,951.88,951.58,951.64,954.13,957.92,960.66,961.97,961.20,958.95,956.53,957.58,961.34,965.70,970.19,975.34,980.96,986.96,992.86,998.43,1004.76,1009.33,1011.67,1012.34,1013.55,1014.72,1015.47,1016.07,1016.98,1017.29,1016.67,1015.49,1014.53,1015.71,1017.59,1020.88,1025.60,1031.25,1037.58,1042.20,1043.59,1040.58,1036.25,1031.20,1025.91,1020.75,1016.33,1012.87
1137.82,1140.26,1143.32,1147.30,1151.01,1154.55,1158.16,1162.15,1166.98,1171.87,1176.35,1180.56,1185.00,1189.86,1196.15,1203.71,1212.00,1219.25,1225.43,1231.73,1237.96,1242.33,1246.73,1250.06,1252.05,1252.19,1249.53,1235.74,1221.65,1213.59,1206.65,1200.43,1193.65,1186.91,1182.26,1176.80,1170.60,1163.70,1156.55,1151.63,1146.34,1141.74,1137.36,1130.37,1125.25,1120.57,1115.84,1111.11,1106.69,1103.63,1101.44,1099.77,1098.25,1096.48,1094.38,1092.02,1089.85,1089.01,1087.57,1085.04,1081.37,1077.78,1075.46,1074.21,1074.03,1074.94,1075.18,1074.79,1073.80,1071.95,1069.11,1073.23,1081.91,1091.54,1096.10,1098.48,1098.42,1096.20,1092.82,1089.38,1085.95,1081.18,1074.07,1068.34,1063.98,1060.12,1056.69,1054.80,1056.90,1061.10,1065.91,1070.20,1074.27,1078.97,1082.83,1084.62,1085.35,1088.44,1091.25,1092.27,1090.45,1086.70,1082.54,1077.93,1072.38,1066.75,1061.59,1057.21,1053.54,1049.56,1044.34,1039.59,1035.63,1032.20,1029.60,1028.57,1027.99,1026.86,1024.75,1023.02,1021.56,1019.99,1017.57,1014.83,1012.24,1010.03,1008.43,1007.59,1007.02,1006.60,1006.01,1004.50,1002.68,1000.58,998.04,994.81,991.66,989.47,987.87,986.54,985.32,984.16,983.00,981.78,980.30,978.15,975.73,973.34,971.35,970.10,969.24,968.60,968.59,970.58,973.24,976.21,979.17,981.71,984.16,987.57,992.35,998.12,1001.49,1006.91,1011.63,1014.66,1017.16,1020.51,1024.82,1029.13,1031.58,1029.81,1024.42,1018.19,1012.39,1006.81,1001.28,995.94,991.08,987.24,983.58,980.20,976.97,973.78,970.67,966.77,964.25,963.02,960.24,958.47,958.20,958.99,960.08,959.87,960.11,961.45,963.94,966.38,967.00,966.19,964.62,963.12,962.00,960.93,960.01,959.23,957.63,955.69,954.51,954.31,954.21,953.98,955.79,959.00,961.96,963.98,963.65,961.58,958.90,958.69,962.35,967.21,972.23,977.39,982.79,988.33,993.77,999.14,1005.38,1011.33,1015.67,1018.05,1019.48,1020.71,1021.79,1022.81,1023.79,1024.18,1023.02,1020.88,1018.96,1020.17,1022.39,1025.59,1029.60,1034.03,1038.81,1042.82,1044.53,1042.46,1038.88,1033.99,1028.74,1023.64,1019.25,1016.44
1136.41,1139.80,1143.32,1147.15,1150.84,1154.37,1157.93,1161.87,1166.75,1171.50,1175.62,1179.48,1184.16,1189.53,1196.76,1204.44,1211.44,1218.90,1225.04,1231.46,1238.19,1243.20,1247.86,1251.04,1252.93,1253.57,1251.38,1237.42,1223.47,1215.94,1208.08,1201.96,1195.37,1188.53,1183.51,1177.82,1171.37,1164.38,1157.46,1152.71,1149.36,1146.03,1141.14,1132.33,1126.48,1121.57,1116.81,1112.29,1108.61,1106.60,1105.19,1103.83,1102.88,1101.57,1099.75,1097.44,1094.92,1093.38,1090.93,1087.41,1083.22,1079.72,1078.22,1077.64,1078.01,1080.45,1082.01,1082.43,1081.82,1079.84,1075.52,1078.07,1085.29,1093.92,1099.10,1101.94,1102.18,1100.10,1096.62,1092.68,1088.68,1084.21,1078.65,1072.20,1067.59,1063.91,1060.85,1059.23,1061.58,1065.15,1069.02,1073.26,1077.57,1082.83,1087.03,1088.82,1090.26,1094.47,1096.86,1095.72,1091.35,1086.89,1082.48,1077.78,1072.41,1067.06,1062.09,1057.74,1053.97,1049.92,1044.34,1039.78,1036.51,1033.85,1032.06,1031.42,1030.72,1029.07,1026.88,1025.08,1023.38,1021.53,1019.23,1016.50,1013.98,1011.81,1010.18,1009.37,1008.75,1008.17,1007.28,1005.16,1003.08,1000.92,998.43,995.28,992.27,990.13,988.59,987.40,986.24,985.08,983.79,982.32,980.57,978.00,975.53,973.41,971.78,970.97,970.39,970.11,970.68,973.17,976.08,978.94,981.61,983.99,986.44,990.13,995.47,1002.00,1006.32,1010.51,1014.12,1017.05,1020.03,1024.23,1028.65,1032.27,1033.47,1030.67,1024.89,1018.37,1012.22,1006.62,1001.28,996.21,991.60,987.84,984.38,981.20,977.98,974.59,971.49,968.89,967.34,965.88,961.70,960.34,960.75,961.96,963.13,963.09,963.16,964.23,966.55,969.04,970.03,969.48,967.95,966.48,965.40,964.39,963.52,962.63,960.60,958.15,956.80,956.81,957.01,956.67,957.44,959.60,962.91,965.80,966.11,964.31,961.32,959.95,963.61,968.98,974.53,979.77,985.20,990.46,995.54,1000.60,1006.06,1012.73,1018.83,1023.17,1025.03,1026.39,1027.81,1029.21,1030.23,1030.79,1029.20,1026.36,1023.87,1025.16,1027.98,1031.18,1034.44,1037.74,1040.82,1043.93,1045.66,1044.35,1041.46,1036.98,1032.03,1027.24,1023.22,1020.87
1136.15,1139.32,1142.71,1146.81,1150.66,1154.23,1157.78,1161.70,1166.64,1171.06,1174.91,1178.65,1183.30,1189.36,1196.43,1203.38,1209.72,1217.33,1223.45,1229.46,1235.78,1241.51,1246.16,1249.95,1253.10,1255.01,1252.68,1239.12,1225.78,1218.51,1210.10,1204.23,1197.95,1190.92,1184.76,1178.41,1171.80,1165.28,1159.63,1156.43,1154.38,1151.69,1146.43,1135.97,1129.03,1123.90,1119.52,1115.58,1112.42,1110.55,1109.16,1107.77,1106.45,1105.03,1103.47,1101.62,1099.13,1096.32,1093.02,1089.26,1085.35,1082.69,1081.23,1081.14,1082.93,1086.85,1088.63,1088.72,1087.20,1083.55,1078.98,1081.62,1088.46,1096.28,1102.07,1105.70,1106.09,1103.77,1100.62,1096.65,1092.20,1087.34,1082.04,1076.57,1071.21,1066.88,1064.20,1063.46,1065.35,1069.24,1073.85,1077.93,1083.57,1088.45,1092.20,1094.89,1097.52,1099.98,1099.78,1096.50,1091.53,1087.01,1082.64,1078.02,1072.87,1067.81,1063.24,1059.10,1055.23,1051.14,1045.65,1040.89,1037.39,1035.19,1034.16,1033.47,1032.26,1030.12,1028.10,1026.69,1025.27,1023.50,1021.13,1018.50,1015.98,1013.74,1012.02,1010.95,1010.07,1009.31,1008.33,1006.19,1004.22,1002.09,999.66,996.83,994.00,991.57,989.69,988.38,987.21,986.05,984.38,982.24,980.23,977.36,975.66,974.97,974.54,973.98,972.98,972.80,974.21,976.80,979.38,981.80,984.02,986.00,988.35,992.72,998.25,1003.81,1008.05,1012.16,1015.89,1019.35,1023.28,1027.80,1032.03,1034.83,1034.48,1030.70,1024.69,1018.13,1011.84,1006.23,1001.57,997.25,993.11,989.41,986.83,984.02,980.74,977.06,973.43,971.95,970.89,968.68,963.77,961.75,962.08,963.59,965.15,965.99,966.45,967.34,969.16,971.50,972.86,972.59,971.16,969.78,968.71,967.70,966.67,965.30,962.51,959.64,958.34,958.94,960.15,959.97,959.27,959.77,963.46,967.27,968.71,967.59,964.49,962.57,966.26,971.63,977.10,982.54,988.20,993.85,999.26,1004.23,1009.12,1015.07,1021.16,1026.40,1029.48,1031.76,1033.70,1035.24,1035.96,1035.73,1034.00,1031.76,1030.25,1031.50,1034.11,1036.97,1039.69,1042.18,1044.38,1046.70,1047.90,1046.45,1043.61,1040.17,1036.25,1032.30,1029.69,1027.45
1135.79,1139.11,1142.58,1146.67,1150.56,1154.41,1158.38,1162.73,1167.83,1172.42,1176.36,1180.25,1185.36,1191.92,1198.34,1204.11,1209.45,1216.42,1222.30,1227.89,1233.75,1239.96,1244.73,1248.88,1252.89,1256.12,1253.94,1244.33,1232.35,1221.41,1213.09,1206.99,1201.01,1194.18,1186.15,1179.97,1174.07,1168.65,1164.47,1161.86,1159.69,1156.33,1150.14,1139.44,1131.93,1126.67,1122.63,1119.30,1116.86,1115.24,1113.89,1112.42,1110.59,1108.78,1106.86,1104.64,1101.73,1098.28,1094.68,1091.07,1087.61,1085.08,1084.53,1086.40,1090.45,1094.59,1095.88,1095.32,1092.97,1088.22,1083.56,1085.45,1091.35,1098.55,1104.04,1108.10,1109.09,1107.24,1104.20,1100.12,1095.46,1090.62,1085.69,1080.06,1074.29,1069.86,1067.66,1067.88,1071.01,1075.37,1079.88,1083.97,1089.07,1093.11,1096.43,1099.44,1102.07,1102.99,1101.16,1096.87,1091.68,1087.16,1082.92,1078.52,1073.62,1068.77,1064.49,1060.63,1056.93,1052.83,1047.75,1042.76,1038.74,1036.82,1036.34,1035.43,1033.76,1031.53,1029.85,1028.82,1027.64,1025.89,1023.37,1020.65,1018.03,1015.73,1014.02,1012.91,1011.89,1010.91,1009.78,1007.86,1005.87,1003.64,1001.18,998.56,995.86,993.38,991.24,989.57,988.38,986.97,984.87,982.23,979.91,977.86,977.32,977.63,977.64,976.95,975.55,975.33,977.11,979.62,982.05,984.36,986.50,988.47,991.15,995.62,1000.74,1005.46,1009.60,1013.63,1017.64,1021.72,1026.14,1031.33,1035.58,1037.56,1035.64,1031.15,1025.18,1018.82,1012.72,1007.55,1003.62,1000.06,996.42,992.53,989.17,985.73,982.05,978.50,976.65,975.60,973.63,969.99,965.04,963.30,963.56,964.78,966.31,967.90,968.88,969.92,971.60,973.97,975.79,975.98,974.77,973.24,972.12,970.97,969.66,967.89,964.77,961.53,960.41,961.87,963.95,964.41,963.33,962.43,964.19,968.18,970.74,970.47,967.38,965.09,968.38,973.56,979.03,984.74,991.14,997.31,1002.93,1007.83,1012.32,1017.42,1023.16,1028.99,1033.31,1036.54,1039.03,1040.85,1041.67,1040.97,1039.05,1037.11,1036.20,1037.26,1039.52,1042.03,1044.46,1046.72,1048.38,1049.84,1050.38,1049.05,1046.58,1043.76,1040.78,1037.96,1036.04,1033.90
1135.25,1138.96,1142.71,1146.66,1150.59,1154.86,1159.47,1164.44,1169.82,1174.95,1179.29,1183.45,1189.10,1195.87,1201.55,1206.24,1210.70,1216.66,1222.09,1227.19,1232.50,1238.79,1243.74,1248.18,1252.82,1257.16,1255.46,1250.73,1240.64,1225.61,1216.64,1209.86,1204.11,1197.60,1187.77,1182.12,1177.40,1173.29,1170.31,1167.65,1164.54,1159.87,1152.72,1142.71,1135.26,1129.94,1126.05,1123.31,1121.59,1120.27,1118.98,1117.42,1115.19,1112.86,1110.16,1107.01,1103.44,1099.69,1096.20,1092.97,1089.97,1087.38,1088.54,1092.82,1098.77,1102.44,1103.01,1101.69,1098.66,1093.49,1088.82,1089.58,1094.18,1100.62,1105.37,1109.60,1111.50,1110.66,1107.57,1103.35,1098.59,1093.89,1089.31,1082.99,1076.99,1072.79,1071.21,1072.38,1077.24,1082.05,1086.18,1090.36,1094.14,1097.27,1100.22,1103.15,1105.18,1104.69,1101.80,1097.13,1091.96,1087.48,1083.38,1079.21,1074.58,1069.85,1065.79,1062.20,1058.76,1054.67,1050.07,1044.97,1040.52,1038.81,1038.60,1037.34,1035.31,1033.25,1031.99,1031.26,1030.20,1028.42,1025.76,1022.88,1020.12,1017.75,1016.11,1015.05,1013.96,1012.76,1011.43,1009.77,1007.72,1005.35,1002.83,1000.32,997.71,995.29,993.01,990.94,989.67,987.90,985.40,982.45,980.07,979.43,980.10,980.96,980.81,979.72,978.04,977.73,979.56,981.93,984.33,986.77,989.15,991.35,994.41,998.58,1003.03,1007.14,1011.14,1015.07,1019.42,1024.17,1028.96,1034.76,1039.08,1040.38,1037.18,1032.29,1026.53,1020.46,1014.58,1009.89,1006.46,1003.46,1000.25,996.10,991.28,986.77,982.73,979.83,980.32,979.13,975.65,970.52,966.10,965.17,965.31,965.91,967.25,969.18,970.67,972.09,973.88,976.31,978.58,979.30,978.41,976.73,975.49,974.13,972.51,970.40,967.18,963.68,962.85,965.17,967.89,969.09,968.30,966.41,965.32,968.80,972.28,972.94,970.07,967.59,970.30,975.06,980.45,986.30,993.42,1000.05,1005.88,1010.86,1015.30,1019.72,1025.02,1031.14,1036.54,1040.60,1043.65,1045.95,1047.21,1046.23,1044.16,1042.41,1041.84,1042.61,1044.49,1046.74,1049.09,1051.36,1052.57,1053.17,1053.11,1051.98,1050.00,1047.57,1045.41,1043.73,1042.14,1040.07
1134.20,1138.55,1142.83,1146.76,1150.97,1155.84,1160.98,1166.34,1172.30,1178.45,1183.61,1188.07,1193.35,1199.68,1205.20,1210.11,1214.94,1220.05,1224.69,1229.02,1233.42,1238.68,1243.70,1248.82,1254.09,1258.61,1258.07,1254.45,1246.87,1234.50,1220.36,1212.09,1206.29,1199.84,1189.91,1184.70,1181.07,1177.78,1174.57,1171.54,1167.01,1161.24,1154.16,1145.65,1139.68,1134.43,1130.01,1127.68,1126.31,1125.16,1123.92,1122.41,1120.37,1117.55,1113.66,1109.10,1104.91,1100.92,1097.95,1095.30,1092.40,1090.72,1094.76,1100.20,1104.79,1107.93,1108.28,1106.33,1102.94,1098.81,1094.22,1094.22,1097.39,1102.11,1106.29,1110.36,1113.45,1114.35,1111.00,1106.75,1101.80,1096.86,1092.14,1085.50,1079.31,1075.45,1074.80,1076.84,1081.68,1086.59,1091.01,1095.25,1098.74,1101.56,1104.24,1106.85,1108.41,1106.41,1102.49,1097.65,1092.82,1088.40,1084.32,1080.22,1075.75,1070.97,1067.11,1063.68,1060.22,1056.14,1051.68,1046.98,1043.04,1041.64,1040.96,1039.14,1036.96,1035.33,1034.51,1033.75,1032.50,1030.57,1028.02,1025.15,1022.27,1019.80,1018.21,1017.06,1015.88,1014.58,1013.12,1011.42,1009.32,1006.94,1004.43,1001.85,999.27,996.91,994.69,992.64,990.99,988.88,986.24,983.52,982.10,982.85,984.16,984.78,983.67,982.00,980.35,980.05,981.63,983.97,986.36,989.30,992.45,994.97,997.52,1001.07,1005.09,1009.05,1012.85,1016.63,1021.24,1026.80,1032.52,1037.96,1041.96,1043.17,1039.92,1035.27,1029.81,1023.82,1017.72,1012.74,1008.81,1005.56,1002.38,998.21,992.70,987.60,984.08,983.01,983.22,981.00,976.48,970.99,968.03,967.94,967.71,967.63,969.04,969.99,971.69,973.77,975.89,978.11,980.48,981.64,981.38,980.01,978.51,976.95,975.13,972.69,969.32,965.98,965.51,968.23,971.02,972.39,972.17,970.42,967.77,969.35,973.00,974.66,972.60,970.40,972.61,976.52,981.07,986.51,993.15,999.81,1006.08,1011.83,1017.11,1021.87,1026.98,1032.74,1038.63,1042.88,1046.56,1049.86,1051.96,1050.71,1048.87,1047.61,1047.36,1047.63,1049.29,1051.64,1054.16,1056.13,1056.72,1056.76,1056.35,1055.22,1053.40,1051.45,1049.87,1048.76,1047.66,1045.59
1133.74,1138.38,1142.88,1146.82,1151.15,1156.32,1161.59,1166.78,1172.73,1179.97,1186.28,1191.39,1196.28,1201.96,1207.49,1212.87,1218.13,1222.79,1227.09,1231.14,1235.19,1239.75,1244.66,1249.81,1255.00,1259.34,1259.65,1257.14,1252.14,1243.60,1229.85,1217.56,1208.95,1202.47,1194.29,1187.89,1183.97,1180.93,1177.37,1173.43,1167.67,1161.21,1154.54,1147.86,1143.28,1139.03,1135.23,1132.99,1131.51,1130.16,1128.60,1126.67,1124.23,1120.96,1116.48,1111.25,1106.57,1102.63,1100.47,1099.23,1098.23,1098.43,1102.58,1107.02,1110.17,1112.39,1111.83,1109.41,1106.12,1102.74,1099.28,1099.09,1101.07,1104.20,1107.61,1111.78,1115.62,1117.39,1114.11,1109.94,1104.85,1099.48,1094.17,1087.57,1081.08,1077.84,1079.08,1082.95,1087.69,1092.24,1096.35,1099.95,1103.03,1105.64,1107.96,1109.84,1110.51,1107.74,1103.36,1098.45,1093.79,1089.64,1085.77,1081.84,1077.51,1072.69,1068.43,1064.59,1060.91,1056.96,1052.77,1048.93,1045.95,1044.47,1042.99,1040.87,1038.94,1037.88,1037.15,1036.05,1034.61,1032.75,1030.17,1027.23,1024.35,1021.96,1020.46,1019.13,1017.77,1016.32,1014.71,1012.89,1010.79,1008.42,1005.89,1003.27,1000.65,998.34,996.44,994.91,992.90,990.11,987.55,985.85,985.63,986.97,987.91,987.72,986.06,984.13,982.70,982.48,983.74,985.80,988.38,992.08,996.14,998.89,1001.09,1003.91,1007.29,1010.99,1014.62,1018.62,1023.66,1029.71,1035.74,1040.97,1044.82,1046.08,1043.08,1038.70,1033.57,1027.78,1021.51,1015.84,1011.33,1007.61,1004.09,999.67,993.71,988.93,986.49,986.52,985.44,982.36,977.34,972.08,971.13,971.15,970.15,969.37,970.83,971.20,972.84,975.07,977.27,979.39,981.94,983.77,984.39,983.44,981.84,980.07,977.96,975.16,971.79,968.52,967.97,970.53,973.43,975.29,975.75,974.49,971.39,970.77,974.26,976.79,975.49,973.37,974.51,977.41,981.35,986.46,992.65,999.34,1006.01,1012.31,1018.32,1023.15,1027.94,1033.39,1039.63,1044.03,1048.15,1052.39,1055.87,1055.26,1053.64,1052.53,1052.43,1052.69,1054.54,1056.94,1059.24,1060.78,1060.98,1060.62,1059.89,1058.65,1056.92,1055.13,1053.65,1052.49,1051.11,1048.48
1133.89,1138.44,1142.88,1146.81,1151.13,1156.24,1161.28,1166.01,1171.66,1179.76,1187.18,1193.02,1197.64,1202.73,1208.41,1214.33,1219.99,1224.48,1228.69,1232.84,1237.00,1241.33,1246.01,1250.72,1255.36,1259.39,1260.34,1259.12,1256.49,1251.78,1242.45,1225.93,1212.88,1205.35,1199.77,1191.46,1186.28,1182.93,1179.03,1173.97,1167.38,1160.69,1154.70,1149.95,1146.58,1143.87,1141.40,1139.04,1137.12,1135.21,1133.00,1130.27,1126.94,1123.23,1118.65,1113.38,1108.37,1104.84,1103.82,1104.64,1106.66,1108.94,1111.12,1113.27,1115.22,1116.11,1114.27,1111.57,1108.66,1105.78,1104.05,1104.01,1105.07,1106.93,1109.58,1113.93,1117.95,1119.72,1116.66,1112.59,1107.43,1101.63,1095.53,1089.24,1082.78,1080.64,1084.36,1090.27,1094.97,1098.94,1102.30,1104.84,1107.33,1109.65,1111.40,1112.12,1111.59,1108.61,1104.28,1099.40,1094.87,1091.10,1087.58,1083.90,1079.66,1074.82,1069.84,1065.24,1061.20,1057.42,1053.66,1050.89,1048.95,1047.10,1044.75,1042.60,1041.20,1040.69,1039.78,1038.19,1036.64,1035.02,1032.31,1029.23,1026.44,1024.25,1022.82,1021.30,1019.68,1017.99,1016.22,1014.23,1012.15,1009.81,1007.25,1004.62,1001.97,999.73,998.30,997.52,995.16,991.53,989.27,989.07,989.96,991.19,991.10,989.88,988.05,986.15,985.08,985.00,985.96,987.58,990.44,994.89,999.76,1002.73,1004.92,1007.18,1009.90,1013.27,1016.82,1021.30,1026.72,1032.79,1038.63,1043.90,1047.75,1049.08,1046.45,1042.28,1037.36,1031.78,1025.49,1018.96,1013.92,1009.67,1005.56,1000.78,994.77,991.09,989.88,990.02,987.19,983.43,978.36,973.79,975.02,974.54,972.51,971.12,972.65,972.82,974.16,976.14,978.24,980.45,983.27,985.82,987.38,986.94,985.45,983.53,981.10,977.95,974.68,971.44,970.50,972.43,975.47,977.99,979.09,978.43,975.68,972.90,975.98,979.11,978.45,976.25,976.11,978.00,981.51,986.32,992.14,998.89,1005.85,1012.46,1018.91,1023.60,1028.07,1033.36,1039.93,1044.58,1049.03,1053.97,1058.94,1059.77,1058.53,1057.37,1057.34,1058.08,1060.29,1062.56,1064.31,1065.33,1065.30,1064.68,1063.65,1062.20,1060.47,1058.51,1056.61,1054.79,1052.51,1048.80
1134.86,1138.87,1142.86,1146.74,1151.03,1155.40,1159.84,1164.68,1170.85,1178.68,1185.63,1191.20,1196.12,1201.55,1207.60,1213.99,1220.10,1224.18,1227.86,1231.93,1236.54,1241.30,1245.80,1250.22,1254.68,1258.82,1260.62,1260.41,1259.03,1255.94,1248.65,1236.59,1221.41,1207.53,1202.38,1194.68,1188.64,1184.10,1179.88,1174.52,1168.36,1162.42,1157.47,1154.28,1152.09,1149.97,1147.72,1145.42,1142.86,1140.05,1136.90,1133.23,1128.94,1124.74,1120.12,1115.02,1110.18,1107.86,1108.61,1111.58,1115.56,1117.24,1117.99,1119.08,1120.24,1119.27,1117.01,1114.33,1111.69,1109.60,1108.71,1108.59,1109.02,1110.34,1113.27,1117.17,1120.19,1120.89,1117.45,1113.33,1108.21,1102.41,1096.28,1090.38,1086.11,1086.67,1092.27,1097.45,1102.13,1106.01,1109.01,1110.97,1112.69,1114.08,1114.49,1113.44,1111.78,1108.72,1104.71,1100.28,1096.27,1092.68,1089.42,1085.95,1081.66,1076.88,1071.66,1066.68,1062.29,1058.37,1055.39,1053.06,1051.03,1048.98,1046.42,1044.68,1043.71,1043.17,1042.03,1040.33,1038.90,1037.49,1034.69,1031.58,1028.86,1026.72,1025.21,1023.58,1021.64,1019.64,1017.65,1015.55,1013.42,1011.11,1008.60,1005.95,1003.52,1001.61,1000.48,999.75,996.87,993.09,991.49,992.37,993.25,993.74,993.02,991.48,989.73,987.95,987.28,987.47,988.37,989.81,992.72,996.95,1001.61,1005.23,1008.36,1011.26,1014.14,1017.27,1021.19,1026.04,1030.89,1035.77,1041.52,1047.00,1050.87,1052.14,1049.60,1045.54,1040.11,1034.27,1028.25,1021.43,1016.07,1011.39,1006.84,1002.03,997.48,995.45,994.49,992.71,988.90,984.49,979.66,976.33,978.83,977.35,974.57,973.17,975.04,974.85,975.71,977.37,979.50,982.27,985.28,987.95,989.82,990.15,989.20,987.45,984.98,981.69,978.36,975.50,974.25,975.20,978.17,980.81,981.93,981.48,979.29,975.45,977.62,980.55,980.33,978.14,977.78,979.22,982.09,986.17,991.65,998.26,1005.28,1012.07,1018.28,1023.10,1027.83,1033.41,1040.36,1045.89,1050.72,1055.53,1060.51,1063.71,1063.66,1062.87,1063.18,1064.91,1066.85,1068.40,1069.41,1069.83,1069.59,1068.74,1067.46,1065.78,1063.67,1061.10,1057.92,1054.33,1051.07,1045.52
1135.43,1139.13,1142.86,1146.72,1150.86,1154.72,1158.72,1163.45,1169.68,1177.15,1183.67,1189.05,1194.28,1200.00,1206.53,1213.18,1218.97,1222.70,1226.36,1230.63,1235.60,1240.76,1245.19,1249.51,1253.97,1258.30,1260.70,1261.30,1260.70,1258.28,1251.92,1243.73,1229.66,1213.35,1205.08,1197.54,1190.80,1185.33,1181.41,1176.94,1171.65,1166.30,1161.83,1159.76,1158.35,1156.50,1154.12,1151.42,1148.41,1144.96,1140.89,1136.13,1131.08,1126.44,1121.89,1117.34,1113.31,1112.79,1115.36,1119.62,1123.92,1124.91,1124.86,1124.80,1124.48,1122.38,1119.98,1117.46,1115.15,1113.70,1113.22,1113.00,1112.99,1113.72,1116.51,1120.03,1122.11,1121.66,1117.92,1113.77,1108.82,1103.28,1097.55,1092.78,1091.34,1093.87,1099.47,1103.67,1108.73,1112.67,1115.16,1116.41,1117.11,1116.68,1115.22,1112.89,1110.50,1107.34,1103.64,1099.81,1096.46,1093.37,1090.50,1087.30,1083.15,1078.59,1073.24,1068.04,1063.52,1059.71,1057.08,1054.76,1052.50,1050.33,1048.12,1046.95,1046.34,1045.71,1044.46,1042.92,1041.58,1040.16,1037.56,1034.51,1031.78,1029.51,1027.65,1025.80,1023.65,1021.36,1019.09,1016.89,1014.68,1012.37,1009.92,1007.40,1005.31,1003.47,1002.05,1000.73,997.60,994.92,994.50,995.90,996.35,995.91,994.58,992.84,991.23,989.99,989.70,990.18,991.29,992.72,995.50,999.09,1003.03,1006.95,1011.03,1014.65,1018.09,1021.76,1025.96,1030.51,1034.72,1038.96,1044.81,1050.37,1054.30,1055.54,1052.76,1048.18,1041.67,1035.37,1029.86,1023.07,1017.58,1012.71,1008.08,1003.71,1000.72,999.53,998.16,994.90,990.53,985.85,981.56,979.24,981.53,979.21,976.26,975.25,977.40,976.89,977.29,978.84,981.39,984.57,987.55,990.03,991.89,992.87,992.46,990.98,988.63,985.48,982.18,979.54,977.90,977.93,980.75,983.45,984.87,984.56,981.95,978.09,979.70,982.32,982.37,980.03,979.56,981.05,983.82,987.02,991.94,998.24,1005.01,1011.55,1017.76,1022.80,1027.83,1033.64,1040.71,1046.69,1052.01,1057.04,1061.99,1066.70,1068.33,1068.60,1069.10,1070.80,1072.25,1073.35,1074.08,1074.26,1073.86,1072.74,1071.05,1068.71,1065.76,1062.34,1057.98,1052.76,1047.78,1041.33
1135.41,1139.07,1142.83,1146.70,1150.61,1154.33,1158.15,1162.53,1168.25,1175.38,1181.76,1187.18,1192.72,1198.66,1205.88,1212.65,1217.29,1220.78,1224.94,1229.63,1234.70,1240.05,1244.51,1248.89,1253.46,1257.99,1260.68,1261.88,1261.67,1259.23,1253.04,1246.62,1236.37,1222.39,1208.22,1199.90,1192.72,1186.94,1183.88,1181.22,1177.12,1172.22,1167.80,1166.34,1165.12,1163.18,1160.39,1156.91,1153.68,1149.85,1144.99,1139.13,1133.61,1128.52,1124.14,1120.48,1117.85,1119.30,1123.31,1127.94,1131.37,1132.03,1131.76,1130.40,1128.00,1125.59,1123.19,1120.92,1119.01,1117.95,1117.51,1117.23,1116.91,1116.99,1119.06,1122.35,1123.69,1122.20,1118.35,1114.26,1109.65,1104.64,1099.74,1096.83,1098.22,1101.57,1105.53,1109.08,1114.66,1118.57,1120.30,1120.47,1119.85,1116.96,1113.42,1110.43,1107.74,1104.44,1101.04,1097.86,1095.16,1092.84,1090.46,1087.60,1083.84,1079.62,1074.24,1069.01,1064.69,1061.28,1058.48,1055.89,1053.46,1051.36,1049.97,1049.41,1049.05,1048.38,1047.15,1045.95,1044.61,1042.97,1040.80,1037.86,1035.05,1032.47,1030.09,1027.95,1025.68,1023.18,1020.55,1018.25,1015.96,1013.60,1011.22,1008.94,1007.20,1005.11,1002.82,1000.44,997.46,996.98,998.06,999.45,999.20,997.78,995.90,994.06,992.73,992.35,992.38,993.12,994.64,996.19,998.69,1001.41,1004.34,1008.12,1012.96,1017.20,1021.46,1026.32,1030.62,1034.34,1038.04,1042.41,1048.46,1053.94,1057.90,1059.12,1055.81,1050.15,1042.31,1035.45,1030.43,1023.88,1018.47,1013.72,1009.43,1005.95,1004.22,1002.82,1000.55,996.64,992.04,987.55,984.10,982.44,982.97,980.09,977.63,977.37,979.68,978.86,978.86,980.55,983.86,987.20,989.98,992.11,993.77,995.15,995.23,994.04,991.94,989.14,986.03,983.39,981.34,980.68,983.22,986.00,987.97,987.72,983.74,980.78,982.35,984.67,984.82,982.19,981.59,983.51,986.77,989.23,993.48,999.25,1005.43,1011.32,1017.65,1022.91,1028.15,1034.08,1040.99,1046.87,1052.67,1058.38,1063.54,1068.73,1072.31,1074.26,1074.90,1075.65,1076.59,1077.59,1078.44,1078.66,1078.12,1076.65,1074.28,1070.81,1066.52,1062.04,1056.76,1050.34,1043.13,1036.86
1135.11,1138.61,1142.37,1146.37,1150.28,1154.03,1158.04,1162.64,1167.89,1174.23,1180.46,1186.36,1192.38,1199.66,1208.37,1215.68,1219.36,1222.73,1226.81,1231.09,1235.47,1240.25,1244.62,1248.98,1253.55,1258.19,1261.23,1262.54,1262.16,1259.50,1253.68,1247.68,1238.81,1226.18,1210.57,1200.85,1194.48,1189.96,1186.96,1184.94,1182.23,1179.17,1176.37,1174.66,1172.35,1169.05,1165.30,1161.87,1158.33,1153.87,1148.55,1142.63,1136.93,1131.09,1126.70,1124.02,1122.65,1123.48,1126.74,1131.56,1136.51,1137.49,1137.01,1135.13,1132.02,1129.18,1126.81,1124.75,1123.05,1121.99,1121.37,1120.81,1120.39,1120.51,1122.06,1124.85,1125.37,1122.95,1118.87,1115.14,1111.43,1107.55,1103.90,1102.55,1104.31,1107.53,1111.48,1115.84,1119.85,1122.37,1122.96,1121.11,1118.65,1114.70,1110.65,1107.42,1104.31,1101.15,1098.08,1095.22,1092.71,1090.39,1087.95,1085.31,1082.28,1078.35,1073.44,1068.85,1065.13,1061.81,1058.94,1056.59,1054.69,1053.32,1052.57,1052.20,1051.80,1051.09,1050.04,1048.81,1047.28,1045.43,1043.24,1040.20,1037.16,1034.41,1032.07,1030.00,1027.62,1024.97,1022.20,1019.62,1017.21,1014.83,1012.47,1010.24,1008.31,1005.66,1002.69,999.97,997.95,998.64,1000.13,1001.08,1000.30,998.63,996.87,995.57,995.18,995.11,995.14,995.84,997.41,999.17,1001.25,1003.59,1006.26,1009.74,1014.84,1019.83,1024.71,1029.63,1033.85,1037.70,1041.57,1046.00,1051.81,1057.05,1060.63,1061.43,1057.77,1051.60,1044.04,1036.99,1030.94,1024.40,1019.24,1015.08,1011.67,1009.11,1007.30,1005.12,1002.09,997.96,993.24,989.33,987.00,985.81,983.65,980.29,979.08,980.17,982.18,980.72,980.47,982.36,986.13,989.44,992.34,994.55,996.24,997.68,998.11,997.11,995.17,992.63,989.79,987.15,985.20,984.69,986.77,989.28,990.87,990.09,985.72,983.75,985.68,987.90,987.84,985.35,984.58,986.55,990.32,993.85,998.28,1003.25,1008.41,1013.54,1018.62,1023.46,1028.73,1034.84,1041.63,1047.27,1052.98,1058.88,1064.62,1070.14,1074.83,1078.33,1080.39,1081.80,1082.78,1083.62,1084.05,1083.32,1082.30,1080.18,1076.75,1071.70,1065.68,1060.05,1053.92,1046.89,1039.58,1033.38
1134.99,1138.17,1141.79,1145.97,1150.09,1154.10,1158.41,1163.24,1168.27,1173.89,1179.87,1186.10,1192.93,1202.46,1212.77,1220.55,1223.55,1226.49,1229.99,1233.56,1237.16,1241.30,1245.50,1249.80,1254.29,1258.84,1262.03,1263.27,1262.59,1259.57,1254.20,1248.46,1240.95,1230.68,1216.99,1206.57,1199.61,1194.91,1191.88,1190.33,1188.63,1186.80,1185.01,1183.28,1180.01,1175.44,1170.79,1167.50,1163.92,1158.89,1152.99,1146.77,1140.87,1134.70,1130.47,1128.48,1127.86,1127.90,1130.26,1135.03,1141.02,1142.21,1141.51,1139.35,1136.05,1133.03,1130.78,1128.88,1127.20,1125.84,1124.98,1124.26,1123.83,1124.01,1125.18,1127.50,1127.42,1124.39,1120.21,1116.85,1113.98,1111.30,1109.00,1108.63,1110.12,1112.77,1116.51,1121.43,1124.05,1124.70,1123.53,1120.14,1116.29,1111.99,1107.95,1104.56,1101.16,1098.07,1095.18,1092.44,1089.85,1087.32,1084.74,1082.23,1079.76,1076.31,1072.08,1068.17,1064.98,1061.97,1059.46,1057.58,1056.28,1055.58,1055.28,1054.99,1054.50,1053.67,1052.60,1051.33,1049.73,1047.73,1045.26,1042.06,1038.89,1036.11,1033.91,1031.93,1029.60,1026.96,1024.09,1021.17,1018.53,1016.09,1013.76,1011.51,1009.31,1006.24,1002.84,999.98,998.95,1000.19,1001.65,1002.19,1000.96,999.31,997.94,997.30,997.69,997.88,997.93,998.61,1000.24,1002.11,1003.91,1005.91,1008.62,1012.94,1017.87,1023.00,1028.12,1033.01,1037.20,1041.10,1045.02,1049.41,1055.01,1059.94,1062.96,1063.14,1059.12,1052.59,1045.64,1038.80,1032.16,1025.90,1021.14,1017.44,1014.55,1012.39,1010.09,1007.14,1003.58,999.57,995.79,992.80,990.48,988.15,984.34,981.44,981.63,983.51,984.42,982.45,982.60,984.89,988.59,991.72,994.65,996.99,998.76,1000.14,1000.78,1000.01,998.33,996.18,993.76,991.29,989.56,989.21,990.95,993.16,993.74,991.77,987.22,986.37,988.55,990.68,990.73,988.53,987.79,989.93,994.26,998.78,1003.41,1008.05,1012.72,1017.33,1021.25,1025.30,1030.37,1036.54,1042.81,1048.29,1053.89,1059.70,1065.47,1071.19,1076.76,1081.48,1084.80,1087.18,1088.51,1089.24,1089.23,1087.82,1086.26,1083.13,1078.39,1072.05,1064.74,1057.98,1051.09,1043.85,1036.94,1030.97
1135.26,1137.97,1141.25,1145.69,1150.17,1154.72,1159.40,1164.26,1169.39,1174.59,1180.16,1186.41,1194.43,1207.37,1219.09,1226.87,1229.58,1231.65,1234.07,1236.75,1239.74,1243.34,1247.34,1251.53,1255.81,1259.98,1263.03,1264.13,1263.08,1259.63,1254.73,1249.54,1244.14,1238.00,1229.76,1220.02,1210.52,1203.29,1200.06,1198.52,1196.96,1194.98,1192.89,1191.59,1187.97,1182.74,1177.54,1174.23,1170.89,1165.43,1158.70,1151.63,1145.36,1139.62,1135.90,1134.22,1133.64,1133.40,1135.40,1139.76,1145.34,1146.32,1145.35,1143.08,1139.92,1137.16,1135.16,1133.39,1131.55,1129.59,1128.45,1127.77,1127.40,1127.47,1128.39,1130.34,1129.97,1126.85,1122.83,1119.81,1117.59,1115.96,1114.99,1114.88,1115.92,1117.70,1120.48,1124.95,1126.88,1125.40,1121.78,1117.84,1113.48,1109.41,1105.68,1102.17,1098.70,1095.47,1092.49,1089.68,1086.81,1084.00,1081.32,1078.84,1076.56,1073.84,1070.46,1067.17,1064.34,1062.01,1060.40,1059.20,1058.34,1057.99,1057.91,1057.68,1057.12,1056.06,1054.65,1053.39,1051.92,1049.89,1046.91,1043.54,1040.40,1037.75,1035.70,1033.68,1031.61,1029.19,1026.26,1022.98,1019.94,1017.36,1015.08,1012.75,1010.34,1007.17,1003.68,1000.81,1000.52,1001.68,1002.83,1003.07,1001.55,1000.09,999.30,999.27,999.96,1000.53,1000.70,1001.49,1003.30,1005.13,1006.98,1008.71,1011.71,1018.34,1022.65,1026.97,1031.78,1036.83,1041.04,1044.62,1048.26,1052.53,1058.08,1062.68,1064.99,1064.39,1059.90,1053.07,1046.71,1040.59,1034.49,1028.98,1024.77,1021.20,1018.10,1015.54,1012.51,1009.03,1005.28,1001.82,1000.29,998.45,994.50,988.95,985.32,984.28,985.77,987.42,986.27,984.10,985.42,988.35,991.39,994.15,996.91,999.29,1001.17,1002.43,1003.09,1002.62,1001.42,999.82,997.98,995.97,994.47,994.11,995.67,997.64,996.54,992.63,988.00,988.37,990.50,992.55,993.27,991.46,991.00,993.60,998.54,1003.50,1008.14,1013.13,1018.14,1022.57,1025.97,1029.04,1033.53,1039.50,1044.63,1050.06,1055.74,1061.24,1066.21,1071.98,1078.25,1083.74,1087.71,1091.01,1092.94,1093.69,1093.35,1091.89,1089.80,1085.27,1079.03,1071.92,1064.20,1056.52,1049.06,1041.97,1035.64,1030.23
1135.72,1138.51,1141.90,1146.55,1151.16,1155.74,1160.51,1165.54,1170.66,1175.80,1180.99,1186.96,1196.36,1214.34,1225.61,1230.82,1233.11,1235.18,1237.43,1239.91,1242.73,1246.13,1249.88,1253.81,1257.68,1261.15,1263.95,1265.38,1264.27,1260.25,1255.95,1252.70,1250.60,1248.52,1243.93,1237.97,1231.48,1224.93,1218.09,1209.06,1204.46,1201.59,1199.08,1196.91,1193.26,1188.86,1184.36,1180.19,1175.62,1169.41,1162.49,1155.55,1148.84,1143.87,1141.20,1140.36,1140.03,1139.67,1141.97,1146.04,1149.92,1150.14,1148.90,1146.69,1143.81,1141.37,1139.63,1138.22,1136.75,1134.89,1133.25,1132.07,1131.51,1131.69,1132.40,1133.31,1132.41,1129.79,1127.13,1125.08,1123.66,1122.73,1122.34,1122.70,1123.94,1125.73,1127.67,1128.73,1127.78,1124.68,1120.33,1115.94,1111.44,1107.64,1104.19,1100.77,1097.14,1093.53,1090.26,1087.31,1084.38,1081.55,1078.99,1076.57,1074.13,1071.61,1069.14,1067.14,1065.59,1063.72,1062.38,1061.29,1060.44,1060.11,1060.16,1059.91,1059.23,1058.12,1056.74,1055.49,1053.87,1051.61,1048.63,1045.24,1042.23,1039.68,1037.50,1035.32,1033.17,1030.85,1028.12,1024.72,1021.32,1018.44,1016.01,1013.63,1011.09,1007.99,1004.60,1001.90,1002.30,1003.49,1004.17,1003.88,1002.65,1001.49,1001.02,1001.20,1001.90,1002.72,1003.17,1004.13,1006.05,1008.42,1011.22,1014.21,1018.02,1023.69,1027.57,1031.28,1035.40,1039.90,1043.60,1047.03,1050.91,1055.57,1060.95,1065.88,1067.66,1065.96,1060.59,1053.62,1047.62,1042.39,1037.55,1032.72,1028.78,1025.19,1021.63,1017.87,1014.26,1010.71,1007.49,1004.96,1003.12,1000.57,995.68,989.52,987.06,988.34,990.41,991.11,988.76,986.36,987.63,990.57,993.78,996.87,999.37,1001.53,1003.37,1004.65,1005.36,1005.04,1004.10,1002.87,1001.54,1000.11,999.10,998.95,1000.13,1001.00,998.42,993.46,989.22,990.02,992.16,994.36,995.72,994.55,993.93,996.62,1002.22,1008.22,1013.75,1018.01,1021.90,1026.21,1030.20,1033.84,1037.58,1041.55,1045.59,1051.02,1057.11,1062.97,1067.85,1073.68,1079.80,1085.50,1090.30,1094.03,1096.51,1097.38,1096.60,1094.24,1091.55,1086.31,1079.20,1071.41,1064.50,1057.71,1050.68,1043.83,1038.68,1034.47
1136.36,1139.56,1143.32,1147.90,1152.42,1156.92,1161.75,1167.00,1172.09,1177.18,1182.01,1187.72,1198.34,1219.95,1230.41,1233.34,1235.44,1237.72,1240.05,1242.53,1245.29,1248.53,1252.06,1255.75,1259.28,1262.21,1264.84,1266.72,1266.06,1262.20,1258.34,1256.73,1257.22,1258.19,1256.48,1253.87,1250.15,1244.60,1235.63,1222.04,1213.50,1207.93,1203.93,1200.88,1197.29,1193.76,1189.98,1185.09,1179.18,1172.08,1165.00,1158.52,1151.86,1147.88,1146.26,1146.11,1146.03,1145.76,1148.33,1152.05,1154.35,1153.87,1152.44,1150.42,1147.97,1145.62,1143.97,1142.74,1141.55,1139.96,1138.08,1136.59,1135.89,1136.17,1136.62,1136.46,1135.17,1133.17,1131.77,1130.80,1130.17,1129.83,1129.94,1130.75,1131.87,1132.94,1133.23,1131.07,1127.67,1123.52,1118.98,1114.33,1109.99,1106.48,1103.30,1099.99,1096.26,1092.43,1088.96,1085.89,1082.91,1080.09,1077.58,1075.14,1072.57,1070.37,1068.99,1068.19,1067.51,1065.82,1064.59,1063.53,1062.66,1062.23,1062.23,1061.82,1061.01,1059.92,1058.75,1057.53,1055.71,1053.17,1050.27,1046.96,1044.05,1041.51,1039.15,1036.81,1034.55,1032.25,1029.68,1026.31,1022.63,1019.44,1016.76,1014.26,1011.58,1008.50,1005.40,1003.23,1004.12,1005.31,1005.60,1004.93,1004.01,1003.14,1002.85,1003.11,1003.77,1004.73,1005.48,1006.68,1008.85,1012.00,1015.79,1020.03,1024.47,1028.70,1032.26,1035.56,1039.03,1042.78,1046.00,1049.32,1053.47,1058.52,1063.89,1068.89,1070.14,1067.59,1061.75,1055.02,1049.25,1044.62,1040.84,1036.62,1032.79,1028.97,1024.82,1020.04,1016.19,1012.90,1010.19,1008.01,1005.06,1001.37,996.13,990.77,990.38,993.26,995.22,994.88,991.88,989.14,989.89,992.61,996.10,999.40,1001.76,1003.75,1005.55,1006.90,1007.69,1007.52,1006.78,1005.80,1004.83,1003.89,1003.34,1003.46,1004.33,1003.70,999.70,994.28,991.12,992.09,994.04,996.24,998.04,997.57,996.73,999.31,1005.40,1012.73,1019.12,1022.69,1025.34,1029.12,1033.76,1038.20,1041.62,1044.14,1047.37,1052.21,1058.06,1063.96,1069.10,1075.27,1081.27,1087.07,1092.49,1096.72,1099.90,1100.98,1099.78,1096.62,1093.26,1087.42,1079.87,1072.02,1065.94,1060.17,1053.69,1047.05,1043.03,1040.16
1137.34,1141.31,1145.66,1149.68,1153.77,1158.19,1163.19,1168.72,1173.78,1178.66,1183.15,1188.80,1200.19,1221.57,1231.43,1234.07,1236.58,1239.02,1241.47,1244.00,1246.71,1249.72,1253.07,1256.66,1260.13,1262.99,1265.70,1268.04,1268.66,1266.63,1262.87,1261.47,1262.38,1264.33,1264.79,1262.94,1258.55,1252.94,1246.79,1238.80,1226.23,1214.62,1206.92,1203.62,1200.13,1196.68,1193.00,1188.17,1181.51,1173.38,1165.87,1160.01,1154.47,1151.79,1150.88,1150.84,1150.85,1151.00,1153.46,1156.63,1158.28,1157.56,1156.09,1154.52,1152.70,1149.94,1147.99,1146.42,1145.00,1143.68,1142.28,1141.11,1140.57,1140.77,1140.83,1139.97,1138.63,1137.20,1136.23,1136.22,1136.25,1136.47,1137.31,1138.35,1138.30,1136.67,1133.56,1130.23,1126.45,1122.23,1117.70,1113.17,1109.35,1106.19,1103.19,1099.98,1096.31,1092.73,1089.38,1086.23,1083.13,1080.24,1077.52,1074.87,1072.42,1071.11,1071.16,1070.99,1069.81,1067.84,1066.70,1065.85,1065.09,1064.52,1064.12,1063.33,1062.32,1061.34,1060.52,1059.44,1057.46,1054.66,1051.71,1048.61,1045.67,1042.96,1040.47,1038.06,1035.78,1033.41,1030.76,1027.55,1023.84,1020.38,1017.34,1014.59,1011.66,1008.47,1005.88,1004.92,1005.94,1006.96,1007.18,1006.55,1005.65,1004.94,1004.73,1004.99,1005.65,1006.62,1007.62,1009.22,1011.94,1016.02,1020.41,1025.01,1029.45,1033.00,1036.38,1039.62,1042.70,1045.67,1048.74,1052.01,1056.14,1061.32,1067.09,1071.28,1071.86,1069.20,1063.97,1058.19,1052.49,1047.75,1044.19,1040.48,1036.58,1032.19,1027.32,1022.31,1018.92,1016.28,1013.63,1010.37,1005.99,1001.36,996.66,993.66,996.54,999.26,1000.07,998.91,995.96,992.64,992.63,994.95,998.47,1001.45,1003.91,1006.00,1007.79,1009.24,1010.16,1010.26,1009.74,1008.81,1007.94,1007.21,1006.92,1007.30,1008.13,1005.57,1000.21,995.13,994.25,995.25,996.57,998.28,1000.14,1000.36,999.42,1001.62,1007.84,1016.74,1023.48,1027.04,1029.04,1031.42,1036.18,1041.10,1045.19,1048.36,1051.35,1054.40,1058.41,1063.33,1069.04,1076.14,1082.58,1088.47,1094.03,1099.14,1103.39,1104.79,1103.29,1100.03,1095.89,1089.34,1081.88,1075.22,1069.37,1063.91,1057.63,1051.11,1047.80,1046.22
1139.48,1143.75,1148.18,1151.79,1155.24,1159.59,1164.72,1170.32,1175.39,1180.09,1184.37,1190.23,1202.69,1222.71,1231.79,1234.33,1236.89,1239.30,1241.75,1244.28,1246.97,1250.01,1253.09,1256.31,1259.54,1262.59,1265.84,1268.86,1270.79,1270.72,1268.19,1267.26,1267.87,1269.35,1270.45,1269.88,1266.93,1262.59,1257.33,1249.94,1237.61,1223.90,1211.99,1206.05,1202.09,1198.60,1194.81,1189.88,1183.16,1174.88,1167.54,1162.51,1158.31,1156.34,1155.43,1154.97,1154.70,1154.85,1157.06,1160.08,1162.07,1161.59,1160.75,1159.64,1158.03,1155.77,1153.17,1150.86,1148.97,1147.54,1146.38,1145.64,1145.30,1145.24,1144.92,1143.91,1142.64,1141.45,1140.88,1141.10,1141.76,1142.61,1143.22,1142.46,1140.29,1137.02,1132.93,1129.01,1125.07,1120.94,1116.63,1112.38,1108.82,1105.73,1102.71,1099.51,1095.99,1092.47,1089.21,1086.20,1083.20,1080.32,1077.48,1075.09,1073.76,1073.47,1073.77,1073.36,1071.82,1070.03,1068.92,1068.04,1067.22,1066.48,1065.71,1064.70,1063.60,1062.54,1061.59,1060.49,1058.59,1055.86,1052.79,1049.90,1047.16,1044.58,1042.10,1039.35,1036.76,1034.20,1031.45,1028.20,1024.46,1020.84,1017.53,1014.58,1011.51,1008.47,1006.61,1006.80,1007.78,1008.41,1008.47,1008.00,1007.26,1006.71,1006.61,1006.91,1007.59,1008.59,1010.02,1012.05,1015.00,1019.40,1024.26,1028.93,1033.14,1036.71,1040.43,1043.59,1046.63,1049.81,1052.16,1054.99,1059.42,1065.19,1070.32,1074.10,1074.31,1071.62,1067.16,1062.12,1056.85,1051.90,1047.53,1043.46,1039.26,1034.60,1029.72,1025.46,1022.47,1019.52,1016.06,1011.77,1006.81,1002.67,999.85,999.02,1001.14,1002.94,1002.95,1001.42,998.88,995.86,995.64,997.52,1000.63,1003.39,1005.92,1008.21,1010.25,1011.97,1013.19,1013.71,1013.55,1012.74,1011.92,1011.12,1010.68,1010.70,1010.38,1005.83,1000.06,996.26,997.49,998.76,999.46,1000.50,1002.11,1002.50,1001.69,1003.70,1009.43,1018.06,1026.18,1031.30,1034.47,1037.15,1040.80,1044.71,1048.63,1052.39,1055.73,1058.50,1061.55,1065.25,1070.22,1077.54,1083.91,1089.67,1095.41,1101.17,1106.37,1108.34,1106.84,1103.26,1099.09,1092.81,1085.81,1079.62,1073.57,1067.65,1061.63,1056.12,1053.24,1051.94
1142.19,1146.46,1150.63,1153.88,1156.78,1161.04,1166.21,1171.78,1176.96,1181.43,1185.48,1191.65,1205.44,1223.71,1231.91,1234.38,1236.84,1239.04,1241.46,1244.05,1246.85,1249.99,1252.86,1255.75,1258.79,1262.12,1265.96,1269.54,1272.48,1274.14,1273.42,1273.20,1273.47,1274.16,1275.27,1275.72,1274.28,1271.23,1266.38,1258.70,1247.69,1233.36,1217.95,1208.50,1203.84,1200.18,1196.18,1191.24,1184.77,1177.12,1170.45,1166.05,1162.94,1161.41,1160.36,1159.42,1158.74,1158.58,1160.37,1163.24,1165.71,1165.88,1165.66,1164.80,1163.21,1161.50,1158.49,1155.69,1153.50,1151.95,1150.90,1150.49,1150.30,1149.99,1149.30,1148.32,1147.16,1146.16,1145.96,1146.06,1147.03,1147.97,1147.49,1144.54,1140.50,1136.17,1131.85,1127.62,1123.62,1119.60,1115.53,1111.53,1108.08,1104.92,1101.79,1098.58,1095.25,1091.85,1088.75,1085.95,1083.11,1080.29,1077.59,1075.81,1075.81,1076.32,1076.45,1075.62,1073.84,1072.31,1071.18,1070.17,1069.19,1068.23,1067.15,1066.02,1064.91,1063.79,1062.43,1061.15,1059.34,1056.80,1053.76,1051.17,1048.78,1046.41,1043.85,1040.72,1037.78,1034.92,1031.93,1028.53,1024.80,1021.09,1017.61,1014.50,1011.31,1008.67,1007.65,1008.78,1009.75,1010.11,1010.04,1009.68,1009.07,1008.67,1008.67,1009.01,1009.70,1010.76,1012.61,1014.97,1017.99,1022.34,1027.37,1031.98,1036.17,1040.53,1044.73,1047.89,1051.07,1054.76,1056.67,1059.16,1063.65,1069.51,1073.73,1077.17,1077.30,1074.85,1071.06,1066.40,1061.51,1056.38,1051.13,1046.34,1041.70,1036.88,1032.23,1028.70,1025.72,1022.15,1017.87,1012.99,1008.02,1004.98,1004.09,1004.81,1005.29,1005.93,1005.25,1003.49,1001.32,998.80,998.61,1000.16,1002.80,1005.42,1008.01,1010.49,1012.80,1014.77,1016.29,1017.26,1017.50,1016.88,1016.13,1015.19,1014.47,1013.78,1011.75,1005.62,1000.05,997.84,1000.88,1002.43,1002.54,1002.90,1004.12,1004.46,1003.81,1005.51,1010.40,1018.20,1027.66,1034.77,1039.80,1043.47,1046.01,1048.63,1051.93,1055.93,1059.88,1063.16,1065.96,1068.79,1072.74,1079.55,1085.53,1091.03,1096.79,1102.99,1108.86,1111.43,1110.27,1106.54,1102.53,1096.83,1090.45,1084.49,1077.94,1071.34,1065.47,1061.02,1058.63,1057.24
1145.55,1149.37,1152.72,1155.61,1158.41,1162.51,1167.47,1172.91,1178.41,1182.53,1186.16,1192.68,1208.28,1224.72,1231.91,1234.21,1236.49,1238.10,1240.49,1243.41,1246.66,1249.92,1252.84,1255.78,1258.93,1262.57,1266.71,1270.28,1273.30,1275.80,1277.61,1278.64,1279.09,1279.37,1280.05,1280.18,1278.52,1275.55,1271.46,1265.57,1255.08,1240.86,1224.64,1211.26,1205.78,1201.72,1197.34,1192.82,1186.92,1181.45,1176.35,1171.78,1168.81,1167.47,1166.54,1165.51,1164.25,1163.28,1164.29,1166.57,1169.04,1170.65,1170.36,1169.08,1167.32,1165.44,1163.11,1161.00,1159.28,1157.91,1156.77,1156.32,1156.13,1155.75,1154.70,1153.71,1152.76,1152.07,1152.13,1151.78,1152.07,1151.46,1148.12,1143.76,1139.44,1134.95,1130.31,1126.06,1122.07,1118.11,1114.12,1110.15,1106.63,1103.23,1099.88,1096.63,1093.59,1090.63,1087.93,1085.38,1082.66,1079.98,1078.12,1077.58,1078.63,1079.14,1078.95,1077.91,1076.18,1074.70,1073.45,1072.23,1070.96,1069.63,1068.41,1067.32,1066.41,1065.41,1063.28,1061.49,1059.52,1057.18,1054.69,1052.74,1050.94,1048.76,1045.70,1042.33,1039.11,1035.77,1032.16,1028.42,1024.78,1021.16,1017.67,1014.55,1011.18,1009.45,1009.46,1010.92,1012.11,1012.78,1012.77,1012.19,1011.55,1011.27,1011.26,1011.55,1012.31,1013.51,1015.50,1017.91,1020.73,1024.51,1028.99,1033.44,1038.43,1045.19,1049.83,1053.28,1056.82,1060.95,1063.90,1066.78,1070.25,1074.21,1077.70,1080.56,1081.25,1079.79,1076.18,1071.04,1066.02,1060.97,1055.57,1049.73,1044.41,1039.55,1035.17,1031.38,1027.29,1023.03,1018.77,1014.57,1010.53,1009.09,1009.05,1009.54,1009.55,1009.00,1007.63,1005.66,1003.44,1001.14,1001.19,1002.78,1005.22,1007.83,1010.49,1013.05,1015.41,1017.44,1019.14,1020.44,1021.09,1020.81,1020.14,1019.21,1018.16,1016.35,1011.93,1005.52,1001.10,1000.52,1004.62,1006.27,1005.90,1005.68,1006.43,1006.47,1005.80,1006.70,1010.24,1017.39,1026.99,1035.86,1043.17,1048.36,1050.96,1052.80,1054.93,1058.07,1062.93,1067.72,1071.61,1074.85,1078.24,1082.92,1087.97,1093.06,1098.32,1104.48,1110.27,1113.38,1113.25,1110.22,1106.22,1101.07,1095.45,1089.65,1082.06,1074.83,1068.76,1064.64,1063.24,1061.55
1148.73,1152.23,1155.28,1158.05,1160.95,1164.79,1169.17,1173.94,1179.34,1183.25,1186.73,1193.69,1210.90,1225.69,1231.96,1234.21,1236.73,1238.50,1240.87,1243.75,1246.97,1250.26,1253.26,1256.24,1259.47,1263.24,1267.25,1270.75,1273.87,1276.72,1279.44,1281.64,1283.14,1284.15,1284.98,1284.45,1281.90,1278.32,1274.45,1269.81,1259.85,1246.68,1231.78,1217.31,1208.63,1202.87,1198.31,1194.01,1189.17,1184.86,1180.90,1177.32,1174.87,1173.54,1172.75,1172.12,1171.21,1169.43,1169.29,1170.79,1173.36,1175.30,1174.99,1173.63,1171.80,1169.76,1167.54,1165.68,1164.29,1163.36,1162.69,1162.50,1162.47,1162.23,1161.53,1161.09,1160.34,1159.42,1158.89,1157.03,1154.96,1152.10,1147.55,1142.78,1138.15,1133.47,1128.76,1124.51,1120.53,1116.63,1112.72,1108.87,1105.36,1101.99,1098.59,1095.13,1091.85,1089.09,1086.68,1084.39,1081.93,1079.99,1079.22,1079.53,1080.61,1081.05,1080.71,1079.77,1078.33,1076.70,1075.16,1073.63,1072.09,1070.67,1069.55,1068.77,1068.18,1067.39,1065.23,1063.01,1060.62,1058.14,1056.05,1054.29,1052.59,1050.59,1047.79,1044.09,1040.13,1036.06,1031.98,1028.16,1024.67,1021.35,1018.44,1016.27,1012.50,1010.87,1011.26,1012.98,1014.38,1015.28,1015.70,1015.71,1015.48,1015.31,1015.05,1014.92,1015.37,1016.39,1018.25,1020.58,1023.29,1026.53,1030.72,1035.19,1040.75,1048.92,1053.65,1057.43,1061.18,1065.08,1068.51,1071.84,1075.21,1078.65,1082.06,1084.91,1086.18,1085.33,1081.58,1076.36,1070.87,1065.19,1059.13,1052.51,1046.64,1041.67,1037.39,1033.45,1029.14,1025.23,1021.50,1017.71,1014.26,1013.83,1014.31,1014.62,1014.39,1013.19,1010.90,1008.13,1005.64,1003.31,1003.57,1005.29,1007.67,1010.31,1013.00,1015.64,1018.15,1020.39,1022.21,1023.58,1024.28,1024.08,1023.40,1022.33,1020.71,1017.91,1012.82,1007.95,1005.30,1005.49,1008.66,1010.05,1009.18,1008.42,1008.82,1008.54,1007.89,1008.28,1010.79,1017.00,1025.94,1035.36,1043.72,1049.81,1054.02,1056.23,1058.56,1062.07,1067.04,1072.03,1076.31,1079.85,1082.91,1086.89,1091.31,1095.96,1101.01,1106.95,1112.32,1116.09,1117.35,1114.60,1110.34,1105.24,1099.74,1093.68,1085.72,1078.41,1072.59,1068.88,1067.56,1064.97
1151.84,1155.18,1158.20,1161.02,1164.06,1167.60,1171.25,1175.08,1180.04,1184.02,1187.79,1195.34,1213.51,1226.57,1232.07,1234.47,1237.41,1239.63,1241.99,1244.63,1247.57,1250.76,1253.82,1256.84,1260.11,1263.93,1267.68,1271.10,1274.29,1277.29,1280.20,1283.37,1286.12,1288.26,1289.51,1288.28,1284.77,1280.45,1276.46,1272.61,1263.65,1251.89,1238.45,1223.91,1212.13,1204.49,1199.54,1195.30,1191.54,1187.94,1184.82,1182.51,1180.85,1179.64,1179.04,1178.92,1178.65,1176.51,1175.36,1175.97,1178.34,1180.05,1179.70,1178.35,1176.52,1174.42,1172.24,1170.59,1169.61,1169.35,1169.47,1169.82,1170.02,1169.83,1169.42,1169.15,1168.09,1166.29,1164.40,1160.76,1156.20,1151.31,1146.37,1141.61,1136.71,1131.85,1127.20,1122.95,1119.05,1115.21,1111.39,1107.67,1104.27,1101.03,1097.63,1093.94,1090.31,1087.54,1085.45,1083.71,1081.82,1080.80,1080.92,1081.63,1082.33,1082.55,1082.02,1081.14,1079.95,1078.18,1076.38,1074.59,1072.90,1071.56,1070.68,1070.25,1069.96,1069.38,1067.62,1065.11,1062.26,1059.50,1057.59,1055.79,1053.99,1052.09,1049.67,1045.70,1040.96,1036.20,1031.80,1028.04,1024.80,1021.92,1019.74,1018.54,1014.43,1012.60,1013.07,1015.00,1016.59,1017.70,1018.69,1019.57,1019.97,1020.02,1019.45,1018.76,1018.65,1019.38,1020.99,1023.18,1025.81,1028.73,1032.81,1037.70,1043.89,1052.16,1056.78,1060.87,1064.81,1068.39,1072.10,1075.84,1079.47,1082.99,1086.54,1089.50,1091.24,1090.73,1086.63,1081.55,1075.74,1069.33,1062.32,1055.03,1048.70,1043.70,1039.65,1035.81,1031.73,1028.30,1025.01,1021.51,1018.84,1019.36,1020.35,1020.60,1020.19,1018.49,1015.12,1011.11,1007.85,1005.34,1005.80,1007.79,1010.31,1013.05,1015.77,1018.50,1021.16,1023.59,1025.47,1026.77,1027.39,1027.11,1026.33,1024.96,1022.58,1018.85,1013.90,1011.13,1010.18,1010.72,1012.59,1013.73,1012.44,1011.26,1011.40,1010.84,1010.21,1010.36,1012.12,1017.07,1024.87,1034.12,1042.93,1049.96,1056.46,1059.99,1063.17,1067.24,1071.96,1076.42,1080.56,1084.18,1087.13,1091.02,1095.12,1099.56,1104.58,1110.05,1114.84,1119.25,1121.91,1119.34,1114.72,1109.35,1103.57,1097.12,1089.31,1082.28,1076.91,1073.59,1071.78,1068.20
1155.02,1158.43,1161.64,1164.75,1167.84,1171.10,1174.02,1176.72,1180.77,1185.56,1190.84,1199.42,1216.35,1227.18,1232.32,1235.39,1238.80,1241.34,1243.63,1245.95,1248.44,1251.19,1254.20,1257.31,1260.60,1264.30,1268.05,1271.42,1274.60,1277.72,1280.83,1284.31,1287.65,1290.53,1292.28,1290.73,1287.11,1282.66,1278.20,1274.34,1268.07,1257.51,1242.71,1227.25,1216.57,1208.45,1202.02,1197.55,1194.23,1191.30,1188.69,1186.75,1186.21,1185.74,1185.53,1185.56,1185.52,1184.71,1183.68,1183.28,1184.18,1185.42,1184.73,1183.25,1181.54,1179.71,1178.26,1177.42,1177.32,1178.17,1179.43,1180.76,1181.28,1180.42,1178.86,1176.58,1173.27,1169.03,1164.37,1159.71,1154.79,1149.77,1144.88,1140.04,1134.99,1130.13,1125.63,1121.41,1117.66,1113.96,1110.25,1106.70,1103.52,1100.30,1096.84,1093.15,1089.57,1086.41,1084.94,1084.86,1084.46,1084.07,1083.81,1083.95,1084.52,1084.00,1082.81,1081.40,1079.92,1078.31,1076.68,1075.06,1073.57,1072.52,1071.93,1071.62,1071.36,1070.90,1069.79,1067.39,1064.42,1061.42,1059.10,1057.23,1055.31,1053.14,1050.45,1046.55,1041.67,1036.69,1032.19,1028.63,1025.97,1023.73,1021.83,1020.11,1016.24,1014.53,1015.01,1016.98,1018.76,1020.11,1021.55,1023.11,1024.19,1024.83,1024.28,1023.01,1022.00,1022.56,1024.01,1025.96,1028.48,1031.96,1036.09,1042.49,1049.91,1055.13,1059.41,1063.66,1067.94,1072.09,1076.24,1080.11,1083.79,1087.38,1090.87,1093.43,1095.19,1094.66,1089.95,1085.26,1080.18,1073.71,1065.56,1057.57,1050.88,1046.31,1043.24,1040.24,1036.55,1032.49,1028.48,1025.27,1024.64,1026.87,1028.87,1029.39,1028.55,1026.08,1021.40,1015.46,1009.94,1007.11,1007.86,1010.38,1013.58,1016.58,1019.43,1022.25,1024.97,1027.28,1029.10,1030.29,1030.77,1030.36,1029.26,1027.26,1023.81,1019.06,1014.62,1012.95,1012.51,1013.22,1015.60,1017.08,1015.81,1014.53,1014.59,1013.93,1013.24,1013.63,1015.23,1018.11,1024.29,1032.58,1041.68,1050.78,1059.62,1066.12,1070.49,1073.67,1078.17,1081.59,1084.68,1087.78,1091.03,1094.75,1099.26,1104.32,1109.54,1113.90,1118.10,1122.78,1126.29,1124.29,1119.32,1113.26,1106.80,1100.12,1093.41,1087.03,1082.16,1079.02,1076.10,1072.15
1158.10,1161.62,1165.03,1168.42,1171.76,1175.06,1177.88,1180.26,1183.48,1188.16,1193.61,1202.15,1218.13,1227.22,1232.15,1235.71,1239.26,1241.84,1244.16,1246.45,1248.82,1251.42,1254.45,1257.67,1261.06,1264.70,1268.41,1271.74,1274.90,1278.10,1281.54,1285.36,1288.94,1292.04,1294.18,1293.20,1289.77,1285.08,1280.06,1275.86,1271.22,1262.22,1247.83,1231.77,1221.39,1213.06,1206.01,1201.23,1197.88,1195.97,1195.03,1194.95,1195.83,1197.45,1198.79,1199.71,1200.21,1197.66,1194.76,1192.56,1191.45,1190.96,1189.66,1188.13,1186.68,1185.37,1184.61,1184.49,1185.05,1186.30,1187.69,1188.21,1187.58,1185.65,1182.93,1179.36,1174.82,1169.45,1163.72,1158.32,1153.16,1148.16,1143.26,1138.20,1133.07,1128.30,1124.03,1119.99,1116.46,1113.01,1109.28,1105.07,1101.77,1098.40,1094.89,1091.45,1088.53,1086.67,1086.39,1087.22,1087.63,1087.31,1086.73,1086.21,1085.76,1084.53,1082.88,1081.17,1079.53,1078.08,1076.83,1075.63,1074.56,1073.78,1073.31,1073.00,1072.68,1072.17,1071.16,1069.22,1066.55,1063.50,1060.83,1058.57,1056.28,1053.75,1050.74,1046.77,1042.20,1037.56,1033.18,1029.54,1027.29,1025.40,1023.43,1021.03,1017.44,1016.15,1016.94,1019.08,1020.95,1022.51,1024.13,1025.92,1027.74,1029.29,1028.85,1027.08,1025.45,1025.72,1027.12,1029.17,1031.93,1035.79,1041.06,1047.59,1053.98,1057.89,1062.43,1067.00,1071.58,1076.14,1080.35,1084.23,1088.00,1091.69,1095.06,1097.39,1099.02,1098.51,1093.84,1088.51,1083.46,1077.17,1069.00,1060.88,1054.46,1050.04,1047.03,1044.23,1040.57,1036.38,1032.51,1030.09,1030.24,1033.02,1035.39,1036.01,1034.74,1032.14,1027.37,1020.79,1013.53,1009.53,1010.56,1013.74,1017.29,1020.50,1023.44,1026.25,1028.86,1031.04,1032.87,1034.14,1034.67,1034.14,1032.48,1029.40,1024.74,1019.33,1015.99,1015.17,1014.88,1015.47,1018.11,1019.88,1018.90,1017.71,1017.64,1017.09,1016.37,1016.86,1018.60,1021.06,1025.78,1032.38,1040.51,1050.19,1060.72,1069.33,1075.23,1078.93,1083.13,1086.46,1089.28,1092.02,1095.14,1098.71,1103.50,1108.78,1113.85,1118.05,1122.23,1126.96,1130.64,1129.16,1124.56,1117.99,1110.88,1104.26,1098.13,1092.11,1087.46,1084.40,1081.27,1077.68
1161.10,1164.73,1168.35,1172.06,1175.73,1179.33,1182.52,1185.19,1187.86,1191.83,1196.71,1204.58,1219.16,1226.78,1231.56,1235.49,1239.00,1241.53,1243.99,1246.43,1248.88,1251.56,1254.65,1258.00,1261.51,1265.13,1268.75,1272.06,1275.21,1278.44,1282.24,1286.42,1290.11,1293.17,1295.65,1295.86,1292.81,1287.77,1282.05,1277.29,1273.40,1266.22,1253.78,1237.38,1226.34,1217.77,1210.71,1205.73,1202.22,1201.51,1202.78,1205.33,1207.76,1211.74,1214.87,1216.70,1217.41,1211.94,1206.45,1202.23,1199.15,1196.54,1194.49,1192.90,1191.76,1191.02,1190.73,1191.17,1192.17,1193.34,1193.87,1192.34,1189.75,1186.72,1183.14,1178.93,1173.99,1168.49,1162.91,1157.03,1151.58,1146.53,1141.57,1136.24,1131.11,1126.50,1122.47,1118.68,1115.33,1112.02,1108.10,1102.96,1099.40,1095.86,1092.50,1089.82,1088.16,1088.27,1089.16,1090.23,1090.84,1090.16,1089.23,1088.03,1086.25,1084.50,1082.67,1080.87,1079.23,1077.96,1077.13,1076.44,1075.80,1075.24,1074.77,1074.40,1073.96,1073.21,1071.96,1070.59,1068.41,1065.46,1062.56,1059.78,1057.00,1054.08,1050.79,1046.73,1042.74,1038.72,1034.62,1030.79,1028.71,1026.88,1024.63,1021.63,1018.30,1017.55,1018.81,1021.15,1023.04,1024.77,1026.45,1028.34,1030.96,1033.54,1033.25,1031.06,1029.01,1028.87,1030.30,1032.68,1035.88,1040.09,1046.66,1052.39,1056.74,1060.72,1065.80,1070.70,1075.47,1080.21,1084.26,1088.17,1092.07,1095.87,1099.10,1101.39,1102.76,1102.17,1097.85,1091.47,1085.95,1079.89,1072.41,1064.78,1059.01,1054.53,1050.87,1047.63,1043.78,1039.93,1036.91,1035.51,1035.63,1038.17,1040.53,1041.30,1039.81,1037.07,1032.48,1025.89,1017.67,1012.51,1013.87,1017.67,1021.40,1024.65,1027.60,1030.32,1032.76,1034.85,1036.75,1038.14,1038.75,1038.05,1035.65,1031.24,1025.48,1019.89,1017.97,1017.78,1017.42,1017.69,1020.28,1022.26,1021.73,1020.71,1020.42,1020.08,1019.49,1020.07,1022.08,1025.08,1028.67,1033.39,1039.79,1048.79,1060.29,1070.14,1077.63,1082.91,1087.37,1091.36,1094.38,1096.86,1099.56,1102.94,1107.75,1112.86,1117.57,1122.14,1126.73,1131.49,1135.03,1133.87,1129.87,1123.01,1115.41,1108.99,1103.06,1097.30,1092.82,1089.83,1086.91,1084.13
1163.90,1167.71,1171.72,1175.97,1179.70,1183.77,1187.74,1191.22,1194.14,1197.54,1202.56,1209.88,1219.85,1225.70,1230.38,1234.61,1238.22,1241.11,1243.78,1246.35,1248.92,1251.73,1254.96,1258.41,1261.94,1265.46,1268.98,1272.33,1275.55,1278.83,1282.67,1287.17,1291.18,1294.47,1297.23,1299.01,1296.55,1291.05,1284.28,1278.77,1274.86,1269.72,1260.52,1244.04,1231.02,1221.49,1214.58,1210.01,1207.08,1207.28,1209.84,1213.98,1217.77,1221.72,1224.18,1224.69,1223.12,1218.67,1213.26,1208.32,1204.81,1201.95,1199.28,1197.34,1196.29,1195.61,1195.14,1195.64,1196.87,1197.86,1195.93,1191.92,1187.87,1184.77,1181.49,1177.18,1172.24,1167.08,1162.10,1156.30,1150.38,1144.83,1139.82,1134.37,1129.49,1125.15,1121.26,1117.53,1113.95,1110.01,1105.52,1100.62,1097.19,1093.77,1091.49,1091.36,1091.95,1092.10,1092.40,1092.96,1093.15,1091.69,1089.89,1088.03,1086.12,1084.59,1083.05,1081.52,1080.12,1079.12,1078.46,1077.88,1077.32,1076.79,1076.32,1075.85,1075.10,1073.88,1072.48,1071.14,1069.22,1066.58,1063.61,1060.65,1057.55,1054.32,1050.97,1047.26,1043.80,1040.28,1036.55,1032.92,1030.41,1028.12,1025.54,1022.38,1019.29,1018.90,1020.38,1022.70,1024.55,1026.35,1028.35,1030.89,1034.54,1037.92,1037.73,1035.24,1032.86,1032.05,1033.60,1036.28,1039.82,1044.98,1050.42,1055.22,1059.61,1064.45,1069.49,1074.40,1079.04,1083.32,1087.39,1091.73,1095.95,1099.76,1102.88,1105.36,1106.22,1104.87,1100.42,1094.15,1088.13,1081.88,1075.14,1069.05,1063.97,1059.36,1054.77,1049.84,1045.85,1043.11,1041.37,1040.62,1040.83,1042.98,1045.53,1047.28,1046.52,1041.63,1034.86,1027.30,1020.00,1016.21,1018.08,1022.14,1026.13,1029.00,1031.61,1034.16,1036.60,1038.68,1040.71,1041.90,1042.16,1041.05,1037.66,1032.14,1026.18,1021.53,1020.77,1020.84,1020.21,1019.99,1022.18,1024.36,1024.16,1023.18,1022.55,1022.23,1022.42,1023.54,1025.63,1028.70,1032.21,1036.08,1040.88,1047.91,1058.90,1068.78,1077.16,1084.59,1092.26,1097.35,1100.40,1102.47,1104.73,1107.68,1111.74,1116.26,1120.80,1125.30,1130.49,1135.91,1139.72,1138.11,1133.64,1126.87,1119.53,1113.12,1107.32,1102.26,1098.46,1095.71,1092.33,1090.35
1166.60,1170.87,1175.47,1179.99,1183.97,1188.60,1194.09,1199.63,1202.36,1204.69,1208.44,1213.89,1220.48,1224.95,1229.34,1233.57,1237.18,1240.41,1243.26,1246.06,1248.94,1251.96,1255.24,1258.69,1262.20,1265.65,1269.13,1272.55,1275.88,1279.26,1283.35,1287.96,1292.10,1295.59,1298.71,1301.63,1299.83,1294.46,1287.33,1280.82,1276.49,1272.45,1265.59,1250.45,1236.39,1226.28,1219.61,1215.49,1213.26,1213.86,1216.61,1221.05,1225.89,1230.08,1231.37,1229.64,1226.19,1222.48,1218.01,1213.87,1211.15,1208.47,1205.70,1203.76,1202.81,1201.82,1200.26,1199.88,1200.15,1199.15,1194.80,1189.87,1185.63,1182.43,1179.05,1174.69,1170.01,1165.36,1160.85,1155.65,1149.79,1143.92,1138.64,1133.25,1128.52,1124.30,1120.46,1116.69,1112.93,1108.34,1103.31,1099.02,1096.38,1094.35,1093.89,1095.55,1096.77,1096.05,1095.42,1095.34,1094.78,1092.75,1090.54,1088.55,1086.86,1085.37,1083.96,1082.65,1081.53,1080.75,1080.10,1079.49,1078.89,1078.28,1077.75,1077.09,1076.06,1074.54,1073.05,1071.61,1069.78,1067.34,1064.21,1061.09,1057.83,1054.57,1051.46,1048.22,1045.09,1041.85,1038.43,1035.07,1032.23,1029.45,1026.44,1023.05,1020.14,1020.08,1021.84,1024.22,1026.08,1027.96,1030.27,1033.35,1037.60,1041.55,1041.80,1039.58,1037.13,1035.50,1036.79,1039.70,1043.71,1048.96,1053.52,1058.03,1062.84,1068.11,1073.11,1077.84,1082.22,1086.25,1090.61,1095.28,1099.61,1103.34,1106.62,1109.48,1109.78,1107.45,1102.66,1096.74,1090.78,1084.59,1078.28,1073.03,1068.35,1063.55,1058.35,1052.78,1048.83,1046.70,1045.65,1045.31,1045.67,1047.43,1049.75,1051.44,1050.03,1043.73,1035.54,1027.67,1022.43,1021.72,1024.26,1027.65,1030.66,1033.01,1035.42,1038.03,1040.67,1042.89,1044.91,1045.76,1045.28,1043.05,1038.76,1032.55,1026.86,1023.53,1024.23,1024.39,1023.46,1022.81,1024.43,1026.58,1026.66,1025.74,1024.82,1024.51,1025.30,1027.10,1029.82,1033.41,1037.09,1040.00,1043.11,1048.26,1057.80,1067.47,1076.76,1086.07,1096.09,1102.35,1106.01,1108.38,1110.59,1113.19,1116.51,1120.33,1124.58,1129.23,1134.81,1140.33,1143.88,1141.87,1137.29,1130.39,1122.95,1116.54,1111.02,1107.00,1103.74,1100.72,1097.55,1096.45
1169.18,1174.11,1179.36,1183.94,1188.39,1193.89,1201.24,1209.13,1211.30,1212.33,1213.72,1216.35,1221.08,1224.66,1228.57,1232.53,1236.04,1239.54,1242.55,1245.67,1249.04,1252.25,1255.48,1258.86,1262.31,1265.72,1269.18,1272.70,1276.15,1279.72,1284.20,1288.72,1292.81,1296.50,1300.08,1303.70,1302.82,1298.46,1291.93,1283.97,1278.67,1274.63,1269.09,1256.68,1242.48,1232.09,1225.60,1221.82,1220.26,1221.01,1223.31,1227.05,1232.45,1237.16,1237.16,1232.94,1228.36,1224.68,1221.49,1219.10,1217.76,1215.38,1212.89,1211.16,1210.17,1208.59,1205.39,1203.41,1201.73,1197.50,1191.32,1186.85,1183.37,1179.93,1176.03,1171.73,1167.47,1163.36,1159.17,1154.89,1149.57,1143.72,1138.10,1132.81,1128.08,1123.83,1119.92,1115.99,1112.07,1107.09,1101.85,1098.45,1097.59,1097.99,1099.45,1101.53,1101.63,1099.63,1098.12,1097.44,1096.08,1093.79,1091.63,1089.87,1088.45,1086.74,1085.29,1084.14,1083.33,1082.67,1081.94,1081.22,1080.49,1079.73,1079.06,1078.13,1076.86,1075.26,1073.69,1072.09,1070.22,1067.81,1064.46,1061.14,1057.91,1054.89,1052.21,1049.48,1046.50,1043.36,1040.16,1037.03,1034.01,1030.83,1027.37,1023.73,1020.96,1021.24,1023.27,1025.77,1027.72,1029.74,1032.30,1035.77,1040.47,1044.92,1045.97,1044.51,1042.13,1039.53,1040.05,1042.88,1047.25,1051.84,1056.17,1061.01,1066.34,1071.59,1076.53,1080.94,1085.02,1089.10,1093.97,1098.85,1103.11,1106.77,1110.46,1113.76,1113.48,1110.10,1104.84,1099.42,1093.98,1088.11,1081.88,1076.63,1072.05,1067.11,1061.75,1056.68,1053.06,1051.04,1050.02,1049.75,1050.18,1051.57,1053.14,1053.62,1050.30,1043.43,1034.97,1027.75,1025.57,1028.66,1031.79,1033.81,1034.93,1036.73,1039.14,1042.00,1044.97,1047.39,1049.25,1049.62,1048.08,1044.19,1039.20,1032.68,1027.65,1025.94,1028.25,1028.42,1027.10,1026.00,1027.07,1029.01,1029.27,1028.44,1027.28,1026.93,1028.24,1030.97,1034.81,1039.32,1043.07,1044.88,1046.38,1049.89,1057.30,1066.69,1076.89,1087.64,1098.71,1106.18,1111.08,1114.45,1116.97,1119.32,1122.01,1125.18,1129.04,1133.94,1139.72,1144.81,1147.57,1145.37,1140.96,1133.71,1125.78,1119.41,1114.35,1111.53,1108.57,1104.94,1102.68,1102.49
1171.70,1176.84,1182.12,1187.01,1192.12,1199.85,1207.55,1213.01,1215.30,1216.26,1216.87,1218.15,1221.61,1224.86,1228.32,1231.89,1235.43,1239.02,1242.45,1245.95,1249.48,1252.68,1255.80,1259.03,1262.38,1265.78,1269.20,1272.72,1276.28,1280.05,1284.60,1289.08,1293.23,1297.21,1301.42,1305.82,1307.10,1305.92,1301.92,1291.05,1282.84,1277.36,1272.64,1263.75,1249.02,1237.63,1230.59,1226.47,1225.35,1227.41,1230.64,1234.15,1238.65,1242.34,1241.54,1236.82,1231.93,1228.03,1225.31,1223.14,1220.89,1218.32,1215.68,1213.41,1211.42,1208.82,1205.50,1202.33,1198.80,1193.67,1188.17,1183.96,1180.32,1176.61,1172.71,1168.93,1165.08,1161.11,1157.14,1153.21,1148.61,1143.60,1138.39,1132.54,1127.60,1123.20,1118.95,1114.43,1109.99,1105.84,1102.14,1100.02,1103.87,1106.24,1106.72,1105.83,1103.88,1101.82,1100.38,1099.51,1098.43,1096.39,1094.31,1092.22,1090.00,1088.17,1086.82,1085.92,1085.35,1084.68,1083.97,1083.15,1082.23,1081.25,1080.20,1079.02,1077.64,1076.00,1074.26,1072.50,1070.50,1067.96,1064.46,1061.06,1058.10,1055.47,1053.00,1050.59,1047.79,1044.71,1041.47,1038.32,1035.16,1031.81,1028.30,1024.88,1022.51,1023.07,1025.11,1027.35,1029.51,1031.93,1034.67,1038.58,1045.48,1051.03,1053.18,1052.46,1049.56,1045.78,1044.43,1045.50,1048.82,1053.39,1058.46,1063.88,1069.45,1074.85,1079.49,1083.44,1087.28,1091.65,1097.23,1102.31,1106.72,1110.76,1115.00,1118.22,1117.27,1113.08,1107.53,1102.85,1097.90,1092.13,1085.61,1079.69,1075.05,1070.50,1065.85,1061.78,1059.36,1057.56,1055.97,1054.70,1054.43,1055.44,1055.71,1053.95,1049.11,1041.62,1034.05,1029.45,1031.20,1034.84,1037.39,1038.64,1039.16,1040.74,1043.30,1046.32,1049.32,1051.58,1053.06,1052.64,1050.03,1045.09,1039.74,1032.98,1029.16,1029.81,1032.72,1032.94,1030.71,1028.62,1029.89,1031.78,1032.10,1031.18,1029.64,1028.99,1031.84,1036.33,1041.41,1046.21,1048.94,1050.03,1050.89,1053.18,1058.47,1067.47,1078.12,1089.33,1100.10,1108.98,1115.68,1120.43,1123.30,1125.40,1127.77,1130.65,1134.24,1138.70,1144.74,1149.61,1151.70,1149.50,1144.57,1136.80,1128.59,1122.38,1118.08,1115.73,1112.82,1109.25,1108.21,1108.69
1173.95,1179.13,1184.47,1189.62,1194.91,1204.64,1212.87,1216.41,1218.82,1219.87,1220.12,1220.49,1222.51,1225.39,1228.50,1231.76,1235.28,1238.84,1242.46,1246.14,1249.74,1252.98,1256.11,1259.29,1262.54,1265.87,1269.22,1272.75,1276.41,1280.37,1285.12,1289.55,1293.65,1297.72,1302.42,1307.55,1310.54,1311.81,1310.44,1300.78,1289.45,1281.22,1276.39,1269.81,1256.45,1244.60,1236.25,1231.79,1231.87,1234.86,1238.45,1241.57,1244.58,1246.79,1245.37,1240.71,1235.61,1231.12,1227.86,1225.01,1221.84,1219.03,1216.18,1213.38,1210.51,1207.09,1203.63,1199.71,1195.18,1189.98,1185.15,1181.02,1177.15,1173.29,1169.64,1166.30,1162.68,1158.71,1154.73,1150.87,1146.61,1142.01,1137.08,1131.32,1126.61,1122.52,1118.64,1114.53,1110.65,1107.95,1106.27,1105.85,1110.89,1112.99,1111.93,1108.77,1105.85,1103.96,1102.66,1101.70,1100.77,1099.00,1096.93,1094.56,1091.87,1089.86,1088.58,1087.83,1087.38,1086.69,1085.90,1084.92,1083.77,1082.52,1081.14,1079.69,1078.07,1076.23,1074.37,1072.54,1070.44,1067.80,1064.26,1060.86,1058.11,1055.75,1053.52,1051.46,1048.96,1045.99,1042.61,1039.30,1035.89,1032.34,1028.79,1025.67,1024.15,1025.05,1027.04,1029.23,1031.72,1034.42,1037.86,1042.87,1050.65,1057.04,1060.18,1060.18,1057.24,1053.22,1050.31,1049.37,1051.06,1055.31,1060.69,1066.32,1071.98,1077.55,1081.82,1085.43,1089.36,1094.39,1100.34,1105.60,1110.36,1114.88,1119.38,1122.38,1121.07,1116.49,1110.59,1105.90,1101.37,1095.99,1089.53,1083.16,1078.24,1073.86,1069.87,1066.94,1065.09,1063.32,1061.39,1059.56,1058.79,1059.25,1058.26,1054.61,1048.42,1040.31,1034.59,1033.35,1037.85,1041.37,1043.09,1043.69,1043.86,1045.01,1047.47,1050.50,1053.50,1055.61,1056.86,1056.01,1052.56,1046.42,1040.77,1034.16,1031.54,1033.98,1037.15,1037.48,1034.98,1032.29,1032.87,1034.63,1035.06,1034.13,1032.47,1032.42,1036.36,1041.78,1047.35,1052.00,1054.07,1055.30,1056.83,1059.55,1063.90,1071.51,1081.08,1091.61,1101.70,1111.16,1119.38,1125.73,1129.17,1131.30,1133.80,1137.04,1140.94,1144.74,1150.08,1154.43,1156.27,1154.01,1148.43,1140.40,1132.26,1126.34,1122.72,1120.23,1117.49,1114.87,1114.93,1115.11
1175.94,1181.04,1186.56,1191.83,1196.73,1207.80,1217.12,1220.47,1222.89,1223.92,1223.99,1223.67,1224.01,1226.29,1229.11,1232.19,1235.62,1239.04,1242.52,1246.12,1249.74,1253.12,1256.41,1259.63,1262.80,1266.00,1269.25,1272.82,1276.59,1280.70,1285.81,1290.24,1294.11,1298.01,1302.94,1308.73,1312.50,1314.79,1315.67,1312.32,1298.77,1286.82,1280.43,1274.37,1264.68,1253.22,1242.99,1238.32,1240.34,1243.44,1246.37,1248.80,1249.99,1250.45,1248.48,1244.14,1238.82,1233.42,1228.62,1224.41,1220.78,1217.76,1214.71,1211.56,1208.19,1204.36,1200.45,1196.26,1191.76,1186.96,1182.24,1178.02,1174.05,1170.22,1167.01,1163.92,1160.30,1156.15,1151.90,1147.94,1143.54,1138.79,1133.94,1129.21,1125.37,1122.21,1119.60,1117.28,1115.30,1114.38,1114.64,1116.09,1117.52,1116.86,1114.30,1110.56,1108.12,1106.36,1105.05,1104.00,1102.82,1101.23,1099.11,1096.67,1094.15,1091.91,1090.58,1089.84,1089.36,1088.58,1087.56,1086.31,1084.88,1083.33,1081.76,1080.03,1078.03,1075.80,1073.88,1072.06,1069.93,1067.25,1063.84,1060.57,1057.87,1055.62,1053.68,1052.00,1049.90,1047.08,1043.55,1039.97,1036.17,1032.37,1028.76,1025.96,1025.78,1027.08,1029.07,1031.54,1034.42,1037.30,1042.19,1049.06,1055.73,1062.38,1066.25,1067.04,1064.78,1061.46,1057.70,1055.02,1054.77,1058.11,1062.97,1068.31,1073.87,1079.55,1083.46,1086.96,1091.38,1097.39,1103.21,1108.68,1113.96,1118.98,1123.37,1126.12,1124.88,1120.38,1114.05,1108.42,1104.13,1099.51,1093.66,1087.26,1081.87,1077.28,1073.73,1071.98,1069.83,1067.81,1065.91,1064.22,1063.33,1062.97,1060.86,1056.06,1048.79,1040.13,1037.08,1039.50,1044.99,1048.22,1049.11,1049.09,1049.02,1049.51,1051.60,1054.48,1057.41,1059.46,1060.70,1059.85,1055.88,1048.46,1042.51,1036.49,1034.82,1038.13,1041.35,1041.88,1040.00,1037.33,1036.07,1037.56,1038.15,1037.29,1035.88,1037.50,1041.82,1047.07,1052.27,1056.46,1058.85,1061.49,1065.09,1069.83,1074.48,1079.52,1086.25,1094.92,1104.14,1113.09,1122.14,1130.01,1134.32,1136.98,1140.16,1144.34,1149.07,1152.23,1155.80,1159.30,1161.30,1158.84,1152.66,1144.66,1136.99,1131.55,1128.41,1125.23,1122.87,1122.10,1122.92,1121.64
