1238.05,1237.86,1237.71,1237.57,1237.48,1237.42,1237.38,1237.35,1237.32,1237.02,1236.73,1236.48,1236.18,1235.93,1235.74,1235.51,1235.21,1234.95,1234.67,1234.40,1234.17,1234.07,1233.94,1233.74,1233.49,1233.29,1233.26,1233.54,1233.91,1234.25,1234.45,1234.07,1233.40,1233.07,1234.18,1235.33,1236.49,1237.66,1238.83,1239.93,1241.85,1244.26,1246.90,1249.47,1252.44,1255.51,1258.52,1261.39,1264.11,1266.80,1269.83,1273.38,1277.03,1281.71,1287.76,1294.40,1300.11,1307.22,1314.91,1322.78,1330.43,1336.82,1341.50,1345.43,1348.88,1351.68,1354.70,1358.05,1360.78,1361.51,1362.22,1362.05,1361.78,1362.03,1362.57,1364.49,1367.58,1371.46,1375.84,1382.15,1388.90,1395.76,1402.29,1406.46,1407.93,1408.49,1409.12,1410.65,1414.32,1417.59,1419.91,1421.46,1422.30,1422.22,1421.68,1420.97,1420.06,1419.77,1419.70,1419.80,1420.50,1423.12,1426.18,1428.84,1430.38,1430.66,1429.96,1429.02,1428.17,1427.44,1427.08,1426.80,1426.77,1427.70,1430.34,1432.82,1434.86,1436.38,1437.26,1437.68,1438.64,1440.41,1442.73,1445.02,1448.27,1451.84,1455.39,1461.88,1472.86,1480.52,1481.54,1480.38,1478.87,1477.26,1475.61,1473.90,1471.97,1467.95,1463.31,1459.52,1456.76,1454.47,1452.24,1449.88,1447.21,1444.28,1441.43,1438.71,1436.03,1433.40,1430.37,1426.91,1423.21,1420.00,1417.30,1414.56,1411.62,1408.51,1405.22,1401.81,1397.98,1393.49,1388.86,1384.30,1378.94,1372.74,1366.75,1361.64,1357.30,1353.10,1348.07,1341.09,1332.83,1325.42,1319.53,1313.15,1307.66,1302.51,1297.18,1291.14,1284.53,1278.73,1273.41,1267.88,1261.30,1254.31,1245.53,1235.66,1228.84,1226.55,1229.28,1234.68,1240.00,1245.12,1249.94,1254.12,1257.33,1259.48,1259.32,1258.09,1256.21,1253.47,1250.32,1246.76,1242.95,1238.93,1234.76,1231.08,1228.75,1227.39,1224.76,1221.92,1217.39,1211.85,1206.93,1203.42,1199.21,1196.65,1198.42,1205.97,1212.99,1217.23,1218.82,1219.02,1218.50,1217.79,1216.87,1215.51,1213.67,1211.52,1208.66,1204.85,1200.17,1195.51,1191.60,1190.24,1193.01,1190.39,1188.19,1189.05,1193.30,1196.38,1198.56,1199.00,1197.29,1193.16,1189.21,1185.19,1181.09,1176.88,1172.29,1169.87,1169.48,1170.59,1171.59,1172.08
1237.52,1237.35,1237.18,1237.02,1236.92,1236.85,1236.81,1236.82,1236.87,1236.58,1236.25,1235.96,1235.61,1235.17,1235.11,1235.10,1234.82,1234.56,1234.29,1234.00,1233.75,1233.64,1233.50,1233.30,1233.06,1232.84,1232.86,1233.11,1233.43,1233.70,1233.81,1233.54,1233.16,1233.15,1234.30,1235.48,1236.68,1237.90,1239.13,1240.35,1242.13,1244.40,1246.98,1249.45,1252.38,1255.45,1258.48,1261.34,1264.02,1266.80,1269.99,1273.73,1277.67,1282.63,1288.61,1294.99,1300.71,1307.60,1315.38,1323.06,1329.75,1335.70,1340.19,1343.70,1346.42,1348.64,1351.73,1354.67,1357.09,1358.91,1361.23,1362.64,1363.50,1364.21,1365.10,1367.37,1370.24,1373.34,1376.97,1383.37,1390.46,1396.84,1401.66,1406.05,1408.21,1409.26,1409.97,1411.27,1414.03,1416.11,1417.41,1418.66,1419.24,1418.86,1418.05,1417.15,1416.20,1415.77,1415.58,1415.57,1416.02,1418.02,1420.97,1423.95,1425.91,1426.45,1425.78,1424.74,1423.78,1423.26,1423.01,1422.87,1422.98,1423.88,1426.40,1428.64,1430.45,1431.81,1432.44,1432.69,1433.10,1433.95,1435.46,1436.99,1439.43,1442.23,1445.01,1449.93,1462.37,1473.16,1477.34,1477.04,1475.96,1474.62,1473.02,1470.87,1467.90,1463.63,1459.55,1456.82,1454.60,1452.38,1450.00,1447.42,1444.64,1441.73,1438.96,1436.31,1433.63,1430.82,1427.66,1424.25,1420.85,1418.07,1415.62,1413.05,1410.22,1407.11,1403.82,1400.26,1396.28,1391.83,1387.49,1383.23,1378.04,1371.86,1365.86,1360.62,1356.27,1352.15,1347.18,1340.79,1333.00,1325.63,1319.17,1311.69,1306.19,1301.03,1295.59,1289.78,1283.55,1278.08,1272.78,1266.68,1258.89,1250.88,1240.78,1229.47,1222.06,1219.08,1221.31,1226.54,1232.19,1237.87,1242.80,1247.16,1251.04,1254.33,1255.45,1255.27,1254.15,1252.00,1249.18,1245.71,1241.89,1237.82,1233.27,1228.53,1224.92,1222.82,1221.37,1219.99,1216.72,1211.47,1204.86,1199.83,1195.95,1193.96,1195.43,1202.11,1209.41,1214.12,1216.04,1216.54,1216.38,1215.54,1214.32,1212.93,1211.16,1209.27,1206.82,1203.51,1199.31,1194.52,1189.86,1187.40,1189.41,1188.31,1186.22,1186.52,1190.38,1193.09,1195.18,1195.58,1193.99,1190.66,1187.94,1185.21,1182.10,1178.18,1172.95,1169.14,1167.07,1166.71,1167.39,1167.95
1236.99,1236.83,1236.66,1236.45,1236.35,1236.26,1236.22,1236.27,1236.44,1236.19,1235.80,1235.39,1234.93,1234.21,1234.39,1234.73,1234.50,1234.21,1233.96,1233.72,1233.49,1233.33,1233.06,1232.88,1232.71,1232.45,1232.41,1232.58,1232.86,1233.11,1233.13,1233.00,1232.96,1233.29,1234.44,1235.66,1236.85,1238.06,1239.33,1240.78,1242.46,1244.53,1246.92,1249.11,1251.75,1254.60,1257.50,1260.26,1262.87,1265.72,1268.90,1272.67,1277.49,1283.01,1289.12,1295.49,1301.48,1307.55,1315.06,1322.31,1327.42,1331.90,1336.11,1339.52,1341.90,1343.70,1345.30,1347.14,1349.45,1352.48,1356.00,1358.76,1360.75,1362.23,1364.08,1366.99,1369.68,1372.01,1374.87,1379.56,1386.66,1393.51,1397.51,1401.15,1404.16,1406.18,1407.18,1408.04,1409.26,1410.66,1412.45,1414.95,1416.40,1416.06,1414.92,1413.71,1412.59,1411.79,1411.26,1410.96,1410.88,1411.76,1414.59,1418.16,1420.81,1421.87,1421.59,1420.59,1419.39,1419.09,1418.90,1418.92,1419.19,1420.01,1422.29,1424.43,1426.08,1427.10,1427.46,1427.63,1427.57,1427.44,1427.70,1428.08,1429.14,1431.20,1434.71,1439.33,1450.70,1463.64,1473.25,1474.10,1473.16,1471.82,1470.06,1467.05,1462.28,1459.05,1456.79,1454.66,1452.48,1450.12,1447.47,1444.62,1441.84,1439.04,1436.38,1433.76,1430.97,1427.83,1424.43,1421.18,1418.34,1416.00,1413.68,1411.24,1408.57,1405.47,1402.18,1398.47,1394.37,1390.02,1386.06,1382.13,1377.18,1371.13,1365.06,1359.70,1355.21,1350.94,1345.95,1339.67,1332.63,1325.64,1318.57,1309.97,1304.63,1299.63,1294.13,1288.62,1282.86,1277.68,1272.35,1265.50,1255.59,1245.54,1234.27,1222.56,1214.64,1211.13,1212.48,1216.77,1222.14,1228.77,1234.17,1238.77,1243.01,1247.02,1249.99,1251.44,1251.42,1250.05,1247.60,1244.41,1240.78,1236.78,1232.50,1227.60,1222.71,1218.72,1217.19,1216.22,1214.61,1211.30,1205.19,1199.35,1194.24,1191.25,1192.11,1198.17,1206.60,1211.78,1213.29,1213.87,1214.06,1213.28,1211.99,1210.53,1208.50,1206.68,1204.62,1201.91,1198.22,1193.73,1188.81,1185.20,1185.25,1184.92,1183.57,1183.95,1187.25,1189.41,1191.00,1191.27,1190.17,1188.19,1186.35,1184.84,1183.03,1179.96,1175.16,1170.45,1166.20,1163.11,1162.87,1163.13
1236.52,1236.37,1236.19,1235.97,1235.79,1235.68,1235.66,1235.74,1235.94,1235.76,1235.31,1234.65,1233.82,1233.63,1234.02,1234.39,1234.28,1234.04,1233.80,1233.54,1233.28,1233.06,1232.78,1232.52,1232.28,1232.05,1231.93,1232.07,1232.30,1232.51,1232.48,1232.47,1232.79,1233.51,1234.59,1235.83,1237.10,1238.37,1239.73,1241.49,1243.28,1245.22,1247.22,1248.94,1251.01,1253.47,1256.18,1258.91,1261.66,1264.77,1268.37,1272.73,1278.28,1283.50,1289.22,1295.25,1300.47,1306.05,1312.75,1319.17,1323.76,1327.41,1331.04,1334.18,1336.60,1338.63,1340.20,1341.74,1343.57,1346.03,1348.41,1350.86,1353.05,1355.14,1358.62,1362.17,1365.24,1367.98,1371.13,1375.17,1380.56,1386.41,1391.49,1394.67,1397.46,1399.81,1401.55,1402.76,1403.95,1405.70,1408.37,1412.03,1413.76,1413.25,1411.79,1410.16,1408.55,1407.16,1406.09,1405.34,1404.95,1405.40,1407.22,1410.07,1413.39,1415.81,1417.21,1416.86,1415.04,1414.38,1414.50,1414.91,1415.37,1415.96,1417.96,1420.06,1421.61,1422.22,1422.17,1422.03,1421.80,1421.51,1421.41,1421.55,1421.70,1422.48,1424.82,1428.32,1438.29,1453.94,1470.06,1471.46,1470.01,1467.74,1465.09,1462.09,1458.80,1456.38,1454.41,1452.38,1450.10,1447.42,1444.54,1441.63,1438.92,1436.12,1433.46,1430.75,1427.68,1424.42,1421.29,1418.44,1415.97,1413.80,1411.60,1409.08,1406.26,1403.23,1399.95,1396.22,1392.24,1388.24,1384.40,1380.44,1375.81,1370.37,1364.45,1358.97,1354.16,1349.48,1344.20,1338.52,1331.91,1324.83,1317.34,1308.97,1303.25,1298.16,1292.99,1287.83,1282.55,1277.45,1271.62,1263.37,1250.69,1238.49,1226.19,1214.77,1208.09,1203.33,1202.73,1205.40,1209.95,1215.64,1221.88,1228.07,1233.76,1238.44,1242.70,1245.57,1247.10,1247.69,1246.03,1243.30,1239.78,1235.40,1231.09,1226.73,1222.17,1217.66,1214.19,1212.42,1211.63,1210.04,1205.36,1199.43,1193.30,1189.69,1190.71,1195.98,1202.58,1207.59,1210.28,1210.94,1211.76,1211.40,1210.16,1208.37,1205.89,1204.01,1202.17,1199.85,1196.51,1192.52,1187.35,1182.36,1180.02,1179.72,1179.74,1180.91,1183.61,1185.59,1187.37,1188.04,1187.37,1185.57,1183.89,1182.86,1182.01,1180.39,1176.56,1171.82,1167.01,1162.80,1160.38,1159.39
1236.07,1235.90,1235.71,1235.45,1235.05,1234.83,1234.88,1235.18,1235.42,1235.34,1234.90,1234.13,1233.17,1233.26,1233.70,1234.06,1234.08,1233.89,1233.67,1233.41,1233.13,1232.87,1232.59,1232.29,1232.00,1231.75,1231.57,1231.65,1231.88,1232.11,1232.20,1232.31,1232.83,1233.74,1234.73,1235.97,1237.28,1238.59,1240.02,1242.02,1244.02,1246.01,1247.96,1249.70,1251.47,1253.67,1256.18,1258.71,1261.53,1264.64,1268.39,1273.16,1278.91,1283.77,1289.00,1294.50,1299.09,1304.17,1309.84,1315.28,1319.59,1322.78,1325.89,1328.66,1330.98,1333.14,1335.01,1336.60,1338.18,1340.07,1341.79,1344.01,1346.36,1348.89,1352.83,1356.42,1359.79,1363.14,1366.70,1370.44,1374.46,1379.12,1384.40,1387.59,1390.65,1393.33,1395.45,1397.35,1399.19,1401.40,1404.49,1408.79,1410.77,1410.15,1408.39,1406.42,1404.42,1402.63,1401.22,1400.23,1399.74,1399.93,1400.93,1402.85,1405.95,1409.66,1412.93,1413.51,1411.19,1409.67,1409.65,1410.15,1410.75,1411.49,1413.31,1415.45,1417.05,1417.54,1417.37,1417.10,1416.73,1416.31,1415.90,1415.51,1414.73,1414.24,1415.11,1417.65,1425.84,1441.82,1461.43,1466.45,1465.73,1463.24,1460.43,1457.88,1455.83,1453.84,1451.82,1449.71,1447.26,1444.38,1441.37,1438.44,1435.84,1433.02,1430.22,1427.32,1424.11,1421.06,1418.32,1415.84,1413.59,1411.43,1409.22,1406.65,1403.76,1400.70,1397.41,1393.75,1390.00,1386.34,1382.67,1378.61,1374.21,1369.42,1364.14,1358.81,1353.53,1348.07,1342.23,1336.99,1330.73,1323.81,1316.50,1308.96,1302.77,1297.38,1292.36,1287.35,1282.37,1277.22,1269.91,1258.30,1243.41,1230.43,1218.41,1207.97,1202.01,1196.05,1193.51,1194.46,1198.18,1202.86,1208.95,1215.59,1221.99,1227.40,1233.29,1238.20,1241.89,1244.51,1244.29,1242.29,1238.86,1234.07,1229.58,1225.56,1221.47,1217.06,1212.53,1209.48,1208.05,1206.89,1203.91,1199.03,1192.82,1188.80,1189.51,1194.20,1199.32,1203.79,1206.89,1207.68,1208.97,1208.99,1207.87,1205.90,1203.28,1201.23,1199.42,1197.38,1194.40,1190.59,1185.33,1179.50,1175.03,1174.23,1174.98,1176.76,1179.45,1181.99,1184.28,1185.34,1184.88,1182.99,1180.95,1179.85,1179.51,1179.12,1176.59,1172.52,1168.01,1163.64,1159.96,1157.78
1235.62,1235.41,1235.17,1234.85,1234.10,1233.69,1233.88,1234.59,1234.91,1234.95,1234.62,1233.97,1233.28,1233.09,1233.36,1233.72,1233.88,1233.75,1233.53,1233.30,1233.04,1232.75,1232.50,1232.22,1231.92,1231.63,1231.39,1231.39,1231.61,1231.99,1232.39,1232.66,1233.17,1233.98,1234.89,1236.09,1237.37,1238.68,1240.14,1242.27,1244.52,1246.83,1249.19,1251.64,1253.60,1255.77,1258.06,1260.20,1262.98,1265.70,1269.10,1273.77,1279.07,1283.70,1288.41,1293.24,1297.65,1302.11,1306.56,1310.92,1314.95,1318.04,1320.84,1323.21,1325.16,1327.18,1329.31,1331.24,1333.00,1334.85,1337.12,1339.64,1342.31,1345.09,1347.82,1350.65,1354.02,1357.89,1361.75,1365.43,1369.04,1372.74,1376.61,1380.35,1384.55,1387.75,1389.77,1392.54,1395.42,1397.93,1400.75,1404.86,1407.16,1406.57,1404.64,1402.44,1400.24,1398.39,1397.01,1396.14,1395.76,1395.74,1396.41,1397.51,1399.24,1403.77,1408.66,1410.34,1407.93,1405.11,1404.31,1404.44,1405.11,1406.48,1408.26,1410.48,1412.30,1413.08,1413.24,1413.09,1412.60,1411.84,1410.95,1409.48,1407.77,1406.26,1405.79,1407.84,1413.85,1426.64,1445.13,1458.01,1460.02,1458.63,1456.76,1454.96,1452.98,1450.97,1448.84,1446.51,1443.87,1440.98,1437.98,1435.05,1432.53,1429.66,1426.60,1423.45,1420.38,1417.91,1415.60,1413.34,1411.10,1408.82,1406.48,1403.95,1401.14,1397.92,1394.57,1391.12,1387.68,1384.33,1380.93,1376.77,1372.43,1368.21,1364.11,1359.29,1353.46,1346.90,1340.20,1334.99,1329.13,1322.81,1316.39,1310.11,1303.49,1297.57,1292.32,1287.20,1282.27,1276.90,1266.84,1249.35,1233.34,1221.60,1211.56,1202.73,1196.43,1189.72,1185.59,1184.75,1187.52,1191.42,1196.08,1201.39,1207.34,1213.46,1221.38,1229.05,1235.54,1240.13,1242.11,1241.24,1238.03,1232.91,1228.14,1224.00,1220.10,1216.26,1212.27,1207.75,1204.11,1201.70,1200.35,1197.66,1192.57,1188.40,1188.05,1192.50,1197.37,1200.97,1203.08,1204.07,1205.54,1205.77,1204.82,1202.93,1200.59,1198.28,1196.29,1194.46,1191.89,1187.80,1182.71,1176.86,1170.92,1168.98,1169.34,1171.30,1174.76,1178.74,1181.79,1183.11,1182.61,1180.48,1177.56,1175.83,1175.45,1175.88,1174.94,1172.19,1168.71,1165.07,1161.74,1158.82
1235.16,1234.86,1234.43,1233.97,1233.45,1233.33,1233.64,1234.23,1234.55,1234.61,1234.47,1234.10,1233.46,1233.18,1233.16,1233.33,1233.62,1233.55,1233.35,1233.12,1232.88,1232.62,1232.38,1232.13,1231.85,1231.55,1231.27,1231.24,1231.50,1232.04,1232.66,1233.05,1233.57,1234.32,1235.33,1236.57,1237.78,1239.05,1240.63,1242.84,1245.18,1247.60,1250.16,1253.02,1255.61,1257.99,1260.19,1262.40,1265.55,1268.13,1270.78,1274.27,1279.02,1283.53,1287.74,1291.78,1295.83,1299.55,1302.82,1305.92,1309.11,1312.26,1315.36,1317.84,1319.64,1321.41,1323.49,1325.65,1327.89,1330.29,1332.63,1335.24,1338.20,1341.36,1343.73,1346.03,1348.96,1352.61,1356.65,1360.83,1364.61,1368.13,1371.73,1375.84,1380.63,1384.73,1387.70,1390.41,1392.99,1395.34,1397.74,1400.49,1402.38,1402.20,1400.65,1398.36,1396.06,1394.30,1393.11,1392.43,1392.11,1392.05,1392.43,1393.12,1394.43,1398.19,1402.35,1404.50,1403.63,1400.97,1399.48,1399.27,1400.00,1401.31,1402.74,1404.59,1406.40,1407.66,1408.07,1408.04,1407.42,1406.24,1404.73,1403.11,1401.71,1400.49,1399.77,1401.35,1405.11,1413.55,1428.47,1447.87,1454.74,1455.35,1453.71,1452.07,1450.01,1447.84,1445.59,1443.17,1440.49,1437.64,1434.76,1431.85,1428.79,1425.61,1422.62,1419.88,1417.39,1415.15,1412.95,1410.56,1408.00,1405.79,1403.54,1401.01,1398.14,1394.99,1391.82,1388.79,1385.85,1382.84,1379.37,1374.90,1370.59,1366.81,1363.19,1358.72,1353.07,1346.61,1339.92,1334.00,1328.44,1322.71,1316.77,1311.25,1304.58,1298.12,1292.32,1287.16,1282.21,1276.36,1262.81,1238.63,1223.62,1214.59,1206.09,1197.32,1191.48,1186.25,1181.43,1177.71,1176.58,1178.38,1182.81,1188.51,1194.77,1201.05,1208.90,1217.04,1225.26,1233.55,1237.66,1238.93,1237.23,1232.15,1227.30,1222.80,1218.70,1214.88,1210.98,1206.64,1202.69,1199.49,1197.18,1194.23,1190.21,1186.85,1186.21,1190.41,1194.67,1197.66,1199.45,1200.83,1202.22,1202.48,1201.56,1199.52,1197.08,1194.83,1192.87,1191.08,1188.90,1185.46,1180.62,1175.01,1169.66,1165.71,1164.89,1166.71,1170.78,1175.57,1179.61,1181.36,1180.54,1177.53,1173.92,1171.78,1171.47,1172.67,1172.68,1170.72,1168.02,1165.18,1162.49,1160.20
1234.72,1234.39,1233.89,1233.33,1233.11,1233.20,1233.51,1233.93,1234.21,1234.26,1234.26,1234.13,1233.62,1233.27,1233.10,1233.13,1233.36,1233.34,1233.15,1232.92,1232.69,1232.46,1232.23,1232.01,1231.77,1231.47,1231.17,1231.12,1231.42,1232.11,1232.88,1233.41,1233.95,1234.68,1235.83,1237.13,1238.31,1239.63,1241.47,1243.77,1246.14,1248.58,1251.22,1254.33,1257.46,1260.05,1262.22,1264.45,1267.55,1269.98,1272.13,1274.76,1278.89,1283.06,1286.76,1290.13,1293.68,1296.80,1299.09,1301.06,1303.32,1306.33,1309.71,1312.46,1314.34,1316.10,1318.12,1320.34,1322.76,1325.39,1327.71,1330.55,1333.77,1337.00,1339.52,1341.83,1344.62,1348.05,1352.05,1356.62,1360.88,1364.84,1368.80,1373.42,1378.53,1383.22,1386.82,1388.86,1390.66,1392.61,1394.58,1396.18,1397.56,1397.62,1396.40,1394.07,1391.74,1390.28,1389.37,1388.77,1388.26,1388.11,1388.33,1388.89,1390.06,1392.72,1396.02,1398.50,1399.04,1396.82,1394.97,1394.61,1395.41,1396.55,1397.72,1399.23,1400.93,1402.38,1402.48,1402.35,1401.64,1400.25,1398.46,1397.12,1396.28,1395.60,1395.08,1396.23,1398.39,1403.15,1413.70,1434.43,1447.39,1451.69,1450.67,1448.90,1446.78,1444.51,1442.20,1439.81,1437.12,1434.25,1431.31,1428.22,1424.78,1421.59,1418.88,1416.57,1414.56,1412.40,1410.10,1407.48,1404.71,1402.57,1400.42,1397.92,1395.07,1392.06,1389.15,1386.51,1383.93,1381.06,1377.30,1372.76,1368.63,1365.20,1361.77,1357.34,1352.05,1346.22,1340.03,1333.17,1327.74,1322.59,1317.13,1312.03,1305.51,1298.64,1292.24,1287.13,1282.27,1275.17,1257.35,1226.76,1214.22,1207.52,1200.18,1191.80,1186.63,1183.21,1178.54,1173.00,1168.61,1167.87,1170.68,1175.80,1182.57,1189.79,1197.36,1205.25,1214.15,1224.92,1231.47,1235.21,1235.59,1231.63,1227.08,1222.44,1218.21,1214.42,1210.58,1206.70,1202.92,1199.37,1196.06,1192.25,1188.55,1185.44,1184.29,1188.11,1191.80,1194.35,1196.00,1197.47,1198.38,1198.36,1197.38,1195.43,1193.11,1191.09,1189.30,1187.63,1185.88,1183.20,1179.00,1174.12,1169.69,1164.31,1161.79,1162.70,1166.97,1172.16,1176.81,1178.91,1178.03,1174.54,1170.60,1168.00,1167.46,1169.10,1169.67,1168.23,1166.11,1163.98,1162.17,1160.95
1234.31,1234.15,1233.82,1233.29,1233.25,1233.15,1233.26,1233.65,1233.84,1233.88,1233.88,1233.86,1233.70,1233.22,1233.22,1233.32,1233.11,1233.13,1232.97,1232.74,1232.51,1232.27,1232.04,1231.85,1231.66,1231.40,1231.11,1231.02,1231.34,1232.11,1232.93,1233.68,1234.31,1235.05,1236.33,1237.70,1238.94,1240.49,1242.80,1245.29,1247.66,1250.00,1252.56,1255.78,1258.99,1261.68,1263.87,1265.73,1267.87,1269.94,1272.29,1275.21,1278.62,1282.03,1285.22,1288.18,1291.05,1293.87,1295.59,1296.76,1298.22,1300.61,1303.98,1307.01,1309.31,1311.56,1313.69,1315.67,1317.58,1319.61,1321.95,1325.44,1328.84,1331.53,1334.76,1338.02,1341.43,1344.97,1348.57,1353.04,1358.13,1363.32,1368.29,1373.84,1378.97,1383.40,1386.49,1387.12,1387.86,1389.14,1390.74,1392.18,1393.20,1393.04,1391.72,1389.42,1387.21,1386.34,1385.79,1385.03,1383.88,1383.45,1383.74,1384.50,1385.60,1387.30,1390.61,1393.46,1394.36,1392.50,1390.88,1390.69,1391.57,1392.67,1393.87,1395.34,1396.87,1397.84,1396.63,1395.95,1395.20,1394.07,1392.74,1392.00,1391.60,1391.35,1391.36,1392.25,1394.04,1397.02,1402.85,1415.63,1435.73,1446.49,1447.30,1445.15,1443.10,1440.92,1438.71,1436.47,1433.73,1430.73,1427.33,1423.70,1420.49,1417.99,1415.76,1413.66,1411.68,1409.47,1406.77,1403.94,1401.33,1399.21,1397.06,1394.66,1392.01,1389.22,1386.63,1384.16,1381.57,1378.46,1374.15,1370.07,1366.48,1363.23,1359.76,1354.90,1349.97,1345.22,1340.03,1332.21,1326.63,1322.01,1317.19,1312.08,1305.97,1298.94,1291.99,1287.03,1282.54,1272.82,1249.59,1213.56,1205.28,1199.47,1192.81,1186.11,1181.68,1179.55,1176.17,1171.41,1166.49,1163.03,1161.11,1162.97,1170.10,1179.96,1187.86,1195.24,1203.37,1213.46,1222.91,1229.27,1232.20,1231.29,1227.74,1223.47,1219.50,1215.97,1212.41,1208.71,1205.13,1201.82,1198.64,1194.02,1189.26,1184.86,1182.33,1185.54,1188.88,1191.26,1192.77,1193.72,1193.49,1192.70,1191.63,1190.29,1188.67,1187.05,1185.58,1184.29,1183.01,1180.88,1178.02,1174.68,1170.80,1165.55,1160.76,1159.47,1163.19,1168.28,1172.68,1174.90,1174.56,1171.66,1167.98,1164.73,1163.37,1164.80,1165.48,1164.30,1162.48,1160.85,1160.14,1160.30
1233.90,1233.84,1233.64,1233.23,1233.31,1233.21,1233.20,1233.40,1233.52,1233.54,1233.54,1233.54,1233.50,1233.18,1233.31,1233.45,1233.22,1233.12,1232.98,1232.79,1232.55,1232.28,1232.05,1231.84,1231.63,1231.39,1231.09,1230.97,1231.30,1232.15,1233.00,1233.79,1234.57,1235.49,1236.84,1238.22,1239.75,1241.66,1244.14,1246.68,1249.12,1251.52,1254.00,1256.74,1259.03,1260.83,1262.36,1263.88,1265.78,1267.92,1270.47,1273.62,1277.09,1280.27,1283.03,1285.53,1288.15,1290.48,1292.01,1293.10,1294.22,1295.98,1299.01,1301.96,1304.26,1306.24,1308.78,1311.19,1313.57,1316.36,1319.19,1323.09,1327.05,1330.46,1334.08,1337.68,1341.13,1344.43,1347.83,1352.61,1358.19,1363.84,1369.37,1376.39,1380.98,1383.93,1385.33,1384.33,1384.01,1384.72,1386.09,1387.56,1388.53,1388.37,1387.05,1384.84,1383.07,1382.41,1381.92,1381.09,1379.62,1378.78,1378.85,1379.60,1380.83,1382.20,1385.12,1388.10,1389.75,1388.68,1387.45,1387.25,1387.95,1388.89,1389.98,1391.66,1393.39,1394.19,1392.37,1390.55,1389.10,1388.00,1387.22,1386.96,1386.89,1386.95,1387.26,1387.97,1389.38,1391.49,1395.09,1402.81,1420.12,1434.65,1442.08,1441.23,1439.48,1437.45,1435.34,1432.97,1429.72,1426.14,1422.82,1419.94,1417.39,1415.13,1412.88,1410.61,1408.37,1406.00,1403.24,1400.55,1398.18,1396.04,1393.88,1391.55,1389.05,1386.49,1384.00,1381.34,1378.34,1374.81,1370.80,1367.29,1364.03,1360.80,1357.24,1352.41,1347.92,1343.69,1338.76,1331.71,1326.57,1322.18,1317.53,1312.28,1306.38,1298.92,1291.33,1286.97,1283.11,1270.45,1242.40,1202.56,1195.74,1191.61,1186.36,1180.69,1176.41,1173.69,1170.74,1167.03,1162.67,1159.05,1155.57,1154.74,1158.81,1167.93,1177.23,1186.29,1195.13,1203.84,1213.02,1220.79,1225.94,1227.24,1225.79,1223.64,1220.89,1217.57,1214.09,1210.56,1206.84,1203.15,1199.64,1195.14,1189.84,1184.17,1180.02,1182.47,1185.55,1187.92,1189.38,1189.88,1189.42,1188.67,1187.85,1186.81,1184.96,1183.35,1181.99,1180.81,1179.63,1177.86,1175.67,1173.23,1170.35,1165.65,1160.50,1157.97,1159.98,1164.54,1169.01,1171.53,1171.49,1168.65,1164.96,1161.43,1159.64,1160.68,1161.13,1160.06,1158.15,1156.22,1155.92,1157.78
1233.50,1233.50,1233.40,1233.16,1233.34,1233.34,1233.25,1233.20,1233.24,1233.25,1233.25,1233.25,1233.25,1233.14,1233.34,1233.55,1233.48,1233.23,1233.13,1232.99,1232.74,1232.44,1232.19,1231.96,1231.73,1231.48,1231.23,1230.97,1231.19,1232.10,1233.00,1233.87,1234.82,1235.95,1237.34,1238.73,1240.51,1242.70,1245.26,1247.84,1250.25,1252.54,1254.73,1256.77,1257.98,1258.83,1259.71,1261.04,1263.06,1265.43,1268.25,1271.63,1275.20,1278.08,1280.36,1282.42,1284.73,1286.43,1287.95,1289.28,1290.39,1291.71,1294.40,1297.31,1299.77,1301.73,1304.97,1308.15,1311.30,1315.04,1318.45,1322.68,1327.18,1331.40,1335.16,1338.82,1342.15,1345.24,1348.75,1354.01,1359.77,1365.64,1371.81,1379.31,1382.84,1384.03,1383.53,1381.09,1379.82,1380.00,1381.18,1382.69,1383.65,1383.52,1382.28,1380.18,1378.73,1378.04,1377.47,1376.61,1375.15,1374.09,1373.93,1374.53,1375.70,1376.84,1379.56,1382.82,1385.33,1385.01,1384.17,1383.94,1384.36,1385.08,1386.02,1387.93,1389.94,1390.74,1388.65,1385.73,1383.36,1381.98,1381.65,1381.72,1381.93,1382.27,1382.80,1383.49,1384.69,1386.39,1388.86,1393.12,1404.36,1420.58,1435.01,1436.93,1435.78,1433.88,1431.71,1429.04,1425.40,1421.60,1418.64,1416.62,1414.66,1412.39,1409.90,1407.35,1404.89,1402.41,1399.79,1397.34,1395.18,1393.00,1390.78,1388.45,1386.04,1383.63,1381.04,1378.04,1374.67,1371.00,1367.54,1364.48,1361.42,1358.15,1354.53,1349.99,1345.90,1341.92,1337.03,1331.24,1326.70,1322.50,1317.87,1312.51,1306.71,1299.08,1291.20,1287.09,1283.66,1268.09,1236.21,1194.49,1188.05,1185.27,1181.33,1176.49,1172.25,1168.58,1165.47,1162.26,1158.24,1155.12,1151.14,1148.20,1148.93,1156.36,1166.54,1177.20,1187.10,1195.08,1203.22,1211.38,1217.94,1221.14,1222.11,1222.23,1220.91,1218.13,1215.13,1211.95,1208.13,1203.97,1199.95,1195.61,1189.97,1183.38,1177.80,1178.92,1181.80,1184.36,1185.93,1186.16,1185.76,1185.27,1184.79,1183.94,1181.64,1179.74,1178.30,1177.15,1175.99,1174.50,1172.74,1170.89,1168.85,1164.98,1160.18,1156.87,1157.07,1161.08,1165.44,1168.18,1168.54,1165.96,1162.35,1158.43,1156.03,1156.56,1156.74,1155.82,1153.88,1151.66,1151.47,1154.51
1233.11,1233.11,1233.09,1233.07,1233.38,1233.55,1233.44,1233.13,1233.07,1233.06,1233.06,1233.07,1233.12,1233.11,1233.27,1233.58,1233.87,1233.53,1233.46,1233.38,1233.13,1232.83,1232.58,1232.35,1232.10,1231.84,1231.75,1231.05,1230.83,1231.69,1232.83,1233.99,1235.16,1236.40,1237.79,1239.18,1240.93,1243.09,1245.66,1248.38,1250.49,1252.07,1253.30,1254.55,1255.12,1255.66,1256.53,1258.09,1260.58,1263.31,1266.55,1270.31,1273.36,1275.27,1276.92,1278.57,1280.00,1280.88,1282.52,1284.47,1286.07,1287.53,1290.18,1293.44,1296.90,1300.19,1304.75,1309.06,1313.02,1317.12,1320.92,1325.45,1330.11,1334.28,1337.81,1341.22,1344.45,1347.78,1352.10,1357.95,1363.29,1369.26,1376.84,1381.47,1382.93,1382.54,1380.65,1377.43,1375.49,1375.28,1376.28,1377.62,1378.40,1378.27,1377.21,1375.29,1373.49,1372.44,1371.63,1370.80,1369.95,1369.38,1369.23,1369.38,1369.76,1370.45,1373.81,1378.05,1381.37,1381.34,1380.79,1380.56,1380.70,1381.10,1381.89,1383.88,1386.08,1387.10,1385.06,1381.77,1378.42,1375.95,1375.72,1375.82,1376.28,1376.94,1377.64,1378.66,1380.14,1382.02,1384.35,1387.20,1391.56,1405.83,1424.18,1431.70,1431.81,1429.91,1427.30,1423.99,1420.72,1418.06,1415.84,1413.90,1411.96,1409.36,1406.44,1403.60,1401.22,1398.97,1396.75,1394.55,1392.38,1390.14,1387.72,1385.22,1382.74,1380.32,1377.22,1373.79,1370.53,1367.68,1364.65,1361.69,1358.58,1355.24,1351.72,1347.82,1343.96,1339.89,1335.13,1330.44,1326.50,1322.55,1318.00,1312.69,1306.82,1299.99,1292.95,1287.65,1283.86,1265.71,1232.45,1193.01,1186.15,1183.11,1179.61,1175.59,1171.52,1167.43,1163.33,1158.76,1153.54,1150.59,1146.37,1142.64,1142.09,1147.99,1156.62,1166.77,1177.49,1187.27,1194.87,1201.48,1207.42,1212.35,1215.63,1217.05,1216.93,1215.69,1214.45,1212.18,1208.64,1204.29,1199.64,1194.68,1188.93,1182.37,1176.12,1174.43,1177.23,1180.41,1182.43,1182.88,1182.51,1182.26,1182.09,1181.39,1178.81,1176.10,1174.16,1173.08,1172.02,1170.72,1169.31,1167.72,1165.68,1163.11,1159.04,1155.44,1154.54,1158.28,1161.79,1164.37,1165.56,1164.29,1161.28,1156.31,1152.42,1152.34,1152.41,1151.81,1150.37,1148.57,1148.27,1150.68
1233.08,1233.08,1233.18,1233.22,1233.47,1233.74,1233.71,1233.35,1233.29,1233.28,1233.28,1233.29,1233.33,1233.33,1233.41,1233.65,1233.97,1233.79,1233.77,1233.69,1233.48,1233.21,1232.97,1232.74,1232.53,1232.35,1232.07,1231.15,1230.57,1231.05,1232.21,1233.16,1234.16,1235.45,1237.36,1239.17,1241.12,1243.24,1245.39,1247.01,1248.44,1249.60,1250.51,1251.43,1251.89,1252.45,1253.42,1255.12,1257.80,1260.68,1263.94,1267.49,1270.14,1271.70,1273.09,1274.57,1276.05,1277.14,1278.80,1280.88,1283.08,1285.47,1288.47,1292.13,1296.38,1300.78,1306.04,1310.86,1315.23,1319.65,1324.06,1329.26,1334.20,1337.97,1340.84,1344.00,1347.60,1351.78,1356.95,1362.40,1367.38,1372.94,1379.45,1381.73,1381.49,1379.73,1376.79,1373.40,1371.32,1370.81,1371.46,1372.67,1373.44,1373.17,1372.19,1370.76,1369.18,1367.91,1366.93,1366.19,1365.60,1365.23,1365.09,1365.07,1365.14,1365.60,1369.20,1373.55,1376.75,1377.00,1376.64,1376.30,1376.14,1376.31,1377.05,1379.38,1381.97,1383.16,1381.07,1377.55,1373.71,1370.59,1369.90,1369.88,1370.34,1371.05,1371.96,1373.25,1374.98,1377.07,1379.62,1382.90,1385.75,1395.16,1410.06,1423.75,1426.03,1424.68,1422.42,1419.83,1417.22,1415.03,1412.95,1410.79,1408.39,1405.56,1402.71,1400.07,1397.79,1395.62,1393.46,1391.19,1388.80,1386.47,1384.03,1381.45,1378.78,1376.02,1372.97,1369.89,1367.07,1364.55,1361.65,1358.63,1355.49,1352.18,1348.66,1344.95,1341.09,1336.92,1332.24,1327.74,1324.11,1320.60,1316.65,1311.99,1306.25,1299.76,1293.11,1287.38,1283.03,1263.85,1230.43,1192.45,1185.49,1182.25,1178.24,1173.59,1169.63,1165.60,1161.24,1156.21,1150.33,1145.93,1141.52,1137.70,1136.30,1140.71,1148.10,1156.96,1166.65,1176.56,1184.54,1191.05,1196.78,1201.87,1205.65,1207.88,1209.34,1210.32,1210.70,1209.89,1207.40,1203.64,1199.07,1193.82,1187.36,1180.18,1173.08,1168.18,1169.96,1173.66,1176.89,1178.29,1178.59,1178.75,1178.80,1178.13,1175.52,1172.44,1170.25,1169.20,1168.22,1166.81,1165.66,1164.52,1162.66,1160.13,1156.96,1153.48,1151.09,1153.66,1157.02,1160.16,1162.47,1162.66,1160.10,1154.83,1149.92,1148.31,1148.05,1147.62,1146.62,1145.37,1145.35,1147.76
1233.19,1233.24,1233.47,1233.49,1233.62,1233.92,1233.99,1233.68,1233.65,1233.65,1233.65,1233.65,1233.66,1233.66,1233.66,1233.77,1234.01,1234.06,1234.06,1233.98,1233.83,1233.60,1233.36,1233.16,1233.01,1232.91,1232.31,1231.23,1230.41,1230.39,1231.28,1231.81,1232.44,1233.66,1236.12,1238.60,1240.90,1242.92,1244.36,1244.66,1245.27,1245.99,1246.72,1247.59,1248.29,1249.17,1250.39,1252.18,1254.88,1257.80,1260.88,1263.95,1266.25,1267.84,1269.33,1271.00,1272.96,1274.67,1276.44,1278.57,1281.35,1284.72,1288.18,1292.21,1297.00,1302.25,1307.79,1312.86,1317.57,1322.47,1328.15,1333.81,1338.54,1341.72,1343.87,1347.05,1351.35,1356.59,1362.35,1367.03,1371.62,1376.40,1380.59,1380.76,1379.01,1376.14,1372.56,1369.30,1367.25,1366.49,1366.79,1367.92,1368.81,1368.49,1367.62,1366.67,1365.38,1363.76,1362.52,1361.81,1361.26,1360.91,1360.70,1360.58,1360.60,1360.95,1364.38,1368.56,1371.72,1372.39,1372.06,1371.52,1371.14,1371.26,1371.98,1374.57,1377.46,1378.76,1376.76,1373.27,1369.24,1365.61,1364.05,1363.85,1364.34,1365.22,1366.40,1367.92,1369.85,1372.03,1374.76,1378.85,1382.46,1387.30,1396.90,1414.86,1419.67,1419.34,1417.76,1416.17,1414.18,1412.02,1409.73,1407.24,1404.39,1401.46,1398.83,1396.49,1394.34,1392.21,1389.95,1387.49,1384.82,1382.36,1379.91,1377.31,1374.52,1371.57,1368.83,1366.31,1363.87,1361.33,1358.41,1355.31,1352.14,1348.88,1345.34,1341.68,1337.76,1333.54,1329.03,1324.51,1321.01,1317.88,1314.57,1310.59,1305.15,1298.83,1292.27,1286.38,1281.34,1262.28,1229.33,1191.54,1184.60,1181.40,1176.81,1171.20,1167.27,1163.30,1158.90,1153.74,1147.52,1141.60,1137.04,1133.26,1131.03,1133.89,1139.97,1147.39,1155.57,1164.47,1172.59,1179.56,1185.56,1190.57,1194.47,1197.42,1200.40,1203.40,1205.19,1205.83,1204.72,1202.08,1197.97,1192.63,1185.29,1177.26,1169.28,1161.53,1161.74,1165.72,1170.41,1173.01,1174.24,1174.95,1175.20,1174.53,1172.10,1168.89,1166.53,1165.43,1164.52,1162.91,1161.94,1161.22,1159.50,1156.58,1154.23,1151.05,1147.25,1148.25,1151.76,1155.73,1159.15,1160.70,1158.60,1153.61,1148.15,1144.63,1143.80,1143.39,1142.73,1142.07,1142.64,1145.35
1233.38,1233.52,1233.86,1233.86,1233.89,1234.18,1234.27,1234.00,1233.98,1233.98,1233.98,1233.98,1233.98,1233.98,1233.98,1234.03,1234.18,1234.40,1234.37,1234.29,1234.21,1233.98,1233.75,1233.66,1233.64,1233.46,1232.49,1231.30,1230.38,1229.98,1229.85,1229.86,1230.06,1230.87,1233.24,1236.68,1239.56,1241.29,1241.60,1241.46,1241.31,1241.20,1241.35,1242.42,1243.87,1245.65,1247.57,1249.45,1251.83,1254.71,1257.52,1259.88,1261.89,1264.02,1266.46,1269.13,1271.77,1274.14,1276.51,1279.10,1282.12,1285.65,1289.45,1293.65,1298.43,1303.87,1309.06,1314.30,1319.66,1325.62,1334.69,1339.52,1342.13,1344.46,1346.38,1350.45,1356.02,1362.20,1367.61,1371.58,1375.63,1378.96,1379.93,1378.11,1375.00,1371.65,1368.44,1365.46,1363.36,1362.38,1362.49,1363.66,1364.89,1365.07,1364.56,1363.59,1362.07,1359.45,1357.47,1356.51,1355.85,1355.26,1354.69,1354.36,1354.50,1354.86,1357.29,1361.49,1366.20,1367.75,1367.03,1366.17,1365.89,1366.38,1367.07,1369.32,1371.88,1373.18,1371.78,1369.08,1365.31,1361.06,1357.99,1357.50,1358.59,1360.31,1362.02,1363.74,1365.64,1367.55,1369.74,1373.42,1378.33,1383.63,1391.75,1406.46,1413.78,1415.37,1414.53,1413.03,1411.11,1408.29,1405.39,1402.68,1400.04,1397.38,1394.85,1392.51,1390.42,1388.42,1386.03,1383.38,1380.58,1377.88,1375.19,1372.58,1370.12,1367.89,1365.64,1363.30,1360.64,1357.57,1354.51,1351.42,1348.25,1344.96,1341.47,1337.95,1334.08,1330.03,1326.09,1322.06,1318.46,1315.22,1312.01,1307.89,1303.14,1297.03,1290.12,1283.88,1278.08,1261.04,1228.97,1188.12,1181.20,1178.79,1174.69,1169.05,1164.83,1160.38,1155.62,1150.27,1144.07,1138.57,1134.00,1129.64,1126.18,1127.19,1131.24,1137.77,1145.36,1151.58,1157.72,1165.05,1172.48,1178.70,1183.93,1188.07,1191.72,1195.04,1197.76,1199.05,1199.47,1198.64,1195.39,1190.16,1182.24,1173.43,1164.68,1155.97,1153.95,1157.40,1163.38,1167.11,1169.37,1170.78,1171.38,1170.74,1168.83,1165.75,1163.19,1161.76,1160.92,1159.24,1158.30,1157.60,1155.64,1152.46,1150.52,1147.64,1143.29,1142.55,1146.34,1151.04,1155.10,1157.51,1156.13,1152.42,1147.34,1141.95,1139.91,1139.23,1138.75,1138.61,1140.22,1143.42
1233.51,1233.82,1234.25,1234.25,1234.25,1234.41,1234.46,1234.32,1234.31,1234.31,1234.31,1234.31,1234.31,1234.31,1234.31,1234.32,1234.39,1234.59,1234.60,1234.57,1234.54,1234.40,1234.30,1234.28,1234.17,1233.61,1232.35,1230.60,1228.97,1227.85,1227.39,1227.27,1227.55,1228.45,1230.47,1233.24,1235.66,1237.20,1237.55,1237.35,1237.43,1237.57,1237.90,1239.24,1240.97,1243.21,1245.66,1247.87,1250.17,1252.95,1255.70,1258.10,1260.34,1262.95,1265.90,1269.01,1271.92,1274.64,1277.22,1280.17,1283.93,1287.77,1291.51,1295.47,1299.88,1304.80,1310.00,1316.17,1322.76,1329.11,1337.83,1342.17,1344.34,1346.43,1348.69,1354.51,1361.16,1367.20,1371.72,1374.40,1376.69,1378.11,1377.47,1374.80,1371.11,1367.45,1364.22,1361.42,1359.12,1357.93,1357.81,1358.69,1360.22,1360.84,1360.44,1358.96,1356.43,1353.90,1352.15,1351.20,1350.40,1349.50,1348.98,1348.87,1349.12,1349.58,1351.27,1355.28,1360.84,1363.25,1361.81,1360.04,1359.36,1360.37,1362.08,1364.82,1367.38,1368.62,1368.03,1365.75,1361.69,1356.47,1352.07,1351.20,1352.42,1354.41,1356.43,1358.93,1361.55,1363.48,1364.85,1367.51,1371.60,1376.41,1383.48,1395.80,1406.05,1410.25,1410.57,1408.94,1406.79,1403.87,1400.94,1398.30,1395.85,1393.44,1391.06,1388.78,1386.68,1384.57,1381.99,1379.16,1376.28,1373.56,1371.07,1368.74,1366.57,1364.57,1362.37,1359.71,1356.65,1353.32,1350.26,1347.21,1344.10,1340.88,1337.55,1334.08,1330.10,1326.05,1322.56,1319.18,1315.87,1312.44,1308.71,1304.44,1299.53,1293.66,1287.18,1281.05,1275.36,1261.48,1231.58,1188.22,1177.82,1174.58,1170.91,1165.96,1161.97,1157.79,1153.12,1147.76,1141.61,1136.38,1131.46,1126.28,1121.54,1120.43,1122.87,1127.86,1134.17,1140.23,1146.22,1152.52,1158.91,1165.15,1171.55,1176.90,1181.41,1185.22,1188.44,1190.54,1192.05,1192.56,1190.88,1187.15,1180.00,1171.11,1161.78,1153.41,1149.02,1150.46,1156.11,1161.51,1164.91,1166.92,1167.80,1167.34,1165.75,1163.05,1160.38,1158.38,1157.40,1155.92,1154.84,1153.92,1152.26,1148.99,1146.61,1143.82,1140.13,1138.49,1141.63,1146.55,1151.42,1154.41,1154.17,1151.63,1147.34,1141.93,1138.88,1136.48,1135.05,1135.48,1138.87,1142.43
1233.81,1234.25,1234.70,1234.73,1234.73,1234.73,1234.74,1234.75,1234.74,1234.78,1234.81,1234.81,1234.81,1234.82,1234.81,1234.78,1234.77,1234.87,1234.98,1235.07,1235.11,1235.17,1235.27,1235.30,1234.97,1233.80,1232.14,1229.53,1226.79,1224.75,1224.20,1224.31,1225.02,1226.29,1227.92,1229.36,1230.81,1232.14,1233.04,1233.03,1233.90,1234.96,1236.01,1237.60,1239.32,1241.88,1244.89,1247.53,1249.84,1252.44,1255.20,1257.95,1260.64,1263.60,1266.74,1269.90,1272.85,1275.70,1278.37,1281.70,1286.35,1290.49,1293.98,1297.55,1301.49,1305.67,1311.08,1318.28,1326.02,1332.42,1338.93,1343.03,1345.68,1348.03,1351.43,1359.03,1366.25,1371.37,1374.33,1375.39,1375.63,1375.29,1374.01,1371.17,1367.41,1363.48,1359.84,1357.04,1354.51,1353.14,1352.85,1353.37,1354.96,1355.80,1355.39,1353.38,1349.85,1347.95,1346.87,1346.05,1345.06,1343.87,1343.57,1343.89,1344.37,1344.93,1346.13,1349.68,1355.33,1358.48,1356.47,1353.73,1352.41,1353.91,1356.87,1360.51,1363.38,1364.55,1364.78,1362.84,1358.26,1351.87,1346.46,1345.15,1346.23,1348.22,1350.40,1353.61,1356.95,1359.00,1359.66,1361.26,1363.61,1367.38,1373.53,1383.96,1396.44,1403.42,1405.46,1403.91,1401.68,1399.06,1396.47,1394.05,1391.78,1389.60,1387.38,1385.17,1382.96,1380.55,1377.78,1374.88,1372.07,1369.53,1367.44,1365.47,1363.44,1361.22,1358.70,1355.56,1352.15,1348.81,1345.82,1342.80,1339.73,1336.62,1333.45,1329.97,1325.91,1321.89,1318.76,1316.01,1313.00,1309.27,1304.76,1300.31,1294.97,1289.40,1283.79,1278.13,1272.97,1262.77,1236.57,1192.95,1176.76,1170.97,1167.01,1162.77,1159.06,1155.39,1150.96,1145.65,1139.67,1134.59,1129.20,1123.18,1117.16,1113.96,1115.05,1118.09,1122.57,1129.26,1135.93,1141.05,1145.71,1151.36,1158.44,1164.68,1169.96,1174.33,1177.85,1180.74,1182.97,1184.36,1184.40,1182.88,1177.81,1170.03,1160.73,1153.09,1146.54,1145.06,1148.93,1155.81,1160.37,1163.13,1164.44,1164.17,1162.73,1160.54,1157.94,1155.40,1154.01,1152.76,1151.46,1150.26,1149.11,1146.08,1142.98,1140.07,1137.41,1135.38,1137.72,1142.64,1148.18,1151.52,1152.40,1150.71,1147.30,1142.95,1139.24,1134.67,1131.88,1132.81,1138.11,1141.93
1234.94,1235.09,1235.45,1235.63,1235.61,1235.55,1235.59,1235.72,1235.69,1235.94,1236.09,1236.09,1236.10,1236.14,1236.09,1235.92,1235.72,1235.92,1236.29,1236.63,1236.94,1237.37,1237.73,1237.81,1237.19,1235.23,1232.45,1228.68,1224.85,1221.80,1220.30,1221.23,1222.71,1224.16,1225.80,1227.20,1228.14,1228.88,1229.56,1229.97,1231.52,1233.66,1235.91,1237.61,1239.18,1242.65,1246.91,1249.67,1251.72,1254.02,1256.53,1259.13,1261.84,1264.80,1267.89,1271.01,1274.09,1276.89,1280.14,1284.23,1289.14,1293.01,1296.46,1300.02,1303.88,1308.00,1313.57,1320.29,1327.44,1334.13,1339.98,1343.87,1346.67,1349.86,1356.57,1364.02,1370.09,1373.55,1373.17,1372.76,1372.73,1372.32,1370.53,1367.69,1364.06,1359.70,1355.05,1351.65,1349.16,1347.85,1347.62,1348.35,1349.09,1349.49,1349.16,1347.67,1345.09,1343.40,1342.34,1341.50,1340.24,1338.82,1338.50,1339.17,1340.35,1340.89,1341.80,1344.37,1348.68,1352.20,1351.05,1348.52,1346.93,1348.37,1351.02,1355.17,1358.63,1359.92,1360.55,1359.55,1354.83,1347.36,1341.83,1340.03,1341.06,1343.32,1345.57,1347.75,1349.95,1351.64,1352.84,1354.56,1356.65,1360.01,1365.11,1372.87,1383.32,1392.30,1397.32,1397.23,1396.23,1394.26,1392.02,1389.83,1387.83,1385.79,1383.68,1381.40,1378.73,1375.93,1373.10,1370.55,1368.38,1366.30,1364.34,1362.35,1360.04,1356.91,1353.65,1350.51,1347.43,1344.36,1341.36,1338.22,1335.09,1331.95,1328.63,1325.12,1321.52,1318.15,1315.37,1312.72,1309.08,1304.66,1299.75,1294.97,1290.13,1285.18,1280.22,1275.38,1270.48,1263.59,1244.53,1208.74,1185.63,1173.83,1166.71,1161.48,1156.93,1152.88,1148.13,1142.78,1137.42,1132.46,1127.11,1120.67,1113.52,1108.91,1108.57,1109.71,1111.76,1115.99,1122.03,1128.78,1135.14,1140.66,1146.87,1152.57,1157.69,1162.22,1166.15,1169.42,1171.77,1173.30,1174.04,1174.33,1173.69,1170.38,1163.42,1155.17,1147.64,1142.96,1142.69,1148.84,1154.31,1158.77,1161.33,1160.98,1159.42,1157.80,1155.83,1153.40,1151.00,1149.42,1147.97,1146.66,1145.71,1143.96,1140.91,1137.54,1134.54,1132.19,1135.38,1140.66,1145.88,1149.18,1149.97,1148.19,1145.14,1141.88,1138.54,1133.48,1130.27,1131.31,1137.25,1141.38
1236.46,1236.44,1236.67,1236.88,1236.87,1236.86,1236.98,1237.24,1237.36,1237.81,1238.22,1238.49,1238.63,1238.55,1238.29,1237.92,1237.60,1237.74,1238.18,1238.60,1238.92,1239.30,1239.60,1239.53,1238.55,1235.78,1232.21,1227.46,1221.46,1215.02,1211.65,1212.37,1216.19,1221.08,1223.62,1225.26,1226.05,1226.53,1227.17,1228.34,1230.61,1233.50,1236.51,1238.70,1240.75,1244.31,1248.41,1251.13,1253.40,1255.76,1258.22,1260.74,1263.36,1266.16,1269.12,1272.22,1275.42,1278.49,1282.33,1286.80,1291.44,1295.24,1298.90,1302.59,1306.32,1310.14,1314.86,1320.30,1326.60,1333.96,1340.27,1344.53,1347.95,1352.41,1361.31,1367.86,1371.70,1372.67,1370.37,1368.89,1368.73,1368.53,1366.77,1364.07,1360.61,1356.15,1351.02,1346.95,1343.66,1341.57,1341.00,1342.37,1343.38,1343.74,1343.52,1342.54,1340.50,1338.88,1337.95,1337.32,1335.96,1334.21,1333.65,1334.29,1335.68,1336.34,1337.05,1338.90,1342.30,1346.13,1345.51,1343.36,1342.03,1343.76,1346.17,1349.85,1352.78,1353.48,1353.14,1351.19,1346.77,1340.73,1336.17,1334.58,1335.54,1337.77,1340.21,1342.48,1344.36,1345.97,1347.44,1349.13,1350.93,1353.70,1358.02,1364.81,1373.12,1381.67,1387.67,1389.17,1389.22,1388.17,1386.69,1385.08,1383.39,1381.20,1379.02,1376.74,1374.04,1371.50,1369.06,1366.88,1365.01,1363.09,1360.76,1358.26,1355.55,1352.38,1349.20,1346.21,1343.28,1340.23,1337.03,1333.54,1330.17,1327.00,1323.72,1320.44,1317.31,1314.33,1311.42,1308.25,1304.29,1299.81,1295.04,1290.31,1285.82,1281.28,1276.81,1272.68,1267.73,1262.27,1248.90,1223.13,1202.54,1189.84,1179.44,1168.81,1157.85,1152.04,1146.91,1141.45,1136.07,1130.49,1124.69,1118.23,1111.28,1105.98,1103.72,1102.93,1103.21,1105.30,1109.43,1115.99,1123.12,1129.30,1135.45,1141.28,1146.70,1151.70,1156.26,1159.74,1162.08,1163.66,1164.97,1166.41,1168.09,1168.15,1164.93,1158.23,1151.07,1144.30,1140.19,1143.28,1148.39,1153.39,1156.78,1157.30,1155.81,1154.20,1152.63,1150.86,1148.33,1146.07,1144.37,1143.10,1142.11,1141.63,1139.14,1135.81,1132.67,1130.20,1134.04,1139.28,1143.73,1146.61,1146.74,1144.76,1141.99,1139.31,1136.32,1131.69,1128.98,1130.48,1136.63,1140.95
1238.30,1238.26,1238.41,1238.65,1238.75,1238.86,1239.03,1239.31,1239.70,1240.29,1240.96,1241.60,1241.91,1241.62,1241.03,1240.42,1240.01,1239.92,1240.20,1240.46,1240.59,1240.62,1240.55,1240.13,1238.69,1235.25,1231.23,1225.74,1216.99,1205.83,1200.36,1200.10,1206.67,1216.49,1221.15,1223.31,1224.23,1224.78,1225.62,1227.72,1230.66,1233.93,1237.22,1240.11,1243.01,1246.03,1248.99,1251.68,1254.52,1257.27,1259.90,1262.45,1264.95,1267.53,1270.37,1273.48,1276.80,1280.33,1284.61,1289.10,1293.21,1297.14,1301.16,1305.04,1308.64,1311.95,1315.20,1319.14,1324.65,1332.74,1340.07,1345.12,1349.60,1355.56,1365.25,1370.42,1371.58,1369.89,1366.90,1364.52,1363.81,1363.59,1362.36,1360.08,1356.99,1352.83,1347.75,1343.02,1338.31,1334.76,1333.34,1335.25,1337.29,1338.13,1338.22,1337.72,1335.87,1334.29,1333.61,1333.37,1332.11,1330.07,1329.12,1329.41,1330.56,1331.37,1331.93,1333.29,1336.10,1339.97,1339.60,1337.99,1337.36,1339.69,1342.19,1344.75,1346.31,1345.85,1343.69,1339.60,1335.74,1332.64,1329.77,1328.93,1329.81,1331.75,1334.38,1337.55,1339.90,1341.71,1343.24,1344.74,1346.20,1348.25,1352.02,1359.26,1365.85,1372.20,1377.28,1379.91,1380.69,1380.60,1380.05,1379.19,1377.95,1375.66,1373.50,1371.44,1369.17,1367.39,1365.57,1363.66,1361.66,1359.53,1356.63,1353.47,1350.43,1347.91,1345.41,1342.60,1339.57,1336.34,1332.79,1328.79,1325.09,1321.87,1318.79,1315.94,1313.20,1310.32,1306.93,1302.97,1299.03,1295.00,1290.72,1286.28,1281.74,1277.35,1273.31,1269.73,1264.67,1259.26,1249.91,1234.54,1222.86,1213.10,1200.40,1182.70,1161.58,1152.91,1147.15,1141.35,1135.50,1128.88,1122.24,1115.92,1110.06,1104.66,1100.27,1097.56,1096.55,1097.15,1098.85,1103.61,1110.16,1117.20,1123.95,1130.52,1136.66,1142.32,1147.59,1151.24,1153.60,1155.35,1157.13,1159.14,1161.17,1163.30,1164.50,1161.24,1155.52,1147.94,1140.87,1139.48,1142.89,1147.33,1151.18,1153.23,1151.99,1149.95,1148.52,1147.66,1145.82,1142.77,1140.71,1139.53,1138.52,1139.06,1137.33,1134.38,1131.40,1129.29,1133.33,1138.07,1141.55,1143.79,1142.99,1140.77,1138.19,1135.71,1132.98,1129.30,1127.75,1130.11,1136.19,1140.59
1240.53,1240.66,1241.04,1241.91,1242.55,1242.76,1242.55,1242.21,1242.81,1243.27,1243.61,1243.87,1243.97,1243.64,1242.94,1242.16,1241.51,1240.90,1240.57,1240.41,1240.36,1240.22,1239.77,1238.66,1236.65,1233.25,1228.82,1223.03,1213.39,1200.81,1195.66,1195.37,1199.64,1207.69,1217.48,1221.15,1222.35,1223.03,1224.27,1226.91,1230.02,1233.18,1236.21,1238.96,1241.96,1245.02,1248.10,1251.21,1254.39,1257.68,1260.71,1263.31,1265.88,1268.48,1271.48,1274.81,1278.08,1281.68,1285.82,1290.16,1294.38,1298.30,1302.46,1306.56,1310.33,1313.49,1316.49,1320.51,1326.09,1333.62,1340.66,1346.09,1351.62,1358.76,1367.57,1371.14,1371.42,1369.45,1365.41,1361.31,1357.84,1355.75,1355.51,1354.69,1352.95,1349.82,1345.16,1339.89,1334.15,1329.22,1326.11,1326.20,1327.99,1330.07,1331.58,1331.93,1331.09,1329.78,1329.30,1329.43,1328.53,1326.71,1325.54,1325.38,1326.15,1326.64,1327.02,1327.68,1329.07,1331.61,1332.05,1331.68,1332.03,1334.91,1338.14,1340.37,1341.01,1339.64,1336.81,1333.12,1329.34,1326.05,1324.24,1324.10,1325.03,1326.61,1328.75,1331.52,1334.06,1336.32,1338.36,1340.24,1341.81,1343.48,1346.81,1354.17,1360.09,1364.96,1368.21,1369.41,1370.52,1370.66,1370.08,1369.27,1369.12,1368.41,1367.59,1366.60,1365.22,1363.76,1362.07,1359.85,1357.04,1354.33,1351.78,1349.14,1346.55,1344.35,1341.90,1338.94,1335.74,1332.38,1328.39,1324.06,1320.11,1316.78,1313.91,1311.36,1308.70,1305.69,1302.14,1298.42,1294.78,1290.92,1286.71,1282.25,1276.54,1271.89,1268.49,1265.17,1261.07,1256.28,1249.86,1240.75,1229.91,1219.56,1209.39,1194.95,1167.61,1155.69,1147.81,1140.72,1135.00,1128.52,1121.30,1114.41,1108.52,1103.31,1097.98,1093.45,1090.52,1090.46,1092.18,1095.57,1100.05,1105.49,1112.14,1119.03,1125.51,1131.43,1136.96,1141.11,1144.12,1146.43,1148.45,1150.37,1152.63,1156.10,1160.21,1160.55,1156.75,1150.17,1142.90,1138.66,1138.40,1141.82,1146.32,1149.18,1148.31,1145.97,1144.26,1143.64,1142.86,1139.80,1137.23,1135.88,1135.79,1136.37,1134.55,1131.49,1128.85,1129.06,1132.40,1135.96,1138.80,1140.73,1139.58,1136.95,1134.23,1132.20,1129.82,1126.54,1126.07,1129.86,1135.69,1140.04
1242.76,1242.94,1243.29,1244.17,1244.85,1245.03,1244.71,1244.21,1244.70,1244.95,1245.02,1244.95,1244.70,1243.94,1242.94,1241.90,1240.96,1240.01,1239.28,1238.86,1238.74,1238.68,1237.91,1236.51,1234.40,1231.18,1226.76,1220.85,1210.99,1198.16,1192.98,1192.42,1194.74,1200.97,1213.47,1218.01,1219.89,1221.37,1223.30,1226.25,1229.23,1232.16,1235.05,1237.80,1240.88,1244.24,1247.84,1251.64,1255.08,1258.59,1261.81,1264.51,1267.14,1269.71,1272.69,1276.05,1279.43,1283.20,1287.19,1291.31,1295.46,1299.40,1303.80,1308.11,1311.94,1315.10,1318.26,1322.57,1328.45,1335.99,1342.23,1347.86,1354.34,1362.16,1368.97,1371.08,1370.88,1368.86,1363.80,1358.39,1353.13,1349.68,1349.50,1349.32,1348.27,1345.81,1341.72,1336.70,1331.00,1325.46,1321.06,1319.36,1320.27,1322.62,1324.96,1326.33,1326.47,1325.44,1325.00,1325.24,1324.74,1323.30,1322.05,1321.50,1321.88,1322.09,1322.29,1322.47,1322.83,1323.93,1324.59,1324.95,1326.14,1330.00,1334.13,1335.99,1335.75,1333.63,1330.45,1327.25,1323.85,1320.76,1319.53,1319.58,1320.44,1321.75,1323.42,1325.55,1327.88,1330.27,1332.64,1334.81,1336.60,1338.33,1341.47,1348.32,1354.16,1358.20,1360.18,1360.21,1360.74,1360.38,1359.48,1358.73,1359.35,1359.91,1360.32,1360.36,1359.72,1358.54,1357.00,1354.82,1351.99,1349.32,1347.20,1345.08,1342.78,1340.33,1337.73,1334.66,1331.34,1327.87,1323.90,1319.80,1315.83,1312.13,1308.76,1306.02,1303.42,1300.58,1297.21,1293.88,1290.52,1286.80,1282.49,1277.76,1271.84,1267.14,1263.83,1260.72,1257.51,1253.31,1248.35,1242.07,1231.66,1221.39,1213.46,1202.97,1176.65,1160.26,1149.86,1142.14,1135.38,1129.06,1121.74,1114.37,1107.87,1102.68,1096.88,1091.22,1086.58,1084.56,1085.22,1087.38,1090.64,1095.28,1101.48,1107.83,1114.06,1120.09,1125.67,1130.38,1134.33,1137.62,1140.18,1142.35,1145.01,1149.11,1154.38,1157.15,1155.22,1150.29,1143.95,1138.35,1134.79,1137.02,1142.02,1145.81,1145.33,1142.27,1139.85,1139.20,1139.36,1136.61,1133.72,1132.21,1133.08,1134.22,1132.12,1128.45,1125.70,1127.62,1130.45,1133.20,1135.68,1137.60,1136.36,1133.46,1130.57,1128.74,1126.62,1124.28,1125.06,1129.75,1135.03,1139.28
1244.77,1244.79,1244.84,1244.97,1245.07,1245.09,1245.05,1244.97,1245.04,1245.07,1245.04,1244.83,1244.10,1242.49,1240.94,1239.57,1238.33,1237.29,1236.45,1235.96,1235.90,1236.13,1235.19,1234.01,1232.36,1229.39,1225.50,1219.73,1210.12,1197.63,1191.63,1190.35,1191.97,1197.49,1209.46,1214.03,1217.02,1219.94,1222.84,1225.91,1228.56,1231.26,1234.19,1237.21,1240.43,1244.17,1248.43,1253.01,1256.81,1260.20,1263.33,1266.20,1268.87,1271.38,1274.13,1277.28,1281.01,1285.07,1289.03,1292.88,1296.69,1300.67,1305.41,1309.88,1313.60,1316.84,1320.42,1325.08,1331.39,1339.60,1344.81,1350.55,1357.72,1365.47,1369.37,1370.21,1369.65,1367.39,1361.61,1355.64,1350.15,1346.22,1344.89,1344.19,1342.89,1340.56,1337.15,1333.25,1328.70,1323.49,1318.51,1315.49,1315.02,1316.36,1318.65,1321.11,1322.05,1321.32,1320.74,1320.75,1320.66,1319.63,1318.43,1317.63,1317.63,1317.73,1317.80,1317.79,1317.72,1317.64,1317.78,1318.15,1319.97,1325.25,1330.14,1331.47,1330.29,1327.63,1324.41,1321.36,1318.74,1316.73,1315.57,1315.26,1315.88,1317.06,1318.43,1319.94,1321.69,1323.79,1326.15,1328.35,1330.35,1332.56,1335.80,1341.49,1347.74,1351.55,1352.99,1352.49,1351.55,1350.07,1348.78,1348.25,1349.15,1350.26,1351.43,1352.24,1352.12,1351.27,1350.07,1348.50,1346.58,1344.68,1342.86,1340.93,1338.60,1335.45,1332.65,1329.60,1326.28,1322.80,1319.43,1316.12,1312.39,1308.09,1303.53,1299.98,1297.39,1295.04,1292.18,1289.18,1286.03,1282.37,1277.88,1272.80,1267.91,1263.49,1259.68,1256.74,1253.95,1250.06,1245.06,1238.57,1229.45,1220.62,1213.78,1205.99,1188.03,1166.73,1153.74,1146.14,1137.32,1130.56,1123.43,1115.78,1108.33,1102.91,1097.01,1090.98,1085.04,1079.70,1077.62,1078.49,1081.57,1086.55,1092.06,1097.14,1102.66,1108.69,1114.17,1119.36,1124.35,1128.89,1132.48,1135.45,1138.75,1142.89,1147.73,1151.45,1151.15,1148.10,1143.33,1137.69,1132.00,1133.19,1138.48,1143.34,1143.16,1138.92,1135.35,1134.41,1135.34,1133.15,1130.19,1128.53,1130.19,1132.61,1130.30,1125.70,1122.24,1124.67,1127.38,1129.88,1132.35,1134.56,1133.43,1130.38,1127.27,1125.35,1123.35,1122.67,1124.87,1129.79,1134.21,1138.27
1245.30,1245.28,1245.27,1245.22,1245.18,1245.16,1245.16,1245.15,1245.11,1245.06,1244.95,1244.49,1243.12,1241.19,1239.41,1237.80,1236.30,1235.04,1233.94,1233.26,1233.16,1233.64,1232.98,1232.04,1230.77,1228.58,1225.33,1221.12,1212.09,1198.55,1192.61,1190.40,1190.67,1195.03,1206.80,1212.26,1216.19,1219.89,1223.33,1226.58,1229.35,1232.03,1234.79,1237.57,1240.60,1243.96,1247.69,1252.03,1257.54,1261.39,1264.43,1267.45,1270.41,1273.43,1276.30,1279.36,1283.52,1287.73,1291.63,1295.35,1299.09,1303.04,1307.62,1311.84,1315.37,1318.80,1322.93,1328.59,1335.44,1342.51,1347.70,1353.99,1360.72,1366.23,1367.58,1367.40,1366.19,1363.61,1358.76,1353.49,1348.09,1343.32,1340.22,1338.78,1337.14,1334.93,1332.18,1329.38,1326.05,1321.63,1316.76,1312.79,1310.63,1310.68,1312.60,1315.75,1317.37,1317.26,1316.69,1316.30,1316.34,1315.40,1314.31,1313.55,1313.45,1313.66,1313.80,1313.74,1313.44,1313.06,1312.92,1313.35,1315.72,1321.95,1326.00,1326.54,1324.90,1322.18,1319.64,1317.21,1315.03,1313.15,1311.64,1310.78,1311.18,1312.32,1313.62,1315.08,1316.61,1318.30,1320.16,1322.03,1323.97,1326.45,1329.72,1334.35,1341.07,1344.51,1344.91,1343.18,1341.09,1339.12,1338.05,1338.06,1338.85,1340.13,1341.22,1342.15,1342.93,1342.89,1342.46,1341.74,1340.63,1338.91,1336.76,1334.38,1331.79,1328.94,1326.43,1323.69,1320.90,1318.23,1315.52,1312.67,1309.33,1305.23,1300.18,1295.19,1291.82,1289.46,1287.03,1284.45,1281.03,1277.01,1272.57,1268.11,1264.02,1260.01,1256.30,1253.35,1249.25,1244.24,1238.89,1232.94,1224.25,1216.80,1210.96,1204.98,1193.77,1174.91,1160.45,1151.28,1144.12,1133.55,1124.59,1116.51,1109.01,1103.67,1097.81,1091.42,1084.74,1078.25,1073.40,1071.81,1072.97,1076.56,1081.47,1086.96,1092.89,1098.91,1104.07,1109.18,1114.11,1119.05,1124.15,1128.40,1132.82,1137.74,1142.93,1146.79,1147.12,1144.71,1140.11,1133.85,1129.34,1131.49,1137.24,1142.13,1141.51,1135.97,1131.14,1129.65,1131.26,1130.02,1126.97,1124.83,1127.00,1130.26,1128.94,1124.54,1120.05,1121.51,1124.05,1126.83,1129.78,1132.52,1131.62,1127.84,1123.89,1121.95,1120.16,1121.16,1124.76,1129.93,1133.63,1136.67
1245.34,1245.32,1245.32,1245.27,1245.21,1245.19,1245.17,1245.16,1245.09,1244.98,1244.62,1243.77,1242.01,1240.04,1238.17,1236.39,1234.68,1233.16,1231.66,1230.66,1230.47,1231.04,1230.74,1229.95,1228.88,1227.46,1225.39,1222.61,1214.18,1200.02,1193.81,1190.77,1189.97,1193.43,1205.11,1211.49,1216.11,1220.20,1223.92,1227.37,1230.39,1233.16,1235.77,1238.36,1241.36,1244.49,1247.79,1251.78,1257.86,1261.96,1265.09,1268.34,1271.90,1275.47,1278.69,1281.97,1286.40,1290.55,1294.34,1298.00,1301.77,1305.67,1309.90,1313.82,1317.38,1321.40,1326.31,1332.64,1339.44,1345.17,1350.61,1357.02,1362.63,1365.54,1364.96,1363.70,1361.82,1359.08,1355.22,1351.11,1346.03,1340.58,1335.89,1333.50,1331.64,1329.79,1327.84,1325.89,1323.40,1319.70,1315.15,1310.61,1307.04,1305.61,1306.74,1310.23,1312.66,1313.23,1312.67,1311.85,1311.93,1311.16,1310.19,1309.43,1309.15,1309.38,1309.30,1309.01,1308.62,1308.23,1307.98,1309.04,1312.42,1318.84,1321.82,1321.67,1319.86,1317.39,1315.38,1312.98,1310.44,1308.12,1306.64,1305.88,1306.43,1307.63,1308.82,1310.31,1311.72,1313.18,1314.82,1316.50,1318.34,1320.78,1323.77,1327.45,1333.79,1336.82,1336.69,1334.40,1331.97,1329.83,1328.47,1328.00,1328.22,1329.35,1330.32,1331.23,1332.37,1332.77,1332.95,1332.95,1332.56,1331.30,1329.19,1326.73,1324.25,1322.10,1320.03,1317.79,1315.58,1313.55,1311.33,1308.87,1305.88,1302.08,1297.10,1291.40,1287.18,1284.18,1281.42,1278.61,1274.91,1270.78,1266.56,1262.53,1258.97,1255.28,1251.59,1248.29,1243.31,1237.47,1231.57,1225.61,1217.80,1211.80,1206.89,1202.08,1195.21,1181.22,1167.14,1156.45,1149.80,1135.84,1125.13,1116.84,1109.85,1104.65,1099.10,1092.52,1085.31,1078.49,1071.66,1067.32,1065.96,1067.95,1071.91,1077.16,1083.09,1089.23,1094.75,1100.06,1104.87,1109.79,1115.67,1121.03,1126.75,1132.76,1138.51,1142.42,1142.92,1140.56,1135.89,1129.87,1127.22,1130.51,1136.49,1140.88,1139.20,1133.08,1127.60,1125.31,1126.73,1126.33,1123.63,1121.38,1123.62,1127.13,1126.64,1122.87,1118.09,1118.28,1120.68,1123.86,1127.34,1130.49,1129.28,1125.07,1120.76,1118.76,1117.91,1120.35,1124.75,1129.72,1132.77,1134.90
1245.08,1245.12,1245.15,1245.20,1245.20,1245.15,1245.11,1245.09,1245.01,1244.79,1243.93,1242.50,1240.84,1239.05,1237.21,1235.35,1233.48,1231.72,1229.64,1228.19,1227.80,1228.22,1228.23,1227.47,1226.33,1225.51,1225.29,1223.32,1215.42,1201.79,1194.52,1190.89,1189.73,1192.91,1204.60,1211.62,1216.54,1220.64,1224.35,1228.01,1231.32,1234.25,1236.88,1239.51,1242.87,1246.27,1249.69,1253.51,1257.96,1261.80,1265.27,1268.88,1273.41,1277.42,1281.21,1285.14,1289.52,1293.34,1296.95,1300.61,1304.45,1308.31,1312.10,1315.80,1319.76,1324.92,1330.90,1337.13,1342.93,1347.69,1353.43,1359.07,1362.79,1363.31,1361.62,1359.20,1356.72,1354.13,1350.84,1348.09,1343.65,1337.94,1332.18,1328.63,1326.74,1325.57,1324.59,1323.10,1320.88,1317.60,1313.47,1308.88,1304.51,1301.43,1301.20,1304.51,1308.02,1309.21,1308.60,1307.36,1307.43,1307.06,1306.22,1305.27,1304.67,1304.62,1303.84,1303.06,1302.65,1302.47,1302.34,1304.91,1309.95,1315.50,1317.59,1316.99,1315.29,1313.38,1311.31,1307.92,1304.05,1300.81,1300.08,1300.44,1301.69,1303.07,1304.00,1305.44,1306.76,1308.34,1310.31,1312.15,1313.91,1315.90,1318.22,1321.14,1325.74,1328.28,1328.57,1327.02,1325.34,1323.28,1320.70,1318.14,1317.27,1317.91,1318.88,1319.75,1320.28,1320.39,1320.73,1321.13,1321.36,1321.10,1319.83,1318.10,1316.38,1315.15,1313.65,1312.07,1310.36,1308.43,1306.42,1304.33,1301.56,1297.95,1293.74,1288.68,1283.80,1279.28,1275.07,1270.95,1267.13,1263.40,1259.53,1255.35,1251.96,1248.38,1244.40,1240.33,1235.71,1229.96,1223.35,1216.40,1210.51,1205.99,1201.91,1197.52,1191.75,1183.74,1172.60,1161.17,1152.02,1136.53,1124.97,1116.84,1110.91,1105.82,1100.91,1094.41,1086.85,1080.23,1072.72,1065.72,1061.52,1062.05,1064.47,1067.94,1072.85,1079.24,1086.18,1092.33,1097.35,1101.97,1107.29,1113.23,1120.31,1127.61,1134.03,1138.14,1138.45,1135.62,1130.91,1126.66,1125.81,1129.85,1135.65,1139.04,1135.70,1130.22,1125.07,1121.70,1121.56,1121.67,1120.05,1118.41,1120.04,1122.96,1122.64,1119.80,1116.04,1114.96,1117.32,1120.93,1124.87,1128.19,1125.79,1121.81,1118.11,1115.99,1117.12,1120.53,1124.77,1128.84,1131.33,1133.06
1244.42,1244.78,1245.07,1245.13,1245.14,1245.09,1245.04,1244.99,1244.69,1243.91,1242.66,1241.12,1239.55,1237.74,1235.91,1234.07,1232.16,1230.18,1227.75,1225.74,1224.71,1224.86,1224.96,1224.45,1223.55,1222.92,1223.39,1222.60,1215.65,1202.15,1194.18,1190.63,1189.62,1193.06,1205.60,1212.38,1217.09,1221.14,1224.86,1228.56,1232.01,1235.18,1238.08,1240.98,1244.46,1248.09,1251.80,1255.72,1259.67,1263.37,1267.00,1270.95,1275.90,1280.26,1284.35,1288.35,1292.24,1295.85,1299.35,1302.91,1306.66,1310.47,1314.24,1318.25,1322.83,1328.38,1334.36,1340.28,1345.77,1350.63,1356.41,1360.12,1361.10,1359.18,1356.19,1353.44,1351.21,1349.23,1346.86,1344.57,1340.64,1335.26,1329.31,1325.27,1322.70,1321.19,1320.43,1319.53,1317.88,1315.15,1311.57,1307.51,1303.27,1299.36,1297.40,1298.97,1303.75,1304.94,1304.07,1302.76,1302.78,1302.68,1301.93,1300.87,1299.98,1299.43,1298.51,1297.63,1297.17,1297.39,1298.81,1302.21,1306.99,1311.48,1312.75,1311.80,1309.87,1307.49,1304.70,1301.46,1298.55,1296.52,1296.06,1296.61,1297.65,1298.71,1299.45,1300.49,1301.53,1302.98,1305.00,1307.10,1309.16,1311.41,1313.84,1316.30,1318.98,1320.58,1320.85,1319.64,1317.54,1315.05,1312.21,1309.60,1308.68,1308.93,1309.42,1309.87,1310.15,1310.19,1310.37,1310.60,1310.75,1310.59,1309.69,1308.53,1307.38,1306.45,1305.42,1304.38,1303.23,1301.90,1300.37,1298.34,1295.69,1292.48,1288.96,1284.82,1279.16,1273.02,1267.82,1262.61,1258.50,1254.62,1250.44,1246.37,1243.07,1239.78,1236.04,1231.43,1226.37,1220.52,1214.53,1209.18,1205.09,1200.57,1196.47,1192.87,1188.57,1183.03,1174.47,1164.45,1154.21,1137.74,1126.03,1118.20,1112.63,1107.47,1102.74,1096.38,1088.81,1082.02,1074.40,1066.35,1059.77,1056.87,1057.71,1060.78,1065.26,1070.95,1077.52,1084.51,1090.79,1096.17,1100.83,1106.09,1113.12,1121.13,1128.89,1133.55,1133.79,1130.34,1125.12,1121.87,1123.27,1128.08,1133.38,1135.95,1132.96,1128.21,1123.52,1119.74,1117.71,1118.05,1117.34,1116.03,1116.30,1118.00,1118.14,1116.48,1113.45,1111.11,1113.83,1118.34,1123.02,1126.47,1123.93,1120.09,1116.48,1114.17,1116.12,1119.59,1123.26,1126.60,1129.24,1131.10
1243.59,1244.27,1244.86,1245.05,1245.08,1245.03,1244.91,1244.63,1244.00,1242.70,1241.20,1239.71,1238.21,1236.34,1234.47,1232.62,1230.63,1228.40,1225.74,1223.21,1221.38,1221.03,1221.11,1220.93,1220.51,1220.25,1221.36,1221.44,1214.98,1201.32,1193.23,1190.16,1189.53,1193.44,1207.24,1213.50,1217.77,1221.67,1225.34,1229.03,1232.63,1236.03,1239.24,1242.54,1246.12,1249.93,1253.91,1258.00,1261.91,1265.58,1269.50,1274.03,1279.02,1283.54,1287.66,1291.45,1294.92,1298.37,1301.75,1305.19,1308.82,1312.62,1316.58,1321.10,1326.26,1331.70,1337.28,1342.83,1348.15,1353.04,1358.13,1359.55,1357.95,1354.23,1350.40,1347.65,1345.69,1344.12,1342.34,1340.19,1336.71,1331.98,1326.46,1322.20,1318.84,1316.64,1315.73,1315.40,1314.43,1312.38,1309.48,1306.09,1302.23,1297.66,1293.99,1293.55,1298.85,1300.31,1299.46,1298.03,1297.89,1297.87,1297.18,1296.13,1295.17,1294.21,1293.30,1292.49,1292.08,1292.97,1295.91,1299.35,1302.81,1306.00,1306.95,1306.20,1304.36,1301.60,1298.19,1295.32,1293.58,1292.87,1292.54,1292.97,1293.68,1294.41,1295.07,1295.79,1296.62,1297.90,1299.80,1301.96,1304.21,1306.72,1309.32,1311.50,1312.74,1313.44,1313.41,1312.20,1309.58,1306.64,1303.72,1301.28,1300.28,1300.22,1300.31,1300.43,1300.67,1300.77,1300.84,1300.92,1300.91,1300.59,1299.84,1299.01,1298.15,1297.15,1296.28,1295.30,1294.35,1293.52,1292.49,1290.69,1288.32,1285.48,1282.24,1278.76,1272.99,1266.19,1260.34,1254.38,1249.79,1245.45,1240.92,1236.98,1233.72,1230.65,1227.20,1222.51,1217.35,1211.84,1206.85,1203.11,1199.77,1195.10,1191.10,1188.28,1185.22,1180.72,1174.04,1165.76,1155.70,1139.93,1128.17,1120.04,1114.27,1108.75,1103.65,1097.18,1089.68,1082.92,1075.70,1067.51,1059.41,1053.33,1052.17,1054.60,1058.64,1063.66,1069.68,1077.04,1084.43,1090.85,1095.37,1099.80,1106.10,1114.20,1122.87,1127.84,1127.64,1123.64,1118.26,1116.04,1119.57,1125.12,1130.11,1132.34,1130.27,1126.24,1122.03,1118.15,1114.59,1114.67,1114.73,1113.89,1112.70,1113.06,1113.36,1112.49,1109.99,1107.20,1110.64,1116.17,1121.56,1125.02,1122.68,1118.87,1115.06,1112.41,1114.44,1117.68,1120.85,1123.71,1126.51,1128.54
1242.62,1243.45,1244.29,1244.92,1245.01,1245.00,1244.61,1243.66,1242.54,1241.09,1239.66,1238.30,1236.84,1234.93,1232.95,1230.90,1228.66,1226.13,1223.36,1220.44,1217.80,1216.49,1216.37,1216.65,1217.03,1217.72,1220.12,1220.10,1212.84,1198.60,1191.48,1189.43,1189.41,1194.00,1209.43,1215.05,1218.64,1222.20,1225.74,1229.36,1233.23,1236.83,1240.21,1244.11,1247.85,1251.80,1255.95,1260.17,1264.36,1268.19,1272.81,1278.47,1282.98,1287.28,1291.01,1294.30,1297.70,1301.06,1304.32,1307.63,1311.19,1315.07,1319.44,1324.56,1330.12,1334.75,1339.67,1344.84,1349.86,1353.97,1356.85,1355.83,1352.58,1348.57,1345.12,1342.54,1340.41,1338.45,1336.31,1334.14,1331.09,1327.35,1323.21,1318.89,1314.83,1311.81,1310.36,1310.48,1310.25,1309.06,1307.03,1304.38,1300.86,1295.51,1290.41,1288.31,1292.29,1294.99,1294.90,1293.09,1292.56,1292.26,1291.61,1290.83,1290.19,1289.18,1288.32,1287.65,1287.63,1289.59,1293.11,1295.22,1296.15,1297.62,1299.36,1299.96,1299.20,1296.88,1293.46,1290.82,1289.30,1288.75,1288.58,1288.80,1289.39,1290.16,1290.92,1291.73,1292.63,1293.79,1295.32,1297.05,1299.05,1301.33,1303.74,1305.89,1306.88,1307.07,1306.41,1304.62,1301.99,1298.90,1295.66,1292.67,1290.85,1290.59,1290.78,1291.07,1291.42,1291.75,1292.07,1292.40,1292.53,1291.95,1291.10,1290.19,1289.12,1287.58,1286.20,1284.29,1282.61,1281.80,1281.13,1280.15,1278.45,1275.76,1271.93,1268.37,1264.07,1258.88,1252.88,1246.88,1241.40,1236.32,1231.66,1227.77,1224.52,1221.37,1218.01,1214.17,1210.19,1206.08,1202.18,1198.43,1193.49,1189.34,1186.20,1183.84,1181.27,1176.71,1170.49,1163.43,1155.61,1144.07,1132.05,1122.16,1115.30,1108.89,1102.46,1095.26,1087.83,1081.74,1075.74,1068.51,1060.54,1053.12,1048.98,1049.42,1052.60,1057.63,1063.81,1070.43,1077.94,1085.39,1091.07,1095.02,1100.02,1107.02,1115.24,1119.77,1118.19,1113.83,1109.44,1108.80,1113.88,1120.12,1125.43,1128.29,1127.22,1123.83,1120.08,1116.40,1112.33,1111.22,1111.79,1111.92,1109.53,1108.64,1108.20,1107.07,1104.93,1103.51,1108.23,1114.74,1120.62,1123.82,1121.80,1117.85,1113.50,1110.20,1111.36,1114.26,1117.35,1120.15,1122.73,1124.67
1241.72,1242.61,1243.49,1244.19,1244.41,1244.21,1243.52,1242.34,1241.03,1239.62,1238.24,1236.88,1235.49,1233.74,1231.42,1228.73,1225.90,1223.34,1220.16,1216.66,1213.47,1211.92,1212.07,1213.13,1214.62,1216.28,1218.06,1214.75,1206.40,1195.36,1190.45,1189.24,1191.63,1198.55,1211.09,1216.12,1219.57,1222.95,1226.27,1229.77,1233.66,1237.52,1241.29,1245.44,1249.54,1253.70,1258.01,1262.59,1267.34,1272.39,1277.53,1282.43,1286.45,1290.34,1293.88,1297.13,1300.45,1303.74,1307.08,1310.57,1314.38,1318.54,1323.39,1328.29,1332.89,1337.02,1341.21,1345.68,1350.06,1353.33,1353.83,1351.35,1347.57,1343.63,1340.20,1337.29,1334.81,1332.63,1330.52,1328.45,1325.75,1322.67,1319.48,1315.39,1311.35,1307.99,1305.75,1304.96,1305.00,1304.72,1303.68,1301.58,1298.92,1293.61,1287.67,1284.20,1287.62,1290.41,1290.64,1289.03,1288.25,1287.89,1287.28,1286.56,1285.93,1284.84,1283.65,1282.77,1283.04,1286.14,1289.22,1290.37,1290.24,1290.80,1293.00,1294.95,1295.08,1292.23,1287.31,1284.87,1283.95,1283.81,1283.86,1284.06,1284.46,1285.06,1285.90,1286.88,1288.00,1289.27,1290.74,1292.38,1294.43,1296.62,1298.75,1300.55,1301.43,1301.52,1300.71,1298.80,1296.43,1293.23,1289.81,1286.56,1283.94,1283.02,1282.93,1283.03,1282.97,1283.12,1283.30,1283.43,1283.45,1283.02,1282.13,1281.19,1280.16,1278.61,1276.52,1274.53,1273.14,1272.48,1271.11,1269.56,1267.75,1265.46,1262.36,1259.32,1255.65,1251.06,1245.39,1239.82,1234.06,1228.32,1223.17,1219.92,1216.86,1213.93,1211.01,1207.77,1204.34,1200.98,1197.66,1194.08,1189.45,1185.39,1181.97,1179.08,1176.20,1172.34,1167.68,1162.37,1156.02,1147.17,1135.94,1125.73,1118.07,1110.70,1103.66,1095.76,1087.60,1081.12,1074.84,1067.88,1060.35,1052.93,1047.56,1046.59,1048.56,1052.81,1058.86,1065.64,1073.45,1081.11,1086.67,1090.57,1095.21,1101.44,1108.66,1112.84,1111.18,1107.00,1102.59,1100.98,1106.56,1113.69,1119.71,1122.89,1122.76,1120.20,1117.25,1114.33,1110.54,1108.40,1108.76,1109.49,1107.39,1104.76,1102.39,1100.36,1099.26,1100.99,1106.83,1113.30,1118.73,1121.80,1121.19,1117.99,1113.53,1109.29,1108.17,1110.58,1113.73,1116.48,1118.94,1121.07
1240.79,1241.72,1242.58,1243.20,1243.48,1243.07,1242.17,1240.93,1239.58,1238.24,1236.87,1235.49,1234.14,1232.59,1229.88,1226.39,1222.75,1219.87,1216.15,1212.19,1208.83,1207.49,1208.31,1210.29,1212.69,1214.73,1215.01,1208.42,1199.53,1192.33,1189.71,1189.23,1194.18,1203.45,1212.13,1216.56,1219.99,1223.32,1226.61,1230.13,1234.06,1238.14,1242.33,1246.68,1251.17,1255.64,1260.34,1265.66,1271.22,1277.32,1282.58,1286.30,1289.91,1293.43,1296.86,1300.20,1303.49,1306.96,1310.54,1314.26,1318.29,1322.66,1327.55,1331.82,1335.24,1338.96,1342.50,1346.14,1349.57,1351.65,1350.08,1346.71,1342.85,1339.08,1335.59,1332.32,1329.52,1327.20,1325.15,1323.14,1320.69,1318.11,1315.57,1311.90,1308.20,1304.78,1301.84,1299.84,1299.86,1300.24,1299.98,1298.31,1296.52,1291.71,1285.36,1280.52,1283.16,1285.77,1286.34,1285.21,1284.28,1283.94,1283.28,1282.41,1281.56,1280.23,1278.74,1277.77,1278.39,1282.30,1284.64,1285.11,1284.59,1284.65,1286.99,1290.08,1291.00,1287.57,1281.33,1278.88,1278.39,1278.60,1278.79,1278.95,1279.23,1279.76,1280.66,1281.70,1283.01,1284.47,1286.05,1287.82,1290.09,1292.25,1294.09,1295.48,1296.23,1296.33,1295.55,1293.67,1291.47,1288.26,1284.65,1281.05,1277.89,1276.44,1276.04,1275.85,1275.29,1275.11,1274.93,1274.72,1274.49,1274.24,1273.38,1272.45,1271.50,1270.16,1267.75,1265.98,1264.98,1264.24,1262.04,1259.72,1257.61,1255.63,1253.40,1250.91,1247.61,1243.41,1238.31,1233.38,1227.83,1221.82,1216.21,1213.09,1209.97,1207.34,1205.03,1202.26,1199.18,1196.28,1193.32,1189.95,1186.14,1182.02,1177.96,1174.17,1170.75,1167.76,1164.77,1161.14,1155.90,1148.85,1138.92,1129.20,1121.18,1113.13,1105.80,1097.63,1089.03,1081.98,1075.00,1067.84,1060.42,1053.03,1047.13,1044.62,1045.14,1048.57,1054.42,1061.58,1069.54,1077.10,1082.65,1086.55,1091.05,1096.59,1102.63,1106.45,1104.97,1100.63,1095.59,1093.32,1098.88,1106.74,1113.61,1117.32,1117.93,1116.10,1113.92,1111.81,1108.60,1105.70,1105.56,1106.69,1105.74,1101.39,1096.80,1093.81,1094.04,1098.96,1105.57,1111.55,1116.18,1119.20,1120.32,1118.21,1113.97,1108.91,1105.11,1106.52,1109.60,1112.57,1115.07,1117.34
1239.74,1240.69,1241.53,1242.06,1242.04,1241.59,1240.79,1239.64,1238.38,1236.98,1235.57,1234.18,1232.80,1231.38,1228.28,1223.98,1219.17,1214.77,1210.36,1206.59,1204.04,1203.50,1205.84,1208.84,1211.21,1211.71,1209.67,1203.15,1195.80,1190.56,1189.10,1189.21,1195.33,1205.36,1211.74,1215.52,1218.80,1222.27,1226.14,1230.30,1234.46,1238.72,1243.19,1247.91,1252.64,1257.70,1263.50,1270.54,1277.37,1282.94,1287.21,1290.40,1293.83,1297.35,1300.74,1304.03,1307.46,1311.89,1316.04,1319.85,1323.63,1327.76,1331.26,1334.40,1337.42,1340.66,1343.86,1346.64,1348.48,1348.29,1345.82,1342.37,1338.68,1335.04,1331.56,1328.36,1325.55,1323.11,1320.91,1318.68,1316.33,1313.97,1311.60,1308.64,1305.59,1302.49,1299.38,1296.63,1296.18,1296.37,1296.15,1294.69,1293.20,1289.57,1283.59,1277.08,1277.41,1280.12,1281.60,1281.24,1280.33,1280.07,1279.05,1277.55,1276.10,1274.08,1272.70,1272.41,1273.75,1277.20,1278.91,1279.29,1279.03,1279.04,1280.80,1284.39,1285.98,1282.76,1277.40,1274.31,1273.23,1273.37,1273.41,1273.25,1273.74,1274.66,1275.59,1276.29,1277.58,1279.21,1281.09,1283.38,1286.03,1288.23,1289.86,1291.00,1291.46,1291.46,1290.73,1288.89,1286.33,1283.36,1279.39,1274.92,1271.97,1270.84,1270.41,1270.02,1269.29,1268.61,1267.93,1267.26,1266.66,1266.23,1265.53,1264.68,1263.75,1262.72,1261.42,1260.02,1258.56,1256.92,1254.66,1252.34,1250.10,1247.91,1245.61,1243.11,1240.24,1236.78,1232.53,1228.50,1224.04,1218.96,1213.35,1208.08,1203.91,1201.50,1200.01,1197.52,1194.91,1192.22,1189.35,1186.17,1182.79,1178.62,1173.90,1169.09,1165.21,1162.86,1160.81,1158.10,1153.58,1147.09,1138.98,1130.91,1123.54,1115.78,1108.47,1101.30,1094.11,1086.93,1079.55,1071.39,1062.65,1054.07,1048.09,1042.99,1041.63,1044.91,1050.68,1057.99,1065.36,1072.72,1079.95,1083.54,1087.57,1092.36,1097.27,1100.51,1098.74,1092.63,1086.07,1086.73,1091.74,1099.54,1107.39,1112.54,1113.38,1111.75,1109.86,1108.16,1105.67,1102.74,1101.90,1103.14,1104.56,1099.09,1092.62,1089.08,1090.84,1097.20,1103.70,1108.80,1112.50,1115.63,1118.31,1117.55,1114.11,1108.95,1102.57,1101.51,1103.96,1108.07,1110.95,1112.93
1238.65,1239.61,1240.43,1240.91,1240.80,1240.31,1239.58,1238.62,1237.45,1236.08,1234.67,1233.27,1231.79,1229.93,1226.36,1221.61,1216.28,1210.77,1205.72,1202.23,1200.69,1200.67,1202.59,1205.69,1208.33,1208.25,1205.54,1199.57,1193.53,1189.73,1188.80,1189.26,1195.73,1205.80,1211.20,1214.74,1217.96,1221.57,1225.89,1230.38,1234.63,1238.94,1243.57,1248.73,1254.01,1261.23,1269.84,1278.14,1284.44,1288.65,1291.91,1294.92,1298.23,1301.65,1304.96,1308.38,1312.63,1317.26,1321.48,1325.17,1328.42,1331.81,1334.95,1337.45,1339.52,1342.28,1344.79,1346.10,1346.20,1345.03,1342.11,1338.55,1334.90,1331.37,1328.14,1325.02,1321.99,1319.09,1316.52,1314.14,1311.74,1309.33,1306.94,1304.65,1302.14,1299.34,1296.25,1293.26,1292.49,1292.46,1292.20,1290.98,1289.59,1286.82,1281.49,1274.38,1272.66,1274.75,1276.74,1277.20,1276.27,1276.20,1275.09,1273.06,1270.71,1268.57,1267.13,1266.99,1268.59,1271.64,1273.07,1273.45,1273.34,1273.28,1273.95,1276.48,1278.39,1277.59,1274.78,1270.56,1268.13,1268.01,1268.51,1268.55,1269.13,1270.10,1270.97,1271.52,1272.45,1274.12,1276.66,1279.65,1282.59,1285.04,1286.78,1287.51,1287.62,1287.22,1286.17,1284.22,1281.53,1278.20,1273.99,1269.53,1266.70,1265.18,1264.12,1263.27,1262.63,1262.02,1261.23,1260.42,1259.62,1258.71,1257.62,1256.41,1255.20,1254.14,1253.10,1251.69,1250.02,1248.17,1246.02,1243.81,1241.82,1240.12,1238.57,1236.30,1233.60,1230.63,1227.42,1224.10,1220.43,1216.16,1210.92,1204.36,1200.05,1197.63,1196.03,1193.64,1190.11,1187.04,1184.11,1180.79,1177.47,1173.84,1169.75,1165.32,1161.08,1158.34,1156.26,1153.35,1147.96,1142.11,1135.86,1129.26,1122.49,1116.20,1109.55,1102.88,1096.37,1089.87,1082.05,1073.26,1064.11,1055.41,1048.83,1042.24,1039.29,1041.37,1046.74,1054.16,1061.39,1068.29,1075.07,1079.36,1083.24,1087.51,1091.81,1093.72,1090.67,1084.08,1077.85,1079.26,1084.60,1092.16,1100.08,1106.32,1108.46,1107.46,1105.79,1104.14,1101.82,1099.26,1098.57,1100.11,1102.59,1097.89,1090.53,1086.03,1087.72,1093.85,1099.78,1104.38,1107.85,1111.11,1114.48,1115.56,1113.91,1109.07,1101.72,1098.68,1099.64,1103.29,1106.14,1108.11
1237.52,1238.48,1239.28,1239.72,1239.67,1239.14,1238.44,1237.67,1236.64,1235.34,1233.95,1232.55,1230.97,1228.45,1224.46,1219.54,1213.95,1207.54,1202.15,1199.05,1198.33,1198.60,1199.42,1201.99,1204.65,1204.44,1201.93,1196.80,1191.97,1189.35,1188.71,1189.65,1196.11,1205.69,1210.77,1214.28,1217.50,1221.24,1225.84,1230.43,1234.69,1239.02,1243.78,1249.40,1255.37,1265.24,1276.91,1285.76,1291.14,1294.32,1297.09,1300.19,1303.09,1306.20,1309.36,1312.91,1317.68,1321.93,1325.90,1329.39,1332.16,1334.93,1338.09,1340.20,1341.27,1343.41,1345.01,1344.81,1343.41,1341.80,1338.68,1335.06,1331.42,1328.04,1325.09,1321.98,1318.63,1315.17,1312.04,1309.56,1307.14,1304.58,1301.98,1300.21,1298.25,1295.89,1293.08,1290.05,1288.90,1288.57,1288.26,1287.27,1285.85,1283.64,1279.07,1272.12,1268.69,1269.87,1271.99,1273.12,1272.19,1272.29,1271.28,1268.89,1265.61,1263.51,1261.87,1261.63,1263.28,1266.04,1267.37,1267.77,1267.73,1267.55,1267.13,1268.05,1269.97,1272.06,1272.18,1267.11,1263.33,1262.79,1263.76,1264.29,1265.00,1265.91,1266.73,1267.26,1267.76,1269.47,1272.75,1276.17,1279.39,1282.23,1284.23,1284.50,1284.22,1283.29,1281.79,1279.65,1276.95,1273.18,1268.93,1264.86,1261.98,1259.82,1257.96,1256.54,1255.84,1255.40,1254.66,1253.82,1252.87,1251.44,1249.79,1248.08,1246.37,1244.77,1243.47,1241.90,1240.19,1238.47,1236.66,1234.82,1233.40,1232.56,1232.00,1230.20,1227.65,1224.98,1222.67,1219.91,1216.73,1212.96,1208.05,1201.29,1197.38,1194.79,1192.39,1189.03,1183.67,1179.84,1176.84,1173.66,1170.90,1168.31,1165.50,1162.14,1157.89,1154.45,1150.71,1145.93,1139.82,1135.21,1131.02,1125.91,1119.83,1115.19,1109.46,1103.24,1097.11,1091.38,1083.20,1074.04,1064.87,1056.38,1048.99,1041.52,1037.34,1038.01,1042.80,1050.17,1057.40,1063.79,1069.34,1074.45,1078.35,1082.23,1086.05,1086.81,1082.78,1076.55,1071.25,1072.02,1077.47,1084.50,1091.92,1098.78,1102.63,1102.85,1101.66,1099.89,1097.41,1095.37,1095.36,1097.44,1100.37,1097.29,1089.73,1084.05,1084.42,1089.48,1094.84,1099.28,1102.84,1106.21,1109.96,1112.88,1113.21,1108.99,1101.61,1097.11,1096.28,1098.58,1101.18,1103.21
1236.30,1237.25,1238.03,1238.40,1238.46,1237.97,1237.28,1236.57,1235.75,1234.57,1233.24,1231.85,1230.24,1227.16,1223.28,1218.53,1212.49,1205.24,1200.62,1198.07,1197.13,1197.32,1198.05,1199.35,1200.45,1200.07,1198.11,1194.12,1190.56,1188.96,1188.86,1191.24,1197.70,1206.08,1210.96,1214.51,1217.81,1221.56,1226.12,1230.59,1234.74,1239.13,1244.19,1250.31,1256.94,1268.39,1281.10,1288.56,1294.82,1299.68,1303.98,1307.64,1308.88,1311.02,1313.93,1317.17,1320.17,1323.23,1326.61,1329.91,1332.88,1336.34,1339.09,1340.89,1341.85,1342.80,1343.29,1342.55,1340.83,1338.54,1335.36,1331.87,1328.49,1325.41,1322.36,1318.97,1315.39,1311.57,1307.45,1305.04,1302.96,1300.38,1297.13,1295.36,1294.18,1292.90,1290.97,1287.80,1285.73,1284.89,1284.57,1283.66,1282.13,1279.92,1276.00,1270.17,1265.89,1266.29,1267.96,1268.97,1268.23,1268.27,1267.50,1265.25,1261.46,1259.02,1257.01,1256.61,1258.36,1261.02,1262.36,1262.79,1262.68,1262.23,1261.61,1261.63,1263.00,1265.78,1267.32,1263.32,1259.67,1258.43,1258.66,1259.83,1261.09,1262.21,1263.12,1263.74,1264.27,1266.26,1269.82,1272.38,1276.04,1279.41,1281.56,1281.51,1280.76,1279.42,1277.64,1275.40,1272.57,1269.17,1265.43,1261.61,1258.17,1255.67,1253.59,1251.62,1249.79,1248.88,1248.01,1247.04,1245.87,1244.26,1242.43,1240.46,1238.00,1234.53,1232.51,1230.90,1229.32,1227.81,1226.93,1226.24,1226.00,1226.13,1225.92,1225.11,1223.01,1220.37,1218.15,1215.62,1212.48,1208.18,1202.84,1198.47,1195.29,1192.45,1188.27,1180.01,1171.90,1166.83,1164.01,1162.74,1163.16,1162.45,1160.99,1158.89,1155.75,1152.29,1142.35,1131.24,1127.79,1126.62,1125.19,1122.06,1117.09,1112.69,1107.91,1102.74,1097.24,1091.24,1083.02,1073.82,1064.42,1055.38,1047.38,1039.32,1034.77,1035.16,1039.22,1045.94,1052.87,1059.12,1064.30,1068.91,1072.90,1076.41,1079.31,1081.03,1078.95,1073.94,1068.46,1067.30,1070.41,1076.07,1082.59,1088.78,1093.88,1096.88,1097.33,1095.35,1092.52,1090.88,1091.99,1095.21,1098.57,1097.01,1090.14,1083.17,1080.40,1084.05,1089.71,1094.57,1098.21,1101.65,1106.01,1109.81,1111.19,1108.06,1101.33,1096.39,1094.14,1094.67,1096.95,1098.78
1235.08,1236.02,1236.78,1237.10,1237.23,1236.81,1236.12,1235.37,1234.63,1233.65,1232.57,1231.38,1229.66,1226.40,1222.71,1217.81,1210.91,1204.05,1200.02,1197.74,1196.53,1196.04,1196.32,1196.65,1196.71,1196.13,1194.34,1191.71,1189.52,1188.61,1188.98,1191.92,1198.33,1206.27,1211.17,1214.92,1218.36,1222.14,1226.57,1230.82,1235.02,1239.49,1244.56,1250.83,1259.06,1271.24,1283.83,1291.30,1298.19,1303.44,1307.71,1310.89,1311.75,1313.25,1315.34,1317.64,1319.61,1321.90,1324.94,1328.38,1331.91,1335.67,1338.67,1340.55,1341.32,1341.55,1341.15,1339.87,1337.83,1335.16,1332.02,1328.78,1325.66,1322.70,1319.61,1316.21,1312.34,1307.90,1303.12,1300.59,1298.72,1296.16,1292.39,1290.48,1289.64,1288.75,1287.13,1284.35,1281.91,1280.70,1280.22,1279.37,1278.01,1276.05,1272.80,1267.91,1263.27,1262.61,1263.60,1264.66,1264.44,1264.28,1263.95,1262.39,1258.73,1255.75,1253.09,1252.23,1253.78,1256.27,1257.81,1258.11,1257.53,1256.55,1255.52,1255.16,1256.24,1259.14,1261.99,1259.55,1256.33,1254.33,1253.87,1254.92,1256.28,1257.49,1258.40,1259.11,1260.26,1262.80,1266.58,1269.26,1272.85,1276.03,1277.98,1277.86,1276.97,1275.52,1273.70,1271.53,1268.93,1265.97,1262.61,1258.88,1255.03,1251.71,1248.84,1246.14,1243.53,1241.97,1240.94,1240.22,1239.56,1238.13,1236.20,1233.99,1231.24,1227.49,1225.10,1223.07,1220.90,1218.76,1218.23,1218.49,1218.93,1219.25,1219.23,1219.02,1218.04,1216.39,1214.16,1210.99,1207.32,1203.16,1198.86,1195.74,1192.57,1187.72,1180.32,1169.80,1161.57,1157.07,1154.98,1154.44,1155.26,1154.88,1154.39,1153.88,1151.74,1145.54,1133.19,1121.21,1118.52,1118.13,1117.90,1116.41,1113.21,1109.66,1105.65,1101.13,1096.13,1090.27,1081.98,1072.93,1063.35,1053.36,1044.81,1036.13,1031.22,1031.51,1035.21,1040.76,1047.29,1053.71,1058.71,1062.66,1066.50,1070.24,1073.61,1076.15,1075.93,1072.21,1066.47,1062.64,1063.80,1068.46,1074.53,1080.63,1086.49,1091.62,1093.62,1091.79,1088.38,1087.32,1089.35,1093.15,1096.35,1095.85,1090.42,1083.50,1078.55,1079.72,1084.34,1089.53,1094.11,1097.63,1101.84,1106.01,1108.34,1106.56,1100.94,1095.57,1091.99,1091.07,1093.17,1094.92
1233.88,1234.79,1235.51,1235.79,1235.98,1235.64,1234.97,1234.14,1233.36,1232.56,1231.79,1230.80,1228.88,1225.67,1222.11,1216.91,1209.31,1203.52,1199.96,1197.78,1196.38,1194.95,1194.48,1194.08,1193.53,1192.75,1190.99,1189.69,1188.79,1188.34,1189.11,1192.07,1198.36,1206.20,1211.31,1215.35,1219.01,1222.83,1227.06,1231.07,1235.40,1239.96,1244.89,1251.08,1261.25,1273.49,1285.21,1293.58,1300.67,1305.30,1308.42,1310.58,1311.88,1313.06,1314.19,1315.43,1317.06,1318.98,1321.83,1325.47,1329.63,1333.52,1337.06,1339.23,1339.78,1339.66,1338.63,1336.84,1334.51,1331.77,1328.75,1325.78,1322.82,1319.76,1316.67,1313.46,1309.34,1304.30,1299.23,1296.41,1294.58,1292.05,1287.93,1285.67,1284.70,1283.64,1281.94,1279.76,1277.41,1276.01,1275.35,1274.57,1273.52,1272.01,1269.46,1265.44,1260.90,1258.94,1259.04,1260.16,1260.56,1260.27,1260.52,1259.96,1256.84,1253.35,1249.88,1248.36,1249.52,1251.78,1253.57,1253.65,1252.32,1250.49,1248.96,1248.63,1249.69,1252.38,1256.11,1255.46,1252.97,1250.40,1249.30,1249.76,1250.93,1252.16,1252.98,1253.70,1255.57,1258.83,1263.11,1266.54,1269.69,1272.23,1273.80,1273.78,1273.02,1271.66,1269.97,1268.02,1265.86,1263.30,1260.17,1256.44,1252.24,1247.75,1243.78,1240.32,1237.30,1234.99,1233.81,1233.57,1233.76,1232.73,1230.80,1228.39,1225.66,1222.70,1220.21,1217.70,1214.63,1211.25,1210.40,1211.10,1211.66,1211.66,1211.73,1211.89,1212.31,1212.10,1209.88,1205.92,1201.77,1198.36,1195.82,1192.96,1189.28,1181.60,1170.67,1159.99,1152.95,1149.89,1148.78,1148.16,1147.61,1146.51,1146.47,1147.36,1145.95,1136.30,1124.76,1115.57,1111.98,1110.15,1109.84,1109.53,1108.29,1106.06,1102.69,1098.57,1093.90,1088.45,1080.29,1071.55,1061.79,1050.66,1041.38,1032.01,1026.67,1026.83,1030.36,1034.79,1040.92,1047.51,1052.44,1055.95,1059.59,1063.79,1068.25,1071.42,1072.85,1070.56,1064.82,1058.22,1057.48,1061.21,1067.08,1073.61,1080.22,1086.83,1090.06,1088.64,1084.75,1084.35,1087.08,1091.10,1093.93,1094.20,1090.57,1084.63,1078.43,1076.26,1078.89,1084.13,1089.97,1093.77,1097.50,1101.72,1104.86,1104.59,1100.39,1094.71,1089.96,1087.78,1089.55,1091.23
1232.75,1233.57,1234.14,1234.40,1234.66,1234.42,1233.79,1232.90,1232.07,1231.24,1230.27,1228.90,1226.57,1223.47,1219.47,1214.36,1208.14,1202.84,1199.83,1198.02,1196.68,1195.01,1193.79,1192.54,1191.35,1190.54,1189.54,1188.75,1188.31,1188.42,1189.41,1193.03,1198.88,1205.66,1211.13,1215.56,1219.51,1223.36,1227.27,1231.21,1235.60,1240.23,1245.20,1251.37,1262.09,1273.53,1284.06,1292.63,1299.16,1302.94,1305.38,1307.21,1308.48,1309.67,1311.04,1312.62,1314.34,1316.23,1318.58,1321.68,1325.89,1330.53,1333.88,1335.94,1336.73,1336.38,1335.17,1333.30,1331.08,1328.71,1325.90,1322.97,1319.70,1316.08,1312.95,1309.90,1306.02,1301.32,1296.68,1293.36,1291.15,1288.53,1284.38,1281.23,1279.34,1277.79,1276.08,1273.88,1271.84,1270.64,1270.09,1269.58,1268.68,1267.45,1265.69,1263.03,1259.39,1256.04,1254.70,1255.18,1255.70,1256.02,1256.96,1257.09,1254.61,1251.16,1247.09,1244.99,1245.83,1247.81,1249.54,1249.42,1247.31,1243.79,1242.41,1242.52,1243.77,1246.06,1248.54,1249.64,1248.80,1246.55,1244.69,1244.77,1245.95,1247.24,1247.86,1248.33,1249.59,1253.49,1259.73,1263.43,1266.19,1268.32,1269.67,1269.76,1269.21,1268.16,1266.75,1265.05,1263.20,1260.76,1257.77,1254.05,1249.13,1243.44,1238.87,1235.24,1231.97,1228.97,1227.82,1227.77,1228.05,1227.41,1225.82,1223.50,1220.72,1217.86,1215.60,1213.63,1210.47,1205.69,1203.25,1202.78,1202.61,1202.29,1202.38,1203.28,1204.24,1204.33,1202.51,1199.86,1197.30,1194.97,1192.68,1189.72,1185.41,1176.82,1165.27,1155.05,1146.63,1143.21,1142.48,1142.16,1141.40,1139.79,1139.02,1139.21,1137.96,1130.54,1121.78,1114.09,1108.78,1104.05,1102.64,1102.45,1102.04,1100.96,1098.36,1094.71,1090.28,1084.89,1077.90,1069.69,1059.68,1047.52,1036.56,1026.24,1020.26,1019.88,1022.97,1028.08,1033.99,1039.85,1044.90,1049.25,1053.17,1057.02,1060.91,1064.63,1067.80,1067.58,1063.18,1055.28,1051.07,1052.81,1058.19,1065.38,1074.22,1081.64,1085.18,1084.17,1080.94,1081.05,1084.19,1088.60,1091.98,1093.22,1090.84,1085.95,1079.40,1073.16,1073.79,1078.15,1083.91,1088.97,1093.31,1097.44,1100.79,1101.96,1099.48,1094.15,1088.78,1085.26,1085.38,1086.62
1231.60,1232.29,1232.72,1233.01,1233.34,1233.25,1232.71,1231.76,1230.67,1229.33,1227.91,1226.23,1223.73,1220.78,1216.86,1212.21,1207.13,1202.04,1199.48,1197.81,1196.29,1195.04,1193.85,1192.09,1190.28,1189.34,1188.65,1188.18,1188.13,1188.74,1190.15,1194.44,1199.79,1205.30,1210.59,1215.40,1219.72,1223.66,1227.39,1231.30,1235.73,1240.40,1245.36,1251.44,1262.44,1273.34,1282.79,1290.67,1296.50,1299.55,1301.46,1303.12,1304.33,1305.61,1307.28,1309.29,1311.39,1313.46,1315.55,1318.14,1321.82,1326.57,1330.20,1332.51,1333.38,1332.89,1331.79,1330.19,1328.24,1325.97,1323.33,1319.92,1316.02,1312.03,1308.88,1305.92,1302.27,1297.81,1293.02,1288.99,1286.64,1284.62,1281.44,1277.80,1274.80,1272.49,1270.65,1268.61,1266.83,1265.85,1265.43,1265.00,1264.09,1262.77,1261.36,1259.80,1257.48,1253.86,1251.35,1250.67,1251.29,1251.95,1253.39,1254.14,1252.20,1248.46,1243.94,1241.38,1241.79,1243.31,1244.43,1244.12,1242.15,1238.82,1237.65,1237.56,1238.29,1239.83,1241.45,1243.27,1243.59,1242.18,1240.31,1240.14,1241.28,1242.57,1242.94,1243.10,1243.76,1247.56,1254.52,1259.16,1262.24,1264.38,1265.72,1265.93,1265.51,1264.66,1263.44,1261.86,1260.20,1257.91,1255.17,1251.66,1246.41,1240.38,1235.50,1231.38,1227.21,1223.64,1222.38,1222.29,1222.51,1222.15,1221.05,1219.22,1216.79,1213.86,1210.78,1208.67,1205.76,1200.89,1197.22,1195.82,1195.24,1194.94,1195.12,1196.24,1197.25,1197.41,1196.10,1194.49,1192.79,1190.85,1188.48,1185.54,1180.88,1172.19,1161.22,1152.37,1143.24,1138.03,1136.18,1136.38,1135.51,1133.75,1132.57,1132.21,1131.27,1126.45,1120.03,1113.21,1106.53,1099.80,1096.11,1094.71,1094.82,1094.82,1092.95,1089.66,1085.40,1080.48,1074.68,1067.05,1057.25,1045.19,1033.38,1022.64,1015.72,1013.62,1015.17,1020.23,1026.15,1031.81,1036.78,1041.52,1045.67,1049.77,1054.15,1058.50,1062.42,1063.79,1061.13,1052.84,1046.22,1045.49,1049.60,1057.30,1066.36,1074.88,1079.63,1079.70,1077.81,1078.59,1081.62,1085.76,1089.57,1091.51,1090.08,1086.09,1079.71,1071.22,1069.93,1072.94,1078.18,1084.12,1089.15,1093.15,1096.34,1098.33,1097.49,1092.81,1087.07,1082.30,1080.94,1081.86
1230.29,1230.86,1231.19,1231.62,1232.03,1232.12,1231.67,1230.53,1228.92,1226.72,1224.77,1222.97,1220.54,1217.81,1214.44,1210.52,1206.07,1201.12,1198.80,1196.90,1194.96,1194.64,1194.25,1192.42,1190.11,1188.95,1188.06,1187.84,1188.22,1189.30,1191.39,1196.23,1201.06,1205.33,1209.94,1215.03,1219.67,1223.75,1227.43,1231.34,1235.82,1240.50,1245.38,1251.27,1262.33,1272.96,1281.62,1288.15,1293.30,1295.81,1297.33,1298.84,1300.03,1301.41,1303.23,1305.50,1308.08,1310.48,1312.63,1314.85,1317.68,1321.90,1326.28,1329.12,1329.82,1329.29,1328.52,1327.47,1325.94,1323.58,1321.00,1316.84,1312.14,1307.92,1304.69,1301.69,1298.19,1293.84,1288.43,1283.51,1281.13,1280.16,1278.79,1275.25,1271.23,1267.95,1265.76,1264.02,1262.38,1261.54,1261.22,1260.73,1259.67,1258.01,1256.54,1255.75,1254.96,1252.19,1249.03,1246.89,1247.39,1248.02,1249.70,1250.93,1249.47,1245.27,1240.55,1237.63,1237.31,1238.15,1238.34,1237.91,1236.95,1235.53,1234.57,1233.73,1233.35,1233.90,1235.27,1236.86,1237.71,1237.45,1236.18,1235.90,1236.90,1238.09,1238.20,1237.99,1238.22,1241.26,1247.64,1253.79,1257.76,1260.30,1261.78,1262.11,1261.67,1260.88,1259.71,1258.14,1256.62,1254.64,1252.32,1249.23,1244.21,1238.66,1233.70,1228.74,1223.12,1219.01,1217.36,1216.99,1217.13,1216.97,1216.37,1215.31,1213.59,1210.48,1205.72,1202.82,1200.41,1196.86,1192.65,1190.43,1189.57,1189.55,1189.92,1190.78,1191.48,1191.61,1190.76,1189.53,1187.75,1185.53,1182.98,1180.24,1175.62,1167.64,1158.23,1151.45,1142.70,1134.88,1130.57,1130.86,1129.80,1128.18,1127.03,1126.59,1126.09,1123.31,1118.48,1112.13,1104.58,1097.01,1090.30,1086.67,1087.02,1087.94,1086.81,1083.86,1079.82,1075.62,1070.70,1063.62,1054.53,1043.65,1032.01,1021.48,1013.41,1008.56,1007.42,1011.41,1017.40,1023.43,1028.18,1032.85,1037.28,1042.39,1048.37,1053.39,1057.06,1059.28,1058.33,1050.58,1042.96,1039.57,1041.61,1049.38,1056.84,1066.51,1073.35,1075.46,1075.40,1076.97,1079.47,1082.71,1086.61,1088.85,1088.03,1084.79,1078.94,1070.13,1067.15,1068.71,1073.35,1079.54,1085.10,1088.94,1091.73,1093.91,1094.44,1090.61,1084.74,1078.94,1076.36,1077.06
1228.01,1228.65,1229.26,1230.02,1230.71,1230.93,1230.18,1228.17,1225.53,1223.25,1221.33,1219.46,1217.10,1214.63,1211.65,1208.14,1204.10,1199.93,1197.02,1194.33,1192.14,1192.48,1193.13,1191.93,1189.79,1188.50,1187.46,1187.72,1188.54,1189.93,1193.45,1198.38,1202.75,1206.45,1210.57,1215.38,1219.78,1223.68,1227.27,1231.13,1235.74,1240.53,1245.38,1250.90,1260.98,1271.12,1279.61,1285.68,1290.47,1292.90,1294.24,1295.30,1296.46,1297.82,1299.44,1301.33,1303.54,1306.37,1308.84,1311.13,1313.86,1318.04,1322.52,1325.22,1325.60,1325.20,1324.62,1324.14,1323.47,1321.79,1319.04,1315.01,1310.22,1305.25,1301.16,1297.83,1294.47,1290.63,1285.88,1280.01,1276.34,1275.00,1274.97,1272.56,1268.43,1264.35,1261.20,1259.17,1257.27,1256.22,1255.89,1255.67,1254.49,1252.92,1251.80,1251.57,1251.58,1250.08,1247.44,1244.58,1243.34,1243.66,1245.00,1246.09,1245.38,1242.27,1238.23,1234.71,1232.57,1232.40,1232.67,1232.80,1232.64,1232.11,1231.45,1230.55,1229.89,1229.99,1231.03,1232.35,1233.32,1233.49,1232.39,1231.96,1232.72,1233.68,1233.57,1232.84,1232.55,1235.13,1241.31,1248.15,1252.46,1255.21,1256.84,1257.16,1256.46,1255.41,1254.19,1252.89,1251.72,1250.43,1248.83,1246.52,1242.66,1237.78,1232.83,1227.28,1220.52,1215.38,1212.51,1211.53,1211.93,1211.96,1211.40,1210.62,1209.23,1205.98,1200.62,1197.52,1196.10,1194.77,1191.18,1186.30,1183.33,1183.02,1183.82,1184.61,1185.04,1184.91,1183.89,1181.86,1180.12,1178.06,1175.37,1172.81,1169.23,1163.71,1157.31,1152.13,1144.74,1136.24,1129.34,1126.13,1124.51,1122.88,1121.78,1121.39,1121.04,1118.89,1114.94,1109.14,1101.26,1093.68,1085.69,1080.70,1080.45,1081.58,1081.42,1079.58,1076.28,1071.76,1066.21,1059.58,1051.61,1041.89,1031.33,1021.54,1012.79,1005.40,1000.41,1002.74,1007.97,1013.84,1019.26,1024.40,1030.18,1036.82,1043.85,1049.06,1052.24,1053.84,1053.07,1047.61,1040.32,1034.92,1034.34,1040.63,1048.15,1057.02,1065.51,1071.78,1073.36,1075.33,1077.57,1080.14,1083.14,1084.91,1084.23,1081.40,1076.04,1067.65,1064.14,1065.68,1070.70,1076.42,1081.73,1085.41,1087.98,1089.89,1090.75,1087.75,1082.43,1076.27,1072.05,1072.17
1225.30,1226.03,1226.85,1227.65,1228.44,1228.44,1227.23,1224.60,1221.28,1219.26,1217.57,1215.70,1213.49,1211.26,1208.69,1205.58,1201.92,1198.58,1195.38,1192.22,1189.91,1190.61,1191.94,1191.33,1189.44,1187.99,1186.82,1187.48,1188.86,1190.92,1195.75,1200.30,1204.07,1207.39,1211.16,1215.66,1219.86,1223.59,1226.98,1230.52,1235.27,1240.33,1245.31,1250.62,1259.58,1269.01,1277.23,1282.99,1287.33,1289.64,1290.88,1291.76,1293.15,1294.57,1296.04,1297.63,1299.51,1302.26,1304.80,1307.19,1309.99,1313.94,1318.52,1321.25,1321.50,1321.24,1320.89,1320.85,1320.78,1319.80,1317.23,1313.67,1309.06,1303.43,1298.27,1294.38,1290.79,1287.07,1282.90,1276.82,1272.15,1270.06,1270.60,1269.30,1265.66,1261.09,1256.71,1254.03,1251.93,1250.68,1250.27,1250.45,1249.82,1248.40,1247.21,1246.99,1247.44,1247.02,1245.40,1242.88,1240.49,1240.06,1240.75,1241.46,1241.11,1239.21,1236.12,1232.53,1229.22,1227.76,1227.84,1228.27,1228.60,1228.65,1228.21,1227.41,1226.85,1227.02,1227.66,1228.61,1229.43,1229.68,1228.88,1228.43,1229.01,1229.78,1229.55,1228.53,1227.92,1229.92,1235.53,1242.83,1247.39,1250.30,1252.04,1252.30,1251.51,1250.30,1249.00,1247.79,1246.82,1245.99,1244.99,1243.44,1240.67,1236.55,1231.75,1226.12,1219.28,1213.26,1208.87,1206.39,1205.82,1205.86,1205.56,1204.90,1203.72,1201.33,1196.21,1192.83,1191.72,1192.00,1189.60,1183.35,1178.26,1176.32,1176.96,1177.63,1178.20,1178.51,1177.97,1175.35,1173.20,1170.93,1168.16,1165.62,1162.69,1159.20,1155.38,1151.56,1145.79,1138.10,1130.35,1124.39,1120.94,1118.45,1116.96,1116.38,1115.92,1113.91,1110.42,1105.08,1097.30,1090.03,1081.64,1075.69,1074.41,1075.66,1076.44,1075.82,1073.40,1068.50,1061.58,1054.79,1047.74,1039.51,1030.39,1021.43,1012.32,1003.19,995.62,995.40,999.32,1005.20,1011.81,1017.96,1025.07,1033.08,1041.08,1046.13,1048.06,1047.98,1046.32,1042.75,1036.20,1029.59,1027.07,1032.08,1039.80,1047.91,1056.85,1065.46,1069.50,1072.80,1075.30,1077.41,1079.53,1080.65,1079.90,1077.35,1072.36,1063.87,1059.48,1061.40,1067.67,1073.13,1078.13,1081.78,1084.28,1085.82,1086.78,1084.94,1080.48,1074.13,1068.65,1067.92
1222.11,1222.95,1223.87,1224.30,1224.88,1224.22,1222.47,1219.72,1216.29,1214.74,1213.38,1211.64,1209.68,1207.65,1205.54,1202.94,1199.70,1197.03,1194.16,1191.11,1188.80,1189.54,1191.02,1190.72,1189.06,1187.39,1186.15,1187.05,1189.11,1192.29,1198.06,1201.74,1204.75,1207.83,1211.37,1215.70,1219.82,1223.45,1226.53,1229.42,1234.27,1239.74,1245.10,1250.49,1258.43,1266.90,1274.51,1279.93,1283.65,1285.66,1286.87,1287.97,1289.90,1291.51,1293.04,1294.63,1296.42,1298.45,1300.67,1303.13,1305.98,1309.38,1314.20,1317.33,1317.79,1317.62,1317.56,1317.72,1317.84,1317.33,1315.46,1312.58,1308.31,1302.37,1296.16,1291.45,1287.12,1282.86,1278.90,1273.59,1268.58,1265.58,1265.69,1265.22,1262.67,1258.11,1252.45,1248.71,1246.49,1245.10,1244.52,1245.24,1246.01,1244.75,1242.90,1241.91,1242.43,1242.71,1242.46,1241.43,1239.21,1237.60,1237.39,1237.57,1236.96,1236.02,1233.98,1231.12,1227.79,1224.82,1224.09,1224.27,1224.74,1225.15,1224.83,1224.16,1224.03,1224.77,1224.99,1225.43,1225.80,1225.89,1225.61,1225.35,1225.88,1226.55,1226.34,1225.35,1224.64,1225.90,1230.35,1237.92,1242.81,1245.94,1247.75,1247.96,1247.30,1246.14,1244.74,1243.31,1242.27,1241.53,1240.84,1239.84,1237.85,1234.57,1230.17,1225.06,1219.43,1212.96,1206.98,1202.02,1198.79,1198.31,1198.55,1198.00,1197.07,1196.76,1192.78,1188.84,1186.95,1187.65,1186.80,1181.50,1174.97,1169.89,1169.46,1169.92,1171.17,1172.77,1173.66,1171.14,1167.98,1164.93,1162.08,1159.30,1156.36,1153.84,1151.60,1148.83,1144.72,1139.31,1133.13,1126.55,1119.99,1115.61,1113.01,1111.70,1110.75,1108.57,1105.10,1099.97,1092.62,1085.93,1077.95,1071.49,1068.87,1070.18,1071.65,1072.11,1070.72,1065.73,1056.96,1049.21,1042.62,1036.18,1028.72,1020.53,1011.39,1001.74,993.62,989.98,992.07,998.28,1006.54,1014.24,1022.34,1031.33,1040.29,1044.88,1044.76,1042.03,1038.40,1035.48,1029.82,1023.01,1019.69,1024.07,1031.73,1039.69,1047.73,1055.73,1062.98,1068.78,1072.23,1074.17,1075.76,1076.28,1075.32,1072.89,1068.03,1058.70,1052.83,1055.25,1063.48,1069.19,1074.05,1077.81,1080.35,1081.54,1082.50,1082.17,1078.86,1072.53,1066.45,1064.58
1217.71,1218.97,1220.36,1220.80,1220.97,1219.88,1217.85,1215.01,1211.45,1209.65,1208.47,1207.23,1205.48,1203.70,1201.98,1200.08,1197.79,1195.50,1192.92,1189.97,1187.56,1188.18,1189.92,1189.82,1188.14,1186.33,1185.66,1187.01,1189.52,1193.16,1198.87,1202.31,1205.08,1208.01,1211.45,1215.61,1219.47,1222.84,1225.68,1228.46,1232.86,1238.15,1243.91,1249.99,1257.24,1264.67,1271.31,1275.96,1279.33,1281.21,1282.38,1283.47,1285.22,1287.22,1289.38,1291.49,1293.11,1294.84,1296.87,1299.24,1302.09,1305.52,1310.12,1313.45,1314.57,1314.61,1314.49,1314.58,1314.75,1314.49,1313.23,1310.62,1306.64,1301.25,1295.20,1289.25,1283.69,1278.87,1275.20,1270.52,1265.21,1261.13,1260.10,1259.87,1258.80,1255.81,1250.73,1245.22,1241.67,1239.42,1238.67,1240.33,1242.19,1241.50,1239.24,1236.90,1236.83,1237.28,1237.88,1238.18,1237.20,1235.74,1234.83,1234.15,1233.22,1232.50,1231.43,1229.65,1226.88,1223.27,1221.36,1220.94,1221.32,1221.64,1221.45,1221.16,1221.43,1222.35,1222.32,1222.40,1222.39,1222.18,1221.88,1222.15,1222.90,1223.54,1223.34,1222.30,1221.10,1221.73,1225.47,1232.06,1238.11,1242.23,1244.39,1244.68,1243.93,1242.61,1241.00,1239.31,1238.16,1237.30,1236.52,1235.62,1234.11,1231.62,1228.20,1224.13,1219.41,1213.39,1207.15,1200.99,1195.30,1191.23,1190.70,1190.92,1191.38,1192.47,1189.92,1185.45,1181.91,1181.11,1180.70,1177.84,1172.34,1165.90,1163.24,1163.96,1165.83,1167.93,1169.45,1167.77,1164.30,1160.39,1156.71,1153.58,1151.37,1149.48,1147.51,1145.01,1141.74,1138.18,1134.42,1130.04,1123.79,1117.93,1112.94,1108.95,1105.93,1103.65,1099.90,1093.92,1085.74,1079.80,1073.52,1067.76,1064.11,1064.46,1065.01,1065.75,1065.91,1062.76,1053.33,1044.33,1036.99,1030.96,1024.58,1016.56,1008.09,999.81,992.10,986.29,986.89,993.11,1002.70,1011.71,1020.47,1029.94,1039.38,1043.84,1043.01,1038.61,1032.60,1027.51,1021.87,1016.11,1013.37,1016.88,1023.57,1032.41,1040.94,1048.22,1054.61,1061.30,1066.29,1069.51,1071.27,1071.64,1070.67,1067.81,1062.09,1053.29,1047.63,1049.84,1057.97,1064.71,1069.78,1073.35,1075.63,1076.56,1077.05,1077.61,1075.95,1071.11,1064.61,1061.43
1212.99,1214.67,1216.52,1217.02,1216.86,1215.53,1213.36,1210.47,1206.96,1204.93,1203.81,1202.93,1201.50,1200.07,1198.71,1197.32,1195.72,1193.74,1191.44,1188.70,1186.29,1186.50,1188.04,1188.11,1186.71,1185.05,1185.42,1187.30,1190.10,1193.83,1198.87,1202.24,1205.07,1207.93,1211.15,1215.12,1218.85,1222.08,1224.77,1227.54,1231.35,1236.33,1242.41,1249.10,1255.77,1262.19,1267.85,1271.93,1274.86,1276.55,1277.67,1278.75,1280.43,1282.87,1285.63,1288.14,1289.66,1291.24,1293.11,1295.34,1298.12,1301.51,1305.66,1309.16,1311.17,1311.47,1311.22,1311.14,1311.25,1311.19,1310.28,1307.88,1304.34,1299.83,1294.53,1287.61,1280.85,1275.27,1271.59,1267.37,1262.21,1257.57,1255.17,1254.25,1254.17,1252.95,1249.27,1242.69,1237.55,1234.25,1233.17,1235.14,1237.46,1237.32,1235.21,1232.30,1231.47,1231.90,1233.10,1234.49,1234.86,1233.92,1232.70,1231.42,1230.09,1229.08,1228.45,1227.71,1226.20,1222.89,1220.13,1218.89,1218.66,1218.37,1218.24,1218.31,1218.79,1219.57,1219.33,1219.21,1218.88,1218.24,1217.63,1218.34,1219.45,1220.22,1219.94,1218.56,1216.86,1216.97,1220.24,1226.50,1233.36,1238.37,1241.11,1241.55,1240.64,1239.15,1237.38,1235.52,1234.27,1233.24,1232.30,1231.36,1230.20,1228.40,1225.93,1222.84,1218.86,1213.68,1207.91,1201.67,1194.73,1187.02,1184.22,1183.92,1185.04,1187.11,1185.94,1181.94,1177.66,1175.07,1173.88,1172.96,1169.27,1162.97,1158.33,1158.50,1160.57,1163.17,1165.34,1164.68,1161.22,1156.72,1152.18,1148.34,1146.91,1145.74,1143.95,1141.24,1137.95,1135.34,1133.49,1131.74,1127.64,1121.68,1115.22,1109.02,1103.76,1100.39,1095.51,1088.36,1079.55,1073.90,1068.73,1063.24,1058.32,1057.46,1057.49,1058.67,1060.14,1058.90,1049.92,1040.10,1031.77,1025.41,1019.12,1011.26,1003.76,997.14,990.13,983.42,982.88,988.60,999.10,1009.14,1018.55,1028.45,1038.16,1042.71,1041.77,1036.52,1028.74,1021.31,1015.39,1010.59,1008.36,1010.66,1015.97,1025.03,1034.47,1042.36,1047.53,1053.75,1059.38,1063.72,1066.12,1066.76,1065.72,1062.38,1056.11,1048.16,1043.20,1045.21,1052.77,1059.97,1065.34,1068.71,1070.60,1071.24,1071.35,1072.65,1072.75,1069.83,1063.20,1058.91
1208.21,1210.11,1212.25,1212.75,1212.51,1211.18,1209.04,1206.20,1203.08,1201.18,1199.95,1199.01,1198.12,1197.23,1196.19,1194.88,1193.21,1191.56,1189.53,1187.18,1185.00,1184.32,1184.78,1185.05,1184.59,1183.60,1185.57,1188.07,1190.92,1194.32,1198.02,1201.45,1204.59,1207.46,1210.19,1213.95,1217.85,1221.28,1223.93,1226.65,1229.88,1234.53,1240.77,1247.58,1253.79,1259.30,1264.17,1268.19,1270.45,1271.77,1272.80,1274.01,1276.13,1279.05,1281.99,1284.48,1286.08,1287.59,1289.29,1291.35,1293.93,1296.91,1300.40,1304.11,1307.19,1307.75,1307.43,1307.12,1307.08,1307.15,1306.15,1304.07,1301.26,1297.85,1293.85,1286.72,1279.01,1272.33,1268.01,1264.00,1259.83,1255.64,1251.84,1248.80,1248.57,1248.72,1247.10,1241.18,1234.58,1230.18,1228.45,1229.31,1231.04,1231.27,1230.23,1228.46,1226.86,1227.15,1228.68,1230.75,1232.22,1231.89,1231.00,1229.74,1227.90,1225.99,1224.84,1224.94,1225.66,1224.03,1221.26,1219.00,1217.29,1215.68,1215.42,1215.61,1215.93,1216.14,1215.78,1215.68,1215.08,1213.84,1212.64,1213.44,1215.07,1216.25,1215.68,1213.49,1211.44,1211.21,1214.30,1221.91,1228.58,1233.91,1237.50,1238.19,1237.13,1235.54,1233.76,1231.92,1230.59,1229.43,1228.34,1227.31,1226.38,1225.11,1223.27,1220.78,1217.40,1213.37,1208.80,1203.95,1197.91,1188.02,1180.82,1177.33,1177.20,1179.62,1179.61,1177.93,1174.99,1171.00,1167.28,1166.63,1165.04,1160.92,1155.30,1153.22,1154.72,1158.11,1161.25,1161.63,1158.62,1154.08,1148.94,1143.68,1142.79,1142.67,1141.50,1138.04,1133.53,1130.35,1129.01,1129.35,1129.23,1125.52,1119.94,1113.39,1106.40,1100.05,1092.64,1084.20,1075.66,1069.36,1063.58,1056.92,1050.11,1048.04,1049.09,1051.32,1053.48,1053.45,1046.43,1036.79,1027.56,1020.15,1012.48,1005.00,998.69,993.36,987.17,981.39,980.15,984.62,995.32,1005.93,1016.11,1026.52,1036.39,1041.28,1040.76,1035.68,1027.52,1018.74,1012.30,1007.76,1005.31,1005.85,1009.50,1017.02,1027.51,1038.51,1043.70,1047.72,1052.01,1056.45,1060.04,1061.47,1060.20,1056.62,1050.77,1043.67,1039.51,1041.73,1048.78,1055.01,1060.63,1063.92,1065.36,1065.60,1065.77,1067.81,1069.53,1068.65,1062.41,1057.47
