766.95,769.59,773.01,777.10,782.13,788.31,794.42,799.96,805.69,810.88,815.44,819.84,824.93,829.59,833.37,836.05,837.02,835.64,832.34,828.17,823.52,818.49,812.83,807.14,801.56,796.03,789.94,782.72,775.43,768.92,763.42,759.17,755.76,752.60,748.79,744.29,740.65,737.81,735.25,731.86,729.53,728.03,727.42,728.35,731.24,734.85,738.61,742.26,746.17,751.15,756.41,761.18,765.03,767.92,770.77,774.61,780.87,786.25,787.63,786.37,784.77,786.40,788.85,791.24,792.32,789.29,782.63,775.66,768.39,759.10,748.49,739.12,732.84,731.91,738.06,748.52,758.05,764.66,767.80,769.47,770.02,770.08,770.14,770.48,770.75,771.63,773.76,777.72,782.62,787.48,791.76,794.35,792.25,788.89,785.40,782.34,780.75,780.37,780.69,781.49,782.80,784.88,786.80,788.10,788.05,785.54,781.54,777.52,774.03,770.81,768.89,768.22,768.61,769.75,770.02,765.63,759.63,754.47,749.53,743.06,737.94,734.74,732.33,733.68,736.32,739.12,741.66,744.02,746.63,749.64,752.67,753.92,750.96,745.60,740.32,738.62,739.55,738.89,737.28,736.73,740.45,746.12,751.20,755.14,758.71,760.33,761.75,762.94,763.07,761.88,760.67,760.41,761.38,762.75,764.15,764.82,764.16,761.22,756.77,750.65,744.01,737.90,732.86,728.02,726.31,728.70,733.95,739.30,744.39,748.85,752.13,754.72,757.09,758.28,757.99,757.79,758.01,758.45,758.07,754.85,751.76,747.77,742.76,736.68,729.82,723.50,720.08,720.13,722.30,725.90,730.03,734.39,738.84,742.89,745.88,747.21,746.32,743.73,741.41,739.05,736.17,732.20,728.39,725.12,722.31,720.03,718.76,717.62,716.49,715.53,715.09,714.13,713.20,712.26,711.07,709.86,708.89,708.00,707.05,705.97,704.76,703.62,702.58,701.61,700.87,701.09,702.11,703.78,706.04,709.38,712.50,714.76,716.20,716.76,716.87,716.27,714.33,712.19,710.66,709.65,708.94,707.85,706.33,704.39,702.26,700.38,698.37,696.04,693.50,690.83,688.16,684.96,681.68,678.71,676.41,673.38
772.55,774.10,776.58,780.53,785.91,791.50,796.94,802.16,807.19,811.67,815.85,820.03,824.68,829.10,832.72,834.87,834.94,834.14,831.92,828.46,824.03,819.23,813.88,808.53,803.24,797.77,791.74,785.41,778.90,772.43,766.63,762.00,758.38,755.33,752.11,748.03,743.78,739.97,736.88,733.48,730.58,728.26,726.75,726.57,728.20,731.22,735.06,739.28,743.68,747.89,752.21,756.61,759.95,762.70,765.92,770.41,777.04,782.75,783.66,781.55,779.45,781.52,784.77,787.94,789.78,787.72,781.59,775.26,768.14,757.63,747.26,737.38,730.27,728.63,734.14,743.81,752.16,757.93,762.28,765.09,766.35,766.96,767.70,768.52,768.97,769.90,772.31,777.48,782.83,787.95,791.97,792.91,789.75,785.87,782.26,779.39,778.00,777.66,777.88,778.42,779.23,781.03,783.07,784.73,785.12,783.00,779.24,775.14,771.13,767.04,764.75,764.07,764.67,766.35,768.27,765.66,760.77,755.79,751.23,744.08,738.21,734.45,731.22,731.17,732.63,734.54,736.50,739.01,741.98,745.72,749.98,752.84,750.43,744.90,738.75,735.26,735.57,735.62,735.74,737.45,742.34,747.84,752.06,754.85,757.43,758.70,760.02,761.21,761.41,760.22,758.90,758.52,759.48,760.93,762.38,763.29,763.03,760.42,755.80,749.54,743.00,737.26,732.51,727.41,725.09,726.88,732.15,737.49,742.55,747.08,750.72,753.55,755.83,756.62,755.69,755.16,755.36,756.10,756.45,754.63,752.44,749.18,744.77,739.03,732.07,725.11,720.05,717.91,719.12,722.14,726.07,730.47,735.10,739.52,743.03,745.75,747.17,745.89,743.98,742.04,739.73,736.00,731.84,728.13,724.76,721.65,719.36,717.30,715.29,713.47,712.27,710.89,709.85,709.06,708.23,707.32,706.50,705.74,704.96,703.91,702.46,701.07,700.00,699.41,698.96,698.92,699.33,700.34,702.06,704.36,707.14,710.15,712.54,713.94,715.29,716.06,715.03,713.64,712.49,711.66,711.08,710.40,709.09,707.44,705.54,703.33,701.18,698.91,696.41,693.63,691.01,687.54,683.45,679.28,676.19,672.45
777.34,779.08,781.12,784.67,789.88,794.70,799.28,803.86,808.30,812.36,816.25,820.23,824.60,828.88,832.12,833.63,832.98,832.00,830.51,827.78,823.75,819.30,814.38,809.34,804.21,798.77,792.33,786.31,780.56,774.83,769.07,764.83,761.30,758.00,754.57,750.98,747.13,743.49,740.39,737.07,733.18,729.82,727.14,724.32,725.44,728.07,731.44,735.78,740.82,744.84,748.20,751.20,753.79,757.51,762.10,767.39,773.36,779.00,779.99,778.10,776.19,777.10,780.47,784.15,786.37,784.57,779.36,773.87,767.03,755.93,745.70,735.58,727.79,725.16,729.55,737.82,745.77,751.96,756.33,760.11,762.65,764.54,766.24,766.96,767.35,768.45,771.33,777.33,783.25,788.47,791.88,791.31,787.66,783.53,780.15,778.01,776.38,775.65,775.59,775.97,776.59,778.18,780.08,781.67,782.25,781.10,777.56,773.12,768.31,763.08,760.62,760.07,760.73,762.41,765.29,765.23,762.33,757.37,752.78,746.01,739.70,734.77,730.90,729.24,728.90,729.40,730.85,733.74,737.67,742.48,747.68,751.20,749.41,744.12,737.54,732.72,731.96,732.95,735.22,739.25,745.26,749.56,752.72,754.92,755.82,757.05,758.47,759.63,759.85,758.61,757.17,756.78,757.87,759.36,760.79,761.77,761.75,759.44,754.56,748.31,742.05,736.64,731.97,726.17,723.48,725.46,730.89,736.12,741.11,745.79,749.88,753.16,754.67,754.45,752.96,752.37,752.56,753.25,754.07,754.28,752.96,750.50,746.69,741.03,734.48,727.36,720.90,716.67,717.32,719.07,722.31,726.56,731.24,736.54,740.50,743.44,745.59,746.84,745.87,744.13,742.13,739.66,735.94,731.87,728.16,725.22,722.30,719.73,717.48,715.25,712.35,710.35,709.16,708.44,707.88,707.24,706.64,706.13,705.64,704.67,702.66,700.71,699.29,698.48,697.55,697.17,697.29,697.81,698.77,700.04,702.22,705.40,708.68,710.99,712.76,714.06,714.64,714.82,714.12,713.15,712.33,711.57,710.71,709.65,708.16,705.81,703.30,701.26,699.19,696.50,693.59,690.40,686.29,681.24,676.40,671.66
779.73,782.05,784.28,787.52,791.86,796.09,800.25,804.43,808.55,812.50,816.53,820.68,824.77,828.70,831.07,831.73,830.65,829.10,827.22,824.68,821.49,818.16,814.12,809.50,804.47,799.03,792.70,786.73,781.10,775.66,770.29,766.22,762.61,759.12,755.72,752.25,749.03,746.14,743.52,740.45,736.67,732.61,728.55,724.90,723.35,724.66,727.92,731.99,736.93,740.91,743.99,746.37,748.64,752.35,757.44,763.27,768.51,772.95,774.46,773.80,772.26,772.24,775.69,780.04,782.98,781.44,776.68,770.65,763.00,752.36,742.61,733.02,725.39,722.20,725.40,731.79,738.86,745.54,751.17,756.37,760.26,763.04,764.80,765.35,765.94,767.46,770.75,776.85,783.28,788.54,791.47,790.26,786.30,782.12,778.73,776.45,774.62,773.51,773.08,773.27,774.06,775.33,776.75,777.99,778.55,777.61,774.66,770.46,765.48,760.66,758.22,757.71,758.45,759.92,762.24,764.26,763.79,759.63,755.26,750.00,744.36,738.83,734.23,731.18,729.02,727.69,727.79,730.25,734.22,739.24,744.88,749.54,748.00,742.94,736.56,731.23,730.22,732.09,735.48,740.22,747.05,750.49,752.07,752.83,753.35,754.74,756.36,757.72,758.20,756.99,755.44,755.11,756.48,758.00,759.43,760.30,760.04,757.46,753.12,747.16,741.06,735.96,731.44,724.79,721.44,723.32,728.69,734.10,739.39,744.40,748.79,752.36,753.50,752.74,750.81,749.74,749.72,750.33,751.22,751.98,751.86,750.56,747.59,742.41,736.34,729.43,722.52,716.96,715.43,716.57,719.35,723.14,727.75,733.10,737.53,740.96,743.47,745.41,745.88,745.40,744.17,742.04,739.28,735.86,732.40,729.41,726.37,723.48,720.91,718.54,715.97,713.95,712.43,711.32,710.63,710.24,709.94,709.63,709.15,707.97,705.89,703.58,701.36,699.45,698.23,697.36,696.60,696.03,696.37,697.41,699.12,701.47,704.19,707.02,709.70,711.82,712.81,713.45,713.26,712.80,712.37,711.85,711.25,710.50,709.32,707.15,704.70,702.55,700.44,697.94,695.02,692.02,688.10,682.99,677.51,671.96
780.76,783.58,786.16,789.24,792.80,796.67,800.63,804.57,808.53,812.56,816.84,821.13,824.88,828.35,829.63,829.25,827.77,825.61,823.12,820.64,818.32,816.15,813.03,808.86,804.02,798.79,792.84,786.95,781.29,775.94,770.93,766.92,763.13,759.39,755.90,752.43,749.57,747.24,745.25,742.98,739.98,735.78,730.70,726.42,722.05,721.70,724.55,728.32,732.85,736.71,739.70,741.97,744.41,748.00,753.00,758.65,763.06,766.09,767.76,768.08,767.11,766.91,770.70,775.70,779.41,778.48,773.99,767.13,758.55,748.56,739.32,730.32,723.05,719.59,721.52,726.22,732.56,739.80,746.92,753.38,758.35,761.73,763.29,763.66,764.48,766.44,770.13,776.12,782.84,788.16,790.87,789.40,785.25,781.04,777.50,774.85,772.81,771.43,770.63,770.48,771.17,772.12,773.08,773.90,774.29,773.30,770.90,767.19,762.54,758.69,756.36,755.88,756.69,758.00,759.61,762.93,764.50,761.79,757.89,754.09,749.40,743.85,738.65,734.27,730.30,727.09,725.74,727.65,731.40,736.34,742.22,747.74,746.62,741.97,735.89,730.30,728.96,731.22,735.12,739.97,746.83,749.92,750.60,750.30,750.90,752.52,754.32,755.84,756.51,755.25,753.64,753.43,755.06,756.66,758.15,758.75,757.99,755.25,751.75,746.12,740.13,735.29,730.81,723.50,719.65,721.45,726.85,732.41,737.88,743.11,747.75,751.49,752.43,751.34,749.03,747.23,746.91,747.39,748.21,749.05,749.90,749.73,747.72,743.24,737.87,731.39,724.35,717.82,714.33,714.46,716.59,719.95,724.43,729.62,734.38,738.28,741.15,743.37,745.03,745.76,745.42,743.82,742.05,739.51,736.60,733.69,730.64,727.53,724.69,722.34,720.51,718.73,717.08,715.71,714.89,714.72,714.66,714.35,713.51,712.00,709.97,707.49,704.63,701.74,700.04,698.47,696.79,695.21,694.71,695.44,696.64,698.11,700.04,702.92,706.16,708.92,710.18,711.11,711.51,711.68,711.78,711.55,711.17,710.64,709.61,707.34,704.90,702.65,700.51,698.29,695.55,692.75,689.10,684.24,678.64,672.55
779.92,782.79,785.66,788.95,792.54,796.48,800.49,804.45,808.47,812.88,817.30,821.38,824.59,827.50,827.48,825.76,823.63,821.13,818.30,815.93,814.22,812.71,810.32,806.61,802.18,797.75,792.56,786.99,781.39,776.00,770.93,766.83,762.76,758.53,754.51,750.94,747.55,744.80,743.39,743.31,742.08,739.01,734.09,728.26,722.34,720.14,721.51,725.23,729.06,732.40,735.39,738.32,741.89,745.89,749.87,753.60,756.85,758.81,759.37,759.17,759.08,760.67,765.49,770.99,775.25,776.03,771.65,764.29,755.32,745.63,736.75,727.86,720.81,717.50,717.97,721.96,728.37,736.31,744.54,751.41,756.69,760.24,761.62,761.88,762.70,764.93,769.05,774.95,781.41,786.88,789.98,788.61,784.52,780.09,776.21,773.27,770.99,769.63,768.55,767.62,767.22,767.97,768.74,769.20,769.13,768.00,765.73,762.69,759.30,756.68,754.52,754.08,755.03,756.45,758.20,760.99,763.20,763.12,760.24,756.74,752.88,748.47,743.09,737.39,731.66,726.74,724.32,726.10,729.58,734.42,740.37,745.58,745.64,741.85,735.93,730.09,727.49,728.83,732.41,737.04,741.93,745.86,747.86,748.32,749.19,751.07,752.92,754.34,754.74,753.19,751.68,751.63,753.35,755.20,756.94,756.92,755.34,753.21,750.73,745.34,739.35,734.74,729.88,722.62,718.95,720.96,726.75,732.18,737.23,742.18,747.11,750.76,751.61,750.46,747.85,744.99,744.19,744.48,745.22,746.01,746.85,747.44,746.53,743.09,738.94,733.22,726.10,719.01,715.52,712.96,713.70,716.98,721.32,726.41,731.10,735.23,738.72,741.59,743.33,744.28,744.78,744.94,743.84,742.05,740.00,737.74,734.58,731.30,728.46,726.26,724.67,723.42,722.31,721.38,720.83,720.74,720.72,719.88,717.89,716.02,713.93,711.60,709.02,706.13,703.26,700.62,698.33,696.45,694.40,693.85,694.37,695.67,697.35,699.29,701.78,704.43,706.52,708.17,709.27,710.01,710.43,710.41,710.23,709.90,708.71,705.25,702.40,700.31,698.58,696.76,694.51,692.03,688.72,684.31,679.14,673.05
778.84,782.19,785.62,789.14,792.75,796.54,800.41,804.37,808.41,812.91,817.40,821.43,824.28,825.83,824.79,822.25,819.19,816.03,813.20,810.96,809.27,807.68,805.07,801.63,797.95,794.57,791.15,786.83,781.95,776.84,771.80,767.28,762.51,757.59,753.34,749.43,745.68,742.37,740.29,740.70,741.32,740.25,736.67,730.73,724.45,720.20,719.05,721.95,725.44,728.78,731.94,735.22,739.45,743.37,746.70,749.43,751.59,752.90,752.89,752.48,752.94,755.56,760.13,765.56,770.70,773.01,769.33,762.07,753.06,743.54,734.66,725.89,719.16,715.92,714.59,717.41,723.88,732.92,742.48,749.61,754.80,758.31,759.86,760.15,760.88,763.36,767.97,773.61,779.35,784.19,787.43,787.76,784.19,779.80,775.45,771.62,769.28,767.84,766.55,765.30,764.41,764.21,764.14,764.02,763.65,762.49,760.64,758.49,756.26,754.34,752.52,752.09,753.02,754.79,756.94,759.75,762.32,763.36,761.24,758.06,754.29,749.88,744.39,738.18,731.86,726.26,723.04,724.87,728.28,733.01,738.93,744.12,745.23,742.15,736.40,730.38,726.77,727.22,730.17,734.34,738.31,741.98,744.38,745.70,747.47,749.83,751.79,753.00,753.00,751.38,750.01,750.10,751.94,753.89,755.71,755.63,753.98,752.05,749.38,744.24,738.60,733.88,728.23,721.40,718.35,720.68,726.60,732.21,737.37,742.27,746.85,750.16,750.87,749.46,746.37,742.95,741.65,741.64,742.29,743.14,744.06,744.93,744.87,742.94,739.58,734.32,727.85,721.30,716.88,712.31,711.57,714.14,718.42,723.35,728.45,733.05,736.73,739.60,741.24,742.09,742.61,743.33,743.53,743.26,742.30,740.40,738.27,736.05,733.57,731.05,729.37,728.30,727.39,726.66,726.35,726.30,726.12,724.85,722.19,719.77,717.47,715.13,712.65,709.86,706.72,703.54,700.52,697.86,695.30,693.48,692.75,693.30,694.86,696.36,698.20,700.30,702.39,704.18,705.41,706.23,706.74,707.12,707.33,707.70,707.31,703.97,700.67,698.38,696.66,694.91,692.89,690.60,687.51,683.47,678.96,672.84
777.89,781.75,785.79,789.61,793.23,796.77,800.46,804.40,808.45,812.89,817.34,821.32,823.84,823.85,821.89,818.69,814.71,810.90,808.09,805.85,803.92,801.91,798.87,795.71,792.82,790.45,788.79,786.10,782.44,777.99,773.05,767.99,762.39,756.73,752.32,747.91,743.77,739.82,736.62,736.65,738.77,739.90,738.32,733.19,727.19,721.29,717.49,718.64,721.73,725.19,728.59,732.13,736.69,740.42,743.43,745.72,746.99,747.73,747.35,746.80,747.49,750.65,754.75,760.01,765.97,769.86,767.01,760.11,751.22,741.73,732.62,724.13,717.86,714.61,711.74,713.22,719.55,729.66,740.65,748.10,753.01,756.30,758.11,758.53,759.24,761.83,766.66,772.09,777.09,781.21,784.56,786.67,783.96,779.85,775.09,770.26,767.81,766.13,764.63,763.23,762.07,760.84,759.84,759.07,758.39,757.18,755.79,754.49,753.26,751.86,750.47,750.11,750.98,753.17,755.87,758.94,761.68,763.05,761.54,758.60,754.65,749.82,744.24,737.78,731.29,725.47,721.83,723.80,727.25,731.91,737.72,742.99,744.99,742.58,737.06,731.05,726.63,725.95,727.93,731.55,735.13,738.25,740.76,742.95,745.66,748.48,750.62,751.71,751.29,749.69,748.47,748.74,750.68,752.65,754.48,754.50,753.04,751.20,747.95,743.08,737.87,732.91,726.48,720.20,717.78,720.31,726.15,732.02,737.47,742.37,746.41,749.40,749.88,748.20,744.75,741.11,739.30,738.96,739.55,740.48,741.46,742.40,742.95,742.41,739.74,734.94,729.36,723.68,718.25,712.19,709.96,711.48,715.59,720.40,725.98,731.08,734.87,737.43,738.87,739.51,739.85,740.70,742.18,743.42,743.57,742.22,741.34,740.34,738.43,735.82,734.17,733.20,732.34,731.59,731.27,731.06,730.58,729.04,726.16,723.27,720.69,718.30,715.96,713.36,710.24,706.75,703.09,699.52,696.71,693.79,691.70,691.15,692.40,693.58,694.82,696.28,698.03,699.69,700.84,701.60,702.16,702.94,703.64,704.83,705.61,703.42,699.78,697.15,695.25,693.30,691.25,689.02,686.11,682.44,678.52,672.30
777.76,781.63,786.06,790.46,793.98,797.32,800.88,804.79,808.86,813.05,817.21,820.91,822.97,821.91,818.93,814.94,810.49,806.43,803.24,800.60,798.23,795.65,792.75,790.08,787.76,785.85,784.61,783.69,782.13,779.14,774.46,768.85,762.54,756.31,751.51,746.38,741.55,736.85,732.64,731.55,733.81,736.62,737.80,734.75,729.79,723.82,718.27,715.50,717.48,720.78,724.44,728.37,732.73,736.54,739.88,742.48,743.49,743.33,742.48,741.69,742.00,744.97,749.54,755.02,761.18,767.00,764.76,758.23,749.59,739.85,730.08,722.38,716.93,713.57,710.58,710.64,716.14,726.67,739.24,747.36,751.87,754.55,756.47,757.20,758.28,760.56,764.55,770.19,774.92,779.12,782.74,784.87,783.62,780.17,775.36,770.06,767.00,764.69,762.85,761.33,759.83,758.30,756.84,755.51,754.34,752.85,751.67,750.78,750.07,749.35,748.46,748.33,749.33,751.80,755.25,758.69,761.31,762.29,761.14,758.24,754.04,748.87,743.16,736.31,729.54,723.78,720.72,722.85,726.51,731.20,736.79,742.00,744.68,742.87,737.84,732.40,727.51,724.83,725.00,728.25,731.81,734.73,737.58,740.56,743.55,746.43,748.96,750.38,749.69,748.06,747.10,747.58,749.55,751.44,753.24,753.28,751.88,750.23,746.74,742.14,737.14,731.85,725.36,719.46,717.18,719.38,724.75,730.73,736.38,741.23,744.85,747.85,747.96,746.13,743.05,739.69,737.35,736.70,737.32,738.25,739.19,740.08,740.71,740.59,738.85,734.88,730.06,724.95,719.49,712.75,709.16,709.25,712.68,717.60,723.26,728.65,732.85,734.95,736.01,736.54,737.01,738.20,739.94,741.59,742.70,742.93,742.62,741.77,740.63,739.43,738.59,737.93,736.97,735.80,734.70,733.63,732.67,731.31,729.14,726.31,723.35,720.99,719.12,716.90,713.65,710.00,706.04,701.84,698.31,694.80,691.73,689.75,689.82,690.36,691.16,692.20,693.52,694.86,695.95,696.80,697.52,698.57,699.88,701.59,703.46,704.26,700.77,697.84,695.57,692.97,690.38,687.88,685.16,682.00,678.11,671.53
780.17,783.52,787.34,791.25,794.54,797.73,801.29,805.38,809.49,813.26,816.89,820.08,821.53,819.66,816.01,811.59,806.90,802.46,798.61,795.42,792.78,790.22,787.65,785.18,782.87,780.92,779.99,779.80,779.47,777.97,773.94,768.46,762.23,756.02,750.84,745.00,738.98,733.51,729.55,727.59,729.15,732.08,734.74,734.97,732.07,726.58,720.16,715.26,714.20,716.11,719.67,724.14,728.47,732.46,736.05,738.78,739.50,738.64,737.18,736.17,736.82,740.05,745.05,751.03,757.80,764.60,762.82,756.53,747.79,737.31,727.69,720.64,715.74,712.53,709.60,709.43,714.88,725.40,737.36,746.19,750.92,753.36,755.09,756.22,757.62,759.53,762.60,768.10,772.77,776.96,780.62,783.01,783.14,780.68,776.25,770.67,766.71,763.49,761.10,759.35,757.66,755.98,754.35,752.80,751.30,749.73,748.68,747.97,747.49,747.07,746.50,746.76,748.08,750.65,754.44,758.18,760.81,761.51,760.62,756.88,752.02,746.80,741.19,734.25,727.81,722.62,719.92,721.86,725.78,730.71,736.25,741.45,744.37,742.96,738.32,732.88,727.50,723.41,722.01,724.21,727.38,730.62,734.04,737.71,741.45,744.51,747.12,748.57,747.83,746.38,745.61,746.25,748.34,750.34,752.01,752.02,750.53,748.33,744.87,740.24,735.06,729.55,723.45,718.22,716.38,718.65,723.87,729.91,735.58,740.23,743.34,745.94,746.17,744.75,742.08,738.63,735.81,734.63,734.90,735.81,736.84,737.80,738.46,738.46,737.42,734.39,730.34,725.63,720.20,713.44,708.80,707.46,710.25,715.05,720.77,726.20,730.37,732.39,733.14,733.56,734.20,735.62,737.52,739.51,741.20,742.17,742.35,742.07,741.69,741.28,740.72,740.22,739.48,738.49,737.27,735.55,733.95,732.31,730.40,728.03,725.42,723.25,721.48,719.49,716.23,712.68,708.87,704.58,700.15,696.14,692.48,689.58,688.50,687.93,688.07,688.74,689.60,690.42,691.34,692.28,693.25,694.55,696.19,698.25,700.81,703.37,701.60,699.02,696.36,693.41,690.49,687.80,684.98,681.70,677.48,671.14
784.02,786.69,789.50,792.49,795.42,798.31,801.81,806.10,810.12,813.38,816.42,818.99,819.81,817.36,813.32,808.70,803.87,798.93,794.35,790.62,787.83,785.51,783.15,780.58,777.93,775.68,774.89,774.87,775.21,775.12,772.25,767.39,761.69,755.81,750.25,743.80,736.45,730.23,726.92,724.33,724.82,727.06,730.34,733.86,733.77,729.28,722.58,716.70,712.17,712.00,714.82,719.40,723.87,728.13,731.93,734.69,735.16,733.85,731.88,730.90,732.48,736.22,741.55,748.09,755.61,762.73,761.14,754.90,745.83,734.56,725.58,719.00,714.34,711.27,708.61,709.11,715.05,725.19,735.22,744.74,750.10,752.57,753.96,755.30,756.89,758.47,760.71,765.79,770.48,774.60,778.18,780.99,782.39,781.11,777.41,771.84,767.01,762.79,759.75,757.76,756.02,754.22,752.52,750.84,749.05,747.37,746.33,745.67,745.23,744.91,744.56,745.22,746.94,749.58,753.41,757.27,759.94,760.55,759.61,754.72,749.20,744.11,738.66,731.95,726.21,721.79,719.31,720.95,725.17,730.41,735.98,741.12,744.05,742.97,738.70,733.10,727.33,722.36,719.57,720.14,722.55,726.21,730.25,734.53,739.24,742.63,745.19,746.51,745.74,744.54,744.04,744.88,747.10,749.27,750.70,750.54,748.81,745.80,742.20,737.34,731.88,726.42,721.09,716.63,715.50,718.34,723.74,729.77,735.25,739.55,742.07,744.05,744.55,743.72,741.47,737.88,734.55,732.67,732.36,733.32,734.50,735.54,736.18,736.16,735.63,733.58,730.26,725.85,720.52,714.09,708.72,706.12,708.23,712.81,718.50,723.75,727.57,729.60,730.23,730.65,731.43,732.99,734.99,737.24,739.24,740.50,741.18,741.65,741.91,741.84,741.32,740.93,740.53,739.96,738.85,736.66,734.42,732.34,730.41,728.55,726.59,724.66,722.83,721.02,718.11,714.90,711.47,707.46,702.29,697.80,693.79,690.41,688.32,686.54,685.84,685.92,686.12,686.35,687.05,688.07,689.30,690.84,692.65,694.98,697.99,701.49,702.17,700.31,697.32,694.23,691.14,688.30,685.23,681.54,676.87,671.12
788.09,790.56,793.02,795.74,798.14,800.02,802.80,806.87,810.24,812.99,815.65,817.87,818.09,815.50,811.45,806.81,801.79,796.23,791.18,787.23,784.40,781.87,778.79,775.53,772.37,769.77,768.73,768.76,769.60,770.69,770.10,766.44,761.34,755.66,749.75,742.96,734.93,727.94,724.11,721.19,720.88,722.62,725.99,730.12,733.68,731.38,724.92,718.38,713.07,710.78,710.95,713.50,718.41,723.10,727.16,730.09,730.64,729.50,727.80,727.70,731.00,735.17,740.56,747.32,755.20,762.00,759.84,753.09,743.72,732.50,724.17,717.75,712.70,709.14,707.32,709.62,716.28,725.40,733.07,743.23,749.40,752.16,753.27,753.79,755.17,756.68,758.63,763.01,767.56,771.64,775.24,778.35,780.72,780.70,778.24,773.58,768.72,763.67,760.05,758.03,756.51,754.52,752.49,750.32,747.83,745.54,744.18,743.39,742.97,742.71,742.58,743.45,745.39,748.29,752.02,755.30,757.78,758.76,756.69,751.48,746.14,741.32,735.73,729.87,724.99,721.12,718.80,720.58,725.01,730.38,735.90,740.80,743.78,743.07,739.36,734.29,728.73,723.58,719.56,717.65,718.68,721.87,726.17,731.14,736.43,740.57,743.37,744.49,743.41,742.19,742.38,743.73,745.93,748.09,749.06,748.23,745.94,742.70,737.85,732.51,727.29,722.60,718.71,714.84,714.76,719.24,725.52,731.31,736.14,739.70,741.56,743.06,743.23,742.44,740.68,737.59,733.62,730.76,729.82,731.20,732.41,733.33,733.84,733.79,733.44,732.27,729.59,725.36,720.44,714.33,708.87,705.66,706.77,711.28,716.57,721.24,724.46,725.91,727.12,728.02,728.85,730.30,732.33,734.56,736.68,738.39,739.65,740.50,740.97,741.07,740.86,740.68,740.42,739.71,738.00,735.60,733.28,731.10,729.04,727.09,725.20,723.41,721.77,720.35,718.96,716.49,713.40,710.02,705.16,700.13,695.87,692.64,689.93,687.71,685.91,684.39,683.14,682.87,683.41,684.43,685.83,687.52,689.56,692.19,695.56,699.61,702.17,701.17,698.20,695.01,691.86,688.75,685.48,681.70,676.79,671.71
790.17,792.81,795.48,798.28,800.43,801.97,804.20,807.51,810.17,812.59,815.00,816.78,816.24,813.83,809.89,805.17,800.04,794.11,788.74,784.42,781.09,777.87,773.77,769.64,765.98,763.32,761.91,761.78,762.75,764.57,765.95,764.54,760.85,755.57,749.40,742.07,733.85,726.62,722.14,718.88,717.58,718.65,721.95,726.13,731.28,731.69,727.49,720.80,715.16,711.25,709.33,710.04,713.59,717.49,721.34,724.41,725.07,724.51,724.52,726.36,730.82,735.24,740.64,747.48,755.26,761.15,758.18,750.97,741.62,731.01,723.15,716.74,711.32,707.49,706.94,710.66,717.29,724.96,731.21,741.65,748.49,751.65,752.60,752.62,753.59,754.76,756.26,759.84,763.93,767.85,771.46,774.77,777.61,778.77,777.99,775.01,770.66,765.67,761.69,759.14,757.51,755.29,752.79,750.12,747.22,744.08,742.22,741.26,740.94,740.79,740.80,741.53,743.23,746.25,750.01,753.08,755.50,756.65,753.90,748.43,742.83,737.71,732.44,727.86,723.86,720.36,718.19,720.41,725.06,730.58,736.17,740.73,743.35,742.80,739.65,735.08,729.96,724.71,719.83,716.29,715.78,718.49,722.73,727.78,733.29,738.34,741.55,742.59,741.27,740.09,740.93,742.73,744.83,746.88,746.86,745.29,742.42,738.02,732.76,727.63,723.03,719.21,716.10,713.00,714.16,720.08,726.85,732.09,736.32,739.49,741.21,742.54,742.90,742.49,741.06,737.78,733.06,729.41,727.83,728.87,729.99,730.89,731.37,731.29,730.95,730.15,728.13,724.69,720.27,714.50,709.09,705.18,704.48,708.67,713.60,717.88,721.01,722.91,724.46,725.52,726.37,727.76,729.73,731.85,733.94,735.85,737.36,738.53,739.32,739.72,739.81,739.72,739.27,738.21,736.15,733.75,731.48,729.33,727.26,725.32,723.43,721.70,720.24,719.23,718.63,717.23,715.10,712.29,708.37,703.50,699.00,695.40,692.60,690.18,687.77,685.27,682.88,681.30,680.77,681.23,682.62,684.38,686.65,689.55,693.15,697.56,701.20,701.19,698.81,695.67,692.48,689.16,685.70,681.85,677.12,672.68
790.17,793.17,796.42,799.51,801.79,803.55,805.47,807.78,809.98,812.23,814.38,815.63,814.29,812.27,808.46,803.65,798.44,792.40,786.82,782.01,777.82,773.48,768.11,763.01,758.90,756.40,754.69,754.31,755.14,757.19,760.00,761.35,759.74,755.37,749.14,741.25,733.15,726.10,721.10,717.42,714.95,715.06,718.01,722.04,727.15,730.42,729.91,723.84,718.10,713.09,709.76,708.83,709.72,711.94,715.07,718.07,718.90,719.48,722.10,726.38,731.49,736.01,741.52,748.26,755.47,759.94,756.05,748.58,739.63,730.05,722.47,715.95,710.24,706.34,707.12,711.72,717.81,724.02,729.68,740.08,747.43,751.11,752.00,751.83,752.24,752.79,753.68,756.26,759.50,763.10,766.80,770.24,773.20,775.43,776.50,775.69,772.50,768.33,764.25,760.89,758.78,756.29,753.30,750.15,746.97,742.91,740.50,739.38,739.14,739.12,739.25,739.63,740.75,743.56,747.35,750.61,753.20,754.36,751.60,745.90,739.61,733.78,729.11,725.87,722.65,719.48,717.67,720.49,725.31,730.98,736.73,740.85,742.77,742.14,739.41,735.16,730.50,725.17,719.85,715.55,713.55,715.76,719.75,724.52,730.02,735.84,739.62,740.80,739.32,738.32,739.72,741.86,743.80,745.53,744.27,741.76,738.09,732.23,727.38,723.01,719.22,716.18,713.23,711.18,713.66,720.65,727.47,732.11,735.93,739.05,741.02,742.44,743.41,743.59,742.26,738.33,732.90,728.65,726.40,726.33,727.16,728.09,728.62,728.50,728.08,727.28,725.92,723.67,719.88,714.55,709.26,704.55,701.66,705.14,709.71,713.86,717.33,720.41,722.09,723.08,723.95,725.34,727.17,729.17,731.15,733.00,734.51,735.94,737.11,737.88,738.19,738.06,737.23,735.75,733.66,731.36,729.18,727.13,725.19,723.42,721.60,719.92,718.57,717.83,717.28,716.97,716.16,714.11,711.57,707.55,702.96,698.72,696.10,693.62,690.96,688.05,684.87,681.51,679.30,678.63,679.67,681.42,683.90,687.00,690.76,695.37,699.58,700.62,699.12,696.11,692.92,689.49,685.87,682.00,677.75,673.88
787.25,790.51,794.02,797.46,800.50,802.62,804.46,806.63,809.71,811.89,813.38,813.91,812.51,810.58,806.89,802.10,796.74,790.75,785.06,779.84,774.81,768.97,761.80,755.70,751.36,749.05,747.70,747.41,748.02,749.70,752.57,755.01,755.87,754.29,748.87,741.11,733.12,726.27,721.40,717.18,713.40,711.82,713.31,717.38,722.69,727.88,730.50,727.18,721.80,716.51,711.98,708.87,708.09,709.00,710.67,712.51,714.04,717.07,721.52,726.81,732.36,737.13,743.06,749.45,755.14,757.65,753.06,745.99,738.15,729.85,722.32,715.49,709.51,705.54,706.33,710.88,717.01,723.30,728.73,738.69,746.49,750.84,751.77,751.43,751.13,750.92,750.95,751.89,753.41,756.50,760.58,764.33,767.54,770.49,772.72,773.68,773.45,770.52,766.86,763.39,760.41,757.42,754.22,750.69,746.63,741.91,739.38,738.14,737.68,737.72,738.02,738.35,738.95,740.55,743.60,747.43,750.75,752.24,750.64,744.85,737.96,731.62,726.92,723.74,720.71,718.29,718.05,721.30,726.02,731.61,737.34,741.02,742.18,741.02,738.00,733.45,728.62,723.38,718.32,714.10,711.18,712.50,716.36,721.59,727.02,732.50,737.03,739.15,737.53,736.98,738.82,741.18,742.88,743.55,741.75,737.34,731.64,726.97,722.79,719.15,715.88,712.91,710.01,709.49,713.22,720.47,726.98,731.95,736.04,739.30,741.35,742.99,744.41,744.65,742.87,738.93,733.40,728.85,725.72,723.65,723.70,724.31,724.74,724.69,724.26,723.57,722.68,721.30,718.50,714.13,708.95,703.68,699.90,701.47,705.42,709.76,713.72,717.26,719.20,720.37,721.40,722.85,724.62,726.56,728.49,730.22,731.72,733.18,734.44,735.29,735.47,735.23,734.32,732.82,730.83,728.52,726.31,724.36,722.70,721.22,719.91,718.55,717.15,715.90,715.01,714.61,714.55,714.53,713.64,711.01,707.43,703.55,700.39,697.75,694.81,691.46,687.77,683.67,680.19,677.82,677.18,678.92,681.45,684.64,688.49,693.12,698.38,700.17,698.96,695.92,692.88,689.61,686.08,682.36,678.64,674.97
783.34,786.85,790.55,794.09,797.26,799.72,802.02,804.84,809.06,811.28,812.23,812.14,810.63,808.31,804.56,799.88,794.61,788.77,783.12,777.78,772.35,765.54,757.54,750.82,745.97,743.22,741.95,741.61,742.01,743.33,745.74,748.67,751.10,751.74,748.15,741.62,733.96,727.22,722.73,718.41,713.67,710.45,710.09,713.35,718.45,724.50,729.34,729.58,725.26,720.04,714.68,709.85,707.88,707.47,707.97,709.15,711.23,715.94,721.58,727.52,733.48,738.71,744.96,750.51,754.08,754.62,750.27,744.34,737.86,730.61,723.34,716.35,709.96,705.27,704.80,709.07,715.57,722.36,727.77,737.28,745.32,750.30,751.62,751.11,750.19,749.35,748.78,748.73,749.19,751.37,754.75,758.15,761.48,764.75,767.74,770.26,772.41,771.32,768.68,765.46,762.11,758.76,755.13,751.07,746.40,741.38,738.66,737.13,736.29,736.34,736.63,736.87,737.17,738.03,740.34,743.92,747.43,749.57,749.24,744.01,737.15,730.48,725.32,721.57,718.62,717.19,718.73,722.39,726.98,732.42,738.06,741.19,741.59,739.72,736.10,731.06,725.57,720.47,716.06,712.47,709.37,710.17,714.04,719.75,725.20,730.38,735.20,737.70,735.86,735.54,737.69,740.21,741.66,741.09,738.04,732.51,726.28,722.41,718.69,715.41,712.21,709.00,706.75,708.46,713.31,720.05,726.30,731.60,736.23,739.79,741.64,743.36,745.00,745.31,743.41,739.67,734.26,729.45,725.56,722.12,720.94,720.81,720.92,720.82,720.35,719.70,719.10,718.34,716.55,713.22,708.39,702.96,698.59,698.14,701.36,705.65,709.73,713.71,715.92,717.44,718.82,720.31,722.06,724.00,725.95,727.76,729.44,730.79,731.88,732.61,732.65,732.29,731.30,729.78,727.82,725.55,723.34,721.50,720.18,719.20,718.38,717.27,715.83,714.25,712.99,712.10,712.11,713.30,713.76,712.85,710.74,707.69,704.58,701.63,698.28,694.46,690.20,685.57,681.20,677.64,675.76,676.89,679.31,682.57,686.50,691.02,696.32,698.60,697.94,695.16,692.47,689.55,686.31,682.89,679.76,676.33
778.93,782.72,786.52,789.87,792.41,795.11,798.38,802.57,807.83,810.14,810.71,810.16,808.39,805.31,801.37,796.91,791.97,786.41,780.99,775.88,770.55,763.52,755.81,748.90,743.24,739.37,737.64,736.99,737.21,738.35,740.00,742.99,745.88,747.68,746.88,742.62,735.66,728.99,724.86,720.84,715.60,711.05,708.74,710.30,714.72,720.55,726.56,730.60,728.12,723.29,717.46,711.64,708.78,707.02,706.84,708.13,710.55,715.83,722.02,728.42,734.77,740.61,746.85,751.08,752.18,751.05,747.88,743.75,738.73,732.22,725.30,718.24,711.27,705.22,702.40,706.41,713.54,721.06,726.67,735.73,743.81,749.36,751.44,750.86,749.52,748.25,747.37,747.12,747.30,748.24,749.89,752.24,755.39,758.53,761.86,765.58,769.05,770.25,769.29,766.76,763.75,760.32,756.07,751.33,746.42,741.35,738.37,736.33,734.95,734.93,734.98,735.05,735.30,736.13,737.82,740.23,743.22,746.24,747.05,743.13,736.97,730.16,724.22,719.54,716.64,716.28,719.45,723.52,727.97,733.29,738.83,741.30,740.95,738.25,733.81,728.12,721.71,716.77,713.21,710.64,708.23,709.18,713.23,719.25,724.84,729.88,734.33,736.37,734.17,733.87,736.16,738.80,739.98,738.12,733.13,727.55,722.50,718.60,714.96,711.53,707.98,704.63,703.85,708.26,714.02,719.70,725.75,731.30,736.51,740.42,741.80,743.43,745.01,745.42,743.87,740.49,735.39,730.40,725.98,722.07,719.37,718.13,717.62,717.22,716.53,715.82,715.34,714.98,714.08,711.71,707.59,702.47,697.68,695.25,697.58,701.49,705.32,709.76,712.36,714.38,716.23,717.71,719.50,721.47,723.54,725.65,727.67,728.84,729.58,730.01,729.97,729.48,728.37,726.74,724.72,722.54,720.38,718.64,717.67,717.33,716.91,716.01,714.63,713.01,711.44,709.90,709.34,710.56,711.93,712.84,712.43,710.58,708.25,704.89,700.99,696.66,691.77,686.67,681.81,677.80,675.39,675.29,677.46,680.82,684.83,689.18,693.41,695.88,696.10,693.91,691.76,689.35,686.58,683.60,681.05,677.97
775.37,779.37,783.16,785.86,787.98,790.63,794.64,800.10,805.10,807.07,807.19,806.20,804.36,801.52,797.78,793.57,789.01,783.79,779.05,774.54,769.66,763.18,755.81,748.75,742.44,737.39,734.12,732.88,733.06,734.33,735.96,738.48,741.10,743.52,745.20,742.84,737.48,731.40,726.27,721.67,716.39,711.54,708.39,708.86,712.43,717.72,723.75,729.05,729.38,725.25,719.24,713.18,709.16,706.43,706.04,707.72,710.56,716.21,722.45,728.84,735.36,741.39,746.54,749.44,749.59,748.06,745.93,743.30,739.48,733.15,725.38,717.40,709.62,702.70,698.50,702.87,710.74,718.92,725.21,733.70,741.66,747.81,750.95,751.21,749.87,748.39,747.20,746.02,745.50,746.08,747.38,748.84,750.81,753.20,756.11,759.62,763.13,765.92,767.09,766.63,764.98,761.77,757.57,752.73,747.35,741.76,738.55,736.11,733.97,733.31,733.16,733.18,733.45,734.29,735.49,737.02,739.46,742.76,744.32,741.98,736.75,729.90,723.68,718.86,715.90,715.66,719.18,723.25,727.78,733.32,739.00,740.89,739.79,736.31,731.01,724.38,718.16,713.39,709.91,707.80,707.25,709.85,714.52,720.32,725.96,730.65,733.74,734.27,731.65,731.77,733.97,736.38,737.33,734.51,729.29,723.94,719.21,715.23,710.97,706.49,702.95,701.83,703.94,709.37,715.22,720.69,726.63,732.60,737.56,740.92,742.22,743.63,744.58,744.68,743.57,741.07,736.70,731.91,727.42,723.68,720.42,718.22,716.54,714.87,713.06,712.09,711.73,711.59,710.86,709.16,706.25,702.25,697.33,692.68,693.50,696.83,700.75,705.20,709.05,711.89,713.78,715.00,716.83,719.00,721.28,723.51,725.60,727.12,727.88,727.91,727.62,727.06,725.86,724.09,721.93,719.68,717.53,715.84,714.93,714.72,714.73,714.47,713.66,712.04,710.38,708.59,707.61,708.40,710.07,711.43,712.03,711.59,709.76,706.20,701.73,696.83,691.60,686.10,681.29,677.41,674.76,673.59,675.92,679.49,683.46,687.95,691.89,694.13,694.45,692.82,691.04,689.15,686.94,684.43,682.14,679.54
771.82,775.73,779.30,781.72,784.23,787.50,792.20,798.09,802.24,803.34,802.69,801.14,799.24,796.87,793.63,789.82,785.63,781.09,777.14,773.27,768.85,762.93,756.04,749.08,742.41,736.46,731.87,729.97,729.87,730.96,732.42,734.26,736.52,739.36,742.65,742.38,738.51,732.79,726.71,721.49,716.18,711.37,708.00,707.78,710.63,715.43,721.31,727.15,729.78,726.35,720.30,714.13,709.19,705.68,704.91,706.76,710.40,716.50,722.76,728.97,735.34,741.03,745.06,747.04,746.86,745.24,743.62,741.31,737.60,731.33,723.03,714.46,706.11,698.57,693.69,698.69,707.27,716.12,723.59,731.58,739.53,746.23,750.17,751.61,750.52,748.93,747.47,745.61,744.29,744.15,744.83,745.68,746.89,748.65,750.94,753.73,756.74,760.49,763.55,765.32,765.44,762.94,759.15,754.46,748.71,742.70,738.92,735.92,733.20,731.75,731.35,731.28,731.42,731.98,732.75,733.74,735.63,738.67,740.78,740.01,736.00,729.67,723.55,718.76,715.47,714.85,718.38,722.36,726.98,732.70,738.52,740.26,738.24,733.94,728.07,721.01,715.03,710.47,707.03,705.23,706.79,710.76,715.67,721.04,726.78,731.15,733.13,732.55,729.78,729.67,731.56,733.74,734.47,731.09,725.94,720.86,716.31,712.12,706.98,702.38,700.03,701.46,705.60,711.43,717.27,722.75,728.55,734.64,738.88,741.32,742.55,743.67,744.02,743.78,742.95,741.35,737.83,733.60,729.38,725.81,722.39,719.64,717.17,714.60,711.90,710.29,709.22,708.26,706.87,705.49,703.83,701.22,696.73,691.09,690.30,692.60,696.52,701.03,705.75,709.20,711.16,712.22,714.03,716.42,719.08,721.73,723.86,725.50,726.19,725.89,725.41,724.74,723.43,721.55,719.29,716.97,714.78,713.08,712.21,712.13,712.51,712.87,712.67,711.13,709.39,707.45,706.12,706.37,708.07,709.69,710.99,711.57,710.37,706.87,702.00,696.54,691.02,685.19,680.46,676.71,673.84,671.92,673.88,677.40,681.60,686.41,690.40,692.40,692.65,691.40,689.83,688.14,686.30,684.37,682.67,680.74
768.05,771.48,774.63,777.50,781.50,786.44,791.83,796.87,799.62,799.16,797.29,795.02,793.08,791.19,788.75,785.58,781.72,778.28,775.12,771.79,767.75,762.23,756.09,749.59,742.98,736.62,731.39,728.84,728.00,728.30,729.20,730.22,732.19,735.25,738.92,741.06,738.20,732.36,725.89,720.29,714.82,710.22,707.22,706.75,709.13,713.64,719.44,725.48,729.26,726.49,720.60,714.24,708.86,704.69,703.17,704.76,709.73,716.48,722.86,728.83,734.58,739.29,742.54,744.22,744.15,742.50,740.58,737.00,731.91,725.64,717.65,709.27,700.78,692.85,688.08,693.85,703.03,712.55,721.72,729.46,737.61,744.80,749.00,751.83,751.29,749.69,748.01,746.08,743.98,742.38,741.62,742.15,743.52,745.05,746.66,748.46,750.57,754.54,758.84,762.57,764.75,763.65,760.68,756.28,750.41,744.36,739.50,735.66,732.67,730.39,729.59,729.27,729.05,728.90,729.33,730.19,731.61,733.75,736.15,736.76,734.38,729.39,723.82,719.14,715.15,713.71,717.07,720.94,725.62,731.32,737.15,739.38,736.30,731.13,725.12,718.49,712.47,708.18,704.98,703.43,707.01,711.43,715.87,720.65,726.51,730.74,732.40,731.73,729.20,727.76,729.07,731.05,731.61,728.13,723.04,718.20,713.87,709.29,703.20,700.19,700.66,704.32,708.74,714.55,720.42,725.94,731.50,737.16,740.26,741.57,742.63,743.41,743.40,742.90,742.13,741.19,738.56,735.25,731.73,728.13,724.87,722.16,719.67,717.07,714.17,711.43,708.47,705.23,702.24,700.68,700.00,698.84,695.56,690.89,688.58,689.25,692.90,697.66,702.41,706.01,708.23,709.33,711.09,713.69,716.98,720.53,722.71,724.00,724.32,723.84,723.34,722.46,721.03,719.10,716.79,714.47,712.18,710.41,709.62,709.81,710.50,711.27,711.53,710.19,708.33,706.29,704.68,704.34,705.89,707.89,709.58,710.56,710.23,707.18,702.19,696.32,690.49,684.43,679.67,675.81,672.63,670.41,671.03,674.03,678.73,684.04,688.31,690.25,690.38,689.28,687.74,685.77,683.99,682.79,682.25,681.21
764.53,768.09,771.86,775.93,780.91,786.66,792.18,796.14,796.35,794.28,791.58,789.15,787.73,786.15,784.01,781.18,777.73,774.76,771.76,768.63,765.14,760.76,755.75,750.13,744.01,737.71,732.37,729.26,727.40,726.45,726.93,727.80,729.16,731.29,734.69,738.33,736.72,731.45,724.93,719.14,713.68,709.29,706.51,705.69,708.04,712.17,717.29,722.78,727.20,726.05,721.06,714.09,708.27,703.34,701.04,702.43,708.60,715.93,722.55,728.43,733.71,737.72,740.35,741.80,741.80,739.76,737.35,733.61,728.37,721.47,713.18,704.91,696.40,688.16,683.71,689.21,698.46,708.58,718.47,727.19,735.77,742.99,747.28,750.79,751.75,750.86,748.74,746.65,744.24,741.95,740.25,739.87,740.68,741.63,742.77,744.37,746.44,749.69,753.83,758.38,762.31,763.45,761.88,758.07,752.22,746.30,741.21,736.70,732.70,729.38,727.38,726.25,725.59,725.21,725.65,726.55,727.74,729.25,731.08,732.07,731.23,728.33,723.83,719.44,715.39,713.45,715.73,719.35,724.09,729.52,734.95,738.11,734.72,728.97,722.67,716.36,710.61,706.30,703.29,702.38,706.23,710.60,714.74,719.01,724.30,729.26,731.63,731.43,729.05,726.65,726.97,728.32,728.71,725.28,720.74,716.29,711.92,706.96,701.01,699.66,702.36,707.73,712.40,717.66,723.09,728.28,732.98,737.81,740.44,741.53,742.36,742.74,742.55,742.03,741.32,740.43,738.27,735.62,732.76,729.64,726.69,724.07,721.68,719.35,716.63,713.51,709.58,705.12,701.56,698.98,697.33,695.95,693.86,690.56,687.30,686.72,690.02,694.64,699.29,702.77,704.95,706.26,708.23,711.41,715.40,719.50,721.91,722.66,722.57,722.06,721.47,720.48,718.96,716.98,714.63,712.30,710.05,708.25,707.36,707.63,708.58,709.57,709.96,708.70,706.78,704.71,702.97,702.29,703.72,705.79,707.74,709.15,709.45,707.18,702.74,697.12,691.37,685.80,681.03,676.76,672.89,669.82,669.02,670.43,673.94,679.33,683.62,685.51,685.66,684.81,683.62,681.59,679.96,679.32,679.38,679.32
762.45,766.38,770.86,775.88,781.44,787.40,792.58,795.31,793.22,789.73,786.26,783.52,782.23,781.00,779.17,776.69,773.67,770.82,767.69,764.60,761.61,758.54,755.22,750.80,745.29,739.06,733.66,730.00,727.23,725.23,725.04,725.70,726.54,727.86,730.89,735.42,735.01,730.59,724.15,718.31,712.90,708.66,705.91,704.56,706.92,710.67,714.97,719.77,724.50,725.05,721.22,713.86,707.77,702.32,699.36,700.41,707.44,715.11,721.96,727.88,732.78,736.26,738.18,739.02,738.61,736.23,733.50,730.16,725.48,718.16,709.56,701.29,692.83,684.64,680.72,685.32,694.18,704.69,714.92,725.03,733.98,741.02,745.51,749.50,751.91,751.95,749.70,747.34,744.68,741.91,739.48,738.18,738.31,738.76,739.58,741.05,743.05,745.63,749.25,753.88,758.93,762.26,762.44,759.65,754.21,748.66,743.73,738.76,733.57,729.06,725.82,723.64,722.27,721.63,722.07,722.96,723.96,724.99,726.08,726.99,727.24,726.32,723.37,719.50,715.62,713.22,714.13,717.53,722.33,727.63,732.88,736.86,733.42,727.19,720.50,714.51,709.09,704.66,701.66,701.22,704.74,708.96,712.99,716.93,721.53,727.07,730.42,731.06,728.96,725.97,725.00,725.45,725.81,722.78,718.81,714.62,710.14,704.84,699.31,699.55,704.05,710.50,715.40,720.26,725.19,729.88,733.73,737.65,740.04,741.24,741.90,741.95,741.65,741.16,740.42,739.30,737.44,735.29,733.00,730.43,727.99,725.64,723.45,721.39,718.92,715.71,711.12,705.65,701.52,698.13,695.44,693.37,691.77,689.52,685.96,684.45,687.03,691.81,696.31,699.52,701.54,703.09,705.47,709.25,713.75,718.05,720.63,720.99,720.66,720.22,719.57,718.51,717.00,715.05,712.69,710.32,708.04,706.17,705.19,705.54,706.64,707.73,708.16,707.02,705.12,703.07,701.25,700.32,701.58,703.65,705.74,707.44,708.20,706.90,703.35,698.45,693.25,688.12,683.35,678.75,674.24,669.99,667.82,667.41,669.09,673.77,677.52,679.31,679.63,679.04,678.08,676.20,674.94,674.93,675.65,676.49
763.39,767.90,772.61,777.60,783.21,788.59,792.65,793.95,790.74,786.32,781.95,778.25,776.00,775.27,774.03,772.10,769.53,766.38,762.86,759.63,756.98,755.10,754.42,751.73,746.81,740.47,734.79,730.54,727.29,724.90,723.39,723.38,724.09,725.45,728.28,732.90,733.46,730.05,723.88,718.10,712.83,708.60,705.52,703.32,705.54,708.86,712.43,716.67,721.33,723.14,720.55,713.59,707.62,702.27,698.86,699.26,706.52,713.98,721.01,727.15,731.79,734.97,735.87,735.20,733.38,730.97,728.37,726.09,722.75,715.82,707.25,698.84,690.53,683.08,679.99,682.96,690.70,701.22,711.53,723.15,732.23,738.90,743.96,748.36,751.60,752.63,751.11,748.23,745.16,741.96,738.99,737.06,736.65,736.98,737.69,738.75,740.10,742.64,745.78,749.53,754.55,759.50,761.76,760.81,756.51,751.71,747.38,742.26,735.98,730.04,725.93,722.56,719.86,718.66,718.88,719.55,720.29,720.99,721.47,721.85,722.31,722.66,722.05,719.06,715.47,712.56,711.95,715.33,720.19,725.78,731.62,735.89,732.56,725.87,718.65,713.00,707.89,703.26,699.96,699.35,702.24,706.41,710.62,714.58,718.63,723.94,728.23,730.22,728.72,725.73,723.15,722.33,722.88,721.02,717.32,713.07,708.45,702.93,697.75,699.40,705.07,711.52,716.69,721.69,726.32,730.38,733.72,736.79,739.08,740.58,741.23,741.14,740.81,740.27,739.35,737.75,736.00,734.18,732.24,730.13,728.49,726.77,724.94,723.00,720.69,717.64,712.58,705.94,700.62,697.43,694.62,691.79,689.16,687.05,684.21,682.31,683.36,689.21,693.53,696.28,698.07,699.84,702.88,707.11,711.64,715.55,718.08,718.53,718.38,718.13,717.43,716.42,715.07,713.33,711.03,708.55,706.00,703.99,703.08,703.56,704.61,705.63,706.10,705.24,703.47,701.51,699.69,698.55,699.58,701.58,703.65,705.34,706.32,706.13,703.88,700.32,696.49,691.33,686.50,681.94,677.12,671.33,667.92,665.82,665.25,667.73,669.86,671.40,672.15,671.78,670.64,669.27,668.77,669.61,671.41,672.93
765.49,770.26,775.14,780.41,786.23,790.23,792.22,791.69,787.80,782.99,778.20,773.70,769.96,768.63,767.83,766.89,765.41,762.72,759.26,755.83,752.90,751.05,751.69,750.87,747.67,742.12,736.16,731.17,727.28,724.44,722.05,721.35,721.45,722.45,725.58,730.38,732.15,729.88,723.67,717.90,712.77,708.63,705.36,702.38,703.84,706.57,709.58,713.29,718.88,721.70,719.91,713.36,707.08,701.60,698.11,698.40,705.52,712.64,719.67,726.12,731.09,733.91,733.60,731.48,728.30,725.18,723.17,722.03,719.81,713.49,705.77,697.63,689.51,682.49,679.53,680.88,687.48,697.72,707.61,719.34,729.54,737.48,743.02,747.63,751.59,753.92,753.63,750.14,746.45,742.69,739.27,736.91,735.30,735.19,735.74,736.47,737.74,740.18,743.24,746.84,751.44,756.65,760.12,760.93,758.34,754.30,750.31,745.17,738.42,731.58,726.54,722.33,718.95,717.20,716.17,715.94,715.97,716.02,716.44,717.09,717.87,718.63,718.88,717.10,714.07,711.08,709.98,713.10,718.27,724.42,730.76,734.95,731.51,724.56,717.13,711.77,706.80,702.13,698.44,697.11,699.85,703.72,707.71,711.55,715.44,720.34,724.72,727.62,727.81,724.95,721.88,720.26,720.16,718.95,715.60,711.43,706.78,701.57,697.13,699.69,705.91,712.32,717.85,722.47,726.51,730.03,732.93,735.57,737.83,739.47,740.10,740.12,739.85,739.28,738.22,736.36,734.46,732.65,730.79,728.60,726.78,725.15,723.78,722.75,721.59,719.17,714.49,708.07,702.69,698.78,695.63,692.65,689.50,686.46,682.98,680.61,681.11,685.91,690.17,692.81,694.46,696.97,700.67,704.99,709.25,712.78,715.07,715.65,715.75,715.73,715.23,714.44,713.23,711.51,709.14,706.49,703.81,701.75,700.90,701.49,702.55,703.63,704.29,703.78,702.12,700.15,698.25,697.04,698.24,700.10,701.88,703.36,704.42,705.04,703.74,701.26,698.82,694.84,690.02,685.18,680.43,674.78,670.22,666.80,664.53,663.76,663.98,664.80,665.52,665.52,664.90,663.84,663.22,663.65,665.42,668.17
768.01,772.88,777.82,783.18,788.83,791.12,790.91,788.63,784.39,779.57,774.56,769.40,764.34,762.05,761.36,761.21,760.79,759.04,756.09,752.60,749.13,746.70,747.72,748.40,747.23,743.29,737.55,732.03,727.53,724.20,721.04,719.62,719.04,719.59,722.86,727.78,730.82,729.76,723.48,717.69,712.70,708.62,705.15,701.59,702.02,704.06,706.70,710.32,717.17,720.70,719.22,712.82,706.25,700.53,697.16,697.71,704.54,711.29,718.33,725.15,730.56,732.67,731.11,727.74,723.62,719.97,718.47,718.16,716.85,711.58,704.97,697.23,689.31,682.52,679.30,679.30,684.71,694.17,703.16,714.38,726.26,736.29,742.27,747.10,751.81,755.47,756.52,752.66,748.22,743.88,740.05,737.27,734.45,733.58,733.67,734.10,735.48,737.93,741.13,744.89,749.13,753.99,757.92,760.07,759.41,756.19,752.47,747.38,740.55,733.37,727.58,722.64,718.74,716.61,714.41,713.12,712.15,711.28,711.73,712.62,713.54,714.36,714.91,714.19,711.90,709.22,708.15,711.08,716.60,723.33,730.07,734.04,730.51,723.53,716.15,711.04,706.03,701.29,697.20,694.96,697.36,700.84,704.50,708.19,712.07,716.64,721.02,724.69,726.50,723.93,720.76,718.48,717.39,716.49,713.69,709.74,705.13,700.29,696.83,700.07,706.55,712.94,718.77,722.87,726.29,729.36,731.86,734.24,736.47,738.18,738.80,738.92,738.73,738.20,737.13,735.13,733.06,731.11,729.11,726.64,724.38,722.62,721.59,721.47,721.49,720.00,716.24,710.75,705.88,701.14,697.42,694.29,690.91,687.02,682.71,679.71,679.52,682.59,686.53,689.23,691.17,694.55,698.91,703.11,706.90,710.06,711.91,712.60,712.98,713.21,712.95,712.41,711.32,709.65,707.32,704.55,701.83,699.73,698.84,699.48,700.57,701.72,702.56,702.36,700.78,698.77,696.80,695.59,697.01,698.78,700.38,701.69,702.72,703.78,703.32,701.88,700.57,698.07,693.60,688.63,683.96,678.88,673.56,669.13,665.55,662.02,660.36,659.98,660.05,660.00,659.84,658.91,658.00,657.81,659.22,662.79
770.67,775.48,780.15,784.74,788.83,789.23,787.29,783.95,780.00,775.77,770.79,765.20,759.83,756.58,755.16,754.69,754.60,754.48,753.02,749.98,745.74,742.05,741.83,742.70,743.40,742.74,738.79,733.54,728.68,724.76,720.69,718.51,717.52,717.73,720.15,724.93,729.20,729.42,723.26,717.39,712.53,708.37,704.58,700.91,700.11,701.32,704.08,708.94,717.04,720.60,718.40,711.22,704.92,698.81,695.83,697.29,703.78,710.13,717.35,724.67,730.21,730.63,727.79,723.89,720.01,717.09,715.39,714.79,714.04,711.02,705.42,698.11,690.39,683.56,679.54,678.98,683.09,690.48,697.58,707.77,722.09,735.13,741.52,746.84,752.42,757.25,759.47,756.00,750.76,745.80,741.63,738.25,734.82,732.49,731.31,731.44,732.98,735.87,739.49,743.59,748.00,752.04,754.93,757.15,758.60,756.39,752.91,748.01,741.66,735.41,729.50,723.82,719.23,717.23,715.08,712.92,710.52,708.25,708.36,708.67,709.13,709.76,710.28,709.90,708.54,706.95,706.59,709.73,715.51,722.57,729.52,733.16,729.83,723.36,716.52,711.58,706.13,701.09,696.58,693.48,694.51,697.47,700.89,704.45,708.42,713.04,718.03,722.45,724.62,722.65,719.51,716.53,714.31,713.17,711.35,708.01,703.44,698.76,696.59,700.26,706.72,713.21,719.08,722.77,725.73,728.48,730.73,732.89,735.05,736.77,737.42,737.41,737.25,736.93,736.14,734.21,732.18,729.94,727.38,724.54,722.00,719.99,718.83,718.81,719.13,719.04,717.06,713.25,709.60,704.52,699.87,696.01,692.77,689.27,684.94,680.90,678.61,679.91,682.55,685.60,688.99,693.12,698.15,701.92,704.99,707.78,708.77,709.46,710.12,710.59,710.52,710.10,709.14,707.74,705.89,703.28,700.66,698.44,697.16,697.74,698.90,700.02,700.79,700.77,699.18,697.12,695.16,694.08,695.47,697.46,699.35,700.82,701.58,702.35,702.67,702.40,701.43,700.14,697.01,692.69,687.74,682.91,677.92,673.19,668.89,665.12,661.97,659.43,657.35,655.82,655.18,654.10,653.17,652.99,654.07,656.63
772.79,777.48,781.78,785.34,786.56,785.06,782.13,778.52,774.95,771.25,766.59,761.24,756.27,752.31,749.87,748.79,749.02,749.87,749.51,747.00,742.70,739.00,737.50,737.77,739.01,739.97,738.19,734.07,729.54,725.40,720.73,717.88,716.23,715.86,717.99,722.42,727.20,728.25,722.59,716.93,712.03,707.70,703.81,700.34,698.83,699.44,702.30,708.28,716.83,720.22,717.49,709.71,703.37,696.45,693.76,696.41,703.09,708.96,716.32,723.72,728.26,727.19,723.90,720.15,716.66,713.98,711.30,709.44,708.19,706.78,704.20,698.77,692.02,685.34,680.14,678.61,681.50,687.82,695.25,704.99,719.99,734.10,740.85,746.53,752.54,757.97,761.02,758.35,752.76,747.46,743.06,739.17,735.12,731.88,729.92,729.65,730.97,733.96,737.68,741.65,745.48,748.32,750.45,752.64,755.16,755.55,753.49,749.17,743.00,736.94,731.79,726.83,722.39,719.54,717.01,714.22,711.03,707.78,706.04,705.15,705.10,705.67,706.11,705.62,704.57,704.18,705.95,709.65,715.72,722.78,729.33,732.34,729.64,724.12,717.94,712.89,707.48,702.23,697.19,692.99,691.90,694.13,697.29,700.60,704.56,709.60,715.14,720.14,722.86,721.44,718.18,714.65,711.82,710.64,709.00,705.95,701.67,697.30,696.08,699.93,706.28,712.93,718.92,722.32,724.94,727.46,729.70,731.87,734.04,735.63,735.80,735.69,735.53,735.38,735.00,733.63,731.79,729.32,726.25,722.92,720.27,718.03,716.46,715.96,716.26,716.66,716.12,714.31,711.59,707.32,702.43,697.93,694.75,691.50,687.45,682.97,678.98,677.82,679.52,682.75,686.98,692.12,697.25,700.87,703.29,704.72,704.68,704.66,705.00,705.63,706.13,706.35,706.10,705.35,703.99,701.90,699.54,697.29,695.71,695.96,696.99,698.05,698.76,698.58,697.07,695.06,693.24,692.46,693.88,696.13,698.47,700.37,701.09,701.75,702.25,702.33,701.60,700.79,699.06,695.86,691.17,686.89,682.29,677.59,673.03,669.02,665.28,661.86,658.84,656.40,654.75,652.41,650.57,649.92,650.44,651.90
774.60,779.13,782.84,784.92,783.10,779.81,776.21,772.74,769.64,766.45,762.34,757.59,753.17,748.58,745.03,743.25,743.81,745.29,745.77,743.93,740.04,736.68,734.04,733.47,734.55,736.26,736.67,734.00,730.09,725.83,720.71,717.22,714.84,713.89,715.96,720.13,725.21,726.89,721.76,716.33,711.31,706.72,702.70,699.64,697.83,698.14,701.22,708.13,716.36,719.22,716.13,708.16,701.62,694.02,691.73,695.63,702.56,707.99,715.43,722.53,725.46,723.12,719.72,716.24,712.93,709.93,706.05,702.88,700.98,700.70,701.22,698.38,693.42,687.42,681.10,678.32,679.99,685.67,694.19,704.06,718.93,733.08,740.23,746.21,752.38,758.03,761.55,759.83,754.24,748.79,744.24,739.97,735.41,731.62,729.11,728.38,729.28,732.00,735.48,739.08,742.10,743.87,745.58,747.80,750.77,753.75,753.64,750.55,744.90,738.75,734.55,730.73,726.79,722.86,719.67,716.28,712.55,708.56,704.74,702.41,701.60,701.88,702.17,701.48,700.77,701.71,705.90,710.37,716.57,723.37,729.27,731.54,729.51,725.05,719.63,714.54,709.44,704.09,698.59,693.39,690.04,691.13,693.74,696.81,700.82,706.30,712.22,717.64,721.08,720.17,716.86,713.03,709.84,708.44,706.63,703.72,699.83,695.82,695.48,699.39,705.52,712.21,718.15,721.51,724.00,726.40,728.79,731.07,733.21,734.50,734.09,733.88,733.72,733.70,733.71,733.11,731.62,729.00,725.45,721.52,718.71,716.23,714.16,712.96,713.05,713.53,714.05,714.06,712.32,709.47,704.95,700.14,696.95,693.83,689.90,685.14,680.04,676.55,677.22,680.26,684.86,690.89,695.86,699.41,701.34,701.30,700.21,699.24,699.00,699.63,700.80,701.80,702.48,702.62,701.79,700.31,698.27,696.06,694.26,694.15,695.00,695.96,696.54,696.11,694.69,692.79,691.16,690.72,692.26,694.83,697.65,700.02,700.85,701.49,701.91,701.98,701.46,700.82,700.23,698.21,694.17,690.57,686.52,682.13,677.66,673.55,669.66,665.99,662.63,659.70,656.67,652.71,649.57,648.10,647.84,648.17
776.15,780.51,782.88,782.23,778.93,774.28,770.00,766.88,764.40,761.81,758.63,754.76,750.17,744.80,740.31,738.04,738.96,740.89,741.92,741.09,738.25,734.42,731.26,730.07,730.72,732.79,734.67,733.30,729.90,725.28,719.82,715.56,712.69,711.61,713.58,718.07,723.93,726.24,721.07,715.49,710.31,705.25,700.73,698.28,696.88,697.63,701.34,708.75,714.96,716.40,713.25,706.31,699.50,692.39,691.13,695.91,702.52,707.78,715.10,721.30,722.10,719.02,715.43,711.60,707.39,702.84,698.24,695.16,693.78,693.90,694.47,694.41,693.07,689.50,682.79,678.44,678.75,683.77,692.43,703.57,718.30,731.94,739.67,745.95,752.05,757.37,760.67,759.69,754.70,749.40,744.73,740.38,735.79,731.77,728.86,727.59,727.97,729.58,732.13,735.21,737.88,739.69,741.83,744.39,747.18,750.02,751.97,751.79,748.57,742.48,738.44,734.96,731.31,727.16,723.03,718.69,714.24,709.81,705.54,701.93,699.47,698.33,698.35,697.87,698.56,701.26,706.53,711.99,717.76,723.77,729.05,730.71,728.75,725.07,720.70,716.24,711.61,706.43,700.94,695.49,690.64,689.29,690.44,693.45,697.83,703.33,708.94,714.45,719.00,718.54,715.69,712.17,708.77,706.16,704.16,701.49,697.88,694.18,694.97,698.92,704.52,710.72,715.83,719.88,722.94,725.39,728.18,730.62,732.31,733.00,732.46,732.10,731.94,731.98,732.17,732.23,731.43,728.90,724.84,720.15,716.68,713.89,711.48,709.67,709.40,709.88,710.68,711.39,711.24,710.23,707.14,703.08,699.72,696.59,691.66,686.32,681.56,677.45,676.03,677.76,682.15,688.13,692.88,696.28,698.12,697.85,695.88,694.28,693.44,693.65,695.24,696.63,698.18,699.37,699.23,698.17,696.35,694.26,692.50,692.29,693.03,693.79,694.12,693.54,692.20,690.43,688.95,688.72,690.66,693.57,696.69,699.39,700.53,701.14,701.50,701.61,701.33,700.89,700.43,699.00,696.15,693.26,690.23,686.69,682.81,679.17,675.40,671.57,668.15,665.19,660.48,655.24,650.91,648.09,646.52,645.74
777.34,780.84,781.59,778.91,774.24,768.71,764.04,761.05,758.74,756.60,754.38,751.61,747.29,741.75,736.40,733.24,733.81,735.67,737.42,737.88,736.37,732.64,729.59,727.87,727.90,730.18,732.44,731.51,728.28,723.52,718.20,713.65,710.75,709.80,711.46,716.05,722.58,725.59,720.59,714.74,709.31,704.06,699.40,696.97,696.24,697.56,701.57,708.82,713.67,714.15,710.84,704.30,697.17,690.89,690.69,696.16,702.70,708.22,715.15,719.96,718.58,715.02,710.63,705.58,700.09,695.03,690.88,688.46,687.66,688.26,689.07,690.17,690.60,688.91,683.18,678.40,678.19,682.84,691.03,703.18,717.94,731.23,739.33,745.80,751.67,756.48,759.24,758.39,754.55,749.82,745.14,740.92,736.37,732.13,728.88,727.16,726.62,727.51,729.27,731.48,733.65,735.58,737.83,740.50,743.53,746.23,749.00,750.63,749.97,746.21,742.55,739.08,735.45,731.04,726.07,720.56,715.14,710.27,705.89,701.72,697.97,695.29,695.02,695.50,697.33,700.93,706.71,712.57,718.17,723.53,727.96,729.46,727.81,724.78,721.15,717.14,712.94,708.12,702.84,697.25,691.64,688.52,688.40,691.01,695.36,700.49,705.50,710.35,714.52,714.98,713.28,710.47,707.04,703.78,701.70,698.98,695.46,692.54,694.55,698.78,704.06,709.77,714.24,718.39,721.82,724.59,727.55,730.03,731.32,731.51,730.79,730.05,729.69,729.72,730.08,730.56,730.23,727.64,723.23,718.66,714.96,711.74,708.77,706.21,704.93,704.98,705.70,706.71,707.51,707.71,706.37,704.18,702.04,699.16,693.44,687.48,682.75,678.32,675.43,675.68,679.01,684.45,689.11,692.70,695.05,695.46,693.21,690.80,689.21,688.95,690.40,692.35,694.37,695.93,696.29,695.89,694.34,692.33,690.60,690.25,690.92,691.54,691.62,690.83,689.45,687.76,686.57,686.88,689.20,692.28,695.54,698.47,700.12,700.78,701.12,701.26,701.08,700.78,700.40,699.44,697.55,695.32,693.04,690.34,687.26,684.05,680.42,676.54,672.83,669.22,663.56,657.47,652.18,648.35,646.21,644.65
778.07,780.25,779.34,775.30,769.38,763.37,758.55,755.38,752.90,751.07,749.74,748.12,744.50,739.19,733.23,729.04,728.65,730.01,732.42,734.24,734.24,731.19,728.61,726.46,725.75,727.96,729.93,728.96,725.74,720.97,715.93,711.62,709.05,708.38,709.76,714.19,721.20,724.90,720.29,714.14,708.46,703.22,698.66,695.84,695.66,697.54,701.63,708.24,712.32,712.23,708.67,702.09,694.64,689.61,690.60,696.59,703.14,709.09,715.31,718.39,714.94,710.74,705.12,698.66,692.17,687.39,684.26,682.63,682.34,683.41,684.75,686.00,686.88,686.46,682.50,678.20,678.14,682.76,690.32,703.68,718.28,730.86,739.17,745.74,751.24,755.46,757.64,756.61,754.01,750.10,745.65,741.65,737.22,732.73,729.15,727.05,725.46,725.76,726.75,727.95,729.47,731.39,733.45,736.01,739.38,742.16,745.05,747.57,749.08,748.75,746.14,742.79,739.04,734.33,728.65,721.99,715.54,710.22,705.87,701.66,697.02,692.90,692.23,693.96,696.64,700.50,706.28,712.02,717.61,722.50,726.09,727.66,726.62,724.22,721.09,717.39,713.57,709.21,704.25,698.63,692.73,688.48,687.26,689.21,693.23,697.73,701.99,705.79,708.79,710.31,710.10,708.23,704.89,701.44,699.15,696.20,692.80,691.09,694.24,698.85,703.97,709.22,713.29,717.13,720.65,723.81,726.73,729.11,730.07,729.88,728.98,727.76,727.07,726.96,727.41,728.08,728.10,725.55,721.13,717.16,713.46,709.79,706.17,702.84,700.25,699.58,700.00,701.02,702.20,703.06,703.41,703.46,703.21,701.02,695.24,688.94,683.87,679.15,675.41,674.13,675.64,679.97,684.74,688.83,692.02,693.61,691.65,688.47,686.02,685.13,686.02,688.28,690.53,692.27,693.25,693.58,692.32,690.39,688.64,688.01,688.59,689.10,689.00,687.96,686.50,684.88,684.02,684.99,687.63,690.83,694.14,697.23,699.46,700.34,700.75,700.92,700.77,700.55,700.21,699.48,698.16,696.44,694.66,692.77,690.63,687.95,684.44,680.47,676.28,671.67,665.62,659.06,653.15,648.75,646.55,644.52
777.72,778.42,776.33,771.76,765.18,759.33,754.38,750.35,747.46,745.85,745.07,744.27,741.82,736.72,731.04,726.49,724.45,724.77,726.98,729.69,731.44,729.84,727.61,725.28,723.95,725.06,726.69,725.99,723.06,718.20,712.65,709.56,707.81,707.28,709.13,713.07,720.00,724.20,720.30,713.91,708.13,703.04,698.66,695.40,694.55,696.57,700.85,706.42,710.31,709.83,705.96,699.36,691.70,689.13,691.88,698.08,704.19,710.14,714.97,716.07,711.06,704.87,697.88,691.54,686.40,682.04,679.21,677.73,677.48,678.68,680.61,682.19,683.24,683.23,680.89,677.72,678.53,683.76,691.70,708.25,721.24,730.76,739.25,745.80,750.68,754.45,756.62,755.70,753.26,750.17,746.73,742.90,738.72,733.93,729.85,727.38,725.44,724.25,724.07,724.68,725.37,726.62,728.30,730.42,733.17,736.54,740.12,742.87,744.54,746.00,746.72,745.02,741.23,736.29,730.20,723.06,716.07,710.27,705.93,701.85,696.98,692.13,690.52,692.66,695.80,699.61,704.54,709.49,714.82,719.63,723.10,724.49,724.62,723.12,720.35,717.00,713.54,709.60,704.94,699.37,693.56,688.80,686.68,687.67,691.18,695.10,698.63,701.73,704.37,706.15,707.07,706.12,702.96,699.41,696.23,693.03,690.44,690.51,694.20,698.95,703.89,708.70,712.80,716.37,719.57,722.45,725.10,727.13,727.86,727.54,726.53,725.21,724.08,723.49,723.59,724.16,724.65,723.15,719.81,715.88,712.12,708.19,704.19,700.31,696.89,695.43,695.34,696.12,697.05,698.01,699.00,699.92,700.49,700.22,696.88,691.68,685.71,680.32,676.51,673.76,672.39,674.15,679.63,684.59,688.51,691.11,690.37,687.13,683.74,681.54,681.58,682.50,684.89,688.10,690.77,691.42,690.41,688.69,686.83,685.45,685.66,686.11,686.02,684.83,683.30,681.85,681.23,682.37,685.18,688.69,692.15,695.24,697.83,699.55,700.33,700.50,700.44,700.33,699.70,698.42,696.54,694.78,693.26,692.12,691.17,689.65,686.17,681.72,676.86,671.63,665.36,659.01,653.44,649.30,647.15,645.12
776.63,776.32,773.52,768.84,761.95,756.06,750.67,745.64,742.28,740.64,740.16,740.05,738.74,734.51,729.48,724.79,721.42,720.47,722.00,724.59,727.00,727.25,726.17,724.07,722.19,722.21,723.49,723.22,720.62,715.64,710.35,707.82,706.58,706.46,708.70,712.44,719.11,723.58,720.67,714.30,708.45,703.39,699.07,695.48,693.32,694.54,698.44,703.45,707.17,706.49,702.50,696.01,688.91,689.28,693.82,700.01,705.80,711.69,714.37,712.86,706.68,699.40,692.21,686.30,681.92,678.07,675.24,674.44,675.02,675.90,677.30,678.37,679.01,679.17,678.85,678.47,681.13,687.70,698.26,713.75,723.97,731.23,739.50,745.95,750.43,753.78,755.79,755.29,753.15,750.68,747.90,744.19,740.34,735.51,731.05,728.02,725.99,723.89,722.59,722.16,722.00,722.60,723.83,725.55,727.85,731.01,734.57,737.55,739.77,742.30,745.06,745.29,742.64,737.51,731.32,724.02,716.84,710.82,706.19,702.09,697.30,692.25,689.42,691.09,694.17,697.80,702.03,706.31,711.03,715.53,719.11,720.98,722.13,721.51,719.33,716.31,713.18,709.62,705.28,699.95,694.27,689.34,686.24,685.79,688.89,692.28,695.22,697.75,700.02,702.09,703.80,703.91,701.75,698.18,694.29,690.74,688.63,690.14,694.11,698.78,703.53,708.11,712.14,715.54,718.56,721.26,723.55,724.95,725.34,724.93,723.93,722.61,721.19,720.13,719.77,720.19,720.94,720.57,718.69,715.19,711.38,707.21,702.76,698.15,693.78,691.86,691.43,691.84,692.47,693.36,694.60,695.92,696.91,697.83,696.92,693.61,687.96,682.36,678.28,674.65,671.49,670.42,674.38,679.55,684.36,687.88,689.00,685.93,682.00,679.13,678.42,678.66,680.66,683.86,687.01,688.63,688.16,686.65,684.76,683.03,682.79,683.05,683.03,681.93,680.55,679.24,678.69,679.73,682.36,685.92,689.64,693.06,695.73,697.88,699.02,699.40,699.44,699.25,698.31,696.67,694.53,692.66,691.27,690.48,690.15,689.62,686.78,682.61,677.81,672.53,666.35,660.30,655.09,651.10,648.38,646.24
775.00,774.19,771.15,766.60,759.77,753.68,747.65,741.63,737.70,735.63,735.13,735.46,735.18,732.46,728.32,723.71,719.50,717.19,717.67,719.34,721.45,723.58,724.27,722.83,720.56,719.57,720.48,720.67,718.38,713.36,709.01,706.37,705.32,705.83,708.28,712.12,718.46,723.06,721.35,715.24,709.31,704.16,699.75,695.78,692.01,691.71,694.69,699.54,703.04,702.36,698.43,692.27,686.79,690.15,696.18,702.21,707.81,713.40,713.44,709.03,702.05,694.68,688.24,682.81,678.43,675.09,672.51,673.12,675.26,675.67,675.76,675.87,675.92,676.18,677.84,681.15,686.16,694.35,708.45,719.17,726.12,732.27,739.98,746.24,750.46,753.36,755.03,755.18,753.56,751.50,749.00,745.44,741.91,737.40,732.77,729.02,726.91,724.51,722.25,720.47,719.48,719.55,720.31,721.68,723.71,725.89,728.80,732.05,735.34,738.44,741.79,743.93,743.40,738.19,732.14,724.97,717.88,711.87,706.76,702.40,697.85,692.99,688.88,689.23,691.73,695.12,698.87,702.66,706.56,710.50,714.25,717.16,719.13,719.37,717.99,715.36,712.59,709.34,705.37,700.46,694.98,690.11,686.02,683.89,686.36,689.25,691.70,693.74,695.63,698.04,700.26,701.55,701.00,697.48,693.20,689.32,687.34,689.80,693.88,698.35,702.89,707.39,711.28,714.58,717.56,720.19,722.09,722.73,722.69,722.20,721.26,719.98,718.39,716.95,716.10,716.30,717.07,717.72,717.46,714.94,711.21,706.83,701.92,696.50,691.13,688.98,688.28,688.15,688.46,689.20,690.45,691.87,693.09,694.39,695.43,694.37,690.25,685.06,680.57,676.59,672.75,669.04,669.52,674.11,679.84,684.26,687.55,684.82,680.80,677.85,676.46,676.69,677.90,679.79,682.36,685.40,685.64,684.29,682.40,680.64,679.93,679.94,680.05,679.34,678.27,677.05,676.37,677.08,679.27,682.64,686.64,690.63,693.28,695.44,696.85,697.56,697.67,697.26,696.08,694.40,692.41,690.49,689.15,688.32,688.03,688.16,686.53,683.46,679.49,674.82,669.18,663.44,658.37,654.14,650.29,647.79
773.29,772.57,769.84,765.21,759.22,753.40,747.20,740.64,735.66,732.01,730.53,730.67,730.83,729.88,726.80,722.71,718.72,715.24,714.59,715.63,717.73,720.31,721.94,721.59,719.74,717.67,718.14,718.06,715.92,711.51,707.50,704.88,704.06,704.96,707.47,711.54,717.81,722.71,722.17,716.50,710.32,704.98,700.33,695.06,690.49,689.23,691.14,695.29,698.58,698.15,694.53,689.29,687.74,692.36,698.45,704.26,709.63,713.45,711.60,705.92,698.66,691.22,684.82,679.53,675.34,672.23,672.50,675.56,679.22,680.65,680.92,682.08,683.32,684.05,685.41,688.94,694.31,702.15,713.81,721.76,727.79,733.88,741.09,746.97,750.37,752.57,754.09,754.71,753.43,751.68,749.58,746.50,743.17,739.50,735.31,730.86,727.81,724.91,722.19,719.86,718.40,717.91,718.31,719.27,720.57,721.89,724.49,727.88,731.64,735.20,738.89,742.39,743.57,738.74,732.85,726.15,719.44,713.34,708.02,703.13,698.40,693.72,689.25,687.32,688.62,691.71,695.12,698.46,701.79,705.22,708.77,712.24,715.10,716.30,715.89,714.22,711.82,708.89,705.36,701.04,696.20,691.39,687.03,683.95,683.88,685.87,687.75,689.37,691.32,693.88,696.70,698.90,699.23,695.70,691.73,688.03,686.23,689.28,693.34,697.65,702.04,706.44,710.45,713.58,716.27,718.57,720.01,720.51,720.28,719.60,718.54,717.23,715.44,713.75,712.59,712.24,712.83,713.89,714.85,714.48,711.28,706.90,701.95,696.49,690.86,688.10,686.45,685.27,685.06,685.60,686.72,688.22,689.96,691.68,693.14,693.20,691.06,687.29,683.14,678.92,674.48,669.68,667.53,670.59,676.27,681.89,686.14,684.27,680.60,677.25,674.69,674.40,675.16,676.84,679.86,683.12,683.47,682.04,679.79,677.38,676.29,676.38,677.08,677.30,676.32,674.96,673.91,673.98,676.00,679.25,683.12,687.21,690.69,692.89,694.23,694.93,694.94,694.49,693.41,691.97,690.31,688.71,687.38,686.35,685.81,686.04,685.69,684.17,681.83,678.83,674.84,669.67,663.91,658.10,653.25,649.73
771.38,770.69,768.20,763.63,758.36,752.97,746.87,740.09,734.61,729.99,727.28,726.33,726.27,726.26,724.57,721.68,718.06,713.75,712.07,712.40,714.23,716.80,719.01,719.67,718.58,716.13,716.06,715.80,713.98,710.23,706.26,703.41,702.73,704.10,706.90,711.12,717.21,722.33,722.97,718.02,711.58,705.91,701.06,695.01,689.82,687.36,687.81,690.92,693.57,693.41,690.42,686.57,689.25,694.76,700.63,706.22,711.25,712.86,709.47,703.09,695.60,688.01,681.62,676.36,672.40,670.45,673.99,679.01,683.46,685.96,687.01,688.72,690.42,691.46,692.53,695.98,701.47,708.81,717.66,723.93,729.88,736.12,742.46,747.84,750.45,752.08,753.41,754.09,753.04,751.57,749.86,747.39,744.25,741.29,737.81,733.46,729.72,726.23,722.88,719.94,718.13,717.04,716.71,717.03,717.95,718.89,721.09,724.28,728.19,732.22,736.31,740.64,743.02,739.33,733.68,727.31,720.87,714.74,709.38,703.95,698.93,694.38,690.03,686.51,686.12,688.10,691.21,694.27,697.23,700.22,703.37,706.80,710.24,712.53,713.44,712.86,711.00,708.35,705.18,701.53,697.46,692.89,688.51,684.80,682.46,682.85,683.86,685.26,687.57,690.50,693.72,696.35,697.07,693.76,690.19,686.74,685.10,688.59,692.62,696.78,701.03,705.32,709.32,712.30,714.72,716.61,717.60,718.01,717.75,717.00,715.91,714.58,712.54,710.37,708.61,707.84,708.45,710.01,712.03,713.41,711.14,707.10,702.48,697.66,692.17,688.71,686.13,683.95,682.52,682.37,683.14,684.62,686.71,688.73,690.48,691.38,690.75,688.08,684.48,680.27,675.48,670.08,666.17,668.20,673.93,680.47,685.04,683.77,680.33,676.51,673.03,672.08,672.32,673.75,677.14,680.89,681.38,679.74,676.93,673.99,672.76,673.04,674.23,675.14,674.36,672.92,671.55,671.05,672.67,675.65,679.54,683.89,687.64,690.10,691.54,692.22,692.18,691.77,690.97,689.87,688.51,687.12,685.75,684.51,683.65,683.72,683.93,683.56,682.64,681.21,678.92,674.46,668.87,662.80,657.08,652.40
769.23,768.35,765.93,761.61,756.63,751.67,745.92,739.34,734.14,729.58,725.64,722.73,721.79,721.59,721.51,720.43,717.26,712.57,710.10,709.60,710.73,713.01,715.43,716.87,716.75,714.81,714.14,713.97,712.69,709.42,705.23,701.92,701.29,703.24,706.65,710.92,716.65,721.87,723.70,719.70,713.07,707.00,701.98,695.98,690.18,686.15,684.69,686.49,687.99,688.06,686.22,684.43,690.87,697.06,702.72,708.06,712.48,711.71,707.17,700.53,692.75,684.86,678.54,673.30,669.70,670.21,676.74,682.87,687.27,690.52,692.65,693.88,694.84,695.88,697.21,700.91,706.67,713.75,720.82,726.33,732.61,738.91,743.95,748.64,750.71,751.97,753.08,753.36,752.44,751.21,749.85,748.05,745.18,742.67,740.05,736.74,732.90,728.85,724.66,720.85,718.65,716.97,715.49,714.85,715.78,716.88,718.54,721.16,724.92,729.43,734.04,738.65,741.68,739.97,734.72,728.39,721.98,715.94,710.65,704.79,699.45,695.00,691.10,687.16,684.70,684.53,687.24,690.14,692.96,695.65,698.28,701.07,704.67,708.08,710.57,711.14,710.07,707.78,704.98,702.01,698.76,694.65,690.41,686.35,682.61,680.67,680.44,681.70,684.56,688.13,691.51,694.05,694.71,691.88,688.67,685.40,683.90,687.73,691.72,695.75,699.86,704.01,707.77,710.67,712.87,714.34,714.89,715.18,714.98,714.35,713.32,712.00,709.60,706.71,704.10,703.14,704.05,706.32,709.25,711.53,710.68,707.36,703.45,699.88,694.94,690.82,687.48,684.46,681.07,679.66,679.81,681.05,683.19,685.33,687.53,689.14,689.31,687.14,684.08,680.12,675.22,669.53,664.94,666.89,673.00,680.00,684.30,683.23,679.77,675.47,671.48,669.82,669.43,670.42,673.76,678.42,679.29,677.39,673.97,670.80,669.64,670.12,671.53,672.75,672.36,670.98,669.39,668.48,669.37,671.91,675.94,680.75,684.12,687.04,688.82,689.58,689.65,689.38,688.96,688.24,687.07,685.70,684.26,682.83,681.66,681.31,681.23,681.31,681.33,681.01,680.14,676.60,672.41,667.99,661.72,655.96
766.93,765.99,763.52,759.23,753.71,748.46,743.14,737.67,732.96,728.33,724.02,720.56,718.92,718.20,718.14,717.71,715.77,711.93,709.36,708.16,708.37,710.10,712.13,713.65,714.00,712.72,712.12,712.17,710.98,707.41,702.71,700.08,699.84,701.80,705.73,710.35,716.10,721.56,724.20,720.53,714.38,708.27,702.64,696.32,689.76,684.44,681.52,682.21,682.86,682.93,683.64,686.54,693.17,699.15,704.67,709.51,712.10,709.68,704.97,698.69,690.64,682.03,675.26,670.43,668.52,672.06,679.61,686.37,691.33,694.78,696.98,698.07,698.83,699.88,701.79,705.35,711.26,718.59,724.76,729.90,735.53,740.86,744.72,748.38,750.28,751.49,752.40,752.59,751.81,750.74,749.64,748.40,746.12,743.93,741.77,739.35,736.27,732.49,728.28,723.92,720.04,717.95,715.99,714.30,713.77,714.75,716.36,718.67,722.03,726.73,731.60,736.53,740.33,740.33,735.92,729.53,722.81,716.67,711.50,705.54,700.16,695.83,692.18,688.32,684.69,682.40,682.94,685.36,688.37,691.34,694.08,696.66,699.86,703.28,706.37,708.13,708.42,707.63,706.09,703.87,701.27,697.62,693.43,689.07,684.96,681.55,679.54,679.52,682.25,686.01,689.64,692.26,692.88,690.27,687.14,684.01,682.75,686.71,690.67,694.56,698.41,702.24,705.78,708.62,710.64,711.80,712.18,712.36,712.19,711.53,710.18,708.42,705.57,702.52,700.17,699.50,700.57,703.01,706.18,708.96,709.85,707.92,704.79,701.65,697.90,693.68,689.59,685.64,681.38,678.76,677.65,677.99,679.93,682.18,684.59,686.62,687.38,685.38,682.56,678.17,672.44,666.73,663.54,666.36,672.81,679.88,683.70,682.68,679.22,674.63,670.20,667.86,667.46,668.57,671.11,675.10,676.70,675.65,672.38,669.38,667.62,667.70,669.12,670.40,670.57,669.38,667.62,666.34,666.82,668.68,671.80,676.12,680.98,684.08,685.90,687.00,687.63,687.54,687.30,686.77,685.74,684.33,682.87,681.40,680.05,679.15,678.93,679.07,679.20,679.03,678.72,676.73,674.04,670.74,665.80,659.91
764.72,763.82,761.47,757.36,751.53,746.03,740.96,736.21,731.57,726.69,722.32,718.88,716.78,715.36,714.79,714.48,713.60,711.10,708.86,707.23,706.53,707.32,708.85,710.25,710.87,710.23,709.87,709.92,708.57,704.86,700.38,698.48,698.61,700.55,704.74,709.74,715.59,721.18,724.30,720.98,715.09,708.88,702.78,696.07,689.23,683.30,679.39,678.94,679.35,680.28,683.40,689.47,695.49,701.14,706.40,710.50,711.21,707.76,703.03,696.91,688.47,679.34,672.34,668.28,668.42,674.48,682.41,689.61,695.21,698.63,700.73,701.99,702.96,704.21,706.72,710.61,716.58,723.58,728.66,733.28,737.88,741.94,744.84,747.61,749.53,750.85,751.64,751.83,751.16,750.22,749.28,748.34,746.68,744.99,743.28,741.39,739.12,735.98,732.15,727.69,722.66,719.60,717.06,714.56,712.49,712.65,714.14,716.40,719.56,724.14,729.07,734.25,738.75,740.33,737.07,730.83,723.88,717.65,712.55,706.75,701.49,697.23,693.75,690.10,685.89,681.99,679.95,681.12,683.80,686.89,689.93,692.62,695.58,698.88,702.16,704.69,706.00,706.40,705.99,704.73,703.20,700.53,696.81,692.41,688.03,683.44,679.74,678.20,680.29,683.78,687.46,690.23,691.01,688.67,685.48,682.49,681.47,685.34,689.26,693.05,696.73,700.25,703.57,706.24,708.07,709.03,709.34,709.35,709.06,708.25,706.53,704.44,701.54,698.71,696.75,696.47,697.75,700.35,703.66,706.65,708.67,707.92,705.65,703.01,700.32,696.28,691.69,686.93,682.15,678.56,676.15,675.31,676.84,679.16,681.79,684.17,685.37,683.43,680.37,675.32,668.90,663.45,661.85,665.67,672.58,679.78,683.10,682.16,678.83,674.02,668.92,666.00,665.46,666.43,668.25,672.00,674.47,674.31,671.35,668.55,666.18,665.63,666.69,668.02,668.76,667.83,666.00,664.43,664.37,665.61,667.84,671.45,677.18,680.96,683.18,684.59,685.70,685.82,685.70,685.33,684.50,683.15,681.74,680.28,678.79,677.42,676.83,676.74,676.71,676.45,676.33,675.52,674.02,671.72,668.27,662.92
762.85,762.11,760.18,756.57,751.19,745.78,740.60,735.53,730.14,724.75,720.53,717.56,715.31,713.04,711.68,711.00,710.55,709.71,708.21,706.57,705.15,704.47,705.52,706.71,707.39,707.32,707.21,706.82,705.15,701.89,698.96,697.48,697.78,699.87,703.91,709.21,715.14,720.64,723.78,721.10,714.83,708.25,702.10,695.06,688.81,683.35,679.12,677.37,678.52,681.84,686.50,692.07,697.54,703.02,707.78,710.81,710.11,706.39,701.49,694.96,685.93,676.81,670.12,667.34,669.59,677.00,684.99,692.51,698.59,701.87,704.01,705.88,707.57,709.32,712.34,717.44,723.33,728.75,732.07,735.78,739.06,741.81,744.10,746.38,748.49,750.07,750.89,751.05,750.50,749.65,748.70,747.70,746.51,745.67,744.54,742.70,740.94,738.72,735.66,731.72,727.02,722.00,718.48,715.62,712.45,710.72,711.75,714.26,717.66,721.75,726.53,731.76,736.72,739.68,737.99,732.37,725.53,719.31,714.16,708.81,703.83,699.57,696.20,692.76,688.69,684.04,679.53,678.19,679.47,682.15,685.54,688.64,691.94,695.29,698.46,701.00,702.46,703.05,703.19,703.18,703.49,702.73,700.31,696.31,691.44,685.86,680.83,677.85,678.63,681.22,684.58,687.51,688.82,686.95,683.64,680.75,679.93,683.46,687.27,691.07,694.70,698.07,701.14,703.45,705.06,705.98,706.25,705.98,705.36,704.22,702.26,700.19,698.01,695.78,693.98,694.07,695.73,698.68,702.23,705.12,707.01,706.82,705.48,703.77,701.63,698.04,693.39,688.08,682.97,678.83,675.26,673.12,673.93,676.28,679.22,681.95,683.40,681.48,677.46,671.65,665.11,660.30,659.73,664.39,671.94,679.52,682.44,681.73,678.70,673.75,667.55,664.21,663.06,663.26,664.77,669.61,673.01,673.41,670.69,668.00,665.32,663.94,664.13,665.55,666.84,666.24,664.50,662.75,661.83,662.64,664.46,667.32,672.09,677.51,680.84,682.48,683.72,684.12,684.08,683.87,683.39,682.26,681.00,679.57,677.96,676.33,674.94,674.28,673.95,673.55,673.37,672.77,671.88,670.54,668.09,664.09
763.52,762.94,760.99,757.16,751.91,746.51,741.13,735.62,729.67,724.21,720.19,717.40,714.83,712.00,710.16,709.06,708.34,707.84,706.72,705.25,703.73,702.66,702.67,702.91,703.04,702.97,703.00,703.04,702.00,699.51,697.44,696.40,697.07,699.42,703.30,708.71,714.78,720.32,723.41,721.03,714.37,707.51,701.47,694.52,688.52,683.32,678.98,676.49,678.11,682.71,688.26,693.69,698.92,704.35,708.62,710.69,709.06,704.79,699.53,692.90,684.03,674.74,668.12,666.38,670.45,678.69,686.49,694.19,700.78,704.29,706.90,710.17,713.34,715.89,718.75,723.64,728.26,731.66,733.79,736.17,738.51,740.75,742.89,745.12,747.15,748.75,749.74,750.01,749.60,748.77,747.74,746.60,745.36,744.77,744.30,743.45,742.11,740.41,738.00,734.64,730.07,724.79,720.47,716.73,713.01,710.14,710.06,712.02,715.55,719.88,724.71,729.70,734.22,736.96,737.31,733.43,727.63,721.74,716.52,711.23,706.60,702.85,699.63,696.07,691.80,686.70,681.02,677.39,676.68,678.20,681.36,684.63,688.19,691.66,694.72,696.92,698.20,698.82,699.17,699.63,700.88,701.97,701.43,698.75,693.99,687.91,682.01,677.74,676.88,678.79,681.43,683.98,685.72,685.39,682.54,679.48,678.34,681.81,685.47,688.92,692.24,695.43,698.22,700.51,702.11,702.95,703.07,702.71,701.87,700.55,698.75,696.91,695.07,693.09,691.40,691.64,694.08,697.63,701.35,703.96,705.44,705.42,704.51,703.13,701.43,698.21,693.80,688.53,683.10,678.27,673.98,671.14,671.41,673.63,676.66,679.59,681.28,679.33,674.94,669.08,662.93,658.74,658.24,662.77,670.25,678.03,681.40,681.27,678.53,673.48,666.94,662.73,661.05,660.93,661.96,666.59,670.65,671.86,669.51,666.51,663.66,661.96,661.72,663.11,664.71,664.59,663.18,661.25,659.75,660.01,661.26,663.56,667.87,673.01,677.30,680.37,682.02,682.52,682.54,682.39,682.08,681.20,680.00,678.59,677.02,675.37,673.74,672.50,671.57,670.87,670.64,670.15,669.50,668.72,667.46,664.75
765.14,764.50,762.27,758.26,753.05,747.70,742.26,736.51,730.15,724.89,721.09,718.26,715.38,712.25,709.90,708.23,707.07,706.24,705.11,703.77,702.38,701.26,700.35,699.69,699.24,699.01,699.12,699.54,699.13,697.42,695.87,695.55,696.75,699.33,703.11,708.43,714.58,720.16,723.12,720.90,714.26,707.35,701.29,694.49,688.50,683.37,678.94,675.89,677.51,682.48,688.52,694.40,699.70,705.00,708.83,710.14,707.59,702.79,697.26,690.52,681.68,672.52,666.23,665.43,670.92,679.82,687.26,694.84,701.78,706.00,709.74,714.39,718.69,721.67,724.04,727.93,730.95,732.61,733.93,735.34,737.21,739.38,741.60,743.81,745.67,747.19,748.25,748.64,748.45,747.73,746.63,745.35,743.97,743.36,743.33,743.43,742.65,741.47,739.72,736.96,732.42,727.34,722.49,717.97,713.78,710.00,708.77,709.97,713.44,718.20,723.04,727.39,730.87,732.99,735.04,733.75,729.81,724.16,718.78,713.54,709.18,705.77,702.64,698.91,694.39,689.02,682.83,677.54,674.77,674.75,677.32,680.56,684.16,687.59,690.48,692.26,693.31,694.08,694.79,695.69,697.55,700.08,701.40,700.41,696.17,689.92,683.43,678.19,675.88,676.54,678.32,680.44,682.53,683.69,681.64,678.44,676.72,680.03,683.56,686.71,689.68,692.67,695.29,697.57,699.22,700.11,700.33,700.03,699.02,697.53,695.87,694.24,692.55,690.72,689.20,689.63,692.54,696.50,700.37,702.79,703.87,703.93,703.29,702.01,700.49,697.48,693.40,688.46,682.95,677.65,672.87,669.57,669.35,671.35,674.27,677.28,679.16,677.06,672.67,667.03,661.30,657.57,656.82,660.99,668.04,675.52,680.11,680.75,678.30,673.18,666.47,661.59,659.48,659.18,659.90,663.77,668.17,670.08,668.10,664.83,661.92,660.06,659.59,660.98,662.72,663.00,661.92,659.90,658.00,657.76,658.56,660.44,664.17,668.61,673.47,677.79,680.02,680.75,680.85,680.82,680.71,680.07,678.95,677.58,676.06,674.43,672.75,671.09,669.56,668.45,668.06,667.59,667.06,666.61,666.32,664.84
767.32,766.08,763.25,759.63,754.53,749.37,744.29,738.90,732.38,727.75,724.09,720.87,717.84,714.84,711.71,709.12,707.56,705.67,703.84,702.35,701.22,700.17,699.04,698.14,697.49,697.09,697.23,697.23,696.76,695.63,694.24,695.31,697.34,699.94,703.81,708.69,714.68,720.20,722.95,720.77,715.25,708.78,702.19,695.48,689.10,683.67,679.02,675.49,676.13,679.91,685.98,693.52,699.38,704.36,707.90,708.84,705.02,699.95,694.50,687.43,677.72,669.61,664.43,664.47,670.58,680.09,686.97,693.78,700.67,706.56,712.73,718.12,722.13,724.42,725.91,727.77,729.21,730.14,731.23,732.92,735.23,737.86,740.45,742.35,744.04,745.39,746.26,746.66,746.88,746.48,745.49,744.06,742.67,741.82,741.58,741.87,742.04,741.64,740.70,738.60,733.96,729.02,724.25,719.51,714.63,710.03,708.02,708.49,711.49,716.60,721.25,724.12,725.70,727.31,729.84,732.51,731.87,726.00,720.24,715.26,710.93,707.18,703.90,700.10,695.47,690.05,684.01,678.57,673.97,672.02,673.45,676.36,679.43,682.43,684.99,686.41,687.31,688.65,690.35,692.22,694.44,697.46,700.16,701.15,698.05,692.09,685.42,679.86,676.90,674.75,675.48,677.50,679.77,681.51,680.72,677.65,675.05,677.74,681.26,684.40,687.21,689.93,692.60,694.79,696.49,697.76,698.76,698.78,697.63,695.86,694.07,692.42,690.70,688.99,687.84,688.66,691.03,694.70,698.73,701.32,702.30,702.48,702.01,700.70,698.73,695.64,691.89,687.59,682.60,677.44,672.53,668.90,668.19,669.78,672.33,675.23,677.16,674.61,670.78,665.54,659.86,656.25,655.11,659.08,665.27,671.29,678.46,680.15,677.93,672.79,665.83,661.05,658.79,658.33,659.22,661.91,666.07,668.21,666.44,663.36,660.53,658.59,658.01,659.57,661.21,661.57,660.68,658.76,656.73,656.24,656.97,658.71,661.18,665.18,669.76,674.07,677.07,678.43,678.75,678.99,679.39,678.89,678.00,676.69,675.09,673.46,671.83,670.08,668.25,666.56,665.65,665.10,664.62,664.25,664.22,663.83
769.29,767.75,764.82,761.14,756.46,751.59,746.76,741.81,736.14,731.56,727.86,724.67,721.54,718.08,714.67,711.63,709.12,706.81,704.47,702.28,700.41,698.93,697.64,696.66,695.90,695.31,695.03,694.78,694.35,693.58,692.58,694.90,698.22,701.88,706.46,710.87,716.02,720.68,722.82,720.78,715.76,709.81,703.70,697.57,690.59,684.35,679.18,675.42,674.18,677.24,683.46,691.52,698.05,702.96,705.81,705.97,702.19,696.91,690.13,682.00,672.92,665.32,661.94,663.25,669.60,679.69,686.07,692.11,698.62,705.13,711.86,717.62,721.49,723.05,723.92,725.15,726.34,727.48,729.01,731.09,733.56,736.19,738.71,740.68,742.23,743.43,744.24,744.61,744.93,745.00,744.48,742.88,741.36,740.26,739.88,740.34,740.79,740.82,740.46,738.98,734.75,729.89,725.25,720.53,715.30,710.13,707.22,707.01,709.55,713.45,717.32,719.57,720.70,722.39,725.35,729.08,730.74,728.02,722.37,717.29,712.76,708.66,704.96,700.97,696.34,691.13,685.45,679.88,674.91,671.64,670.85,672.36,675.03,677.61,679.55,680.44,680.92,682.55,684.99,687.79,690.68,694.22,697.98,700.65,699.10,694.11,688.26,682.94,679.05,676.05,674.78,675.07,676.71,678.63,678.95,676.57,673.46,674.04,677.83,681.58,684.70,687.33,689.98,692.15,693.89,695.34,696.65,697.20,696.29,694.55,692.82,691.18,689.37,687.55,686.38,687.47,689.37,692.26,695.69,698.50,700.07,700.71,700.37,698.75,696.37,693.40,690.02,686.20,681.76,676.78,671.97,668.22,666.94,668.61,671.05,673.70,675.44,672.87,668.77,663.63,658.30,654.55,652.63,656.25,662.26,667.85,674.44,677.54,677.02,673.13,667.11,661.65,658.72,657.88,658.39,660.46,663.95,666.08,665.05,661.92,659.28,657.26,656.40,657.96,659.20,659.42,658.63,656.89,655.02,654.61,655.49,657.32,659.31,662.46,666.41,670.46,673.59,675.48,676.22,676.88,677.80,677.73,677.01,675.77,674.23,672.68,671.16,669.31,667.24,665.18,663.66,662.65,662.09,661.97,662.16,662.14
770.79,769.13,766.37,762.65,758.60,754.17,749.63,745.12,740.48,735.90,732.17,729.13,725.88,721.88,718.26,714.85,711.46,708.88,706.05,703.11,700.35,698.20,696.53,695.28,694.32,693.52,692.83,692.41,692.03,691.52,691.00,694.17,698.61,703.43,708.71,712.87,717.33,721.18,722.68,720.85,716.07,710.52,705.05,699.51,691.99,684.96,679.28,675.33,672.22,674.59,680.76,688.92,696.04,701.13,703.43,702.82,699.24,693.59,685.34,676.12,667.74,661.08,659.59,662.09,668.56,679.12,685.14,690.58,696.69,703.35,709.77,715.45,719.14,720.19,720.71,721.95,723.45,725.12,727.26,729.62,732.02,734.40,736.70,738.74,740.19,741.33,742.18,742.54,742.87,743.35,743.37,741.83,740.23,738.87,738.29,738.70,739.14,739.36,739.45,738.68,735.19,730.54,726.01,721.37,715.98,710.37,706.67,705.74,707.55,709.96,712.79,714.65,715.87,717.85,721.15,724.95,728.24,729.23,724.51,719.44,714.72,710.34,706.16,701.99,697.41,692.43,687.14,681.54,676.72,672.66,669.84,669.60,670.98,672.69,674.03,674.42,674.53,676.31,679.37,683.14,686.77,690.82,695.37,699.29,699.42,695.85,691.25,686.48,681.87,678.58,675.38,673.55,673.90,675.51,676.67,675.29,672.16,670.42,674.05,678.33,681.96,684.78,687.46,689.59,691.38,692.99,694.52,695.63,695.04,693.39,691.76,690.10,688.17,686.18,684.88,686.09,687.61,689.66,692.23,695.01,697.26,698.59,698.51,696.53,693.84,691.00,687.95,684.58,680.69,675.95,671.37,667.58,665.69,667.40,669.85,672.34,673.84,671.39,666.90,661.85,656.97,653.03,650.29,653.23,659.02,664.66,670.04,674.38,675.87,673.79,668.96,662.80,659.04,657.60,657.54,659.34,662.18,664.13,663.74,660.63,658.17,656.04,654.82,656.11,656.89,656.96,656.24,654.65,653.05,652.85,653.92,655.89,657.76,660.09,663.35,667.02,670.12,672.39,673.64,674.80,676.15,676.57,675.98,674.86,673.48,672.04,670.61,668.67,666.39,664.11,662.04,660.58,659.89,659.96,660.27,660.35
771.04,769.40,767.13,763.97,760.94,757.28,753.26,749.12,744.95,740.88,737.45,734.42,730.90,726.84,722.55,718.52,715.12,711.99,708.61,705.35,702.32,699.40,696.44,694.15,692.57,691.61,690.93,690.48,690.10,689.73,689.68,692.54,696.97,702.13,707.40,711.94,717.02,721.20,722.45,720.94,716.19,710.61,705.15,699.64,692.06,684.92,679.07,674.77,670.93,672.14,677.49,685.61,692.90,698.71,701.41,700.58,696.17,689.61,681.06,671.39,662.28,658.63,658.52,661.44,668.09,678.77,684.85,690.25,696.29,702.72,708.16,712.72,715.88,717.21,717.90,719.70,721.86,724.09,726.45,728.66,730.54,732.40,734.48,736.19,737.62,738.92,739.99,740.45,740.88,741.42,741.74,741.15,739.69,738.09,736.95,736.63,736.96,736.95,737.33,737.51,735.28,731.30,726.86,722.16,716.92,710.98,707.01,705.12,705.35,707.15,708.74,709.99,711.37,713.70,717.06,720.99,724.90,727.55,725.91,721.66,717.03,712.63,708.09,703.85,699.32,694.47,689.36,684.03,679.40,675.56,672.67,670.70,667.73,667.06,668.15,668.38,668.62,670.42,673.93,678.86,683.18,687.69,692.37,696.53,698.32,696.79,693.69,689.87,685.65,681.51,677.73,674.46,672.29,672.47,673.74,673.67,671.72,668.73,670.42,674.28,678.53,682.21,685.13,687.16,688.99,690.93,692.96,694.53,694.06,692.36,690.70,688.86,686.81,684.74,683.34,684.28,685.74,687.31,688.99,690.94,693.35,695.68,696.35,694.15,691.38,688.57,685.73,682.75,679.45,675.10,670.83,667.07,664.56,665.56,668.15,670.87,672.31,670.00,665.65,660.97,656.55,652.55,649.28,650.64,655.30,661.47,667.08,671.74,674.62,674.66,670.48,664.40,659.90,657.38,656.76,658.86,661.63,663.17,662.35,659.75,657.37,655.04,653.33,653.68,654.17,654.31,653.66,652.01,650.75,650.77,651.92,653.93,655.96,658.10,660.79,663.97,667.26,669.54,671.38,673.10,674.64,675.39,674.89,673.99,672.98,671.67,670.15,668.11,665.78,663.42,661.10,659.68,658.94,658.74,658.87,658.99
769.98,768.10,766.05,763.81,762.00,759.38,756.11,752.51,749.14,745.83,742.53,739.16,735.44,731.27,727.10,723.23,719.84,716.68,712.62,708.52,704.77,701.19,697.30,693.96,691.44,690.00,689.35,688.93,688.54,688.32,688.87,691.69,695.83,700.67,705.80,710.86,716.56,721.04,722.14,720.82,716.18,710.47,704.67,698.79,691.54,684.74,679.01,674.60,670.44,670.27,674.39,682.16,689.18,695.05,698.52,698.59,693.59,685.91,676.82,667.50,659.69,656.94,657.60,660.92,667.53,678.28,684.48,690.07,696.09,701.87,706.25,709.90,712.68,714.52,716.58,719.06,721.43,723.64,725.93,727.54,728.86,730.23,731.83,733.36,734.70,735.91,736.90,737.47,738.14,738.98,739.79,740.07,738.99,737.41,735.90,734.86,734.52,734.28,734.77,735.69,735.44,732.48,728.18,723.22,717.75,711.86,707.81,705.16,703.87,704.27,705.16,706.09,707.33,709.59,713.03,717.03,721.12,724.52,725.46,723.24,719.50,715.01,710.22,705.79,701.28,696.40,691.06,686.32,682.41,679.17,676.46,673.79,669.80,667.09,665.59,664.02,664.03,666.25,670.14,675.23,680.15,684.91,689.46,693.47,696.04,696.68,695.32,692.53,688.70,684.21,679.80,675.65,672.13,670.27,671.15,671.93,671.09,667.96,668.16,671.41,675.73,679.64,682.78,685.18,687.46,689.79,691.91,693.44,692.97,691.21,689.23,687.09,684.81,682.85,681.79,682.42,683.56,684.90,686.43,688.42,691.00,693.63,694.53,692.33,689.70,687.11,684.45,681.57,678.30,674.15,670.15,666.47,663.54,663.63,666.11,669.02,670.55,668.34,664.36,660.09,655.94,651.92,648.49,648.93,652.85,659.28,665.11,669.95,673.57,674.83,671.33,665.75,660.80,657.23,655.83,658.22,660.94,662.19,661.22,658.91,656.50,654.05,652.04,651.55,651.68,651.77,651.34,650.14,649.20,649.38,650.38,652.05,654.14,656.32,658.84,661.76,665.08,667.94,670.22,672.10,673.52,674.28,673.75,672.93,672.10,671.04,669.45,667.37,665.03,662.70,660.49,659.18,658.36,657.88,657.75,657.85
768.27,766.05,764.01,762.58,761.86,760.26,757.81,754.84,752.43,749.90,746.55,742.56,738.66,734.44,730.81,727.46,724.11,721.29,716.92,712.11,707.49,703.30,698.69,694.46,691.02,688.88,688.04,687.58,687.22,687.19,688.39,691.35,695.27,699.79,704.86,710.34,716.25,720.72,721.77,720.61,716.08,710.25,704.06,697.79,691.00,684.60,679.04,674.65,670.38,668.75,671.40,678.54,684.97,690.63,695.07,696.58,691.37,682.75,673.15,664.52,658.61,655.57,656.70,660.39,666.90,677.62,684.04,689.83,695.72,700.62,703.90,706.84,709.55,712.27,716.15,719.27,721.60,723.49,725.36,726.13,726.85,727.71,728.71,730.13,731.38,732.43,733.30,734.06,735.07,736.36,737.71,738.68,738.09,736.70,735.04,733.42,732.25,731.67,732.07,733.44,735.09,733.64,729.82,724.66,718.82,713.08,708.90,705.59,703.00,701.70,702.02,702.70,703.64,705.56,709.03,713.07,717.14,720.87,723.75,723.94,721.61,717.36,712.52,708.01,703.55,698.65,693.15,689.06,686.02,683.35,680.70,677.80,674.28,670.01,665.38,661.55,660.78,663.32,667.50,672.29,677.55,682.34,686.60,690.26,693.15,695.63,696.07,694.52,691.19,686.83,681.91,677.20,672.99,669.13,668.91,669.84,669.87,667.21,666.50,669.25,673.40,677.23,680.54,683.50,686.38,689.10,691.18,692.36,691.79,689.94,687.49,684.98,682.50,680.74,680.18,680.55,681.32,682.56,684.33,686.76,689.48,692.04,692.90,690.90,688.47,686.14,683.63,680.72,677.17,673.08,669.21,665.60,662.41,661.63,663.82,666.81,668.52,666.40,662.82,658.86,654.85,650.91,647.54,647.66,651.27,657.80,663.81,668.75,672.65,674.49,671.68,666.80,661.62,657.13,654.86,657.36,659.96,661.05,660.04,657.79,655.30,652.87,650.82,649.73,649.56,649.55,649.34,648.75,648.08,648.33,649.10,650.33,652.37,654.73,657.36,660.27,663.54,667.08,669.67,671.45,672.54,673.05,672.45,671.61,670.81,669.91,668.33,666.32,664.09,661.85,659.99,658.85,657.97,657.23,656.82,656.83
766.62,764.16,761.86,760.11,759.49,758.38,756.47,754.10,752.63,750.46,746.62,741.73,737.49,733.67,730.58,727.58,724.39,722.28,719.50,715.53,710.54,705.58,700.26,695.80,692.17,689.10,687.09,686.27,686.08,686.47,688.25,691.40,695.94,701.42,707.02,712.21,716.79,720.13,721.30,720.45,715.91,710.11,704.12,698.07,691.46,684.94,679.16,674.77,670.45,667.42,668.43,674.39,679.85,685.72,691.15,693.94,689.61,681.10,671.83,663.56,657.59,654.14,655.58,659.68,666.28,676.67,683.47,689.12,694.29,698.33,700.38,702.89,706.48,711.24,716.18,719.60,721.91,723.37,724.01,723.90,723.92,724.13,724.53,725.87,727.15,728.30,729.42,730.72,732.32,734.06,735.73,736.87,736.74,735.76,734.35,732.71,731.21,729.82,729.62,730.75,732.57,733.81,731.78,727.17,721.14,715.16,710.25,706.28,703.13,700.59,699.78,699.83,700.39,701.78,705.10,709.12,713.25,717.25,720.78,722.39,721.93,719.42,715.16,711.20,706.98,702.47,697.94,694.18,691.40,688.49,685.04,681.59,677.46,672.75,667.77,663.15,660.13,661.86,666.05,670.76,675.50,679.83,683.65,687.02,690.14,692.93,694.91,695.32,693.07,689.66,684.81,679.76,675.09,670.50,667.28,666.55,666.72,664.73,664.47,667.40,671.58,675.39,678.84,682.13,685.36,688.38,690.66,691.33,690.41,688.35,685.50,682.59,680.22,678.74,678.37,678.72,679.38,680.65,682.59,685.23,687.99,690.45,691.41,689.85,687.53,685.12,682.66,679.86,675.94,671.68,667.57,663.78,660.64,659.44,661.16,663.98,665.92,663.90,660.41,656.33,652.19,648.71,645.64,646.40,650.55,657.10,663.20,668.14,671.85,673.55,671.45,667.25,662.12,657.17,654.17,655.96,658.27,659.28,658.19,655.49,652.87,650.84,649.42,648.58,648.39,648.30,648.09,647.68,647.13,647.20,647.88,649.12,650.75,653.51,656.62,659.86,663.29,666.63,669.21,670.80,671.26,671.18,670.51,669.66,668.68,667.36,665.94,664.44,662.65,660.57,659.36,658.48,657.65,656.81,656.08,655.92
764.98,762.68,760.30,758.24,757.00,755.94,754.50,752.75,751.82,749.31,744.89,739.51,735.04,731.05,727.71,724.66,721.87,720.01,718.02,715.33,711.88,708.00,702.47,697.94,694.23,690.30,687.34,685.74,685.15,685.69,687.89,691.29,696.15,701.95,707.34,711.75,715.46,718.60,720.66,720.20,715.64,709.66,703.45,697.26,691.11,685.39,680.26,675.77,670.89,666.14,665.09,669.38,673.99,679.93,686.26,690.59,687.95,679.98,671.10,663.00,656.68,652.72,654.07,658.37,665.16,675.21,682.56,688.36,693.07,696.29,697.92,700.16,704.06,709.78,715.08,719.01,721.40,722.42,722.38,721.74,720.98,720.43,720.52,721.65,722.85,724.13,725.67,727.80,730.15,732.26,734.00,735.13,735.17,734.62,733.60,732.09,730.44,728.51,727.70,728.37,730.14,732.47,732.25,729.25,723.69,717.56,711.99,707.42,703.86,700.54,698.91,698.11,698.04,699.31,702.06,705.77,709.72,713.55,717.42,720.26,721.24,720.08,716.99,713.73,710.09,706.31,702.72,699.31,696.38,692.91,688.62,684.49,679.72,674.53,669.21,664.14,659.91,660.76,664.44,668.81,672.90,676.78,680.38,683.74,686.97,689.97,692.74,694.55,694.15,691.75,687.52,682.69,677.80,672.88,668.23,665.73,664.51,662.36,662.15,665.12,669.40,673.40,676.88,680.36,683.80,687.08,689.70,690.22,688.98,686.66,683.80,680.97,678.73,677.28,676.79,677.13,677.88,679.19,681.13,683.74,686.46,688.78,689.80,688.71,686.58,684.18,681.65,678.68,674.50,670.04,665.72,661.85,658.99,657.71,659.15,661.72,663.54,661.53,657.80,653.43,649.21,646.20,644.23,645.83,650.31,656.72,662.91,667.89,671.35,672.74,671.15,667.49,662.54,657.52,654.19,654.02,655.27,655.89,654.84,652.70,650.74,649.28,648.25,647.51,647.30,647.13,646.88,646.55,646.11,645.99,646.58,647.90,649.42,652.04,655.95,660.13,663.17,666.22,668.38,669.47,669.41,668.68,667.75,666.75,665.61,664.09,663.00,662.02,660.87,659.49,658.67,657.93,657.15,656.32,655.52,655.11
763.02,761.24,759.12,756.99,754.80,753.43,752.27,751.07,750.39,747.22,742.32,736.81,732.04,727.44,723.33,719.97,717.58,715.56,713.60,712.16,711.20,709.55,704.71,700.52,696.85,692.25,688.47,685.84,684.42,684.68,687.14,690.75,695.59,701.06,705.76,709.27,712.75,716.53,719.96,719.84,715.30,709.06,702.36,695.82,690.24,685.78,681.75,677.07,671.42,664.80,661.39,663.58,667.57,673.53,680.73,686.80,686.55,679.37,670.79,662.59,655.60,651.33,652.27,656.60,663.77,673.41,681.35,687.55,692.06,694.53,696.29,698.35,701.99,707.65,713.00,717.47,720.02,720.70,720.38,719.45,717.95,716.74,716.80,717.65,718.78,720.29,722.43,725.39,728.40,730.77,732.46,733.47,733.50,733.31,732.71,731.42,729.73,727.53,726.15,726.18,727.89,730.05,731.44,730.66,726.24,720.15,714.11,709.02,705.03,701.31,699.07,697.35,696.48,697.80,699.82,703.04,706.60,710.00,713.84,717.57,719.47,719.19,717.50,715.08,712.33,709.53,706.76,703.73,700.49,696.42,691.44,686.62,681.23,675.49,669.69,664.35,659.85,659.81,662.52,666.26,669.69,673.11,676.64,680.21,683.57,686.84,689.86,692.54,694.30,693.13,689.94,685.72,680.91,675.95,671.18,667.16,663.73,660.73,659.91,662.61,666.91,671.12,674.51,678.08,681.71,685.22,688.16,688.93,687.57,685.08,682.47,680.01,677.87,676.23,675.39,675.72,676.67,678.07,679.90,682.28,684.86,686.98,688.04,687.43,685.57,683.29,680.59,677.22,672.81,668.16,663.70,659.85,657.31,656.26,657.64,659.91,661.35,659.26,655.14,650.47,646.19,643.59,643.29,645.83,650.47,656.61,662.91,667.92,671.08,672.07,670.84,667.62,662.95,658.14,654.76,652.16,651.80,651.70,650.74,649.82,648.93,648.07,647.22,646.46,646.21,645.96,645.66,645.35,645.03,644.75,645.25,646.72,648.38,650.47,655.32,660.78,663.09,665.76,667.16,667.58,667.15,665.83,664.50,663.27,662.03,660.59,659.93,659.40,658.93,658.57,657.91,657.21,656.47,655.71,655.00,654.36
759.41,758.58,757.65,756.10,753.76,751.67,750.06,749.05,748.51,745.69,741.05,735.37,729.61,724.33,719.86,716.19,713.39,711.00,708.85,707.34,706.59,706.17,704.69,702.57,699.52,694.83,689.72,686.34,683.95,682.75,685.21,688.69,692.99,697.80,702.32,706.00,710.31,715.23,719.53,719.38,714.98,708.86,702.22,695.80,690.05,685.57,681.57,676.65,670.99,663.07,657.22,656.76,660.75,667.24,675.38,683.30,686.36,679.84,671.23,662.10,653.21,650.08,650.40,654.70,662.84,671.69,679.92,686.42,690.87,692.91,694.45,696.30,699.29,704.08,710.28,714.60,717.14,718.06,717.31,715.88,714.24,713.19,713.47,714.36,715.88,718.19,721.19,724.09,726.78,729.10,730.88,731.80,731.90,731.82,731.43,730.44,728.70,726.51,724.58,723.77,725.45,727.51,729.75,730.68,728.26,722.76,716.79,711.31,706.63,702.73,699.74,697.31,695.83,696.39,698.35,701.21,704.36,707.44,710.27,713.39,715.28,715.47,714.41,713.15,711.67,709.94,707.81,705.17,702.09,698.19,693.29,688.01,681.94,675.74,669.73,664.29,659.85,658.77,660.03,662.66,665.47,668.31,671.68,675.60,679.58,683.22,686.51,689.63,692.50,693.76,691.82,688.31,684.15,679.68,674.98,670.45,666.12,661.96,659.10,660.72,664.45,668.02,671.15,674.81,678.78,682.63,685.44,687.17,686.50,684.29,681.84,679.48,677.27,675.30,674.00,674.30,675.53,677.13,678.90,680.85,682.90,684.73,685.96,685.99,684.34,682.31,679.43,675.44,670.62,665.92,661.46,657.52,654.86,654.53,656.12,658.14,659.12,656.77,652.76,648.05,643.60,641.22,642.62,646.17,651.05,657.04,663.45,668.25,670.90,671.39,670.50,667.74,663.52,659.03,655.65,652.51,650.66,649.33,648.19,647.88,647.30,646.62,645.94,645.34,645.06,644.79,644.48,644.18,643.92,643.62,644.23,645.91,647.74,649.59,654.88,661.02,663.14,664.96,665.47,665.33,664.81,663.28,661.74,660.38,659.19,658.17,657.78,657.54,657.45,657.51,656.95,656.27,655.54,654.78,654.10,653.57
755.14,754.97,755.08,754.59,753.03,750.73,748.66,747.35,746.56,744.55,740.61,735.02,728.69,723.15,718.44,714.38,710.93,708.07,705.26,703.04,701.79,701.74,702.23,701.74,699.61,695.24,689.84,686.05,683.03,680.99,682.76,686.09,690.13,694.59,699.31,703.85,709.07,714.62,719.09,718.79,714.69,709.10,702.96,696.68,690.63,685.66,681.00,675.32,669.15,660.64,653.21,650.28,653.75,660.93,670.20,679.67,685.14,680.47,672.35,662.29,651.64,649.23,649.20,652.89,660.75,669.70,678.42,684.90,688.99,690.92,692.19,694.00,696.66,700.64,706.49,711.14,713.93,714.78,713.74,712.00,710.43,709.65,710.20,711.34,713.38,716.32,719.85,722.68,725.07,727.14,728.83,729.72,729.87,729.70,729.26,728.39,726.92,725.00,722.93,721.57,722.66,724.83,727.70,729.90,729.34,724.76,718.82,712.88,707.64,703.67,700.18,697.21,695.17,695.08,697.09,699.68,702.26,704.57,706.38,708.74,710.41,710.89,710.21,709.17,707.95,706.81,705.77,704.12,701.89,698.60,694.08,689.02,682.49,676.01,670.04,664.66,660.19,658.18,658.04,659.36,661.47,663.76,666.86,670.86,675.09,678.98,682.61,686.23,689.93,692.88,692.63,690.47,687.15,683.17,678.76,674.13,669.31,664.36,660.05,659.52,661.58,664.88,667.87,671.32,675.30,679.42,682.66,685.03,685.29,683.84,681.36,678.80,676.44,674.22,672.59,672.88,674.27,675.95,677.66,679.39,681.16,682.81,684.13,684.56,683.12,681.09,677.81,673.20,668.25,663.57,659.16,655.18,652.42,652.59,654.44,656.37,657.00,654.58,650.63,645.88,641.49,639.94,642.46,646.45,651.29,657.15,663.57,668.23,670.50,670.60,669.95,667.58,663.87,659.86,656.72,653.64,651.03,648.84,647.15,646.21,645.61,645.05,644.51,644.14,643.96,643.74,643.44,643.14,642.91,642.60,643.09,644.65,646.70,648.71,654.19,660.53,662.68,663.69,663.59,663.10,662.37,660.74,659.07,657.67,656.62,655.94,655.72,655.80,656.07,656.34,655.94,655.28,654.54,653.82,653.19,652.81
