567.30,568.79,570.53,572.74,574.90,576.66,578.25,579.68,580.51,581.29,582.13,583.00,583.77,584.32,584.71,584.96,585.07,585.15,585.23,585.27,585.29,585.36,585.37,585.25,585.00,584.60,584.05,583.43,582.79,582.12,581.39,580.69,580.13,579.75,579.58,579.48,579.39,579.33,579.35,579.60,579.91,580.00,579.82,579.55,579.35,579.13,578.91,578.70,578.41,578.21,578.08,577.95,577.79,578.36,579.52,581.78,586.39,590.83,595.12,599.11,602.61,605.86,608.77,610.89,612.20,613.37,612.83,611.72,610.09,607.32,604.06,600.72,597.54,594.67,592.17,590.34,589.22,588.83,589.15,589.68,590.82,592.41,594.32,596.42,597.82,598.40,598.06,596.76,594.66,592.02,589.12,586.18,583.40,581.06,579.59,579.15,578.80,578.42,578.30,578.43,578.63,578.95,579.26,579.65,580.34,581.55,582.83,584.11,585.38,586.61,587.10,587.18,587.11,587.07,587.00,586.78,586.64,586.75,587.09,587.49,587.89,588.29,588.73,589.37,590.18,591.17,592.36,593.50,594.66,595.75,596.76,597.77,598.68,599.48,600.15,600.64,601.04,601.10,600.80,600.13,599.19,598.14,597.01,595.91,595.19,595.08,595.16,595.26,595.29,595.29,595.18,595.09,595.09,595.08,594.88,594.63,594.37,594.10,593.89,593.82,593.84,593.84,593.58,592.72,591.67,590.65,589.73,589.11,588.70,588.50,588.63,589.06,589.62,590.22,590.75,590.81,590.42,589.95,589.53,589.20,588.86,588.74,588.89,589.22,589.07,588.79,588.47,588.12,587.77,587.42,587.04,586.69,586.39,586.11,585.79,585.47,585.32,585.66,586.04,586.43,586.82,587.24,587.54,587.76,587.75,587.14,585.55,584.25,583.16,582.13,581.04,579.36,577.26,574.92,572.36,569.13,566.19,563.94,562.62,562.12,562.32,563.01,564.54,567.64,569.38,569.32,568.49,567.71,566.67,566.02,565.52,564.99,564.25,562.54,560.78,559.42,558.66,558.20,558.67,559.92,562.44,567.63,570.65,572.27,573.09,573.34,573.45,573.55,573.67,573.78,573.86,574.10,574.41,574.76,575.21,575.68
567.68,569.26,571.03,573.11,575.28,577.16,578.84,580.27,581.07,581.73,582.30,582.84,583.33,583.85,584.34,584.69,584.83,584.91,584.99,585.04,585.06,585.13,585.14,585.02,584.73,584.20,583.66,583.12,582.55,581.92,581.21,580.53,579.87,579.30,578.99,578.92,578.87,578.81,578.85,579.34,579.64,579.52,579.09,578.82,578.58,578.36,578.15,577.96,577.61,577.38,577.22,577.07,576.96,577.78,578.95,580.99,585.60,590.37,594.70,598.55,601.95,605.06,608.00,610.24,611.62,612.56,612.00,610.92,609.25,606.37,603.39,600.26,597.10,594.01,591.01,588.97,587.70,587.13,587.37,587.54,588.13,589.25,590.96,592.93,594.65,595.62,595.62,594.89,593.70,591.71,588.94,585.50,582.45,580.47,579.34,578.84,578.43,578.04,577.90,578.06,578.34,578.72,579.14,579.60,580.17,581.28,582.51,583.75,584.97,586.07,586.35,586.34,586.26,586.20,586.18,586.02,585.95,586.14,586.47,586.89,587.32,587.75,588.27,588.98,589.81,590.78,591.90,592.93,593.99,595.02,595.99,596.91,597.76,598.55,599.24,599.77,600.19,600.44,600.46,600.10,599.23,598.13,596.94,595.74,594.66,594.20,594.11,594.14,594.15,594.21,594.12,594.04,594.04,594.04,593.92,593.70,593.41,593.19,593.03,592.98,592.98,593.00,593.03,592.34,591.37,590.32,589.27,588.37,587.63,587.18,587.25,587.74,588.34,588.99,589.55,589.58,589.21,588.67,588.13,587.68,587.28,587.46,588.04,588.65,588.64,588.40,588.06,587.69,587.38,587.06,586.70,586.33,585.97,585.70,585.36,585.06,584.97,585.37,585.78,586.17,586.55,586.92,587.17,587.35,587.38,587.03,585.90,584.83,583.85,582.89,581.89,580.85,579.47,577.71,575.60,573.28,571.22,569.17,567.19,566.27,566.82,567.98,569.78,572.67,573.67,572.76,570.90,569.01,568.16,567.61,567.08,566.30,564.83,562.84,560.94,559.41,558.52,557.91,558.39,559.65,562.00,566.78,570.05,571.64,572.11,572.41,572.54,572.62,572.74,572.92,573.06,573.43,573.91,574.43,574.89,575.36
568.09,569.80,571.63,573.54,575.50,577.28,578.86,580.13,580.88,581.47,581.99,582.47,582.93,583.41,583.92,584.31,584.45,584.54,584.62,584.68,584.74,584.81,584.78,584.53,584.12,583.62,583.09,582.55,582.02,581.52,581.04,580.47,579.75,578.98,578.49,578.35,578.32,578.32,578.46,579.11,579.37,579.10,578.47,578.07,577.81,577.61,577.42,577.19,576.83,576.56,576.37,576.23,576.17,577.13,578.49,580.60,584.81,589.42,593.55,597.09,600.11,603.04,605.88,608.55,610.70,611.48,611.18,609.97,607.90,604.95,602.14,599.23,596.33,593.47,590.49,588.27,586.53,585.40,585.40,585.44,585.81,586.66,588.10,589.71,591.42,592.59,592.91,592.56,592.02,590.58,588.09,584.63,581.37,579.76,579.04,578.56,578.12,577.67,577.61,577.96,578.41,578.91,579.35,579.78,580.30,581.14,582.34,583.61,584.74,585.44,585.55,585.49,585.43,585.40,585.35,585.22,585.21,585.51,585.92,586.33,586.78,587.33,588.02,588.73,589.43,590.23,591.23,592.28,593.27,594.20,595.09,595.95,596.72,597.40,598.04,598.57,599.08,599.50,599.79,599.77,598.98,597.88,596.72,595.54,594.41,593.50,593.11,593.03,593.04,593.06,592.99,592.93,592.95,593.00,592.93,592.75,592.50,592.29,592.17,592.13,592.15,592.21,592.22,591.90,591.23,590.30,589.28,588.25,587.27,586.37,585.75,585.96,586.53,587.06,587.32,587.38,587.24,586.91,586.46,586.03,585.91,586.35,587.07,587.76,588.11,587.99,587.67,587.30,586.98,586.63,586.28,585.95,585.62,585.28,584.95,584.71,584.69,585.06,585.50,585.91,586.28,586.60,586.79,586.96,587.08,586.96,586.05,585.05,584.06,583.06,582.07,581.11,580.32,579.59,578.63,576.94,575.70,574.70,573.71,572.87,573.88,575.51,577.04,577.85,577.63,575.81,573.10,570.50,569.54,568.92,568.22,567.12,565.03,562.84,560.89,559.33,558.33,557.57,558.04,559.13,560.88,564.80,568.23,570.24,571.03,571.43,571.61,571.71,571.89,572.27,572.64,573.08,573.58,574.10,574.57,575.09
568.52,570.19,571.98,573.79,575.53,577.13,578.58,579.79,580.57,581.15,581.65,582.11,582.55,583.00,583.52,583.92,584.06,584.12,584.18,584.25,584.30,584.37,584.29,583.93,583.44,583.00,582.50,581.97,581.46,581.00,580.61,580.10,579.40,578.61,578.01,577.80,577.75,577.83,578.14,578.86,579.01,578.63,577.90,577.36,577.07,576.86,576.66,576.41,576.05,575.77,575.56,575.43,575.41,576.20,577.54,579.64,583.31,587.78,591.78,595.15,597.94,600.58,603.28,606.18,608.89,610.07,610.10,608.89,606.77,604.09,601.39,598.58,595.75,592.91,589.91,587.45,585.31,583.71,583.40,583.35,583.55,584.15,585.40,586.86,588.52,589.75,590.24,590.12,589.79,588.62,586.43,583.24,580.50,579.20,578.58,578.08,577.63,577.30,577.40,577.92,578.49,579.04,579.52,579.99,580.55,581.27,582.28,583.41,584.41,584.73,584.75,584.68,584.63,584.59,584.52,584.45,584.55,584.93,585.36,585.83,586.37,587.00,587.74,588.44,589.08,589.76,590.56,591.50,592.43,593.31,594.13,594.91,595.60,596.22,596.79,597.30,597.84,598.31,598.70,598.87,598.40,597.39,596.24,595.08,593.96,592.92,592.32,592.06,591.98,591.94,591.90,591.87,591.88,591.93,591.92,591.78,591.58,591.44,591.35,591.33,591.35,591.38,591.32,591.13,590.70,589.99,589.02,587.98,586.91,585.84,584.89,584.55,584.65,584.85,584.97,585.08,585.13,585.04,584.78,584.46,584.70,585.32,586.09,586.84,587.43,587.50,587.28,586.91,586.59,586.22,585.88,585.56,585.22,584.87,584.52,584.33,584.41,584.78,585.20,585.61,585.97,586.24,586.41,586.57,586.72,586.73,586.04,585.09,584.09,583.08,582.09,581.30,580.83,580.54,580.14,579.18,578.59,578.24,577.89,577.38,578.13,579.25,580.09,580.00,579.52,577.67,574.90,572.13,571.11,570.31,569.20,567.53,565.18,562.86,560.85,559.24,558.15,557.20,557.57,558.47,559.68,562.30,565.43,567.77,569.12,569.93,570.63,571.01,571.34,571.82,572.29,572.78,573.28,573.78,574.25,574.77
568.91,570.43,572.09,573.83,575.42,576.82,578.14,579.34,580.21,580.82,581.32,581.77,582.17,582.62,583.12,583.52,583.64,583.67,583.73,583.77,583.79,583.86,583.74,583.31,582.77,582.35,581.89,581.37,580.86,580.40,579.98,579.47,578.85,578.16,577.52,577.24,577.17,577.34,577.87,578.60,578.60,578.08,577.32,576.69,576.36,576.12,575.90,575.65,575.30,575.03,574.84,574.71,574.72,575.16,576.31,578.29,581.38,585.66,589.58,592.88,595.61,597.94,600.48,603.43,606.46,608.28,608.69,607.68,605.75,603.51,600.94,598.16,595.28,592.32,589.26,586.50,584.02,582.13,581.50,581.37,581.43,581.82,582.84,584.29,585.87,587.06,587.61,587.61,587.23,586.15,584.25,581.55,579.74,578.71,578.02,577.45,577.04,576.94,577.27,577.92,578.54,579.10,579.65,580.22,580.86,581.54,582.29,583.16,583.94,583.96,583.94,583.88,583.81,583.74,583.67,583.72,583.95,584.39,584.81,585.38,586.03,586.73,587.42,588.11,588.74,589.33,589.91,590.65,591.51,592.35,593.11,593.81,594.45,595.02,595.54,596.02,596.55,596.98,597.34,597.57,597.53,596.70,595.60,594.47,593.40,592.45,591.71,591.21,591.00,590.89,590.86,590.86,590.86,590.86,590.91,590.83,590.68,590.65,590.59,590.58,590.57,590.54,590.41,590.21,589.94,589.48,588.60,587.62,586.57,585.51,584.51,583.56,582.96,582.68,582.68,582.79,582.97,583.12,583.14,583.00,583.59,584.35,585.12,585.89,586.64,586.96,586.88,586.52,586.19,585.83,585.49,585.16,584.79,584.46,584.10,583.95,584.14,584.52,584.91,585.29,585.63,585.85,586.01,586.17,586.32,586.37,585.91,585.02,584.02,583.02,582.09,581.53,581.19,580.94,580.64,580.38,580.23,580.14,580.10,579.98,580.09,580.21,580.25,580.08,579.84,578.46,576.18,573.72,572.67,571.66,570.11,567.93,565.50,562.94,560.79,559.16,558.01,556.88,556.99,557.66,558.47,559.70,562.21,564.64,566.53,567.95,569.41,570.35,570.94,571.47,571.94,572.46,572.97,573.44,573.91,574.41
569.01,570.38,571.90,573.56,575.12,576.50,577.74,578.86,579.81,580.43,580.93,581.39,581.83,582.24,582.71,583.05,583.15,583.21,583.27,583.32,583.33,583.39,583.23,582.78,582.20,581.71,581.25,580.73,580.20,579.67,579.13,578.59,578.05,577.48,576.84,576.62,576.61,576.91,577.64,578.40,578.17,577.44,576.61,576.11,575.70,575.41,575.19,575.00,574.73,574.52,574.36,574.23,574.23,574.57,575.38,576.87,579.60,583.38,587.09,590.41,593.21,595.56,598.03,600.83,603.73,605.73,606.68,606.05,604.36,602.38,600.24,597.59,594.70,591.73,588.61,585.45,582.75,580.85,580.13,579.87,579.90,580.13,580.68,581.92,583.31,584.42,585.01,585.01,584.60,583.58,582.02,580.10,578.88,578.08,577.46,576.91,576.43,576.68,577.23,577.87,578.54,579.15,579.81,580.50,581.16,581.81,582.39,582.88,583.17,583.12,583.06,582.99,582.91,582.85,582.87,583.07,583.41,583.84,584.38,585.02,585.73,586.46,587.10,587.74,588.30,588.81,589.31,589.86,590.53,591.25,591.96,592.65,593.24,593.76,594.25,594.77,595.26,595.68,596.00,596.17,596.17,595.77,594.99,593.96,592.98,592.05,591.21,590.57,590.26,590.06,589.97,589.93,589.93,589.94,589.95,589.99,590.00,589.94,589.92,589.91,589.89,589.82,589.68,589.54,589.35,589.02,588.39,587.46,586.44,585.40,584.35,583.29,582.28,581.42,580.87,580.78,580.87,581.17,581.58,581.90,582.60,583.38,584.15,584.92,585.69,586.32,586.46,586.12,585.76,585.42,585.10,584.77,584.39,584.07,583.71,583.60,583.88,584.26,584.64,584.98,585.23,585.40,585.57,585.72,585.88,585.97,585.78,584.96,583.96,583.01,582.29,581.86,581.58,581.34,581.09,580.87,580.72,580.64,580.62,580.50,580.50,580.42,580.25,579.97,579.11,577.71,576.10,574.64,573.62,572.53,571.22,569.46,566.77,563.20,560.61,559.04,557.94,556.83,556.34,556.49,557.25,558.10,559.76,561.58,563.34,565.23,567.25,569.11,570.44,570.97,571.49,572.02,572.55,573.06,573.51,573.82
568.90,570.18,571.62,573.21,574.78,576.12,577.27,578.32,579.31,580.05,580.61,581.09,581.57,581.99,582.37,582.63,582.70,582.78,582.84,582.87,582.88,582.93,582.73,582.25,581.63,581.07,580.57,580.01,579.42,578.86,578.27,577.71,577.23,576.75,576.18,576.03,576.10,576.51,577.40,578.23,577.84,576.91,575.95,575.48,575.09,574.81,574.62,574.46,574.26,574.09,573.92,573.78,573.80,574.11,574.70,575.83,578.18,581.37,584.78,588.06,590.98,593.47,596.00,598.74,601.47,603.39,604.63,604.48,603.22,601.42,599.44,596.86,594.00,591.04,587.86,584.48,581.70,579.84,579.10,578.75,578.71,578.80,579.07,580.05,581.11,581.97,582.45,582.42,582.07,581.28,580.16,578.90,578.02,577.30,576.69,576.22,575.95,576.42,577.08,577.72,578.40,579.01,579.70,580.40,581.01,581.59,582.03,582.31,582.37,582.27,582.17,582.09,582.02,582.01,582.14,582.46,582.88,583.38,584.03,584.72,585.44,586.14,586.71,587.25,587.74,588.17,588.61,589.04,589.60,590.20,590.82,591.45,592.00,592.49,593.00,593.50,593.97,594.37,594.64,594.75,594.78,594.69,594.23,593.42,592.54,591.63,590.73,589.97,589.52,589.28,589.17,589.13,589.13,589.13,589.17,589.28,589.39,589.37,589.37,589.37,589.34,589.25,589.10,588.98,588.81,588.55,588.10,587.29,586.33,585.30,584.21,583.11,581.91,580.78,579.94,579.68,579.67,579.98,580.48,581.00,581.76,582.54,583.32,584.12,584.91,585.67,585.97,585.72,585.34,585.00,584.68,584.35,583.97,583.65,583.31,583.24,583.58,583.97,584.35,584.64,584.84,584.99,585.14,585.30,585.45,585.58,585.53,584.84,583.94,583.11,582.55,582.22,581.97,581.74,581.53,581.31,581.11,580.98,580.91,580.77,580.65,580.48,580.24,579.88,578.66,577.34,576.19,575.27,574.30,573.23,572.12,570.78,568.50,564.78,561.41,559.10,558.19,557.36,556.68,556.39,556.55,556.59,557.51,558.88,560.54,562.69,564.98,567.28,569.22,570.39,571.08,571.66,572.16,572.59,572.94,573.13
568.62,569.88,571.28,572.85,574.46,575.71,576.78,577.79,578.80,579.72,580.38,580.86,581.37,581.82,582.09,582.23,582.31,582.38,582.41,582.41,582.43,582.47,582.25,581.72,581.07,580.45,579.81,579.14,578.51,577.95,577.40,576.87,576.41,576.00,575.57,575.45,575.61,576.15,577.12,578.03,577.61,576.56,575.44,574.89,574.56,574.34,574.16,574.01,573.85,573.69,573.51,573.34,573.40,573.73,574.26,575.18,577.10,579.75,582.81,585.98,589.00,591.64,594.34,597.09,599.63,601.34,602.63,602.96,602.27,600.60,598.52,595.94,593.14,590.21,586.99,583.55,580.82,579.09,578.33,577.92,577.76,577.74,577.93,578.66,579.32,579.80,580.06,580.01,579.78,579.32,578.67,577.90,577.13,576.38,575.76,575.44,575.58,576.15,576.80,577.43,578.10,578.68,579.32,579.94,580.42,580.89,581.25,581.49,581.58,581.45,581.30,581.18,581.15,581.25,581.52,581.89,582.38,583.00,583.75,584.45,585.11,585.73,586.20,586.62,587.02,587.42,587.81,588.21,588.72,589.23,589.72,590.25,590.73,591.23,591.75,592.21,592.67,593.04,593.26,593.36,593.43,593.48,593.30,592.80,592.03,591.14,590.23,589.39,588.78,588.55,588.46,588.41,588.41,588.43,588.54,588.69,588.82,588.88,588.90,588.90,588.87,588.79,588.64,588.49,588.30,588.05,587.70,587.07,586.19,585.17,584.07,582.94,581.74,580.64,579.82,579.43,579.33,579.49,579.84,580.29,581.05,581.84,582.64,583.48,584.32,585.05,585.41,585.32,584.95,584.57,584.23,583.89,583.52,583.20,582.89,582.88,583.26,583.65,584.02,584.28,584.44,584.60,584.75,584.90,585.05,585.18,585.19,584.67,583.98,583.34,582.87,582.57,582.32,582.10,581.91,581.69,581.46,581.26,581.12,580.96,580.71,580.47,580.22,579.82,578.64,577.53,576.61,575.74,574.81,573.82,572.80,571.74,570.39,567.48,563.36,559.76,558.92,558.45,557.98,557.38,556.55,555.45,555.70,556.68,558.21,560.44,562.74,565.04,567.41,569.67,570.70,571.34,571.77,572.01,572.19,572.36
568.15,569.50,570.97,572.57,574.23,575.52,576.60,577.61,578.66,579.61,580.29,580.75,581.17,581.51,581.72,581.85,581.92,581.95,581.99,582.02,582.02,582.03,581.82,581.36,580.75,579.98,578.65,577.78,577.31,577.02,576.50,575.96,575.53,575.21,574.97,574.90,575.12,575.67,576.59,577.55,577.46,576.65,575.55,574.87,574.39,574.01,573.71,573.56,573.40,573.25,573.08,572.93,572.97,573.39,573.97,574.74,576.14,578.70,581.74,584.79,587.57,590.12,592.69,595.25,597.65,599.50,600.73,601.17,600.77,599.34,597.24,594.80,592.12,589.14,585.87,582.31,579.82,578.51,577.65,577.05,576.74,576.64,576.81,577.42,578.00,578.41,578.61,578.58,578.35,577.95,577.41,576.76,576.05,575.42,575.03,574.98,575.24,575.80,576.41,576.99,577.58,578.17,578.77,579.34,579.83,580.21,580.49,580.71,580.82,580.76,580.50,580.36,580.38,580.58,580.92,581.42,582.04,582.72,583.48,584.08,584.53,584.90,585.31,585.70,586.12,586.53,586.93,587.36,587.83,588.27,588.65,589.09,589.55,590.03,590.50,590.92,591.38,591.70,591.93,592.10,592.23,592.24,592.13,591.85,591.22,590.47,589.66,588.84,588.12,587.81,587.71,587.70,587.71,587.76,587.89,588.05,588.20,588.32,588.42,588.42,588.38,588.33,588.18,588.00,587.80,587.59,587.27,586.81,586.03,585.02,583.90,582.83,581.75,580.73,579.90,579.44,579.08,579.09,579.41,579.84,580.49,581.27,582.10,582.93,583.69,584.40,584.86,584.93,584.56,584.17,583.81,583.45,583.11,582.75,582.54,582.61,582.99,583.38,583.68,583.90,584.06,584.21,584.32,584.45,584.59,584.69,584.79,584.51,584.09,583.64,583.23,582.85,582.47,582.13,581.88,581.64,581.38,581.15,580.98,580.78,580.57,580.38,580.18,579.84,578.92,577.98,577.11,576.25,575.33,574.35,573.34,572.33,571.25,569.61,566.71,563.31,560.88,560.06,559.46,558.83,558.04,556.86,556.00,555.63,556.17,558.44,560.75,563.24,565.87,568.41,570.17,570.83,571.09,571.26,571.42,571.62
567.83,569.26,570.85,572.63,574.30,575.51,576.52,577.54,578.61,579.54,580.17,580.57,580.90,581.13,581.32,581.46,581.52,581.53,581.59,581.63,581.63,581.61,581.42,581.02,580.34,579.15,577.26,576.40,576.19,576.13,575.65,575.15,574.75,574.48,574.34,574.34,574.61,575.14,575.95,576.96,577.34,576.91,575.90,575.13,574.50,573.92,573.43,573.13,572.94,572.79,572.64,572.52,572.55,573.03,573.66,574.35,575.37,577.81,580.76,583.62,586.12,588.50,590.86,593.18,595.38,597.17,598.28,598.75,598.58,597.56,595.76,593.53,590.77,587.40,583.89,580.84,578.89,577.88,576.97,576.20,575.75,575.59,575.72,576.19,576.74,577.13,577.32,577.31,577.08,576.69,576.21,575.65,575.07,574.59,574.36,574.52,574.84,575.37,575.92,576.47,577.03,577.62,578.19,578.76,579.29,579.64,579.89,580.06,580.16,580.13,579.85,579.66,579.69,579.99,580.43,581.08,581.78,582.44,583.08,583.51,583.78,583.99,584.37,584.75,585.17,585.61,586.01,586.46,586.88,587.25,587.58,587.97,588.41,588.85,589.26,589.65,590.08,590.38,590.63,590.86,590.97,590.96,590.88,590.71,590.27,589.67,589.00,588.25,587.49,587.09,586.97,586.98,587.03,587.13,587.28,587.43,587.59,587.74,587.89,587.92,587.90,587.87,587.71,587.51,587.31,587.11,586.80,586.44,585.83,584.96,583.88,582.87,581.88,580.91,580.04,579.48,578.94,578.80,579.02,579.43,580.00,580.75,581.58,582.38,583.09,583.76,584.31,584.53,584.17,583.78,583.40,583.03,582.70,582.33,582.20,582.34,582.70,583.06,583.31,583.48,583.63,583.76,583.85,583.96,584.07,584.16,584.30,584.20,583.94,583.61,583.26,582.86,582.41,582.00,581.69,581.41,581.13,580.89,580.74,580.55,580.39,580.24,580.08,579.79,579.16,578.40,577.60,576.74,575.82,574.85,573.86,572.87,571.91,571.06,569.41,566.91,564.06,562.85,561.85,560.95,560.13,558.89,557.20,555.63,554.99,556.67,559.04,561.75,564.50,567.04,569.13,569.98,570.29,570.44,570.63,570.86
567.71,569.23,570.99,573.10,574.72,575.69,576.54,577.55,578.61,579.43,579.96,580.26,580.51,580.69,580.89,581.06,581.13,581.14,581.20,581.24,581.24,581.22,581.03,580.62,579.69,577.75,575.72,575.17,575.26,575.29,574.86,574.45,574.11,573.83,573.70,573.75,574.08,574.58,575.24,576.31,577.19,577.22,576.40,575.62,574.87,574.13,573.41,572.77,572.51,572.34,572.18,572.07,572.13,572.62,573.26,573.94,574.78,576.96,579.63,582.25,584.50,586.63,588.74,590.82,592.73,594.16,595.09,595.55,595.62,595.18,594.05,592.06,588.99,584.86,581.03,579.21,578.12,577.18,576.26,575.40,574.86,574.61,574.67,574.98,575.46,575.84,576.03,576.03,575.83,575.47,575.04,574.64,574.28,573.90,573.76,574.01,574.38,574.83,575.34,575.89,576.50,577.07,577.65,578.26,578.84,579.24,579.46,579.59,579.64,579.57,579.35,579.12,579.08,579.49,580.11,580.83,581.52,582.10,582.48,582.70,582.88,583.08,583.46,583.84,584.24,584.65,585.09,585.49,585.83,586.15,586.47,586.85,587.30,587.69,588.02,588.41,588.79,589.07,589.32,589.58,589.62,589.61,589.53,589.39,589.18,588.75,588.22,587.60,586.88,586.39,586.22,586.25,586.39,586.54,586.69,586.85,587.00,587.15,587.31,587.40,587.44,587.41,587.21,587.03,586.83,586.60,586.29,585.97,585.58,584.98,584.05,583.05,582.10,581.13,580.21,579.52,578.95,578.63,578.63,579.04,579.57,580.26,581.04,581.80,582.50,583.14,583.75,584.12,583.78,583.39,583.01,582.63,582.26,581.92,581.88,582.06,582.38,582.68,582.87,583.02,583.16,583.24,583.32,583.41,583.49,583.58,583.72,583.69,583.47,583.12,582.85,582.54,582.14,581.73,581.41,581.05,580.77,580.57,580.42,580.32,580.18,580.06,579.92,579.62,579.25,578.72,578.03,577.19,576.28,575.35,574.38,573.42,572.55,571.76,570.88,569.77,568.29,566.87,565.25,563.77,562.57,561.06,559.04,556.73,554.88,555.17,557.65,560.53,563.27,565.63,567.47,568.74,569.37,569.52,569.81,570.06
567.44,569.18,571.30,573.65,575.12,575.99,576.74,577.60,578.56,579.16,579.49,579.70,580.01,580.27,580.47,580.63,580.74,580.75,580.81,580.83,580.79,580.78,580.59,579.84,578.29,575.83,574.44,574.22,574.39,574.40,574.07,573.79,573.49,573.18,573.07,573.30,573.77,574.32,574.91,575.81,576.70,577.05,576.67,575.88,575.17,574.44,573.66,572.91,572.29,571.94,571.73,571.60,571.60,571.93,572.48,573.17,574.06,575.74,577.98,580.32,582.39,584.27,586.17,588.02,589.68,590.89,591.74,592.28,592.53,592.38,591.64,589.84,586.66,582.41,579.67,578.40,577.50,576.57,575.64,574.74,574.12,573.80,573.84,574.07,574.38,574.63,574.78,574.78,574.63,574.39,574.11,573.86,573.55,573.26,573.20,573.54,573.92,574.33,574.79,575.32,575.98,576.61,577.24,577.85,578.43,578.81,579.04,579.19,579.22,579.06,578.83,578.60,578.56,579.06,579.73,580.38,580.96,581.40,581.69,581.87,582.02,582.20,582.50,582.88,583.29,583.71,584.08,584.42,584.74,585.04,585.36,585.71,586.14,586.50,586.79,587.16,587.39,587.59,587.80,588.02,588.04,588.01,587.98,587.95,587.91,587.60,587.17,586.69,586.15,585.64,585.54,585.64,585.80,585.95,586.11,586.26,586.41,586.57,586.73,586.86,586.95,586.95,586.74,586.54,586.35,586.13,585.82,585.51,585.16,584.72,584.09,583.18,582.22,581.25,580.33,579.59,578.97,578.45,578.21,578.69,579.23,579.86,580.53,581.17,581.86,582.53,583.17,583.60,583.37,583.00,582.62,582.23,581.85,581.49,581.51,581.76,582.08,582.26,582.38,582.49,582.60,582.68,582.79,582.85,582.92,583.04,583.15,583.15,582.97,582.64,582.37,582.10,581.77,581.42,581.10,580.72,580.42,580.21,580.10,579.97,579.86,579.74,579.57,579.27,578.96,578.60,578.15,577.57,576.77,575.86,574.96,574.11,573.30,572.52,571.77,571.03,570.24,569.19,567.60,565.86,564.18,562.41,560.41,557.94,555.33,553.93,556.25,559.28,561.99,564.11,566.06,567.30,567.96,568.27,568.78,569.11
567.30,569.29,571.72,574.22,575.45,576.24,576.94,577.64,578.33,578.68,578.84,578.99,579.36,579.71,579.96,580.15,580.30,580.35,580.37,580.32,580.18,579.84,579.32,578.30,576.50,573.93,573.26,573.33,573.49,573.48,573.21,573.03,572.77,572.51,572.60,573.00,573.58,574.17,574.76,575.50,576.30,576.83,576.83,576.10,575.45,574.75,573.98,573.13,572.19,571.61,571.30,571.15,571.07,571.22,571.63,572.30,573.22,574.48,576.26,578.24,580.09,581.73,583.35,584.93,586.38,587.47,588.33,588.97,589.39,589.47,589.00,587.32,584.29,580.48,578.79,577.80,576.92,576.01,575.08,574.15,573.42,572.99,572.99,573.17,573.33,573.47,573.58,573.58,573.46,573.31,573.16,573.00,572.75,572.59,572.67,573.05,573.44,573.85,574.32,574.86,575.53,576.19,576.82,577.44,578.02,578.38,578.63,578.78,578.76,578.55,578.31,578.08,578.06,578.62,579.26,579.81,580.26,580.61,580.83,581.00,581.15,581.32,581.55,581.90,582.32,582.70,583.01,583.31,583.61,583.92,584.23,584.56,584.99,585.29,585.54,585.88,585.96,586.06,586.22,586.40,586.42,586.36,586.38,586.51,586.61,586.38,586.02,585.63,585.25,584.84,584.85,585.01,585.17,585.32,585.48,585.63,585.78,585.94,586.11,586.27,586.41,586.47,586.26,586.03,585.83,585.63,585.36,585.04,584.69,584.33,583.95,583.22,582.29,581.33,580.43,579.63,578.97,578.30,577.88,578.31,578.87,579.48,580.08,580.64,581.29,581.93,582.58,583.05,582.95,582.62,582.23,581.84,581.46,581.09,581.16,581.44,581.71,581.80,581.88,581.96,582.03,582.11,582.23,582.28,582.35,582.49,582.59,582.63,582.50,582.20,581.90,581.66,581.38,581.08,580.81,580.42,580.05,579.81,579.71,579.57,579.48,579.37,579.19,578.90,578.60,578.34,578.08,577.71,577.08,576.33,575.55,574.80,574.05,573.28,572.51,571.81,571.26,570.51,569.09,567.29,565.33,563.41,561.50,559.07,556.12,553.47,555.01,557.92,560.72,562.79,564.85,565.90,566.51,567.04,567.70,568.11
567.45,569.69,572.24,574.74,575.68,576.37,577.06,577.63,577.79,577.91,578.00,578.13,578.46,578.88,579.27,579.58,579.78,579.92,579.76,579.56,579.17,577.97,576.55,575.52,574.31,572.32,572.14,572.39,572.53,572.45,572.22,572.05,571.86,571.82,572.39,572.93,573.51,574.13,574.75,575.45,576.15,576.70,576.86,576.31,575.70,575.03,574.25,573.26,572.22,571.40,570.91,570.75,570.61,570.56,570.83,571.42,572.17,573.29,574.63,576.12,577.68,579.07,580.29,581.55,582.84,583.91,584.86,585.62,586.21,586.53,586.22,584.61,582.11,579.41,578.13,577.22,576.36,575.48,574.55,573.63,572.73,572.11,572.01,572.15,572.25,572.34,572.41,572.41,572.34,572.22,572.07,571.92,571.81,571.89,572.14,572.53,572.92,573.41,573.98,574.58,575.21,575.78,576.38,577.00,577.58,577.98,578.24,578.35,578.25,578.03,577.79,577.56,577.54,578.08,578.64,579.09,579.46,579.75,579.93,580.09,580.24,580.39,580.57,580.92,581.28,581.60,581.90,582.15,582.44,582.75,583.07,583.44,583.84,584.07,584.24,584.56,584.51,584.53,584.65,584.78,584.79,584.74,584.84,585.12,585.35,585.14,584.79,584.40,584.07,583.96,584.10,584.29,584.45,584.60,584.76,584.91,585.07,585.23,585.44,585.62,585.80,585.94,585.74,585.51,585.29,585.07,584.88,584.54,584.20,583.86,583.49,583.09,582.32,581.39,580.48,579.64,578.92,578.23,577.73,577.86,578.44,579.12,579.75,580.30,580.86,581.38,581.96,582.50,582.53,582.23,581.84,581.46,581.07,580.75,580.87,581.09,581.20,581.28,581.36,581.43,581.51,581.58,581.62,581.66,581.76,581.92,582.07,582.14,582.06,581.81,581.51,581.27,580.99,580.74,580.59,580.18,579.69,579.36,579.26,579.11,579.02,578.94,578.81,578.57,578.27,578.01,577.75,577.43,577.07,576.68,576.13,575.44,574.74,573.98,573.21,572.41,571.57,570.72,569.47,567.86,565.98,564.12,562.25,560.04,557.31,554.30,554.08,556.39,559.49,561.89,563.88,564.66,565.24,565.99,566.61,567.09
567.29,569.75,572.39,574.85,575.73,576.39,576.94,577.19,577.17,577.13,577.15,577.28,577.56,578.00,578.41,578.77,579.03,579.04,577.93,576.85,575.93,574.11,572.80,572.20,571.79,571.05,571.18,571.39,571.47,571.38,571.23,571.11,571.17,571.52,572.25,572.96,573.61,574.22,574.83,575.37,575.93,576.45,576.73,576.29,575.74,575.16,574.42,573.27,572.21,571.27,570.61,570.32,570.12,570.01,570.09,570.37,570.90,571.86,572.91,573.99,575.11,576.36,577.49,578.57,579.61,580.58,581.54,582.40,583.11,583.55,583.32,582.11,580.39,578.62,577.48,576.55,575.68,574.80,573.83,572.83,571.90,571.25,571.09,571.13,571.15,571.18,571.24,571.24,571.22,571.15,571.11,571.12,571.12,571.31,571.61,571.96,572.31,572.87,573.51,574.20,574.96,575.54,576.13,576.73,577.27,577.60,577.85,577.91,577.73,577.51,577.27,577.04,576.98,577.37,577.85,578.27,578.61,578.86,579.02,579.18,579.29,579.37,579.47,579.84,580.19,580.49,580.76,581.03,581.32,581.63,581.95,582.29,582.64,582.84,582.95,583.13,583.03,582.98,583.04,583.16,583.17,583.21,583.39,583.69,583.92,583.81,583.53,583.24,583.09,583.14,583.30,583.48,583.64,583.83,584.00,584.15,584.31,584.46,584.64,584.87,585.16,585.44,585.19,584.94,584.71,584.50,584.33,584.05,583.69,583.32,582.97,582.66,582.14,581.40,580.50,579.64,578.88,578.15,577.55,577.48,578.09,578.77,579.41,580.02,580.57,581.05,581.56,582.04,582.13,581.84,581.45,581.05,580.65,580.40,580.53,580.68,580.68,580.72,580.78,580.87,580.94,581.01,581.02,581.08,581.19,581.39,581.63,581.65,581.53,581.34,581.11,580.88,580.62,580.40,580.25,579.90,579.43,579.02,578.77,578.65,578.57,578.49,578.38,578.19,577.93,577.66,577.39,577.11,576.81,576.50,576.11,575.62,575.12,574.50,573.73,572.85,571.93,571.03,570.02,568.66,566.83,564.94,563.08,561.05,558.57,555.28,553.15,554.74,558.12,560.93,562.61,563.43,564.12,564.89,565.51,566.08
566.90,569.52,572.26,574.75,575.66,576.27,576.61,576.59,576.53,576.38,576.33,576.42,576.66,577.10,577.55,577.95,578.20,578.02,576.03,574.05,572.55,570.58,569.69,569.53,569.72,570.00,570.29,570.41,570.43,570.37,570.30,570.31,570.67,571.35,572.14,572.97,573.69,574.34,574.92,575.34,575.77,576.24,576.57,576.22,575.73,575.26,574.56,573.30,572.22,571.15,570.30,569.82,569.54,569.41,569.35,569.40,569.76,570.48,571.22,571.90,572.55,573.57,574.63,575.60,576.45,577.37,578.37,579.33,580.18,580.72,580.60,579.87,578.86,577.75,576.69,575.75,574.86,573.93,572.91,571.87,570.99,570.40,570.19,570.15,570.10,570.11,570.18,570.18,570.18,570.20,570.26,570.41,570.51,570.74,571.04,571.33,571.63,572.22,572.93,573.74,574.66,575.32,575.93,576.50,576.97,577.23,577.46,577.48,577.24,576.99,576.76,576.52,576.41,576.63,577.03,577.42,577.73,577.94,578.08,578.20,578.26,578.26,578.30,578.70,579.09,579.40,579.65,579.95,580.25,580.55,580.86,581.15,581.43,581.60,581.65,581.68,581.57,581.47,581.47,581.58,581.61,581.73,581.95,582.24,582.46,582.47,582.30,582.13,582.18,582.33,582.48,582.64,582.82,583.03,583.20,583.36,583.52,583.68,583.86,584.15,584.57,584.95,584.63,584.36,584.13,583.91,583.75,583.57,583.19,582.75,582.42,582.11,581.81,581.28,580.45,579.59,578.79,578.02,577.36,577.11,577.71,578.40,579.06,579.74,580.30,580.78,581.23,581.61,581.72,581.44,581.06,580.65,580.21,579.98,580.08,580.19,580.16,580.17,580.23,580.30,580.37,580.43,580.43,580.51,580.66,580.92,581.20,581.13,580.96,580.81,580.65,580.44,580.23,580.02,579.85,579.59,579.19,578.74,578.34,578.20,578.11,578.03,577.94,577.79,577.59,577.31,577.03,576.78,576.49,576.17,575.87,575.56,575.24,574.79,574.10,573.24,572.30,571.38,570.57,569.44,567.74,565.84,563.95,562.02,559.69,556.30,552.73,553.41,556.64,559.80,561.31,562.26,563.06,563.79,564.41,565.03
566.12,568.81,571.67,574.36,575.42,575.83,575.95,575.89,575.87,575.69,575.56,575.56,575.77,576.24,576.80,577.24,577.34,576.96,574.93,572.50,570.49,569.50,569.01,568.94,569.11,569.29,569.47,569.53,569.56,569.59,569.54,569.86,570.47,571.23,572.07,572.86,573.66,574.40,574.99,575.46,575.82,576.19,576.45,576.15,575.75,575.35,574.72,573.52,572.27,570.97,569.89,569.23,568.79,568.59,568.58,568.76,569.13,569.42,569.70,569.94,570.16,570.54,571.41,572.35,573.25,574.35,575.42,576.59,577.68,578.34,578.45,578.14,577.49,576.53,575.57,574.69,573.74,572.69,571.63,570.66,570.01,569.61,569.35,569.25,569.23,569.28,569.40,569.40,569.40,569.48,569.62,569.77,569.91,570.12,570.37,570.62,570.87,571.36,572.12,573.12,574.20,575.05,575.70,576.21,576.59,576.84,577.08,577.07,576.78,576.48,576.24,576.00,575.85,575.92,576.22,576.54,576.80,576.96,577.05,577.04,577.03,577.03,577.07,577.51,578.02,578.43,578.68,578.98,579.24,579.51,579.81,580.05,580.24,580.34,580.33,580.27,580.19,580.11,580.07,580.11,580.17,580.30,580.50,580.76,581.04,581.18,581.15,581.13,581.32,581.48,581.64,581.81,582.03,582.20,582.35,582.54,582.75,582.91,583.17,583.61,584.10,584.42,584.06,583.78,583.54,583.33,583.18,583.12,582.75,582.20,581.78,581.46,581.19,580.85,580.29,579.41,578.55,577.78,577.11,576.68,577.26,578.01,578.74,579.42,580.03,580.48,580.88,581.21,581.28,581.03,580.67,580.25,579.74,579.37,579.39,579.54,579.64,579.71,579.73,579.78,579.84,579.85,579.86,579.99,580.23,580.51,580.76,580.60,580.38,580.23,580.07,579.91,579.74,579.56,579.35,579.22,578.90,578.48,578.05,577.77,577.65,577.58,577.50,577.40,577.25,576.99,576.71,576.46,576.16,575.85,575.54,575.23,574.92,574.64,574.24,573.61,572.63,571.75,570.96,570.01,568.69,566.87,564.91,562.82,560.42,557.28,553.63,553.04,555.02,558.25,560.21,561.25,562.00,562.69,563.31,563.93
564.58,567.17,569.90,572.60,574.34,575.00,575.19,575.21,575.13,574.94,574.77,574.75,575.08,575.58,576.15,576.54,576.47,575.87,573.72,571.38,569.64,568.95,568.42,568.32,568.46,568.58,568.73,568.77,568.81,568.91,569.13,569.69,570.41,571.20,572.05,572.86,573.70,574.47,575.04,575.42,575.77,576.10,576.28,575.99,575.65,575.32,574.78,573.66,572.28,570.85,569.69,568.93,568.25,567.87,567.85,568.10,568.39,568.54,568.68,568.83,569.00,569.26,569.80,570.44,571.12,572.02,573.07,574.20,575.28,576.11,576.51,576.44,576.00,575.21,574.39,573.52,572.51,571.43,570.48,569.70,569.18,568.82,568.55,568.44,568.42,568.50,568.63,568.67,568.71,568.79,568.92,569.07,569.23,569.46,569.71,569.94,570.14,570.55,571.29,572.35,573.57,574.70,575.45,575.91,576.22,576.49,576.71,576.68,576.36,576.02,575.73,575.49,575.32,575.34,575.48,575.64,575.76,575.84,575.85,575.81,575.78,575.75,575.79,576.27,576.83,577.32,577.68,578.00,578.25,578.52,578.83,579.13,579.34,579.40,579.36,579.28,579.24,579.20,579.20,579.29,579.39,579.51,579.67,579.86,580.05,580.19,580.25,580.34,580.52,580.68,580.84,581.01,581.21,581.40,581.56,581.75,581.98,582.23,582.59,583.13,583.67,583.95,583.57,583.23,582.96,582.75,582.60,582.54,582.28,581.83,581.28,580.88,580.55,580.23,579.79,579.00,578.15,577.39,576.76,576.49,577.05,577.79,578.50,579.14,579.69,580.14,580.49,580.72,580.75,580.53,580.23,579.85,579.32,578.89,578.88,579.05,579.21,579.26,579.30,579.34,579.37,579.37,579.37,579.52,579.78,580.05,580.19,580.07,579.91,579.77,579.59,579.40,579.23,579.06,578.88,578.75,578.55,578.22,577.76,577.35,577.17,577.10,577.04,576.97,576.86,576.64,576.37,576.10,575.83,575.52,575.22,574.90,574.56,574.24,573.92,573.50,572.91,572.13,571.35,570.52,569.47,567.78,565.86,563.69,561.17,558.06,554.39,552.41,552.72,555.38,557.69,559.58,560.91,561.68,562.35,563.04
562.71,565.12,567.65,570.26,572.58,573.69,574.16,574.35,574.30,574.11,573.97,574.02,574.49,575.00,575.52,575.83,575.63,574.82,572.55,570.48,569.26,568.62,567.94,567.70,567.78,567.87,568.00,568.06,568.15,568.40,568.93,569.66,570.44,571.23,572.06,572.92,573.75,574.51,575.08,575.35,575.68,575.97,576.08,575.82,575.53,575.27,574.81,573.73,572.25,570.77,569.58,568.76,567.87,567.25,567.14,567.39,567.61,567.73,567.86,568.04,568.28,568.58,568.86,569.19,569.63,570.23,571.15,572.15,573.15,574.12,574.77,574.88,574.54,573.90,573.20,572.31,571.29,570.25,569.44,568.85,568.40,568.04,567.77,567.66,567.64,567.72,567.86,567.95,568.03,568.11,568.20,568.36,568.52,568.78,569.05,569.27,569.46,569.81,570.51,571.58,572.90,574.26,575.12,575.58,575.84,576.14,576.33,576.27,575.95,575.58,575.24,574.95,574.75,574.74,574.70,574.67,574.65,574.63,574.58,574.56,574.52,574.45,574.51,575.02,575.60,576.13,576.66,577.02,577.29,577.56,577.90,578.28,578.54,578.60,578.53,578.46,578.46,578.48,578.55,578.70,578.85,578.95,579.08,579.22,579.30,579.38,579.50,579.65,579.81,579.95,580.10,580.25,580.41,580.63,580.79,581.00,581.26,581.61,582.06,582.69,583.26,583.49,583.10,582.69,582.38,582.16,582.01,581.91,581.80,581.50,580.86,580.34,579.89,579.52,579.15,578.48,577.69,576.93,576.38,576.37,576.94,577.61,578.25,578.81,579.28,579.72,580.04,580.18,580.17,579.99,579.77,579.45,578.92,578.45,578.43,578.62,578.80,578.83,578.88,578.91,578.91,578.91,578.91,579.08,579.34,579.59,579.63,579.57,579.49,579.38,579.15,578.91,578.72,578.55,578.40,578.25,578.15,577.93,577.48,576.97,576.70,576.61,576.58,576.50,576.42,576.26,576.01,575.70,575.44,575.14,574.81,574.49,574.11,573.73,573.38,573.13,572.99,572.39,571.66,570.93,570.11,568.69,566.81,564.56,561.91,558.74,555.03,551.87,550.62,552.38,554.56,557.28,559.43,560.62,561.47,562.30
560.70,562.79,565.26,567.64,569.58,571.16,572.29,572.86,573.18,573.12,573.18,573.50,573.96,574.43,574.88,575.12,574.90,574.00,571.66,569.80,568.99,568.36,567.67,567.23,567.07,567.15,567.24,567.36,567.68,568.30,568.97,569.76,570.57,571.34,572.13,572.98,573.79,574.51,575.08,575.35,575.60,575.80,575.86,575.73,575.50,575.27,574.81,573.73,572.20,570.74,569.54,568.64,567.72,566.87,566.52,566.61,566.78,566.98,567.15,567.33,567.57,567.87,568.21,568.58,568.98,569.42,570.00,570.80,571.77,572.78,573.46,573.67,573.41,572.73,572.03,571.10,570.19,569.36,568.64,568.07,567.59,567.21,566.98,566.88,566.87,566.94,567.09,567.23,567.31,567.39,567.49,567.65,567.86,568.10,568.34,568.58,568.85,569.26,569.96,571.00,572.37,573.70,574.58,575.10,575.44,575.76,575.90,575.82,575.50,575.17,574.76,574.35,574.03,573.95,573.74,573.54,573.40,573.35,573.33,573.33,573.26,573.17,573.27,573.79,574.36,574.92,575.51,576.01,576.35,576.68,577.06,577.49,577.76,577.83,577.75,577.69,577.73,577.83,577.96,578.12,578.27,578.41,578.56,578.69,578.77,578.85,578.98,579.13,579.27,579.38,579.51,579.64,579.75,579.92,580.08,580.31,580.63,581.08,581.64,582.30,582.84,582.98,582.58,582.13,581.79,581.58,581.42,581.28,581.24,581.10,580.56,579.88,579.23,578.76,578.44,577.83,577.16,576.45,575.95,576.25,576.83,577.38,577.88,578.30,578.71,579.07,579.38,579.60,579.59,579.45,579.28,579.01,578.52,578.00,578.01,578.20,578.36,578.42,578.45,578.46,578.46,578.46,578.46,578.69,578.98,579.15,579.22,579.17,579.10,578.99,578.76,578.48,578.23,578.03,577.88,577.73,577.67,577.54,577.22,576.76,576.34,576.13,576.06,575.98,575.91,575.81,575.61,575.24,574.89,574.52,574.15,573.79,573.46,573.09,572.71,572.46,572.47,572.27,571.70,571.04,570.44,569.68,567.78,565.33,562.54,559.26,555.37,551.95,550.05,550.47,551.09,553.63,556.64,559.20,560.71,561.86
559.28,560.87,562.88,565.15,567.04,568.97,570.55,571.49,572.03,572.23,572.50,572.92,573.36,573.82,574.25,574.41,573.98,572.97,571.00,569.47,568.76,568.10,567.41,566.82,566.45,566.46,566.64,567.00,567.56,568.33,569.06,569.86,570.65,571.43,572.20,573.01,573.76,574.43,575.00,575.30,575.48,575.61,575.66,575.61,575.44,575.22,574.75,573.66,572.16,570.73,569.52,568.60,567.67,566.72,566.07,565.84,566.02,566.22,566.41,566.63,566.90,567.24,567.61,567.98,568.34,568.73,569.18,569.82,570.63,571.50,572.13,572.45,572.31,571.64,570.91,570.07,569.26,568.54,567.86,567.32,566.82,566.41,566.20,566.11,566.10,566.16,566.31,566.47,566.58,566.68,566.78,566.94,567.16,567.39,567.65,567.98,568.47,569.02,569.74,570.68,571.90,573.03,573.86,574.47,574.99,575.36,575.45,575.29,574.92,574.54,574.09,573.63,573.24,573.05,572.73,572.44,572.24,572.14,572.10,572.07,571.99,571.91,572.03,572.53,573.15,573.82,574.53,575.04,575.42,575.81,576.25,576.68,576.97,577.04,577.00,577.03,577.12,577.26,577.42,577.57,577.73,577.88,578.04,578.18,578.25,578.33,578.46,578.60,578.72,578.83,578.97,579.09,579.19,579.34,579.47,579.71,580.09,580.63,581.24,581.88,582.38,582.47,582.09,581.64,581.26,580.99,580.84,580.68,580.59,580.41,579.95,579.34,578.71,578.16,577.71,577.13,576.54,575.93,575.53,575.90,576.40,576.84,577.23,577.62,578.00,578.36,578.70,578.98,579.04,578.95,578.79,578.54,578.12,577.60,577.59,577.78,577.94,578.00,578.00,578.00,578.00,578.01,578.06,578.30,578.56,578.70,578.78,578.77,578.71,578.59,578.33,578.06,577.79,577.56,577.40,577.22,577.16,577.09,576.88,576.50,576.05,575.74,575.59,575.50,575.43,575.36,575.22,574.93,574.49,574.00,573.52,573.12,572.77,572.39,572.03,571.82,571.95,571.98,571.64,571.15,570.68,570.16,568.56,566.09,563.05,559.69,555.62,552.02,549.86,549.78,549.84,551.54,554.25,557.38,559.98,561.53
558.21,559.29,560.73,562.84,564.87,567.03,568.92,570.24,570.96,571.45,571.90,572.34,572.75,573.19,573.64,573.72,573.03,571.94,570.50,569.32,568.57,567.85,567.14,566.45,565.92,565.85,566.21,566.86,567.61,568.39,569.16,569.93,570.70,571.45,572.14,572.84,573.48,574.11,574.72,575.16,575.33,575.41,575.46,575.45,575.33,575.13,574.65,573.53,572.11,570.74,569.56,568.63,567.70,566.68,565.74,565.12,565.30,565.47,565.67,565.94,566.26,566.64,567.03,567.38,567.71,568.09,568.54,569.07,569.65,570.32,570.87,571.27,571.23,570.59,569.83,569.11,568.43,567.77,567.09,566.57,566.06,565.64,565.43,565.33,565.31,565.38,565.53,565.69,565.84,565.96,566.06,566.23,566.45,566.72,567.05,567.53,568.25,568.95,569.70,570.54,571.54,572.37,573.05,573.71,574.40,574.83,574.86,574.61,574.16,573.71,573.24,572.79,572.40,572.12,571.73,571.38,571.12,570.97,570.88,570.82,570.75,570.71,570.88,571.39,572.09,572.88,573.65,574.09,574.48,574.93,575.43,575.83,576.17,576.28,576.29,576.44,576.59,576.75,576.90,577.05,577.21,577.36,577.52,577.65,577.73,577.82,577.94,578.07,578.16,578.30,578.45,578.58,578.68,578.82,578.92,579.19,579.64,580.24,580.86,581.47,581.91,582.00,581.65,581.19,580.75,580.40,580.20,580.02,579.82,579.54,579.15,578.69,578.16,577.58,576.97,576.44,575.89,575.40,575.15,575.46,575.81,576.13,576.46,576.85,577.23,577.61,578.00,578.33,578.49,578.47,578.30,578.06,577.71,577.21,577.17,577.35,577.53,577.56,577.56,577.55,577.55,577.56,577.70,577.90,578.11,578.25,578.34,578.36,578.32,578.19,577.90,577.64,577.37,577.11,576.93,576.72,576.65,576.61,576.49,576.20,575.78,575.40,575.14,575.05,574.97,574.88,574.80,574.66,574.22,573.60,573.01,572.54,572.12,571.71,571.35,571.21,571.43,571.58,571.45,571.15,570.76,570.30,569.02,566.61,563.38,560.02,555.83,552.10,549.85,549.73,549.77,550.44,552.26,555.40,559.15,561.20
557.28,558.31,559.46,561.01,563.11,565.29,567.39,569.22,570.32,570.90,571.38,571.83,572.27,572.68,573.09,573.11,572.37,571.36,570.19,569.19,568.41,567.61,566.85,566.10,565.52,565.48,566.09,566.85,567.62,568.39,569.16,569.93,570.68,571.29,571.57,571.88,572.33,572.95,573.81,574.78,575.11,575.19,575.21,575.21,575.13,574.95,574.47,573.35,571.98,570.77,569.74,568.81,567.88,566.71,565.51,564.60,564.56,564.73,564.99,565.30,565.67,566.06,566.44,566.79,567.12,567.50,567.95,568.46,569.00,569.52,569.96,570.24,570.14,569.54,568.73,568.05,567.53,567.05,566.36,565.72,565.25,564.93,564.70,564.51,564.50,564.61,564.75,564.91,565.06,565.21,565.35,565.51,565.73,566.20,566.78,567.41,568.18,568.89,569.68,570.59,571.54,571.99,572.28,572.68,573.35,573.77,573.73,573.44,573.02,572.56,572.10,571.74,571.48,571.29,570.79,570.33,569.99,569.79,569.66,569.66,569.63,569.67,570.10,570.85,571.64,572.32,572.78,573.13,573.54,574.00,574.48,574.92,575.35,575.58,575.71,575.91,576.07,576.23,576.38,576.53,576.69,576.85,577.00,577.13,577.22,577.34,577.45,577.56,577.69,577.80,577.94,578.08,578.20,578.31,578.48,578.84,579.36,579.92,580.53,581.08,581.50,581.64,581.26,580.76,580.25,579.76,579.35,579.05,578.77,578.47,578.13,577.73,577.23,576.74,576.32,575.88,575.32,574.95,574.86,575.06,575.27,575.48,575.75,576.12,576.46,576.83,577.22,577.59,577.89,577.93,577.82,577.60,577.27,576.81,576.78,576.94,577.09,577.15,577.17,577.14,577.10,577.12,577.29,577.48,577.65,577.80,577.93,577.96,577.93,577.80,577.50,577.21,576.94,576.69,576.43,576.25,576.16,576.09,576.00,575.85,575.45,575.04,574.73,574.55,574.45,574.37,574.29,574.21,574.06,573.54,572.90,572.28,571.67,571.11,570.73,570.64,570.91,571.07,570.96,570.71,570.43,570.09,568.54,566.11,563.18,560.18,556.06,552.23,549.85,549.71,549.66,549.92,551.07,553.64,557.86,560.66
556.37,557.37,558.36,559.51,561.28,563.34,565.51,567.63,569.23,570.24,570.88,571.32,571.77,572.17,572.55,572.58,571.91,570.97,569.88,568.90,568.09,567.24,566.45,565.67,565.08,565.09,565.80,566.61,567.42,568.25,569.05,569.83,570.42,570.75,570.71,570.72,570.98,571.53,572.39,573.48,574.02,574.25,574.37,574.60,574.61,574.52,574.16,573.19,571.96,570.89,569.94,569.02,567.95,566.66,565.34,564.24,563.88,564.04,564.35,564.70,565.09,565.47,565.84,566.18,566.53,566.92,567.37,567.86,568.34,568.71,569.04,569.11,568.88,568.33,567.61,566.92,566.47,566.14,565.59,564.91,564.46,564.17,563.91,563.70,563.71,563.83,563.98,564.13,564.28,564.44,564.64,564.95,565.37,565.97,566.69,567.42,568.19,568.92,569.75,570.65,571.43,571.72,571.76,571.88,572.33,572.83,572.68,572.27,571.82,571.37,570.99,570.74,570.60,570.48,570.06,569.57,569.13,568.80,568.57,568.64,568.80,569.03,569.55,570.30,571.00,571.55,571.88,572.17,572.58,573.05,573.54,574.10,574.56,574.86,575.05,575.28,575.47,575.65,575.83,575.98,576.13,576.29,576.44,576.58,576.69,576.82,576.93,577.05,577.20,577.31,577.43,577.57,577.71,577.80,578.10,578.55,579.07,579.56,580.06,580.52,580.86,580.98,580.73,580.36,579.90,579.39,578.88,578.47,578.09,577.71,577.32,576.88,576.43,576.02,575.68,575.28,574.78,574.55,574.59,574.74,574.90,575.06,575.26,575.55,575.81,576.12,576.47,576.83,577.19,577.36,577.31,577.12,576.82,576.40,576.37,576.52,576.67,576.73,576.74,576.70,576.65,576.70,576.90,577.06,577.19,577.35,577.50,577.56,577.52,577.38,577.11,576.80,576.53,576.25,575.99,575.76,575.65,575.57,575.49,575.41,575.11,574.73,574.35,574.08,573.96,573.89,573.82,573.74,573.71,573.38,572.84,572.15,571.48,570.83,570.33,570.13,570.41,570.54,570.32,569.95,569.54,569.00,567.42,565.29,562.88,560.10,555.97,552.15,549.81,549.66,549.55,549.66,550.28,552.21,556.96,560.31
555.41,556.39,557.30,558.24,559.49,561.30,563.39,565.59,567.67,569.30,570.28,570.78,571.24,571.64,572.02,572.11,571.59,570.71,569.58,568.54,567.67,566.80,566.00,565.18,564.59,564.67,565.36,566.18,567.05,567.96,568.80,569.56,569.93,569.91,569.70,569.52,569.66,570.08,570.74,571.62,572.32,572.79,573.13,573.70,573.82,573.86,573.73,573.04,572.02,571.05,570.14,569.21,567.95,566.59,565.23,564.00,563.24,563.35,563.70,564.09,564.47,564.87,565.21,565.57,565.95,566.34,566.78,567.23,567.62,567.86,568.06,567.87,567.47,566.99,566.44,565.73,565.29,565.08,564.73,564.12,563.67,563.36,563.08,562.91,562.93,563.04,563.20,563.36,563.51,563.70,564.00,564.56,565.28,565.99,566.72,567.49,568.26,569.03,569.87,570.71,571.23,571.51,571.46,571.33,571.44,571.99,571.72,571.17,570.64,570.20,569.98,569.84,569.75,569.66,569.43,569.00,568.48,567.98,567.62,567.78,568.18,568.67,569.15,569.68,570.19,570.62,570.96,571.20,571.61,572.10,572.64,573.37,573.82,574.11,574.33,574.56,574.78,575.01,575.22,575.38,575.53,575.69,575.85,576.01,576.17,576.26,576.38,576.53,576.69,576.84,576.94,577.06,577.20,577.32,577.76,578.28,578.76,579.15,579.49,579.85,580.10,580.10,580.07,579.92,579.61,579.17,578.69,578.18,577.69,577.22,576.70,576.17,575.79,575.45,575.07,574.69,574.29,574.17,574.31,574.47,574.63,574.78,574.95,575.13,575.29,575.51,575.78,576.09,576.45,576.74,576.78,576.62,576.36,576.00,575.94,576.08,576.26,576.28,576.28,576.25,576.21,576.29,576.50,576.63,576.74,576.89,577.05,577.14,577.11,576.95,576.70,576.41,576.11,575.83,575.57,575.28,575.13,575.04,574.97,574.89,574.75,574.44,574.01,573.65,573.52,573.43,573.36,573.28,573.21,573.10,572.74,572.10,571.46,570.80,570.14,569.71,569.78,569.76,569.39,568.82,568.13,567.25,565.83,564.21,562.41,559.85,555.56,551.87,549.74,549.58,549.44,549.58,549.83,551.21,556.47,560.15
554.30,555.22,556.11,557.05,558.24,559.65,561.37,563.47,565.61,567.54,569.10,570.21,570.66,571.06,571.45,571.61,571.26,570.49,569.51,568.49,567.47,566.43,565.52,564.69,564.11,564.17,564.89,565.73,566.59,567.46,568.30,568.93,569.17,569.08,568.85,568.71,568.86,569.21,569.65,570.25,570.85,571.46,572.08,572.55,572.72,572.87,572.97,572.80,572.08,571.18,570.27,569.29,568.00,566.67,565.21,563.71,562.58,562.56,562.91,563.33,563.72,564.16,564.58,564.98,565.36,565.75,566.16,566.51,566.79,566.98,566.85,566.49,566.04,565.58,565.14,564.56,564.13,563.88,563.66,563.26,562.84,562.48,562.24,562.12,562.15,562.26,562.42,562.58,562.73,563.12,563.74,564.50,565.31,566.08,566.84,567.61,568.38,569.11,569.94,570.73,571.07,571.31,571.25,571.05,570.94,571.08,570.82,570.31,569.72,569.36,569.16,569.02,568.91,568.83,568.70,568.37,567.89,567.38,567.00,567.23,567.70,568.23,568.69,569.13,569.52,569.84,570.05,570.20,570.64,571.29,572.01,572.76,573.14,573.37,573.55,573.79,574.02,574.25,574.48,574.67,574.83,575.02,575.23,575.44,575.64,575.73,575.86,576.01,576.17,576.32,576.46,576.57,576.71,577.00,577.49,577.94,578.32,578.65,578.96,579.25,579.43,579.42,579.38,579.24,579.04,578.74,578.27,577.75,577.22,576.71,576.22,575.68,575.35,575.05,574.71,574.33,573.94,573.82,573.94,574.10,574.29,574.47,574.64,574.84,574.99,575.17,575.37,575.57,575.81,576.06,576.19,576.14,575.86,575.58,575.51,575.63,575.82,575.83,575.83,575.79,575.76,575.89,576.07,576.18,576.29,576.44,576.60,576.69,576.68,576.54,576.26,576.00,575.72,575.41,575.13,574.82,574.60,574.46,574.39,574.31,574.29,574.11,573.73,573.32,573.10,572.98,572.90,572.83,572.75,572.67,572.47,572.07,571.42,570.86,570.29,569.50,568.31,567.83,567.34,566.78,566.14,565.26,563.86,562.55,561.34,559.46,554.73,551.29,549.64,549.42,549.35,549.55,549.77,551.07,556.36,560.15
553.13,554.02,554.91,555.88,557.07,558.25,559.67,561.48,563.51,565.50,567.36,568.88,569.70,570.41,570.88,571.09,570.93,570.29,569.35,568.28,567.18,566.08,565.12,564.25,563.64,563.64,564.39,565.25,566.10,566.94,567.78,568.23,568.35,568.23,568.02,567.99,568.18,568.50,568.85,569.30,569.81,570.41,571.05,571.46,571.74,572.03,572.29,572.37,571.95,571.22,570.36,569.38,568.02,566.52,564.84,563.15,561.93,561.77,562.03,562.42,562.82,563.27,563.74,564.21,564.65,565.03,565.42,565.72,565.91,565.93,565.54,565.08,564.61,564.17,563.79,563.35,562.95,562.66,562.50,562.25,561.91,561.58,561.39,561.31,561.36,561.49,561.65,561.87,562.21,562.83,563.64,564.51,565.34,566.13,566.91,567.71,568.48,569.21,569.96,570.62,570.86,571.09,571.04,570.83,570.61,570.47,570.19,569.73,569.16,568.80,568.53,568.30,568.12,568.00,567.91,567.67,567.28,566.80,566.46,566.75,567.24,567.73,568.17,568.54,568.87,569.13,569.26,569.46,569.93,570.62,571.44,572.12,572.43,572.62,572.80,573.01,573.24,573.48,573.71,573.93,574.11,574.32,574.56,574.84,575.11,575.24,575.36,575.50,575.65,575.80,575.96,576.10,576.28,576.68,577.13,577.50,577.79,578.07,578.38,578.64,578.78,578.77,578.70,578.52,578.35,578.14,577.77,577.28,576.75,576.23,575.76,575.23,574.89,574.64,574.38,574.00,573.63,573.46,573.48,573.62,573.81,574.00,574.19,574.39,574.57,574.74,574.90,575.07,575.24,575.45,575.64,575.66,575.38,575.14,575.08,575.18,575.39,575.38,575.38,575.34,575.32,575.47,575.63,575.73,575.83,575.98,576.14,576.24,576.24,576.12,575.82,575.55,575.26,574.96,574.65,574.33,574.08,573.90,573.80,573.73,573.76,573.68,573.43,573.01,572.69,572.51,572.42,572.34,572.26,572.19,572.08,571.87,571.34,570.86,570.38,569.49,567.78,566.98,566.26,565.51,564.75,563.89,562.71,561.65,560.76,559.28,554.09,550.79,549.53,549.27,549.26,549.52,550.06,551.78,556.84,560.34
551.90,552.82,553.74,554.71,555.91,557.09,558.31,559.71,561.46,563.33,565.12,566.78,568.26,569.53,570.22,570.52,570.57,570.07,569.04,567.87,566.75,565.73,564.79,563.87,563.16,563.08,563.86,564.72,565.57,566.42,567.23,567.49,567.50,567.38,567.19,567.28,567.54,567.87,568.27,568.73,569.21,569.67,570.10,570.55,570.98,571.40,571.72,571.72,571.61,571.13,570.42,569.44,567.88,566.02,564.07,562.30,561.29,561.01,561.11,561.40,561.80,562.26,562.75,563.27,563.80,564.18,564.58,564.88,564.98,564.72,564.17,563.65,563.18,562.74,562.41,562.09,561.76,561.45,561.29,561.13,560.92,560.71,560.57,560.49,560.58,560.74,560.93,561.28,561.97,562.80,563.66,564.56,565.36,566.14,566.94,567.76,568.54,569.31,569.94,570.39,570.62,570.84,570.82,570.64,570.41,570.18,569.81,569.37,568.90,568.47,568.05,567.70,567.41,567.20,567.08,566.93,566.64,566.22,565.98,566.28,566.75,567.20,567.59,567.92,568.22,568.46,568.61,569.01,569.48,570.11,570.89,571.43,571.67,571.87,572.07,572.25,572.47,572.70,572.92,573.16,573.38,573.58,573.86,574.24,574.57,574.76,574.87,574.98,575.13,575.28,575.44,575.62,575.88,576.31,576.66,576.94,577.18,577.43,577.73,577.99,578.13,578.12,578.04,577.80,577.57,577.40,577.20,576.80,576.30,575.78,575.30,574.77,574.41,574.18,574.03,573.68,573.35,573.10,572.97,573.04,573.19,573.38,573.58,573.75,573.97,574.15,574.34,574.54,574.71,574.91,575.11,575.15,574.92,574.68,574.63,574.75,574.98,574.94,574.93,574.88,574.87,575.02,575.16,575.27,575.38,575.53,575.68,575.78,575.79,575.67,575.36,575.05,574.75,574.44,574.13,573.82,573.57,573.36,573.23,573.15,573.13,573.16,573.11,572.72,572.30,572.04,571.90,571.83,571.75,571.67,571.59,571.46,571.18,570.76,570.34,569.63,568.26,567.35,566.28,565.14,564.10,563.25,562.47,561.66,560.80,559.37,553.79,550.50,549.41,549.15,549.18,549.49,550.58,553.13,557.80,560.69
550.52,551.62,552.53,553.53,554.74,555.92,557.11,558.38,559.76,561.25,562.86,564.52,566.09,567.56,568.67,569.46,569.83,569.43,568.55,567.48,566.35,565.35,564.41,563.48,562.73,562.56,563.29,564.15,565.02,565.87,566.52,566.64,566.59,566.49,566.36,566.58,566.91,567.30,567.75,568.25,568.76,569.23,569.65,570.03,570.43,570.82,571.07,571.03,571.04,570.81,570.29,569.23,567.12,565.15,563.18,561.46,560.66,560.40,560.34,560.47,560.89,561.47,562.12,562.62,562.95,563.25,563.69,564.03,564.07,563.57,562.88,562.28,561.74,561.26,560.94,560.71,560.53,560.38,560.23,560.16,560.08,559.99,559.89,559.85,559.96,560.16,560.49,561.13,561.93,562.81,563.70,564.58,565.41,566.19,566.98,567.78,568.55,569.32,569.96,570.38,570.53,570.66,570.65,570.50,570.26,569.99,569.27,568.65,568.35,568.07,567.75,567.38,566.99,566.63,566.35,566.15,565.94,565.64,565.46,565.77,566.22,566.63,567.00,567.33,567.58,567.81,568.11,568.59,569.11,569.68,570.29,570.69,570.93,571.13,571.31,571.51,571.70,571.91,572.15,572.38,572.62,572.93,573.37,573.83,574.08,574.25,574.38,574.50,574.62,574.76,574.92,575.13,575.41,575.73,576.04,576.31,576.54,576.78,577.08,577.34,577.50,577.51,577.36,577.08,576.82,576.64,576.52,576.28,575.84,575.31,574.80,574.31,573.94,573.72,573.57,573.33,573.03,572.79,572.63,572.54,572.61,572.77,572.96,573.15,573.34,573.54,573.73,573.92,574.12,574.27,574.50,574.63,574.40,574.17,574.17,574.34,574.55,574.53,574.49,574.45,574.46,574.57,574.67,574.79,574.92,575.07,575.18,575.30,575.38,575.30,574.92,574.60,574.29,573.98,573.67,573.36,573.07,572.84,572.70,572.57,572.50,572.60,572.70,572.39,572.00,571.66,571.44,571.37,571.28,571.21,571.11,570.96,570.72,570.38,570.00,569.37,568.15,567.08,565.90,564.74,563.75,563.06,562.41,561.73,560.98,559.62,554.19,550.70,549.32,549.03,549.06,549.40,550.73,553.63,558.26,560.92
549.13,550.16,551.21,552.35,553.59,554.79,555.98,557.16,558.31,559.52,560.88,562.32,563.73,565.26,566.62,567.76,568.50,568.49,567.81,566.79,565.71,564.87,563.97,563.03,562.24,562.00,562.71,563.57,564.45,565.31,565.76,565.79,565.71,565.64,565.61,565.97,566.39,566.84,567.33,567.87,568.41,568.90,569.32,569.63,569.97,570.26,570.41,570.35,570.37,570.21,569.73,568.58,566.11,563.94,562.03,560.55,559.99,559.76,559.67,559.78,560.23,560.88,561.48,561.86,562.03,562.31,562.78,563.12,563.09,562.42,561.68,561.06,560.55,560.14,559.87,559.71,559.63,559.58,559.44,559.39,559.36,559.34,559.38,559.48,559.62,559.89,560.38,561.19,562.00,562.85,563.70,564.51,565.36,566.15,566.92,567.67,568.44,569.20,569.85,570.30,570.39,570.49,570.47,570.35,570.11,569.70,568.68,567.86,567.56,567.37,567.15,566.83,566.42,566.02,565.69,565.47,565.26,565.01,564.92,565.24,565.65,566.04,566.42,566.73,566.97,567.25,567.70,568.25,568.80,569.34,569.77,570.04,570.25,570.42,570.59,570.77,570.95,571.15,571.38,571.64,571.97,572.44,572.96,573.41,573.57,573.73,573.88,574.02,574.12,574.25,574.40,574.61,574.89,575.13,575.41,575.66,575.89,576.13,576.43,576.69,576.86,576.86,576.66,576.37,576.10,575.90,575.81,575.67,575.33,574.85,574.31,573.84,573.48,573.23,573.09,572.93,572.69,572.48,572.31,572.10,572.08,572.18,572.34,572.54,572.72,572.92,573.11,573.26,573.42,573.65,573.94,574.12,573.89,573.69,573.74,573.91,574.10,574.11,574.07,574.03,574.03,574.09,574.18,574.32,574.46,574.59,574.69,574.82,574.94,574.94,574.54,574.17,573.83,573.52,573.21,572.90,572.60,572.34,572.17,572.00,571.89,572.01,572.21,572.07,571.71,571.32,571.02,570.91,570.81,570.71,570.58,570.40,570.18,569.91,569.57,568.98,567.82,566.66,565.45,564.35,563.51,562.94,562.36,561.75,561.09,559.84,554.75,551.05,549.27,548.90,548.90,549.27,550.56,553.46,558.46,561.10
547.91,548.43,549.75,551.14,552.48,553.73,554.91,556.01,557.12,558.31,559.36,560.29,561.39,562.83,564.12,565.30,566.42,567.21,566.69,565.64,564.64,564.23,563.42,562.47,561.64,561.36,562.11,562.98,563.89,564.73,564.97,564.94,564.87,564.84,565.01,565.48,566.00,566.53,567.07,567.61,568.15,568.62,568.99,569.30,569.55,569.69,569.74,569.65,569.59,569.26,568.61,567.36,564.93,562.41,560.59,559.60,559.25,559.06,559.13,559.40,559.88,560.47,560.75,560.87,561.01,561.38,561.83,562.13,562.03,561.29,560.60,560.10,559.77,559.57,559.40,559.29,559.21,559.13,558.98,558.90,558.79,558.79,559.06,559.39,559.60,559.97,560.64,561.40,562.13,562.85,563.57,564.30,565.13,565.93,566.68,567.41,568.17,568.89,569.55,570.03,570.13,570.27,570.28,570.17,569.90,569.23,568.05,567.04,566.52,566.27,566.04,565.80,565.54,565.29,565.09,564.88,564.61,564.33,564.37,564.68,565.07,565.46,565.83,566.10,566.42,566.84,567.38,567.98,568.58,569.07,569.37,569.54,569.66,569.78,569.92,570.03,570.23,570.41,570.63,570.99,571.54,572.13,572.60,572.89,573.05,573.21,573.36,573.51,573.65,573.75,573.88,574.07,574.31,574.55,574.78,575.02,575.25,575.49,575.79,576.04,576.19,576.16,575.94,575.65,575.38,575.18,575.09,574.95,574.73,574.38,573.86,573.39,572.99,572.73,572.63,572.48,572.32,572.16,571.98,571.76,571.63,571.63,571.74,571.91,572.13,572.30,572.45,572.57,572.60,573.10,573.50,573.60,573.39,573.27,573.31,573.46,573.64,573.66,573.65,573.61,573.56,573.59,573.71,573.86,573.99,574.09,574.23,574.32,574.47,574.57,574.26,573.78,573.38,573.07,572.76,572.45,572.14,571.87,571.65,571.43,571.32,571.40,571.63,571.75,571.40,570.99,570.66,570.45,570.30,570.16,569.98,569.76,569.60,569.37,569.08,568.52,567.37,566.20,565.00,564.01,563.37,562.82,562.27,561.68,561.06,559.98,555.33,551.46,549.28,548.78,548.72,549.08,550.05,552.59,558.39,561.22
548.72,548.16,548.38,549.76,551.38,552.71,553.93,555.17,556.34,557.38,558.32,559.15,559.91,560.82,561.93,563.17,564.48,565.65,565.06,563.79,562.75,562.98,562.63,561.87,561.05,560.76,561.48,562.46,563.39,564.03,564.10,564.05,563.99,564.06,564.46,565.08,565.69,566.27,566.81,567.35,567.89,568.33,568.66,568.91,568.94,568.84,568.68,568.50,568.44,567.89,567.10,566.03,563.99,561.55,559.88,559.11,558.66,558.49,558.65,558.99,559.38,559.81,559.95,559.94,559.99,560.40,560.89,561.20,561.12,560.46,559.99,559.62,559.34,559.14,558.95,558.85,558.76,558.68,558.57,558.45,558.33,558.37,558.69,559.06,559.35,559.71,560.26,560.90,561.62,562.34,563.03,563.74,564.57,565.42,566.26,567.03,567.76,568.50,569.15,569.63,569.80,570.00,570.08,569.93,569.40,568.47,567.37,566.30,565.44,565.18,564.94,564.71,564.49,564.30,564.11,563.88,563.69,563.63,563.81,564.12,564.49,564.87,565.25,565.58,566.05,566.62,567.21,567.87,568.40,568.77,568.98,569.13,569.23,569.35,569.47,569.52,569.65,569.80,570.08,570.58,571.18,571.77,572.17,572.38,572.53,572.69,572.84,573.00,573.15,573.27,573.42,573.59,573.78,574.01,574.25,574.48,574.71,574.94,575.21,575.45,575.56,575.44,575.18,574.88,574.61,574.41,574.33,574.23,574.09,573.85,573.39,572.89,572.50,572.25,572.13,572.02,571.99,571.80,571.51,571.37,571.26,571.18,571.19,571.31,571.49,571.66,571.75,571.82,572.07,572.68,573.08,573.13,572.92,572.83,572.89,573.06,573.25,573.26,573.23,573.16,573.11,573.12,573.21,573.35,573.49,573.61,573.72,573.81,573.98,574.16,573.97,573.50,573.01,572.60,572.25,571.94,571.63,571.37,571.18,570.95,570.77,570.79,571.00,571.22,571.02,570.59,570.17,569.95,569.78,569.60,569.40,569.22,569.06,568.84,568.57,568.03,566.90,565.71,564.67,563.84,563.23,562.68,562.14,561.59,561.00,559.98,555.66,551.68,549.23,548.68,548.51,548.89,549.64,551.85,558.16,561.15
549.91,548.51,547.58,548.40,550.36,551.83,553.10,554.40,555.57,556.50,557.40,558.24,558.81,559.30,560.19,561.34,562.62,564.00,563.53,562.15,560.99,561.62,561.63,561.07,560.35,560.10,560.91,562.01,562.89,563.26,563.22,563.14,563.14,563.33,563.91,564.64,565.32,565.93,566.50,567.08,567.62,568.00,568.20,568.30,568.12,567.85,567.54,567.26,567.20,566.54,565.65,564.66,563.02,560.89,559.45,558.77,558.18,557.98,558.16,558.49,558.80,559.11,559.19,559.12,559.08,559.50,559.99,560.27,560.22,559.75,559.55,559.28,559.00,558.77,558.54,558.40,558.31,558.24,558.15,558.01,557.91,557.98,558.30,558.67,559.02,559.35,559.73,560.22,560.93,561.67,562.38,563.10,563.94,564.85,565.75,566.59,567.33,568.08,568.72,569.18,569.40,569.51,569.50,569.25,568.52,567.46,566.48,565.46,564.47,564.10,563.85,563.63,563.42,563.24,563.06,562.90,562.85,562.98,563.27,563.59,563.94,564.32,564.75,565.21,565.81,566.48,567.10,567.75,568.17,568.44,568.60,568.75,568.84,568.95,569.06,569.08,569.13,569.29,569.63,570.23,570.86,571.38,571.71,571.86,572.01,572.17,572.32,572.48,572.65,572.81,572.95,573.11,573.29,573.52,573.73,573.96,574.19,574.42,574.65,574.86,574.92,574.72,574.43,574.13,573.85,573.63,573.56,573.48,573.39,573.25,572.90,572.40,572.03,571.79,571.65,571.63,571.66,571.45,571.08,570.94,570.84,570.72,570.65,570.72,570.84,570.95,571.00,571.10,571.61,572.27,572.63,572.67,572.49,572.39,572.47,572.65,572.84,572.85,572.77,572.71,572.67,572.67,572.73,572.85,573.00,573.13,573.23,573.31,573.49,573.72,573.68,573.24,572.70,572.19,571.78,571.45,571.13,570.88,570.69,570.47,570.23,570.18,570.35,570.55,570.46,570.07,569.65,569.45,569.27,569.05,568.85,568.68,568.53,568.32,568.06,567.54,566.44,565.25,564.38,563.71,563.12,562.56,562.01,561.48,560.92,559.92,555.66,551.65,549.17,548.60,548.30,548.72,549.35,551.33,557.88,561.02
550.85,549.38,547.91,547.18,549.46,551.22,552.51,553.66,554.64,555.57,556.49,557.36,558.02,558.56,559.21,559.95,560.86,562.29,562.41,561.32,559.93,560.36,560.33,559.91,559.40,559.30,560.47,561.68,562.37,562.38,562.30,562.24,562.34,562.70,563.37,564.08,564.77,565.45,566.12,566.79,567.31,567.55,567.49,567.26,566.97,566.71,566.42,566.09,565.98,565.44,564.51,563.26,561.88,560.32,559.19,558.50,557.85,557.51,557.57,557.85,558.15,558.46,558.53,558.46,558.41,558.73,559.12,559.31,559.28,559.14,559.15,558.95,558.67,558.44,558.21,558.00,557.86,557.78,557.70,557.56,557.49,557.59,557.91,558.29,558.66,558.98,559.24,559.55,560.22,560.99,561.73,562.45,563.34,564.26,565.18,566.08,566.91,567.65,568.24,568.65,568.83,568.56,568.15,567.66,567.04,566.12,565.19,564.38,563.72,563.06,562.79,562.59,562.37,562.17,562.11,562.17,562.28,562.46,562.75,563.11,563.46,563.85,564.43,565.07,565.74,566.41,567.01,567.52,567.84,568.05,568.21,568.36,568.45,568.53,568.62,568.67,568.70,568.93,569.34,569.86,570.51,570.94,571.19,571.34,571.50,571.65,571.81,571.98,572.19,572.36,572.46,572.61,572.83,573.06,573.24,573.44,573.67,573.90,574.13,574.28,574.23,573.95,573.70,573.41,573.11,572.86,572.77,572.69,572.62,572.53,572.36,571.93,571.57,571.33,571.23,571.33,571.37,571.15,570.77,570.45,570.28,570.17,570.11,570.13,570.15,570.13,570.19,570.48,571.13,571.82,572.15,572.18,572.08,572.00,572.05,572.19,572.38,572.39,572.28,572.24,572.28,572.28,572.29,572.39,572.53,572.63,572.76,572.86,573.01,573.24,573.38,572.98,572.44,571.90,571.40,571.01,570.68,570.40,570.18,569.94,569.66,569.57,569.65,569.68,569.56,569.36,569.15,568.98,568.77,568.53,568.31,568.11,567.94,567.78,567.57,567.09,566.00,564.90,564.17,563.60,563.04,562.44,561.88,561.35,560.80,559.80,555.12,551.26,549.10,548.52,548.13,548.56,549.24,551.22,557.60,560.82
551.35,549.86,548.27,547.13,548.48,550.28,551.77,552.79,553.73,554.63,555.53,556.42,557.15,557.60,557.96,558.43,559.24,560.58,561.19,560.62,559.28,558.91,558.60,558.28,558.19,558.72,559.95,561.02,561.55,561.48,561.40,561.42,561.64,562.11,562.80,563.53,564.24,564.95,565.70,566.50,566.75,566.70,566.47,566.17,565.86,565.57,565.28,564.95,564.74,564.25,563.39,562.18,560.88,559.79,558.93,558.25,557.60,557.07,556.99,557.20,557.50,557.77,557.84,557.79,557.74,557.97,558.33,558.44,558.38,558.36,558.45,558.41,558.28,558.11,557.85,557.61,557.43,557.33,557.24,557.14,557.10,557.20,557.52,557.90,558.25,558.55,558.78,559.03,559.58,560.28,561.05,561.85,562.75,563.68,564.59,565.48,566.37,567.19,567.75,567.94,567.72,567.26,566.72,566.16,565.60,564.72,563.85,563.12,562.54,561.98,561.72,561.55,561.43,561.40,561.47,561.60,561.75,561.94,562.27,562.62,563.02,563.54,564.24,564.97,565.68,566.34,566.88,567.26,567.49,567.66,567.82,567.97,568.06,568.13,568.21,568.24,568.28,568.61,569.06,569.50,570.02,570.44,570.70,570.83,571.02,571.18,571.34,571.52,571.73,571.86,571.98,572.13,572.32,572.55,572.75,572.97,573.18,573.34,573.52,573.64,573.59,573.30,572.92,572.65,572.39,572.13,572.04,571.93,571.84,571.77,571.66,571.42,571.09,570.88,570.88,571.06,571.10,570.88,570.52,570.22,569.94,569.74,569.63,569.60,569.59,569.65,569.83,570.17,570.78,571.43,571.71,571.72,571.64,571.61,571.62,571.76,571.98,571.99,571.87,571.82,571.85,571.85,571.85,571.92,572.03,572.15,572.26,572.38,572.55,572.79,572.97,572.66,572.18,571.64,571.11,570.63,570.22,569.86,569.54,569.16,568.99,568.98,569.04,569.03,568.93,568.79,568.64,568.48,568.29,568.07,567.84,567.61,567.42,567.22,567.03,566.59,565.57,564.70,564.04,563.48,562.93,562.36,561.77,561.21,560.63,559.41,554.29,550.71,549.01,548.37,547.99,548.42,549.13,551.10,557.27,560.55
551.68,550.18,548.59,547.32,547.61,549.37,551.06,551.99,552.91,553.79,554.68,555.53,556.13,556.37,556.47,556.73,557.40,558.50,559.52,559.55,558.52,557.37,556.84,556.74,557.12,558.21,559.40,560.25,560.64,560.58,560.53,560.65,561.00,561.55,562.28,563.07,563.83,564.58,565.37,566.12,566.03,565.69,565.38,565.06,564.75,564.45,564.14,563.83,563.50,563.02,562.28,561.20,560.04,559.31,558.67,558.01,557.37,556.69,556.44,556.55,556.84,557.07,557.13,557.09,557.06,557.20,557.51,557.59,557.49,557.52,557.65,557.75,557.79,557.70,557.47,557.23,557.03,556.89,556.80,556.71,556.69,556.81,557.13,557.49,557.81,558.08,558.32,558.58,559.02,559.65,560.42,561.27,562.18,563.12,564.03,564.92,565.85,566.74,567.19,567.06,566.44,565.86,565.26,564.69,564.15,563.29,562.46,561.75,561.23,560.90,560.69,560.59,560.62,560.77,560.92,561.08,561.23,561.43,561.80,562.17,562.67,563.33,564.10,564.87,565.61,566.24,566.68,566.94,567.12,567.27,567.43,567.58,567.67,567.74,567.77,567.78,567.90,568.29,568.77,569.15,569.54,569.96,570.22,570.34,570.56,570.73,570.88,571.06,571.26,571.36,571.49,571.64,571.81,572.03,572.27,572.49,572.66,572.75,572.89,572.99,572.96,572.69,572.16,571.88,571.65,571.41,571.31,571.18,571.08,571.00,570.91,570.83,570.58,570.43,570.51,570.68,570.72,570.54,570.24,570.01,569.67,569.39,569.20,569.12,569.11,569.29,569.58,569.93,570.44,571.02,571.27,571.27,571.21,571.19,571.20,571.33,571.57,571.57,571.45,571.38,571.38,571.38,571.38,571.44,571.54,571.67,571.75,571.89,572.08,572.32,572.52,572.35,571.93,571.40,570.88,570.36,569.87,569.41,568.96,568.43,568.34,568.39,568.45,568.45,568.38,568.26,568.12,567.96,567.81,567.59,567.37,567.13,566.90,566.67,566.47,566.09,565.20,564.55,563.93,563.35,562.79,562.24,561.63,561.04,560.28,558.45,553.20,550.10,548.87,548.17,547.85,548.32,549.06,551.00,556.97,560.23
551.89,550.41,548.76,547.18,547.12,548.82,550.54,551.47,552.40,553.31,554.20,554.82,554.66,554.53,554.52,554.62,554.81,555.29,556.53,557.31,557.00,555.68,555.44,555.86,556.65,557.74,558.85,559.46,559.71,559.75,559.75,559.96,560.40,561.06,561.95,562.84,563.73,564.62,565.38,565.51,565.10,564.63,564.27,563.96,563.65,563.35,563.03,562.71,562.30,561.82,561.15,560.25,559.54,558.96,558.40,557.80,557.12,556.43,555.99,555.90,556.19,556.37,556.41,556.38,556.33,556.42,556.61,556.67,556.67,556.73,556.82,556.95,557.05,557.09,557.09,556.91,556.68,556.49,556.35,556.26,556.27,556.42,556.73,557.05,557.32,557.56,557.82,558.17,558.67,559.26,559.95,560.76,561.66,562.63,563.62,564.59,565.58,566.32,566.41,565.88,565.15,564.47,563.84,563.25,562.67,561.84,560.95,560.27,559.91,559.82,559.82,559.92,560.10,560.25,560.40,560.56,560.71,560.91,561.28,561.85,562.50,563.20,563.97,564.74,565.51,566.10,566.32,566.55,566.73,566.88,567.04,567.19,567.28,567.29,567.25,567.29,567.57,568.00,568.44,568.83,569.21,569.51,569.72,569.88,570.11,570.28,570.43,570.59,570.75,570.89,571.00,571.12,571.29,571.51,571.75,571.91,572.01,572.10,572.24,572.34,572.33,572.08,571.46,571.09,570.86,570.68,570.55,570.44,570.36,570.27,570.13,570.05,570.02,570.00,569.97,570.00,570.01,569.93,569.81,569.69,569.45,569.16,568.90,568.73,568.72,568.94,569.28,569.64,570.01,570.47,570.75,570.83,570.81,570.75,570.78,570.92,571.11,571.06,570.98,570.94,570.94,570.94,570.94,570.99,571.07,571.16,571.24,571.37,571.56,571.81,572.07,572.03,571.69,571.24,570.81,570.34,569.83,569.28,568.69,568.05,567.82,567.82,567.87,567.87,567.80,567.71,567.60,567.44,567.29,567.07,566.84,566.61,566.38,566.15,565.92,565.59,564.97,564.40,563.80,563.19,562.59,561.99,561.37,560.76,559.47,555.92,551.63,549.45,548.61,547.94,547.75,548.29,549.06,550.96,556.74,559.89
552.09,550.65,549.02,547.22,546.61,548.05,549.82,550.97,551.89,552.78,553.42,553.62,553.13,552.72,552.51,552.36,552.17,552.32,553.37,554.34,554.67,554.29,554.55,555.22,556.11,557.18,558.20,558.67,558.85,558.95,559.00,559.34,559.94,560.77,561.84,562.84,563.79,564.58,564.98,564.66,564.10,563.59,563.22,562.90,562.60,562.27,561.93,561.61,561.20,560.75,560.18,559.50,558.98,558.50,558.00,557.44,556.85,556.20,555.63,555.35,555.54,555.67,555.69,555.66,555.61,555.65,555.75,555.82,555.88,555.95,556.02,556.13,556.24,556.32,556.42,556.38,556.27,556.13,555.94,555.82,555.85,556.03,556.33,556.61,556.88,557.19,557.59,558.08,558.61,559.18,559.80,560.57,561.50,562.49,563.50,564.49,565.40,565.74,565.51,564.91,564.20,563.48,562.77,562.09,561.39,560.66,559.97,559.41,559.08,558.94,559.00,559.16,559.37,559.59,559.78,560.00,560.21,560.45,560.96,561.64,562.39,563.17,563.98,564.78,565.39,565.78,565.94,566.16,566.34,566.49,566.64,566.76,566.82,566.79,566.75,566.86,567.23,567.66,568.07,568.45,568.81,569.06,569.25,569.42,569.62,569.81,569.98,570.12,570.24,570.39,570.51,570.63,570.77,571.00,571.17,571.28,571.36,571.45,571.59,571.69,571.70,571.48,570.81,570.35,570.04,569.84,569.72,569.70,569.69,569.66,569.59,569.57,569.63,569.64,569.58,569.57,569.57,569.53,569.44,569.32,569.10,568.85,568.59,568.40,568.41,568.65,568.99,569.33,569.64,569.96,570.18,570.30,570.33,570.29,570.34,570.48,570.65,570.60,570.54,570.52,570.52,570.52,570.52,570.55,570.61,570.68,570.73,570.88,571.09,571.32,571.50,571.48,571.27,570.98,570.65,570.27,569.77,569.19,568.52,567.84,567.38,567.23,567.28,567.28,567.21,567.13,567.04,566.93,566.81,566.60,566.37,566.14,565.91,565.67,565.42,565.12,564.69,564.11,563.47,562.83,562.21,561.59,560.98,559.24,556.29,552.89,550.24,548.91,548.23,547.62,547.71,548.36,549.15,551.04,556.75,559.69
552.29,550.89,549.30,547.36,546.13,547.23,549.01,550.42,551.36,552.15,552.45,552.22,551.63,551.05,550.66,550.31,549.92,549.95,550.73,551.65,552.46,553.17,553.91,554.67,555.53,556.57,557.50,557.88,558.03,558.19,558.35,558.82,559.55,560.53,561.76,562.91,563.86,564.41,564.32,563.70,563.06,562.55,562.18,561.87,561.56,561.21,560.87,560.58,560.22,559.80,559.34,558.87,558.40,557.99,557.51,556.99,556.51,555.93,555.29,554.87,554.90,554.96,554.98,554.95,554.90,554.90,554.95,555.02,555.09,555.16,555.24,555.32,555.40,555.50,555.63,555.72,555.76,555.72,555.54,555.38,555.42,555.63,555.94,556.23,556.54,556.98,557.53,558.13,558.68,559.22,559.81,560.54,561.47,562.46,563.46,564.41,565.15,565.03,564.57,564.00,563.37,562.65,561.89,561.11,560.31,559.66,559.18,558.78,558.42,558.13,558.18,558.34,558.55,558.87,559.14,559.44,559.76,560.13,560.80,561.56,562.37,563.21,564.05,564.83,565.22,565.38,565.55,565.77,565.95,566.11,566.24,566.30,566.31,566.27,566.27,566.47,566.88,567.30,567.69,568.06,568.36,568.61,568.80,568.95,569.12,569.33,569.50,569.64,569.74,569.87,570.03,570.14,570.25,570.45,570.56,570.63,570.71,570.80,570.94,571.05,571.07,570.89,570.22,569.70,569.30,569.04,568.99,569.04,569.11,569.16,569.18,569.24,569.31,569.31,569.25,569.25,569.25,569.20,569.10,568.95,568.73,568.49,568.25,568.07,568.14,568.39,568.70,569.02,569.31,569.50,569.64,569.76,569.83,569.85,569.90,570.02,570.17,570.12,570.10,570.10,570.10,570.10,570.10,570.10,570.12,570.18,570.20,570.38,570.61,570.79,570.85,570.81,570.73,570.61,570.38,570.10,569.65,569.08,568.40,567.70,567.02,566.70,566.71,566.71,566.64,566.55,566.48,566.39,566.32,566.14,565.91,565.67,565.44,565.21,564.93,564.64,564.36,563.77,563.09,562.40,561.77,561.14,560.19,557.02,552.52,550.15,549.11,548.42,547.79,547.33,547.73,548.48,549.35,551.30,556.79,559.48
552.48,551.09,549.53,547.58,545.80,546.52,548.17,549.64,550.77,551.31,551.26,550.81,550.32,549.87,549.55,549.30,549.14,549.45,550.21,551.08,551.91,552.68,553.40,554.15,554.98,555.93,556.76,557.06,557.21,557.47,557.94,558.56,559.27,560.17,561.52,562.89,563.71,563.89,563.40,562.73,562.05,561.51,561.14,560.83,560.52,560.20,559.93,559.77,559.52,559.20,558.80,558.35,557.88,557.43,556.94,556.41,555.95,555.45,554.94,554.50,554.27,554.27,554.27,554.26,554.25,554.24,554.21,554.24,554.30,554.32,554.39,554.51,554.63,554.71,554.80,554.93,555.02,555.07,555.06,554.93,554.97,555.20,555.58,556.03,556.51,557.05,557.64,558.20,558.74,559.28,559.87,560.58,561.39,562.30,563.27,564.14,564.44,564.11,563.59,563.03,562.42,561.82,561.11,560.35,559.63,558.94,558.40,557.97,557.63,557.30,557.30,557.46,557.74,558.16,558.56,558.99,559.50,560.15,560.90,561.71,562.55,563.40,564.21,564.63,564.84,565.00,565.16,565.38,565.56,565.71,565.83,565.80,565.79,565.75,565.78,566.12,566.51,566.94,567.35,567.66,567.92,568.15,568.35,568.50,568.65,568.83,568.99,569.14,569.27,569.37,569.51,569.63,569.72,569.83,569.91,569.99,570.07,570.15,570.29,570.39,570.44,570.33,569.84,569.36,568.91,568.59,568.62,568.69,568.77,568.84,568.90,568.97,569.01,568.99,568.93,568.92,568.92,568.85,568.72,568.62,568.40,568.13,567.86,567.70,567.86,568.14,568.44,568.75,569.05,569.19,569.28,569.37,569.45,569.50,569.54,569.57,569.60,569.54,569.52,569.52,569.52,569.52,569.52,569.52,569.52,569.55,569.61,569.84,570.05,570.13,570.10,570.07,570.02,569.93,569.81,569.63,569.35,568.91,568.26,567.57,566.88,566.37,566.14,566.17,566.07,565.97,565.89,565.82,565.74,565.63,565.43,565.16,564.92,564.69,564.42,564.13,563.87,563.50,562.85,562.10,561.39,560.68,558.19,554.21,550.26,549.23,548.58,547.94,547.38,547.20,547.90,548.70,549.83,552.05,556.57,559.00
552.59,551.24,549.77,547.95,546.02,546.04,547.18,548.66,549.77,550.26,550.17,549.73,549.30,548.94,548.66,548.50,548.54,549.10,549.89,550.70,551.45,552.19,552.90,553.63,554.44,555.31,555.99,556.34,556.64,557.07,557.71,558.39,559.09,559.91,561.16,562.57,563.25,563.13,562.34,561.60,561.00,560.53,560.19,559.91,559.63,559.39,559.21,559.12,558.94,558.66,558.28,557.83,557.36,556.87,556.37,555.87,555.40,554.94,554.48,554.04,553.70,553.61,553.59,553.59,553.59,553.59,553.50,553.48,553.52,553.53,553.59,553.70,553.82,553.92,554.00,554.11,554.23,554.33,554.40,554.42,554.59,554.93,555.39,555.92,556.47,557.03,557.61,558.14,558.68,559.17,559.64,560.18,560.88,561.77,562.75,563.61,563.86,563.40,562.77,562.14,561.53,560.98,560.31,559.61,558.96,558.27,557.67,557.19,556.84,556.61,556.84,557.22,557.63,558.13,558.60,559.08,559.64,560.33,561.04,561.86,562.71,563.50,564.07,564.30,564.45,564.61,564.77,564.93,565.11,565.29,565.39,565.33,565.29,565.28,565.40,565.79,566.17,566.59,566.96,567.23,567.47,567.70,567.89,568.05,568.20,568.33,568.47,568.63,568.77,568.86,568.97,569.07,569.14,569.23,569.30,569.38,569.46,569.54,569.65,569.75,569.82,569.80,569.44,569.00,568.53,568.20,568.28,568.37,568.44,568.52,568.60,568.68,568.70,568.68,568.64,568.60,568.57,568.47,568.34,568.25,568.04,567.77,567.52,567.40,567.62,567.89,568.18,568.49,568.78,568.88,568.94,569.02,569.09,569.14,569.18,569.17,569.09,568.97,568.93,568.93,568.93,568.93,568.93,568.93,568.93,568.95,569.05,569.29,569.49,569.56,569.52,569.49,569.43,569.35,569.27,569.12,568.94,568.60,568.05,567.40,566.73,566.13,565.69,565.63,565.52,565.43,565.34,565.24,565.15,565.10,564.93,564.64,564.40,564.15,563.87,563.61,563.37,563.10,562.59,561.91,561.14,560.32,557.00,552.85,549.44,548.77,548.12,547.45,547.03,547.22,548.08,548.95,550.33,552.61,555.68,557.69
552.65,551.38,550.02,548.38,546.56,545.75,546.15,547.53,548.46,549.05,549.13,548.83,548.47,548.14,547.88,547.79,548.03,548.80,549.64,550.39,551.04,551.73,552.42,553.15,553.94,554.72,555.26,555.74,556.26,556.88,557.57,558.26,558.95,559.72,560.75,562.07,562.63,562.33,561.30,560.50,560.01,559.64,559.34,559.09,558.86,558.72,558.63,558.54,558.40,558.14,557.76,557.30,556.84,556.32,555.82,555.35,554.88,554.43,553.98,553.55,553.20,553.01,552.96,552.96,552.96,552.94,552.82,552.75,552.73,552.75,552.81,552.89,553.00,553.13,553.22,553.30,553.42,553.59,553.71,553.92,554.29,554.76,555.29,555.82,556.37,556.91,557.45,557.98,558.50,558.91,559.22,559.55,560.22,561.13,562.11,562.99,563.32,562.82,562.07,561.34,560.71,560.13,559.48,558.82,558.25,557.58,556.95,556.43,556.08,556.10,556.70,557.37,557.97,558.52,559.00,559.51,560.04,560.61,561.22,562.00,562.81,563.47,563.72,563.89,564.04,564.19,564.33,564.44,564.65,564.84,564.93,564.87,564.79,564.85,565.07,565.45,565.84,566.22,566.55,566.78,567.01,567.24,567.42,567.59,567.73,567.83,567.95,568.11,568.25,568.33,568.40,568.49,568.57,568.64,568.72,568.80,568.87,568.95,569.03,569.12,569.23,569.30,569.03,568.61,568.14,567.82,567.95,568.05,568.13,568.20,568.27,568.35,568.37,568.37,568.35,568.28,568.21,568.09,567.96,567.86,567.65,567.42,567.22,567.14,567.40,567.66,567.92,568.23,568.51,568.57,568.62,568.70,568.76,568.78,568.83,568.80,568.63,568.41,568.36,568.36,568.36,568.36,568.36,568.36,568.36,568.38,568.52,568.74,568.93,569.05,569.05,568.99,568.91,568.83,568.75,568.60,568.45,568.21,567.79,567.18,566.56,565.91,565.34,565.09,564.98,564.90,564.79,564.66,564.58,564.56,564.42,564.14,563.88,563.59,563.33,563.09,562.85,562.61,562.27,561.74,560.98,560.02,556.50,552.55,549.56,548.65,547.81,547.08,546.78,547.25,548.15,549.07,550.57,552.65,554.26,555.79
552.84,551.57,550.27,548.77,547.06,545.74,545.40,546.15,546.91,547.65,548.00,547.94,547.67,547.36,547.11,547.16,547.77,548.60,549.45,550.21,550.88,551.52,552.16,552.85,553.55,554.23,554.81,555.42,556.07,556.75,557.44,558.09,558.76,559.49,560.37,561.59,562.19,561.93,560.79,559.93,559.44,559.07,558.71,558.38,558.22,558.13,558.05,557.96,557.87,557.62,557.25,556.78,556.32,555.79,555.29,554.84,554.37,553.96,553.55,553.16,552.83,552.52,552.40,552.37,552.36,552.30,552.16,552.03,551.95,551.96,552.04,552.11,552.19,552.30,552.43,552.51,552.69,552.98,553.32,553.66,554.09,554.55,555.05,555.58,556.12,556.66,557.20,557.68,558.08,558.42,558.75,559.19,559.99,560.91,561.84,562.58,562.64,562.16,561.47,560.71,559.99,559.28,558.55,557.87,557.31,556.68,556.10,555.65,555.52,556.01,556.78,557.55,558.27,558.96,559.50,559.96,560.43,560.98,561.54,562.24,562.79,563.10,563.23,563.38,563.50,563.62,563.78,563.96,564.25,564.45,564.42,564.35,564.27,564.38,564.68,565.06,565.45,565.80,566.10,566.33,566.56,566.75,566.92,567.07,567.22,567.31,567.43,567.59,567.72,567.76,567.83,567.90,567.98,568.05,568.13,568.21,568.28,568.37,568.44,568.59,568.76,568.85,568.63,568.22,567.75,567.42,567.57,567.74,567.83,567.87,567.95,568.03,568.05,568.05,568.04,567.96,567.84,567.73,567.62,567.48,567.31,567.10,566.91,566.88,567.15,567.40,567.67,567.96,568.20,568.25,568.30,568.37,568.44,568.45,568.50,568.44,568.16,567.84,567.76,567.76,567.76,567.76,567.76,567.76,567.76,567.80,567.99,568.22,568.41,568.53,568.53,568.47,568.39,568.31,568.23,568.08,567.97,567.81,567.52,566.93,566.31,565.68,565.06,564.55,564.39,564.32,564.23,564.13,564.06,564.04,563.94,563.71,563.38,563.06,562.80,562.56,562.28,562.04,561.77,561.40,560.81,559.75,556.68,553.13,550.20,549.02,548.08,547.22,546.71,546.96,547.73,548.51,549.58,550.96,552.21,553.39
553.68,552.34,550.86,549.21,547.61,546.12,545.22,545.17,545.58,546.32,546.85,547.01,546.78,546.50,546.45,546.77,547.56,548.40,549.25,550.02,550.70,551.32,551.94,552.59,553.23,553.84,554.50,555.21,555.93,556.64,557.31,557.96,558.63,559.34,560.09,561.18,561.77,561.56,560.48,559.68,559.18,558.76,558.32,557.92,557.67,557.53,557.46,557.38,557.30,557.09,556.73,556.26,555.80,555.27,554.77,554.32,553.89,553.52,553.14,552.78,552.46,552.08,551.89,551.79,551.73,551.65,551.51,551.34,551.20,551.19,551.23,551.31,551.43,551.58,551.78,551.97,552.25,552.63,553.06,553.48,553.90,554.35,554.83,555.36,555.90,556.41,556.88,557.30,557.72,558.13,558.58,559.13,559.94,560.80,561.57,562.03,561.85,561.39,560.75,559.98,559.23,558.41,557.62,556.91,556.31,555.72,555.23,555.03,555.28,556.03,556.87,557.67,558.44,559.19,559.79,560.25,560.70,561.21,561.67,562.14,562.46,562.60,562.68,562.80,562.91,563.05,563.28,563.58,563.88,564.02,563.94,563.87,563.81,563.98,564.33,564.71,565.07,565.38,565.64,565.87,566.10,566.25,566.39,566.55,566.70,566.79,566.91,567.06,567.17,567.18,567.24,567.32,567.39,567.47,567.55,567.63,567.71,567.78,567.88,568.09,568.30,568.37,568.17,567.80,567.36,567.04,567.21,567.41,567.52,567.59,567.66,567.71,567.72,567.71,567.68,567.60,567.46,567.35,567.25,567.10,566.94,566.74,566.58,566.61,566.89,567.14,567.41,567.69,567.89,567.93,567.97,568.04,568.09,568.12,568.14,568.01,567.67,567.33,567.18,567.16,567.18,567.18,567.16,567.15,567.15,567.19,567.42,567.66,567.88,568.04,568.02,567.95,567.87,567.78,567.68,567.55,567.45,567.33,567.13,566.64,566.05,565.43,564.80,564.17,563.89,563.77,563.69,563.61,563.54,563.52,563.44,563.25,562.93,562.57,562.27,562.00,561.72,561.49,561.25,560.97,560.50,559.44,556.63,553.43,550.74,549.44,548.50,547.63,546.95,546.73,546.93,547.50,548.36,549.41,550.33,551.20
554.94,553.55,551.78,549.68,548.16,546.76,545.53,544.70,544.60,545.11,545.70,546.04,545.81,545.61,545.92,546.56,547.35,548.19,549.04,549.82,550.51,551.13,551.74,552.36,552.95,553.53,554.27,555.04,555.80,556.54,557.19,557.87,558.57,559.25,559.92,560.86,561.37,561.19,560.31,559.65,559.15,558.65,558.14,557.68,557.24,556.99,556.88,556.80,556.73,556.54,556.21,555.75,555.27,554.76,554.27,553.83,553.45,553.12,552.76,552.40,552.08,551.70,551.43,551.24,551.10,551.01,550.87,550.68,550.50,550.44,550.44,550.54,550.74,550.99,551.29,551.64,552.05,552.48,552.88,553.33,553.74,554.16,554.63,555.16,555.70,556.18,556.59,556.94,557.49,558.07,558.67,559.28,559.96,560.70,561.24,561.32,560.98,560.50,559.84,559.07,558.37,557.52,556.71,555.97,555.30,554.75,554.43,554.62,555.32,556.08,556.90,557.70,558.48,559.22,559.85,560.34,560.79,561.22,561.55,561.72,561.87,562.01,562.09,562.17,562.31,562.53,562.85,563.28,563.51,563.56,563.48,563.40,563.39,563.61,564.00,564.37,564.68,564.94,565.18,565.42,565.64,565.76,565.88,566.03,566.18,566.27,566.39,566.52,566.59,566.60,566.66,566.74,566.81,566.88,566.97,567.04,567.12,567.20,567.36,567.61,567.83,567.86,567.66,567.36,566.97,566.66,566.87,567.04,567.19,567.32,567.38,567.40,567.40,567.37,567.29,567.21,567.08,566.96,566.86,566.72,566.56,566.36,566.23,566.34,566.63,566.88,567.15,567.43,567.57,567.60,567.65,567.70,567.71,567.78,567.75,567.54,567.17,566.86,566.61,566.54,566.59,566.58,566.53,566.50,566.51,566.56,566.83,567.08,567.35,567.56,567.51,567.43,567.35,567.25,567.12,567.02,566.89,566.77,566.64,566.33,565.79,565.17,564.55,563.94,563.47,563.26,563.17,563.10,563.02,563.00,562.92,562.75,562.51,562.10,561.73,561.44,561.20,560.96,560.72,560.45,560.02,559.02,556.35,553.47,551.16,549.90,549.03,548.25,547.47,546.75,546.15,546.34,547.12,548.17,548.75,549.38
555.47,554.56,552.93,550.16,548.54,547.17,545.97,545.06,544.56,544.32,544.60,545.07,544.87,544.94,545.48,546.25,547.03,547.88,548.73,549.56,550.31,550.93,551.51,552.07,552.65,553.26,554.01,554.79,555.56,556.32,557.04,557.75,558.47,559.18,559.82,560.59,561.06,560.97,560.22,559.63,559.11,558.58,558.06,557.59,557.08,556.65,556.34,556.23,556.19,556.02,555.69,555.22,554.71,554.25,553.83,553.43,553.10,552.74,552.39,552.05,551.69,551.30,551.00,550.75,550.56,550.43,550.28,550.11,549.96,549.89,549.88,550.02,550.30,550.68,551.04,551.46,551.88,552.30,552.74,553.15,553.58,554.01,554.43,554.91,555.45,555.99,556.50,556.98,557.57,558.15,558.72,559.29,559.84,560.43,560.77,560.62,560.19,559.42,558.53,557.68,557.08,556.46,555.77,555.04,554.33,553.82,554.02,554.61,555.36,556.05,556.78,557.54,558.30,559.00,559.60,559.99,560.32,560.66,560.93,561.09,561.23,561.38,561.50,561.59,561.80,562.14,562.56,563.02,563.14,563.09,562.96,562.85,562.94,563.23,563.61,563.98,564.21,564.44,564.71,565.00,565.15,565.28,565.40,565.51,565.66,565.75,565.84,565.94,566.01,566.07,566.10,566.14,566.23,566.30,566.38,566.46,566.53,566.63,566.86,567.15,567.38,567.40,567.19,566.94,566.58,566.28,566.49,566.69,566.87,567.00,567.07,567.08,567.08,567.04,566.96,566.83,566.72,566.60,566.48,566.37,566.23,566.02,565.92,566.08,566.37,566.66,566.93,567.16,567.25,567.28,567.32,567.38,567.38,567.45,567.35,567.08,566.71,566.39,566.07,565.93,565.95,565.94,565.92,565.91,565.93,566.01,566.25,566.53,566.81,567.01,567.03,566.93,566.83,566.74,566.59,566.50,566.37,566.25,566.14,565.94,565.49,564.91,564.29,563.68,563.11,562.80,562.65,562.58,562.50,562.44,562.37,562.25,562.05,561.68,561.27,560.91,560.68,560.40,560.12,559.82,559.35,558.15,556.01,553.76,551.86,550.73,549.89,549.12,548.39,547.73,547.04,546.20,546.17,547.10,547.82,548.41
555.68,555.05,553.58,550.64,548.89,547.53,546.42,545.59,544.89,544.19,544.03,544.23,544.10,544.41,545.11,545.94,546.74,547.56,548.40,549.25,550.05,550.68,551.25,551.80,552.36,553.00,553.75,554.53,555.30,556.07,556.85,557.55,558.29,559.03,559.70,560.37,560.78,560.73,560.12,559.57,559.05,558.52,557.99,557.50,556.99,556.45,555.99,555.75,555.65,555.49,555.17,554.70,554.19,553.79,553.42,553.05,552.74,552.36,552.02,551.69,551.30,550.94,550.60,550.31,550.10,549.94,549.81,549.66,549.53,549.47,549.50,549.67,549.99,550.42,550.83,551.27,551.69,552.11,552.55,552.96,553.40,553.86,554.30,554.78,555.31,555.88,556.48,557.03,557.63,558.19,558.71,559.18,559.51,559.81,559.89,559.57,559.02,558.07,557.06,556.20,555.66,555.18,554.60,553.96,553.41,553.25,553.83,554.62,555.36,556.01,556.71,557.47,558.20,558.83,559.31,559.61,559.85,560.11,560.32,560.47,560.59,560.73,560.89,561.08,561.40,561.83,562.29,562.68,562.72,562.59,562.44,562.33,562.53,562.87,563.23,563.51,563.70,563.93,564.22,564.52,564.64,564.78,564.90,565.00,565.14,565.17,565.22,565.29,565.37,565.45,565.49,565.53,565.61,565.69,565.79,565.88,565.97,566.10,566.39,566.70,566.92,566.94,566.74,566.51,566.18,565.88,566.10,566.33,566.53,566.67,566.74,566.75,566.73,566.69,566.60,566.45,566.36,566.24,566.10,566.02,565.89,565.70,565.63,565.84,566.12,566.42,566.69,566.88,566.94,566.95,567.00,567.05,567.06,567.11,566.92,566.61,566.25,565.91,565.56,565.37,565.33,565.33,565.33,565.33,565.36,565.46,565.70,565.98,566.25,566.47,566.53,566.42,566.30,566.18,566.04,565.93,565.79,565.66,565.55,565.41,565.13,564.65,564.04,563.42,562.80,562.38,562.16,562.06,561.98,561.90,561.82,561.70,561.57,561.28,560.87,560.43,560.13,559.80,559.49,559.16,558.60,557.22,555.70,554.10,552.61,551.61,550.78,550.06,549.45,548.94,548.22,546.62,545.79,546.28,547.05,547.68
555.68,555.01,553.64,551.14,549.28,547.90,546.88,546.17,545.46,544.74,544.07,543.57,543.54,544.02,544.78,545.63,546.45,547.24,548.08,548.92,549.72,550.36,550.97,551.53,552.10,552.74,553.50,554.27,555.04,555.82,556.58,557.29,558.03,558.81,559.55,560.18,560.50,560.44,559.96,559.44,558.95,558.45,557.91,557.38,556.90,556.38,555.86,555.39,555.14,554.95,554.65,554.19,553.74,553.38,553.03,552.66,552.34,551.98,551.63,551.30,550.93,550.60,550.24,549.93,549.72,549.57,549.46,549.34,549.21,549.16,549.27,549.47,549.77,550.17,550.62,551.03,551.46,551.90,552.31,552.76,553.23,553.71,554.24,554.77,555.31,555.89,556.49,557.03,557.62,558.12,558.55,558.88,558.91,558.79,558.54,558.11,557.38,556.43,555.50,554.71,554.17,553.69,553.20,552.75,552.58,553.13,553.82,554.56,555.32,556.01,556.76,557.53,558.23,558.74,559.04,559.28,559.48,559.65,559.82,559.92,560.00,560.11,560.29,560.67,561.11,561.57,562.00,562.26,562.22,562.07,561.93,561.88,562.16,562.53,562.84,562.96,563.17,563.45,563.74,563.95,564.11,564.26,564.38,564.48,564.60,564.51,564.50,564.57,564.65,564.73,564.80,564.88,564.96,565.04,565.17,565.28,565.40,565.63,565.93,566.24,566.46,566.49,566.28,566.05,565.75,565.50,565.71,565.94,566.16,566.35,566.42,566.43,566.38,566.30,566.21,566.06,565.96,565.85,565.72,565.63,565.55,565.38,565.34,565.62,565.87,566.16,566.43,566.61,566.62,566.63,566.67,566.72,566.72,566.72,566.46,566.11,565.78,565.41,565.08,564.86,564.75,564.75,564.74,564.74,564.77,564.88,565.17,565.42,565.69,565.94,566.00,565.89,565.74,565.59,565.44,565.29,565.14,564.99,564.86,564.76,564.72,564.38,563.79,563.16,562.54,562.04,561.70,561.55,561.46,561.38,561.27,561.14,561.04,560.88,560.50,560.02,559.58,559.19,558.85,558.48,557.82,556.38,555.45,554.46,553.34,552.47,551.63,551.01,550.55,550.13,549.36,547.49,546.05,545.76,546.39,547.08
555.68,555.07,553.89,551.66,549.70,548.37,547.44,546.73,545.89,544.99,544.02,543.22,543.13,543.67,544.43,545.25,546.09,546.87,547.70,548.52,549.32,550.06,550.67,551.23,551.80,552.48,553.24,554.01,554.78,555.55,556.28,557.05,557.83,558.62,559.39,559.89,560.08,560.02,559.72,559.28,558.82,558.35,557.84,557.31,556.79,556.29,555.78,555.26,554.87,554.52,554.15,553.74,553.37,553.01,552.66,552.32,551.96,551.63,551.27,550.92,550.58,550.23,549.92,549.65,549.44,549.28,549.15,549.01,548.89,548.88,549.01,549.25,549.56,549.92,550.37,550.81,551.23,551.68,552.20,552.71,553.22,553.73,554.23,554.76,555.34,555.92,556.50,557.07,557.45,557.68,557.82,557.90,557.85,557.54,557.12,556.60,555.73,554.81,553.96,553.22,552.67,552.20,551.98,552.00,552.34,553.14,553.88,554.60,555.36,556.07,556.82,557.55,558.13,558.48,558.73,558.93,559.09,559.21,559.40,559.50,559.58,559.70,559.96,560.38,560.85,561.31,561.71,561.76,561.65,561.50,561.38,561.45,561.77,562.11,562.34,562.44,562.69,563.05,563.32,563.38,563.53,563.72,563.86,563.96,564.07,563.82,563.73,563.81,563.88,563.96,564.07,564.18,564.25,564.33,564.47,564.61,564.79,565.11,565.47,565.79,565.99,565.98,565.77,565.58,565.34,565.15,565.33,565.55,565.78,566.00,566.13,566.11,566.05,565.95,565.83,565.72,565.60,565.48,565.37,565.25,565.17,565.05,565.08,565.37,565.61,565.90,566.15,566.30,566.30,566.30,566.35,566.40,566.38,566.26,565.98,565.63,565.28,564.94,564.59,564.31,564.16,564.16,564.12,564.10,564.15,564.30,564.59,564.84,565.09,565.31,565.38,565.23,565.05,564.91,564.79,564.65,564.49,564.34,564.19,564.07,564.12,563.98,563.57,562.96,562.34,561.76,561.31,561.09,560.95,560.86,560.75,560.60,560.48,560.33,560.08,559.73,559.26,558.79,558.33,557.84,557.20,556.22,555.51,554.76,553.91,553.15,552.39,551.77,551.23,550.70,550.01,548.40,546.73,545.69,545.97,546.67
555.71,555.18,554.15,552.11,550.09,548.79,547.86,547.02,546.06,545.00,543.88,542.95,542.83,543.41,544.16,544.95,545.77,546.55,547.37,548.17,548.95,549.74,550.35,550.89,551.49,552.21,552.98,553.75,554.52,555.29,556.03,556.85,557.67,558.46,559.18,559.51,559.59,559.53,559.34,559.03,558.63,558.20,557.76,557.24,556.70,556.20,555.72,555.19,554.69,554.23,553.78,553.37,553.03,552.67,552.33,551.99,551.63,551.29,550.94,550.59,550.26,549.91,549.65,549.42,549.20,549.02,548.85,548.69,548.60,548.69,548.87,549.12,549.42,549.75,550.17,550.64,551.10,551.56,552.15,552.72,553.25,553.76,554.25,554.79,555.37,555.91,556.37,556.75,556.91,556.90,556.81,556.73,556.65,556.23,555.69,555.09,554.09,553.17,552.37,551.73,551.37,551.06,551.11,551.51,552.26,553.16,553.93,554.67,555.43,556.15,556.86,557.48,557.94,558.17,558.38,558.55,558.66,558.78,559.00,559.12,559.20,559.36,559.70,560.13,560.54,560.92,561.22,561.18,561.07,560.94,560.85,561.06,561.37,561.64,561.81,561.95,562.26,562.65,562.87,562.83,562.93,563.17,563.34,563.42,563.48,563.11,562.98,563.05,563.13,563.21,563.33,563.43,563.52,563.64,563.82,563.98,564.18,564.56,564.95,565.30,565.51,565.49,565.28,565.09,564.92,564.82,564.97,565.19,565.42,565.65,565.84,565.78,565.69,565.59,565.45,565.36,565.22,565.11,565.01,564.87,564.78,564.73,564.81,565.11,565.35,565.64,565.87,565.98,565.98,565.98,566.01,566.05,566.02,565.82,565.50,565.14,564.76,564.43,564.07,563.77,563.58,563.55,563.50,563.48,563.53,563.71,563.99,564.25,564.50,564.72,564.79,564.57,564.36,564.22,564.12,563.97,563.82,563.67,563.51,563.39,563.48,563.51,563.32,562.73,562.12,561.50,560.97,560.64,560.46,560.37,560.25,560.11,559.97,559.80,559.63,559.38,558.97,558.51,558.00,557.42,556.81,556.21,555.61,554.96,554.26,553.55,552.87,552.23,551.61,551.00,550.39,549.11,547.42,545.87,545.66,546.28
555.77,555.30,554.37,552.42,550.42,549.08,547.99,546.89,545.82,544.75,543.62,542.71,542.64,543.26,544.03,544.81,545.59,546.36,547.13,547.91,548.66,549.37,550.00,550.57,551.18,551.95,552.72,553.50,554.27,555.05,555.88,556.72,557.57,558.34,558.87,559.05,559.04,558.94,558.78,558.60,558.30,557.98,557.62,557.16,556.63,556.13,555.65,555.11,554.58,554.10,553.61,553.12,552.73,552.40,552.05,551.68,551.36,550.99,550.65,550.31,549.96,549.69,549.46,549.23,549.00,548.77,548.55,548.37,548.33,548.61,548.90,549.15,549.42,549.74,550.08,550.56,551.09,551.61,552.17,552.76,553.29,553.78,554.31,554.85,555.38,555.79,555.98,555.88,555.81,555.71,555.58,555.50,555.42,554.93,554.29,553.59,552.50,551.50,550.74,550.33,550.38,550.51,550.76,551.28,552.24,553.16,553.97,554.74,555.50,556.25,556.85,557.30,557.62,557.84,558.01,558.12,558.23,558.39,558.61,558.72,558.84,559.06,559.48,559.88,560.15,560.33,560.44,560.50,560.50,560.42,560.37,560.69,560.96,561.13,561.25,561.50,561.91,562.22,562.35,562.29,562.31,562.60,562.82,562.87,562.79,562.40,562.26,562.34,562.41,562.49,562.58,562.66,562.77,562.98,563.25,563.43,563.59,563.98,564.36,564.75,565.01,565.03,564.83,564.60,564.48,564.49,564.64,564.86,565.10,565.33,565.51,565.40,565.31,565.20,565.06,564.97,564.84,564.73,564.63,564.48,564.39,564.40,564.56,564.85,565.09,565.38,565.58,565.65,565.65,565.65,565.66,565.67,565.63,565.44,565.05,564.63,564.24,563.86,563.53,563.22,562.98,562.91,562.90,562.89,562.95,563.12,563.35,563.64,563.93,564.20,564.32,563.99,563.72,563.56,563.41,563.26,563.11,562.95,562.81,562.73,562.83,562.97,562.94,562.45,561.86,561.24,560.67,560.21,560.01,559.92,559.80,559.66,559.56,559.37,559.14,558.91,558.65,558.38,557.92,557.36,556.75,556.20,555.65,555.02,554.31,553.56,552.92,552.29,551.68,551.07,550.51,549.45,547.94,546.28,545.47,545.88
555.80,555.35,554.52,552.73,550.83,549.36,548.06,546.80,545.59,544.49,543.36,542.49,542.57,543.23,543.98,544.72,545.50,546.27,546.94,547.59,548.24,548.89,549.59,550.25,550.93,551.73,552.51,553.31,554.13,554.94,555.75,556.59,557.42,558.12,558.46,558.55,558.46,558.31,558.20,558.05,557.84,557.59,557.30,556.92,556.48,556.02,555.55,555.04,554.51,554.02,553.52,553.00,552.57,552.17,551.78,551.41,551.10,550.72,550.38,550.08,549.78,549.55,549.28,549.03,548.80,548.57,548.34,548.15,548.14,548.49,548.84,549.14,549.42,549.75,550.14,550.61,551.13,551.67,552.22,552.79,553.29,553.78,554.31,554.77,555.11,555.28,555.23,554.93,554.67,554.50,554.39,554.27,554.19,553.63,552.88,552.11,551.08,550.36,549.90,549.71,549.87,550.13,550.55,551.23,552.23,553.16,554.00,554.80,555.56,556.23,556.67,557.00,557.28,557.47,557.63,557.73,557.83,558.00,558.18,558.31,558.49,558.77,559.13,559.41,559.63,559.78,559.82,559.89,559.91,559.90,559.95,560.30,560.50,560.61,560.75,561.09,561.56,561.77,561.78,561.72,561.72,562.01,562.27,562.33,562.14,561.69,561.52,561.58,561.64,561.73,561.83,561.97,562.15,562.42,562.69,562.86,563.01,563.39,563.74,564.25,564.63,564.58,564.37,564.14,564.06,564.17,564.36,564.59,564.83,565.04,565.19,565.07,564.94,564.83,564.71,564.59,564.48,564.36,564.25,564.14,564.05,564.11,564.29,564.60,564.87,565.14,565.30,565.33,565.33,565.33,565.33,565.33,565.31,565.13,564.69,564.17,563.72,563.33,563.01,562.68,562.39,562.32,562.31,562.31,562.37,562.54,562.75,563.01,563.32,563.65,563.84,563.51,563.15,562.90,562.71,562.55,562.42,562.29,562.15,562.08,562.18,562.34,562.40,562.16,561.60,561.01,560.44,559.94,559.60,559.49,559.40,559.25,559.13,558.91,558.68,558.46,558.27,558.04,557.71,557.28,556.73,556.15,555.61,555.01,554.34,553.62,552.98,552.36,551.74,551.13,550.54,549.56,548.10,546.40,545.34,545.51
555.83,555.39,554.65,553.08,551.26,549.67,548.21,546.83,545.51,544.34,543.17,542.31,542.51,543.19,543.90,544.58,545.31,546.04,546.63,547.17,547.75,548.40,549.16,549.92,550.70,551.54,552.33,553.16,554.01,554.85,555.64,556.47,557.24,557.83,558.01,558.04,557.90,557.71,557.61,557.46,557.31,557.13,556.89,556.61,556.26,555.84,555.39,554.93,554.43,553.94,553.45,552.93,552.45,551.98,551.54,551.15,550.84,550.46,550.13,549.86,549.63,549.38,549.10,548.84,548.60,548.37,548.13,547.94,547.95,548.34,548.73,549.06,549.37,549.72,550.16,550.68,551.22,551.75,552.28,552.79,553.27,553.74,554.18,554.51,554.61,554.57,554.38,554.00,553.62,553.37,553.22,553.06,552.93,552.31,551.52,550.78,549.95,549.52,549.33,549.31,549.48,549.78,550.35,551.16,552.19,553.15,554.04,554.86,555.57,556.11,556.40,556.67,556.92,557.08,557.23,557.34,557.44,557.60,557.75,557.92,558.14,558.43,558.71,558.89,559.08,559.24,559.29,559.35,559.38,559.42,559.55,559.88,560.01,560.10,560.27,560.66,561.14,561.26,561.19,561.13,561.13,561.43,561.71,561.78,561.50,561.01,560.79,560.79,560.87,560.98,561.13,561.33,561.59,561.89,562.12,562.26,562.42,562.81,563.17,563.80,564.24,564.12,563.91,563.69,563.67,563.86,564.10,564.32,564.54,564.75,564.86,564.73,564.58,564.46,564.36,564.23,564.13,564.01,563.88,563.79,563.73,563.83,564.05,564.35,564.65,564.89,565.00,564.99,565.00,565.00,565.00,565.00,564.99,564.86,564.38,563.80,563.28,562.84,562.50,562.14,561.83,561.74,561.71,561.72,561.77,561.93,562.15,562.40,562.72,563.10,563.38,563.05,562.63,562.27,562.02,561.85,561.74,561.63,561.50,561.43,561.53,561.69,561.80,561.75,561.29,560.79,560.29,559.76,559.26,559.10,559.00,558.86,558.70,558.48,558.25,558.04,557.86,557.65,557.42,557.11,556.65,556.09,555.54,554.97,554.36,553.67,553.04,552.42,551.81,551.19,550.57,549.61,548.17,546.45,545.26,545.26
