481.83,481.94,482.01,482.07,482.10,482.10,482.13,482.19,482.20,482.20,482.24,482.29,482.32,482.46,482.60,482.78,483.00,483.17,483.37,483.51,483.59,483.68,483.70,483.74,483.82,483.88,483.89,483.95,484.03,484.09,484.11,484.18,484.34,484.54,484.70,484.86,485.06,485.28,485.50,485.73,485.91,486.07,486.23,486.39,486.54,486.70,486.88,487.09,487.25,487.41,487.60,487.81,487.98,488.19,488.41,488.63,488.80,489.02,489.20,489.38,489.59,489.75,489.85,489.93,490.00,490.09,490.17,490.24,490.32,490.40,490.48,490.56,490.67,490.82,490.98,491.17,491.32,491.42,491.56,491.64,491.73,491.81,491.90,491.98,492.17,492.37,492.52,492.67,492.77,492.89,493.03,493.12,493.26,493.40,493.53,493.62,493.77,493.87,493.99,494.14,494.30,494.51,494.70,494.85,495.00,495.16,495.26,495.37,495.52,495.65,495.75,495.82,495.88,495.89,495.90,495.86,495.81,495.82,495.89,495.96,496.04,496.12,496.21,496.35,496.45,496.53,496.61,496.69,496.81,496.94,497.03,497.18,497.27,497.39,497.52,497.62,497.75,497.85,497.93,498.02,498.17,498.26,498.34,498.42,498.50,498.64,498.75,498.86,499.01,499.16,499.31,499.50,499.72,499.88,500.02,500.14,500.22,500.28,500.23,500.10,499.99,499.92,499.91,499.97,500.04,500.12,500.19,500.21,500.26,500.35,500.43,500.50,500.62,500.73,500.81,500.89,500.97,501.05,501.15,501.28,501.38,501.50,501.63,501.71,501.79,501.93,502.04,502.13,502.27,502.37,502.45,502.55,502.69,502.78,502.91,503.03,503.11,503.20,503.33,503.43,503.52,503.65,503.68,503.73,503.78,503.79,503.80,503.85,503.89,503.89,503.90,503.90,503.95,503.99,504.00,504.00,504.05,504.09,504.11,504.17,504.19,504.28,504.46,504.70,505.00,505.39,505.63,505.46,505.17,504.87,504.60,504.35,504.05,503.81,503.59,503.57,504.01,504.54,504.92,505.19,505.41,505.56,505.73,505.93,506.13,506.29,506.45,506.65,506.85,507.02,507.24,507.42,507.59,507.75,507.97,508.21
481.77,481.85,481.87,481.90,481.95,481.97,481.98,482.01,482.06,482.06,482.08,482.13,482.24,482.43,482.60,482.76,482.95,483.15,483.26,483.34,483.41,483.49,483.50,483.55,483.62,483.69,483.70,483.75,483.83,483.91,484.02,484.14,484.33,484.55,484.75,484.91,485.12,485.33,485.52,485.75,485.96,486.14,486.30,486.51,486.67,486.82,486.99,487.16,487.32,487.51,487.71,487.89,488.10,488.28,488.49,488.71,488.92,489.10,489.30,489.50,489.67,489.83,489.93,490.00,490.08,490.15,490.24,490.31,490.40,490.52,490.61,490.69,490.79,490.94,491.05,491.17,491.27,491.36,491.46,491.59,491.75,491.91,492.04,492.17,492.33,492.48,492.59,492.74,492.84,492.95,493.10,493.23,493.34,493.48,493.60,493.69,493.84,493.97,494.08,494.20,494.36,494.53,494.70,494.85,495.00,495.16,495.26,495.37,495.52,495.62,495.70,495.77,495.86,495.96,496.02,496.01,496.00,496.00,496.03,496.13,496.24,496.32,496.40,496.50,496.61,496.73,496.80,496.88,496.98,497.09,497.21,497.32,497.40,497.52,497.67,497.79,497.90,497.99,498.06,498.15,498.30,498.40,498.47,498.55,498.63,498.77,498.88,498.97,499.07,499.17,499.31,499.50,499.72,499.88,499.99,500.10,500.21,500.22,500.16,500.06,499.97,499.90,499.85,499.89,499.97,500.05,500.13,500.18,500.28,500.39,500.47,500.54,500.64,500.75,500.88,500.95,501.03,501.11,501.20,501.35,501.44,501.57,501.69,501.78,501.91,502.01,502.11,502.20,502.35,502.44,502.54,502.67,502.76,502.85,502.98,503.10,503.19,503.31,503.38,503.41,503.46,503.55,503.56,503.58,503.60,503.61,503.65,503.69,503.70,503.71,503.75,503.76,503.78,503.81,503.86,503.86,503.89,503.90,503.92,503.99,504.00,504.16,504.46,504.75,505.06,505.37,505.48,505.21,504.91,504.63,504.39,504.14,503.84,503.60,503.52,503.68,504.20,504.74,505.04,505.26,505.48,505.64,505.84,506.03,506.21,506.42,506.58,506.75,506.94,507.14,507.32,507.52,507.70,507.88,508.10,508.34
481.66,481.72,481.74,481.74,481.79,481.81,481.81,481.84,481.89,481.90,481.94,482.04,482.19,482.39,482.59,482.75,482.88,483.06,483.10,483.14,483.22,483.29,483.31,483.35,483.43,483.50,483.53,483.61,483.71,483.83,484.00,484.18,484.37,484.58,484.78,484.97,485.17,485.37,485.54,485.75,485.98,486.19,486.37,486.57,486.76,486.92,487.09,487.26,487.42,487.61,487.80,487.99,488.19,488.38,488.59,488.81,489.01,489.15,489.34,489.52,489.68,489.83,489.93,490.00,490.08,490.16,490.24,490.31,490.41,490.56,490.64,490.73,490.82,490.94,491.00,491.07,491.16,491.25,491.34,491.48,491.67,491.86,492.01,492.19,492.35,492.48,492.60,492.75,492.86,492.99,493.14,493.29,493.40,493.54,493.67,493.78,493.91,494.05,494.17,494.27,494.42,494.58,494.71,494.85,495.00,495.16,495.24,495.32,495.45,495.53,495.62,495.71,495.82,495.99,496.10,496.15,496.17,496.19,496.20,496.30,496.41,496.51,496.59,496.67,496.78,496.89,497.00,497.07,497.15,497.25,497.38,497.48,497.56,497.67,497.80,497.95,498.04,498.12,498.20,498.30,498.44,498.52,498.60,498.69,498.79,498.91,499.01,499.09,499.17,499.26,499.39,499.54,499.72,499.88,499.97,500.07,500.16,500.16,500.10,500.01,499.94,499.87,499.81,499.86,499.95,500.04,500.13,500.20,500.31,500.43,500.53,500.61,500.69,500.79,500.91,500.99,501.09,501.19,501.29,501.42,501.53,501.65,501.76,501.85,502.00,502.09,502.18,502.29,502.42,502.50,502.63,502.75,502.84,502.91,503.02,503.12,503.19,503.28,503.31,503.32,503.35,503.39,503.40,503.42,503.44,503.45,503.49,503.53,503.53,503.55,503.59,503.60,503.62,503.65,503.70,503.71,503.72,503.74,503.75,503.80,503.85,504.07,504.46,504.80,505.08,505.27,505.27,504.99,504.68,504.43,504.19,503.92,503.64,503.40,503.47,503.83,504.38,504.88,505.14,505.33,505.54,505.70,505.92,506.11,506.28,506.51,506.67,506.85,507.03,507.24,507.42,507.62,507.81,508.00,508.20,508.44
481.51,481.56,481.60,481.60,481.61,481.62,481.64,481.70,481.72,481.73,481.84,482.03,482.19,482.36,482.55,482.71,482.80,482.89,482.91,482.95,483.02,483.09,483.12,483.16,483.24,483.31,483.40,483.52,483.67,483.84,484.06,484.28,484.48,484.64,484.80,485.01,485.20,485.38,485.60,485.77,485.98,486.21,486.42,486.59,486.80,486.99,487.16,487.38,487.54,487.70,487.89,488.10,488.27,488.47,488.69,488.90,489.05,489.15,489.29,489.44,489.60,489.75,489.85,489.93,490.00,490.08,490.17,490.24,490.34,490.48,490.57,490.64,490.72,490.80,490.81,490.88,490.99,491.12,491.21,491.34,491.50,491.66,491.83,492.04,492.21,492.36,492.51,492.67,492.81,492.97,493.12,493.27,493.42,493.57,493.72,493.87,493.96,494.10,494.22,494.32,494.47,494.63,494.74,494.85,495.00,495.15,495.20,495.24,495.32,495.40,495.54,495.65,495.77,495.98,496.14,496.24,496.31,496.38,496.39,496.46,496.57,496.70,496.78,496.86,496.94,497.04,497.18,497.26,497.34,497.42,497.52,497.66,497.75,497.83,497.93,498.07,498.16,498.24,498.34,498.48,498.56,498.64,498.73,498.82,498.95,499.05,499.13,499.20,499.29,499.43,499.53,499.62,499.73,499.87,499.96,500.04,500.09,500.09,500.03,499.95,499.87,499.80,499.80,499.86,499.97,500.10,500.19,500.26,500.35,500.45,500.59,500.68,500.75,500.84,500.92,501.00,501.13,501.28,501.41,501.50,501.64,501.74,501.83,501.92,502.06,502.15,502.27,502.40,502.49,502.56,502.69,502.81,502.88,502.96,503.03,503.08,503.09,503.11,503.12,503.15,503.21,503.21,503.22,503.25,503.30,503.30,503.31,503.36,503.40,503.40,503.41,503.41,503.45,503.50,503.51,503.52,503.56,503.60,503.60,503.62,503.74,504.01,504.41,504.83,505.04,505.11,505.04,504.79,504.49,504.23,503.96,503.68,503.44,503.23,503.44,503.97,504.56,504.97,505.20,505.39,505.61,505.77,505.98,506.17,506.35,506.57,506.74,506.93,507.14,507.32,507.52,507.71,507.90,508.11,508.28,508.49
481.38,481.39,481.41,481.41,481.41,481.45,481.49,481.52,481.57,481.65,481.80,481.99,482.19,482.35,482.46,482.54,482.62,482.70,482.72,482.75,482.83,482.90,482.95,482.99,483.05,483.18,483.35,483.51,483.69,483.89,484.12,484.35,484.57,484.75,484.86,485.03,485.23,485.43,485.62,485.81,486.04,486.25,486.44,486.64,486.87,487.05,487.23,487.45,487.62,487.80,488.00,488.17,488.28,488.45,488.61,488.75,488.90,488.99,489.11,489.27,489.41,489.53,489.65,489.75,489.84,489.96,490.05,490.12,490.21,490.31,490.39,490.47,490.55,490.62,490.67,490.74,490.83,490.94,491.06,491.18,491.31,491.47,491.63,491.86,491.99,492.13,492.28,492.44,492.58,492.75,492.89,493.05,493.20,493.36,493.54,493.72,493.85,494.00,494.14,494.27,494.43,494.58,494.72,494.85,495.00,495.11,495.13,495.18,495.25,495.33,495.47,495.61,495.75,495.94,496.14,496.28,496.41,496.52,496.58,496.65,496.74,496.84,496.92,497.00,497.07,497.17,497.32,497.40,497.48,497.56,497.64,497.75,497.83,497.93,498.05,498.15,498.24,498.31,498.40,498.50,498.58,498.70,498.80,498.88,498.99,499.07,499.15,499.23,499.31,499.46,499.56,499.63,499.72,499.82,499.91,499.96,499.98,499.97,499.95,499.88,499.79,499.70,499.78,499.86,499.98,500.12,500.25,500.33,500.41,500.49,500.61,500.73,500.81,500.90,500.98,501.10,501.21,501.35,501.48,501.56,501.71,501.81,501.90,502.03,502.14,502.22,502.34,502.48,502.55,502.63,502.73,502.81,502.84,502.87,502.90,502.91,502.92,502.97,502.98,502.99,503.03,503.07,503.07,503.10,503.12,503.12,503.16,503.20,503.22,503.23,503.27,503.28,503.29,503.33,503.37,503.38,503.40,503.41,503.42,503.47,503.64,503.94,504.34,504.74,504.97,505.01,504.88,504.59,504.29,504.00,503.73,503.48,503.26,503.22,503.54,504.10,504.68,505.01,505.24,505.44,505.63,505.82,506.01,506.21,506.40,506.59,506.75,506.95,507.17,507.37,507.55,507.75,507.94,508.13,508.34,508.52
481.22,481.22,481.23,481.25,481.25,481.29,481.33,481.37,481.46,481.62,481.78,481.95,482.13,482.27,482.32,482.35,482.43,482.50,482.52,482.56,482.63,482.71,482.81,482.87,482.95,483.13,483.34,483.52,483.72,483.95,484.19,484.42,484.65,484.85,484.95,485.10,485.30,485.51,485.69,485.90,486.13,486.32,486.50,486.72,486.94,487.12,487.29,487.50,487.67,487.86,488.03,488.18,488.26,488.40,488.52,488.63,488.76,488.87,488.99,489.13,489.27,489.38,489.50,489.62,489.72,489.85,489.94,490.00,490.06,490.12,490.20,490.29,490.37,490.43,490.51,490.58,490.67,490.78,490.90,490.99,491.12,491.28,491.46,491.65,491.76,491.89,492.05,492.20,492.35,492.51,492.66,492.82,492.97,493.13,493.31,493.53,493.69,493.84,494.00,494.15,494.31,494.46,494.63,494.80,494.94,495.03,495.06,495.10,495.16,495.26,495.41,495.56,495.72,495.90,496.10,496.28,496.42,496.55,496.63,496.71,496.78,496.86,496.94,497.02,497.09,497.20,497.34,497.43,497.50,497.58,497.66,497.74,497.81,497.92,498.05,498.14,498.22,498.30,498.38,498.46,498.53,498.65,498.77,498.86,498.94,499.02,499.09,499.17,499.26,499.38,499.48,499.55,499.63,499.71,499.79,499.83,499.84,499.84,499.84,499.80,499.70,499.63,499.76,499.88,500.00,500.15,500.28,500.39,500.48,500.55,500.63,500.76,500.87,500.97,501.07,501.20,501.31,501.43,501.54,501.63,501.77,501.88,501.99,502.13,502.21,502.28,502.38,502.49,502.56,502.63,502.69,502.75,502.75,502.75,502.75,502.75,502.76,502.81,502.84,502.84,502.86,502.91,502.92,502.94,502.95,502.96,503.01,503.04,503.05,503.06,503.11,503.12,503.13,503.16,503.21,503.22,503.24,503.25,503.25,503.32,503.54,503.88,504.25,504.56,504.80,504.82,504.67,504.38,504.09,503.79,503.50,503.27,503.10,503.24,503.64,504.20,504.77,505.06,505.27,505.46,505.63,505.86,506.02,506.22,506.43,506.59,506.76,506.97,507.20,507.40,507.58,507.80,508.00,508.17,508.39,508.56
481.02,481.02,481.05,481.11,481.11,481.13,481.16,481.25,481.39,481.59,481.78,481.91,482.01,482.10,482.13,482.15,482.23,482.31,482.32,482.36,482.45,482.53,482.67,482.81,482.97,483.18,483.36,483.56,483.79,484.02,484.25,484.48,484.71,484.93,485.08,485.23,485.44,485.66,485.87,486.04,486.25,486.44,486.62,486.84,487.02,487.18,487.34,487.51,487.73,487.86,487.98,488.11,488.20,488.34,488.49,488.62,488.71,488.85,488.96,489.06,489.22,489.36,489.47,489.58,489.71,489.80,489.87,489.91,489.92,489.94,490.01,490.13,490.22,490.24,490.31,490.39,490.50,490.63,490.72,490.80,490.92,491.10,491.30,491.41,491.55,491.70,491.85,492.00,492.16,492.31,492.47,492.62,492.78,492.93,493.12,493.33,493.50,493.65,493.80,493.96,494.11,494.27,494.46,494.66,494.80,494.89,494.96,495.00,495.05,495.19,495.34,495.50,495.67,495.88,496.05,496.21,496.34,496.42,496.50,496.58,496.65,496.73,496.81,496.89,496.97,497.07,497.21,497.30,497.38,497.45,497.53,497.60,497.68,497.77,497.87,498.00,498.09,498.17,498.25,498.32,498.40,498.49,498.60,498.73,498.81,498.89,498.97,499.04,499.12,499.20,499.29,499.36,499.44,499.51,499.59,499.67,499.72,499.72,499.72,499.67,499.61,499.63,499.77,499.91,500.06,500.21,500.30,500.43,500.53,500.62,500.69,500.78,500.91,501.06,501.19,501.28,501.41,501.53,501.61,501.70,501.84,501.94,502.04,502.19,502.26,502.34,502.38,502.42,502.50,502.52,502.57,502.62,502.62,502.62,502.62,502.62,502.62,502.63,502.69,502.72,502.72,502.73,502.73,502.77,502.81,502.82,502.83,502.88,502.91,502.92,502.93,502.93,502.97,503.02,503.02,503.02,503.07,503.11,503.12,503.14,503.43,503.80,504.13,504.31,504.48,504.49,504.36,504.12,503.88,503.58,503.28,503.03,502.97,503.25,503.71,504.27,504.84,505.12,505.30,505.46,505.63,505.86,506.03,506.22,506.43,506.60,506.81,507.04,507.25,507.42,507.64,507.86,508.06,508.23,508.45,508.62
480.87,480.88,480.90,480.93,480.93,480.99,481.10,481.22,481.38,481.56,481.71,481.79,481.84,481.90,481.96,482.00,482.04,482.11,482.16,482.23,482.32,482.48,482.64,482.82,483.01,483.20,483.40,483.62,483.85,484.09,484.31,484.55,484.78,485.00,485.20,485.40,485.59,485.78,485.96,486.12,486.26,486.42,486.58,486.76,486.96,487.16,487.36,487.56,487.79,487.88,487.95,488.06,488.18,488.33,488.46,488.57,488.70,488.85,488.95,489.05,489.21,489.36,489.46,489.57,489.70,489.74,489.77,489.81,489.84,489.86,489.92,489.99,490.05,490.10,490.17,490.25,490.34,490.45,490.52,490.60,490.73,490.90,491.07,491.20,491.35,491.50,491.66,491.81,491.96,492.12,492.27,492.43,492.58,492.74,492.92,493.14,493.30,493.46,493.61,493.76,493.92,494.07,494.25,494.41,494.53,494.64,494.74,494.81,494.92,495.12,495.27,495.46,495.65,495.83,496.00,496.12,496.22,496.30,496.37,496.45,496.53,496.60,496.68,496.76,496.83,496.92,497.04,497.15,497.25,497.32,497.40,497.48,497.55,497.63,497.73,497.88,497.96,498.04,498.12,498.19,498.27,498.35,498.46,498.60,498.68,498.76,498.83,498.91,498.99,499.06,499.14,499.22,499.30,499.38,499.45,499.53,499.58,499.58,499.58,499.53,499.52,499.62,499.77,499.92,500.10,500.27,500.35,500.46,500.57,500.68,500.76,500.88,501.02,501.16,501.26,501.35,501.49,501.60,501.69,501.81,501.92,502.00,502.08,502.14,502.18,502.25,502.28,502.30,502.38,502.43,502.49,502.55,502.55,502.55,502.55,502.55,502.55,502.55,502.57,502.56,502.54,502.58,502.58,502.61,502.65,502.68,502.69,502.72,502.75,502.78,502.78,502.78,502.81,502.84,502.88,502.88,502.91,502.95,503.00,503.04,503.25,503.51,503.74,503.89,504.05,504.08,504.00,503.80,503.57,503.28,503.01,502.88,503.06,503.41,503.83,504.32,504.86,505.13,505.31,505.46,505.63,505.86,506.06,506.25,506.45,506.64,506.87,507.08,507.27,507.47,507.70,507.90,508.09,508.28,508.47,508.60
480.71,480.74,480.74,480.74,480.77,480.89,481.05,481.20,481.33,481.47,481.58,481.63,481.64,481.71,481.79,481.83,481.85,481.94,482.03,482.13,482.26,482.48,482.65,482.85,483.05,483.23,483.45,483.69,483.92,484.14,484.36,484.59,484.82,485.03,485.26,485.48,485.66,485.81,485.97,486.12,486.23,486.36,486.53,486.71,486.93,487.16,487.39,487.62,487.85,487.94,487.97,488.04,488.18,488.33,488.44,488.53,488.69,488.83,488.94,489.05,489.21,489.35,489.45,489.56,489.67,489.68,489.68,489.73,489.78,489.79,489.86,489.88,489.91,489.98,490.05,490.11,490.18,490.25,490.33,490.41,490.53,490.69,490.84,491.00,491.14,491.29,491.44,491.59,491.75,491.90,492.06,492.23,492.39,492.54,492.72,492.93,493.10,493.26,493.41,493.57,493.72,493.88,494.02,494.14,494.23,494.38,494.50,494.64,494.83,495.06,495.23,495.43,495.64,495.77,495.91,496.01,496.08,496.14,496.24,496.32,496.39,496.48,496.55,496.63,496.71,496.78,496.87,497.00,497.10,497.19,497.27,497.34,497.43,497.50,497.59,497.73,497.82,497.91,497.99,498.06,498.14,498.22,498.33,498.46,498.55,498.63,498.71,498.77,498.84,498.91,498.99,499.07,499.15,499.22,499.30,499.38,499.44,499.46,499.46,499.41,499.44,499.61,499.77,499.93,500.13,500.32,500.41,500.51,500.63,500.75,500.85,500.98,501.13,501.25,501.34,501.43,501.56,501.66,501.74,501.87,501.94,502.01,502.05,502.06,502.07,502.13,502.16,502.20,502.27,502.35,502.41,502.46,502.46,502.46,502.46,502.46,502.46,502.46,502.46,502.43,502.39,502.45,502.46,502.46,502.48,502.53,502.55,502.55,502.59,502.63,502.64,502.65,502.66,502.68,502.73,502.75,502.76,502.78,502.84,502.91,503.02,503.15,503.31,503.46,503.62,503.70,503.65,503.47,503.25,502.97,502.79,502.82,503.17,503.56,503.95,504.37,504.86,505.13,505.31,505.47,505.65,505.88,506.10,506.29,506.47,506.70,506.92,507.11,507.30,507.53,507.75,507.93,508.11,508.28,508.41,508.50
480.54,480.54,480.54,480.56,480.68,480.83,480.98,481.12,481.21,481.30,481.38,481.44,481.45,481.51,481.59,481.64,481.67,481.80,481.94,482.11,482.31,482.49,482.69,482.88,483.07,483.29,483.52,483.75,483.98,484.20,484.37,484.59,484.78,484.97,485.20,485.37,485.53,485.68,485.84,485.99,486.14,486.32,486.54,486.76,486.99,487.22,487.45,487.69,487.92,488.03,488.08,488.10,488.19,488.33,488.44,488.53,488.68,488.78,488.91,489.05,489.20,489.29,489.42,489.54,489.61,489.62,489.62,489.66,489.72,489.73,489.79,489.81,489.85,489.91,489.93,489.94,489.99,490.06,490.14,490.21,490.34,490.49,490.65,490.80,490.91,491.03,491.18,491.33,491.49,491.64,491.82,492.03,492.19,492.35,492.50,492.68,492.90,493.07,493.22,493.37,493.53,493.68,493.80,493.88,493.97,494.12,494.31,494.56,494.83,495.06,495.23,495.43,495.62,495.71,495.80,495.88,495.93,495.96,496.10,496.19,496.26,496.34,496.42,496.50,496.57,496.65,496.73,496.82,496.95,497.06,497.14,497.22,497.30,497.37,497.45,497.55,497.68,497.78,497.86,497.94,498.01,498.09,498.17,498.27,498.40,498.50,498.57,498.63,498.65,498.72,498.80,498.88,498.95,499.03,499.11,499.19,499.26,499.31,499.33,499.32,499.40,499.61,499.77,499.97,500.16,500.33,500.47,500.62,500.73,500.83,500.97,501.06,501.20,501.32,501.41,501.54,501.64,501.69,501.72,501.80,501.83,501.88,501.93,501.94,502.00,502.02,502.06,502.13,502.21,502.28,502.32,502.33,502.33,502.33,502.33,502.33,502.33,502.33,502.33,502.32,502.32,502.33,502.33,502.33,502.33,502.35,502.41,502.42,502.43,502.45,502.45,502.50,502.53,502.53,502.55,502.61,502.63,502.63,502.64,502.66,502.68,502.77,502.92,503.07,503.23,503.37,503.38,503.15,502.92,502.69,502.68,502.93,503.25,503.63,504.01,504.42,504.87,505.13,505.31,505.49,505.71,505.94,506.12,506.32,506.54,506.76,506.94,507.14,507.37,507.59,507.76,507.97,508.09,508.14,508.23,508.31
480.35,480.37,480.42,480.51,480.65,480.78,480.88,480.95,481.03,481.11,481.19,481.25,481.25,481.32,481.40,481.49,481.62,481.76,481.95,482.14,482.34,482.53,482.72,482.91,483.12,483.35,483.59,483.79,483.98,484.17,484.33,484.51,484.66,484.82,485.11,485.25,485.42,485.61,485.76,485.95,486.15,486.36,486.59,486.83,487.06,487.29,487.52,487.75,487.98,488.11,488.15,488.16,488.20,488.29,488.41,488.53,488.68,488.77,488.90,489.05,489.20,489.28,489.42,489.52,489.55,489.55,489.55,489.60,489.65,489.66,489.73,489.75,489.78,489.84,489.85,489.85,489.89,489.96,490.00,490.03,490.14,490.30,490.45,490.57,490.68,490.82,490.97,491.13,491.28,491.44,491.61,491.83,492.00,492.15,492.31,492.48,492.70,492.87,493.03,493.17,493.29,493.40,493.54,493.70,493.86,494.05,494.27,494.54,494.83,495.06,495.23,495.41,495.56,495.60,495.67,495.73,495.76,495.82,495.96,496.06,496.13,496.22,496.29,496.37,496.44,496.52,496.60,496.68,496.81,496.93,497.01,497.08,497.17,497.24,497.32,497.40,497.51,497.63,497.73,497.81,497.88,497.96,498.03,498.12,498.23,498.32,498.39,498.46,498.50,498.57,498.65,498.73,498.81,498.88,498.96,499.04,499.11,499.15,499.22,499.27,499.38,499.61,499.77,499.95,500.14,500.34,500.53,500.69,500.82,500.94,501.05,501.17,501.28,501.37,501.42,501.52,501.58,501.60,501.62,501.69,501.70,501.75,501.80,501.81,501.88,501.93,501.99,502.06,502.14,502.18,502.20,502.20,502.20,502.20,502.20,502.20,502.20,502.20,502.20,502.20,502.20,502.20,502.20,502.20,502.20,502.21,502.24,502.25,502.26,502.30,502.30,502.33,502.37,502.40,502.40,502.44,502.45,502.46,502.50,502.50,502.50,502.54,502.62,502.69,502.80,502.94,502.99,502.83,502.64,502.60,502.75,503.06,503.37,503.70,504.08,504.47,504.88,505.17,505.39,505.58,505.78,506.01,506.21,506.40,506.61,506.83,507.00,507.20,507.42,507.60,507.72,507.86,507.95,507.96,508.04,508.11
480.14,480.22,480.33,480.48,480.62,480.71,480.75,480.76,480.84,480.92,480.99,481.06,481.08,481.15,481.24,481.38,481.61,481.76,481.98,482.18,482.36,482.57,482.75,482.95,483.18,483.40,483.62,483.78,483.93,484.08,484.23,484.37,484.49,484.66,485.02,485.16,485.35,485.56,485.74,485.96,486.19,486.43,486.65,486.89,487.11,487.33,487.57,487.80,488.03,488.16,488.22,488.22,488.23,488.28,488.39,488.53,488.67,488.77,488.90,489.05,489.18,489.28,489.41,489.49,489.49,489.49,489.49,489.52,489.57,489.59,489.66,489.69,489.72,489.78,489.78,489.79,489.83,489.88,489.88,489.89,489.98,490.12,490.25,490.33,490.47,490.62,490.78,490.93,491.09,491.24,491.42,491.64,491.80,491.96,492.11,492.28,492.49,492.66,492.82,492.98,493.08,493.18,493.36,493.60,493.83,494.06,494.29,494.55,494.83,495.05,495.22,495.36,495.46,495.48,495.53,495.56,495.60,495.69,495.83,495.93,496.00,496.08,496.16,496.24,496.31,496.39,496.47,496.55,496.68,496.80,496.88,496.96,497.03,497.11,497.19,497.26,497.34,497.47,497.60,497.68,497.75,497.83,497.90,497.98,498.05,498.12,498.20,498.28,498.37,498.45,498.53,498.62,498.70,498.77,498.86,498.94,499.01,499.04,499.17,499.26,499.39,499.60,499.77,499.92,500.12,500.35,500.57,500.75,500.90,501.02,501.11,501.23,501.32,501.37,501.38,501.45,501.47,501.48,501.50,501.56,501.58,501.63,501.67,501.70,501.76,501.85,501.92,501.98,502.06,502.07,502.07,502.07,502.07,502.08,502.08,502.08,502.08,502.08,502.07,502.07,502.07,502.07,502.07,502.07,502.07,502.07,502.07,502.07,502.10,502.15,502.17,502.17,502.21,502.25,502.25,502.26,502.27,502.29,502.35,502.35,502.36,502.37,502.37,502.38,502.43,502.54,502.59,502.53,502.44,502.60,502.87,503.17,503.49,503.80,504.15,504.52,504.89,505.20,505.47,505.68,505.85,506.08,506.31,506.50,506.67,506.89,507.06,507.25,507.43,507.55,507.63,507.70,507.74,507.77,507.84,507.92
479.89,480.13,480.26,480.40,480.45,480.51,480.56,480.57,480.64,480.72,480.80,480.88,480.95,481.07,481.21,481.38,481.61,481.76,481.98,482.20,482.41,482.58,482.79,483.02,483.23,483.40,483.57,483.69,483.80,483.94,484.04,484.13,484.29,484.53,484.90,485.13,485.35,485.57,485.80,486.02,486.26,486.49,486.72,486.95,487.13,487.33,487.57,487.80,488.03,488.20,488.28,488.29,488.35,488.38,488.43,488.52,488.62,488.75,488.90,489.03,489.13,489.26,489.37,489.42,489.42,489.42,489.42,489.42,489.46,489.52,489.60,489.62,489.65,489.71,489.72,489.77,489.81,489.82,489.82,489.88,489.92,489.97,490.06,490.14,490.27,490.43,490.58,490.74,490.89,491.05,491.22,491.44,491.61,491.76,491.92,492.07,492.24,492.40,492.59,492.80,493.00,493.20,493.43,493.66,493.89,494.12,494.35,494.59,494.82,494.99,495.15,495.24,495.27,495.33,495.35,495.40,495.47,495.56,495.71,495.80,495.88,495.96,496.03,496.11,496.19,496.26,496.34,496.42,496.55,496.67,496.75,496.82,496.90,496.98,497.06,497.13,497.21,497.34,497.47,497.55,497.62,497.70,497.78,497.84,497.86,497.93,498.00,498.10,498.23,498.32,498.44,498.55,498.63,498.71,498.84,498.94,499.03,499.15,499.25,499.34,499.42,499.54,499.75,499.92,500.12,500.35,500.58,500.79,500.94,501.02,501.09,501.13,501.19,501.24,501.25,501.32,501.34,501.38,501.42,501.44,501.50,501.53,501.56,501.63,501.70,501.78,501.82,501.85,501.93,501.94,501.94,501.94,501.95,502.00,502.02,502.02,502.02,502.02,501.97,501.94,501.94,501.94,501.94,501.94,501.94,501.94,501.94,501.94,501.95,501.97,502.03,502.04,502.05,502.06,502.07,502.12,502.14,502.14,502.16,502.16,502.21,502.24,502.24,502.24,502.25,502.28,502.29,502.30,502.45,502.70,502.98,503.25,503.61,503.93,504.25,504.57,504.90,505.20,505.51,505.75,505.91,506.14,506.37,506.56,506.74,506.96,507.13,507.25,507.33,507.36,507.44,507.47,507.50,507.57,507.65,507.73
479.22,479.78,480.14,480.25,480.26,480.29,480.35,480.41,480.46,480.53,480.64,480.78,480.90,481.05,481.20,481.38,481.61,481.76,481.98,482.21,482.43,482.63,482.79,482.93,483.06,483.21,483.34,483.42,483.53,483.67,483.76,483.93,484.19,484.54,484.91,485.17,485.40,485.63,485.86,486.05,486.27,486.51,486.74,486.97,487.17,487.38,487.62,487.85,488.08,488.25,488.36,488.40,488.44,488.44,488.49,488.56,488.61,488.75,488.90,489.03,489.12,489.26,489.33,489.35,489.35,489.35,489.35,489.35,489.38,489.46,489.53,489.56,489.58,489.65,489.66,489.72,489.75,489.75,489.76,489.82,489.88,489.91,489.96,490.00,490.07,490.20,490.39,490.54,490.70,490.85,491.03,491.25,491.41,491.57,491.74,491.92,492.08,492.26,492.47,492.71,492.94,493.17,493.40,493.63,493.86,494.10,494.32,494.56,494.78,494.97,495.07,495.11,495.12,495.16,495.20,495.26,495.34,495.43,495.57,495.67,495.75,495.82,495.90,495.98,496.06,496.13,496.21,496.29,496.42,496.54,496.62,496.69,496.78,496.85,496.93,497.01,497.12,497.24,497.34,497.42,497.53,497.62,497.71,497.81,497.85,497.92,498.02,498.13,498.25,498.36,498.48,498.58,498.66,498.77,498.89,499.01,499.12,499.24,499.32,499.40,499.48,499.57,499.76,499.92,500.12,500.35,500.58,500.78,500.90,500.97,501.00,501.01,501.06,501.11,501.13,501.19,501.21,501.25,501.31,501.32,501.38,501.43,501.49,501.56,501.60,501.67,501.73,501.77,501.84,501.85,501.85,501.85,501.86,501.89,501.91,501.91,501.91,501.91,501.87,501.85,501.85,501.85,501.85,501.85,501.84,501.81,501.81,501.81,501.81,501.82,501.85,501.89,501.91,501.91,501.91,501.95,501.99,502.01,502.01,502.01,502.07,502.11,502.11,502.11,502.11,502.15,502.23,502.32,502.54,502.80,503.07,503.35,503.66,503.94,504.26,504.59,504.90,505.20,505.51,505.78,505.97,506.20,506.44,506.61,506.74,506.89,507.02,507.09,507.13,507.17,507.24,507.26,507.30,507.38,507.45,507.50
478.45,479.28,479.84,479.90,479.92,479.93,480.04,480.25,480.29,480.37,480.53,480.74,480.89,481.05,481.20,481.38,481.61,481.77,481.99,482.20,482.41,482.60,482.69,482.74,482.80,482.93,483.02,483.11,483.22,483.36,483.50,483.77,484.15,484.58,484.95,485.21,485.45,485.68,485.90,486.07,486.29,486.52,486.75,486.99,487.21,487.44,487.68,487.91,488.14,488.32,488.45,488.50,488.51,488.51,488.55,488.61,488.63,488.75,488.89,489.02,489.11,489.25,489.28,489.29,489.29,489.29,489.29,489.30,489.32,489.39,489.45,489.49,489.52,489.58,489.59,489.65,489.69,489.69,489.71,489.77,489.83,489.88,489.89,489.89,489.89,489.99,490.19,490.36,490.51,490.68,490.86,491.08,491.25,491.41,491.60,491.80,491.96,492.18,492.41,492.64,492.87,493.10,493.34,493.56,493.79,494.02,494.25,494.47,494.69,494.90,494.96,494.97,494.97,494.99,495.06,495.14,495.22,495.31,495.45,495.54,495.62,495.70,495.78,495.86,495.94,496.02,496.10,496.18,496.31,496.43,496.50,496.59,496.68,496.75,496.82,496.90,497.02,497.12,497.21,497.31,497.46,497.57,497.69,497.83,497.90,497.99,498.11,498.24,498.33,498.47,498.56,498.65,498.75,498.88,498.99,499.10,499.23,499.31,499.40,499.48,499.55,499.64,499.77,499.91,500.11,500.35,500.57,500.73,500.83,500.88,500.88,500.89,500.94,500.98,501.00,501.06,501.09,501.13,501.18,501.20,501.27,501.33,501.40,501.47,501.49,501.55,501.63,501.70,501.77,501.78,501.78,501.78,501.78,501.78,501.78,501.78,501.78,501.78,501.78,501.78,501.78,501.78,501.78,501.78,501.75,501.70,501.69,501.69,501.69,501.69,501.70,501.74,501.77,501.77,501.78,501.78,501.83,501.87,501.87,501.88,501.94,501.97,501.99,502.00,502.02,502.13,502.29,502.45,502.67,502.90,503.16,503.44,503.67,503.92,504.23,504.58,504.88,505.19,505.51,505.80,506.03,506.25,506.47,506.61,506.68,506.76,506.84,506.87,506.90,506.97,507.04,507.06,507.10,507.18,507.25,507.28
477.90,478.59,478.94,478.97,479.02,479.08,479.43,480.05,480.20,480.34,480.52,480.74,480.89,481.05,481.20,481.38,481.61,481.83,482.01,482.15,482.25,482.31,482.34,482.41,482.53,482.62,482.70,482.82,482.94,483.09,483.44,483.80,484.16,484.52,484.89,485.20,485.45,485.68,485.91,486.13,486.35,486.59,486.81,487.05,487.28,487.51,487.74,487.97,488.20,488.43,488.56,488.57,488.57,488.57,488.62,488.68,488.69,488.76,488.86,488.97,489.10,489.20,489.23,489.23,489.23,489.23,489.23,489.26,489.31,489.32,489.34,489.39,489.46,489.52,489.53,489.58,489.63,489.64,489.69,489.72,489.77,489.82,489.82,489.82,489.82,489.88,490.01,490.22,490.38,490.57,490.79,491.01,491.18,491.37,491.57,491.74,491.89,492.11,492.34,492.57,492.80,493.04,493.27,493.48,493.67,493.95,494.15,494.33,494.50,494.67,494.75,494.77,494.79,494.85,494.93,495.04,495.16,495.24,495.33,495.41,495.49,495.58,495.71,495.80,495.88,495.95,496.03,496.17,496.27,496.36,496.45,496.58,496.67,496.74,496.81,496.82,496.86,496.97,497.10,497.24,497.39,497.58,497.75,497.89,497.98,498.10,498.21,498.32,498.45,498.55,498.63,498.73,498.87,498.97,499.09,499.20,499.29,499.38,499.51,499.60,499.68,499.75,499.79,499.88,500.07,500.34,500.57,500.69,500.74,500.75,500.75,500.81,500.84,500.87,500.93,500.95,501.00,501.04,501.06,501.13,501.20,501.24,501.28,501.35,501.41,501.49,501.56,501.63,501.64,501.65,501.65,501.65,501.65,501.65,501.65,501.65,501.65,501.65,501.65,501.65,501.65,501.65,501.65,501.65,501.64,501.63,501.63,501.63,501.63,501.63,501.62,501.59,501.57,501.59,501.64,501.65,501.66,501.67,501.68,501.74,501.76,501.80,501.88,502.00,502.11,502.29,502.48,502.64,502.81,503.03,503.24,503.44,503.68,503.95,504.23,504.51,504.82,505.13,505.48,505.82,506.09,506.27,506.39,506.46,506.49,506.57,506.64,506.67,506.70,506.77,506.79,506.84,506.91,506.97,507.00,507.10
477.09,477.51,477.66,477.63,477.67,477.78,478.47,479.70,480.13,480.33,480.51,480.70,480.89,481.05,481.20,481.38,481.61,481.78,481.89,481.96,482.00,482.00,482.00,482.09,482.22,482.30,482.37,482.53,482.71,482.92,483.31,483.67,484.00,484.34,484.75,485.13,485.45,485.72,485.95,486.19,486.42,486.65,486.88,487.11,487.35,487.58,487.81,488.04,488.27,488.48,488.61,488.64,488.64,488.67,488.70,488.74,488.75,488.81,488.87,488.95,489.09,489.15,489.16,489.17,489.20,489.20,489.23,489.26,489.31,489.34,489.34,489.37,489.42,489.46,489.46,489.52,489.57,489.61,489.65,489.69,489.73,489.76,489.76,489.79,489.80,489.84,489.94,490.13,490.32,490.53,490.76,490.95,491.11,491.30,491.48,491.64,491.82,492.02,492.24,492.47,492.70,492.93,493.16,493.37,493.54,493.77,493.95,494.12,494.30,494.46,494.55,494.58,494.61,494.72,494.86,495.00,495.13,495.21,495.28,495.36,495.45,495.57,495.68,495.77,495.87,495.97,496.05,496.17,496.28,496.38,496.46,496.58,496.64,496.68,496.72,496.72,496.72,496.80,496.92,497.06,497.24,497.44,497.61,497.76,497.91,498.06,498.21,498.35,498.49,498.58,498.68,498.81,498.95,499.03,499.17,499.28,499.37,499.48,499.60,499.71,499.80,499.84,499.84,499.90,500.06,500.30,500.52,500.63,500.64,500.62,500.63,500.70,500.72,500.75,500.81,500.82,500.88,500.94,500.97,501.02,501.09,501.14,501.19,501.26,501.35,501.42,501.48,501.52,501.52,501.52,501.52,501.52,501.52,501.52,501.52,501.53,501.55,501.53,501.52,501.52,501.52,501.52,501.52,501.52,501.52,501.52,501.52,501.52,501.52,501.52,501.51,501.48,501.46,501.47,501.52,501.52,501.52,501.52,501.53,501.60,501.64,501.70,501.80,501.99,502.18,502.39,502.61,502.79,502.98,503.18,503.35,503.52,503.75,504.00,504.24,504.49,504.80,505.11,505.45,505.78,506.06,506.16,506.21,506.25,506.29,506.34,506.41,506.46,506.49,506.54,506.57,506.64,506.71,506.79,506.86,506.97
476.04,476.13,476.12,476.07,476.06,476.29,477.37,479.24,480.04,480.33,480.49,480.66,480.88,481.05,481.20,481.37,481.55,481.64,481.66,481.67,481.67,481.66,481.67,481.76,481.89,481.97,482.06,482.25,482.50,482.80,483.12,483.43,483.74,484.09,484.55,485.01,485.42,485.76,486.01,486.25,486.48,486.71,486.94,487.18,487.40,487.63,487.86,488.10,488.32,488.51,488.64,488.70,488.71,488.76,488.80,488.81,488.81,488.88,488.91,488.96,489.09,489.11,489.11,489.15,489.21,489.23,489.26,489.29,489.32,489.39,489.41,489.41,489.41,489.42,489.42,489.47,489.54,489.60,489.61,489.67,489.69,489.71,489.73,489.78,489.81,489.84,489.93,490.09,490.30,490.51,490.72,490.88,491.04,491.20,491.36,491.52,491.74,491.92,492.11,492.34,492.57,492.79,493.02,493.23,493.38,493.55,493.71,493.89,494.09,494.24,494.35,494.39,494.45,494.62,494.84,495.01,495.13,495.21,495.29,495.37,495.49,495.61,495.70,495.78,495.90,496.02,496.11,496.19,496.31,496.42,496.49,496.56,496.58,496.58,496.58,496.59,496.59,496.64,496.72,496.82,497.02,497.20,497.36,497.54,497.75,497.92,498.11,498.31,498.45,498.55,498.69,498.84,498.99,499.08,499.23,499.34,499.43,499.58,499.68,499.80,499.89,499.91,499.92,499.98,500.10,500.26,500.47,500.56,500.54,500.49,500.50,500.57,500.59,500.62,500.69,500.70,500.76,500.84,500.88,500.90,500.97,501.05,501.13,501.20,501.27,501.34,501.39,501.39,501.39,501.39,501.39,501.39,501.40,501.40,501.40,501.43,501.47,501.41,501.40,501.40,501.40,501.40,501.40,501.39,501.39,501.39,501.39,501.39,501.39,501.39,501.39,501.39,501.38,501.39,501.39,501.39,501.39,501.40,501.43,501.50,501.57,501.65,501.76,501.99,502.21,502.44,502.66,502.89,503.12,503.30,503.47,503.65,503.87,504.05,504.26,504.50,504.80,505.11,505.41,505.72,505.97,505.98,505.99,506.02,506.07,506.09,506.16,506.23,506.27,506.30,506.36,506.45,506.53,506.62,506.76,506.86
474.58,474.51,474.46,474.44,474.44,475.03,476.52,478.67,479.89,480.30,480.48,480.65,480.88,481.05,481.17,481.25,481.31,481.34,481.35,481.35,481.34,481.29,481.32,481.44,481.57,481.65,481.78,481.99,482.25,482.56,482.87,483.18,483.48,483.83,484.29,484.81,485.27,485.70,486.07,486.31,486.55,486.78,487.01,487.24,487.43,487.63,487.87,488.10,488.33,488.55,488.70,488.76,488.77,488.84,488.87,488.87,488.88,488.94,488.97,489.01,489.09,489.10,489.14,489.20,489.28,489.33,489.26,489.26,489.34,489.45,489.47,489.47,489.47,489.47,489.47,489.49,489.54,489.60,489.60,489.62,489.66,489.72,489.77,489.79,489.84,489.88,489.93,490.08,490.25,490.43,490.60,490.76,490.97,491.13,491.29,491.45,491.63,491.83,492.02,492.21,492.44,492.62,492.83,493.04,493.19,493.35,493.50,493.66,493.84,494.00,494.13,494.25,494.40,494.66,494.90,495.04,495.13,495.22,495.34,495.44,495.52,495.63,495.75,495.84,495.93,496.04,496.17,496.25,496.35,496.41,496.43,496.46,496.46,496.43,496.40,496.45,496.46,496.51,496.57,496.61,496.78,496.94,497.12,497.32,497.50,497.71,497.90,498.06,498.23,498.41,498.57,498.75,498.94,499.08,499.23,499.34,499.44,499.60,499.72,499.84,499.92,499.98,500.03,500.10,500.19,500.31,500.47,500.47,500.41,500.36,500.37,500.44,500.46,500.49,500.56,500.62,500.70,500.74,500.77,500.83,500.91,500.98,501.05,501.13,501.15,501.22,501.26,501.26,501.26,501.26,501.26,501.27,501.32,501.33,501.33,501.34,501.35,501.33,501.33,501.33,501.33,501.33,501.33,501.30,501.26,501.26,501.26,501.26,501.26,501.26,501.26,501.26,501.26,501.26,501.26,501.26,501.30,501.35,501.41,501.49,501.56,501.64,501.75,501.98,502.17,502.38,502.61,502.84,503.07,503.29,503.50,503.71,503.94,504.16,504.38,504.60,504.82,505.11,505.38,505.63,505.83,505.80,505.79,505.80,505.83,505.88,505.96,506.00,506.04,506.09,506.17,506.29,506.39,506.49,506.64,506.77
473.14,472.93,472.80,472.75,472.75,473.73,475.59,477.95,479.70,480.24,480.40,480.54,480.74,480.90,480.99,481.02,481.02,481.02,481.00,480.99,480.98,480.94,480.99,481.11,481.25,481.36,481.52,481.70,481.95,482.26,482.60,482.89,483.22,483.61,484.07,484.58,485.06,485.53,485.99,486.33,486.58,486.81,487.04,487.27,487.46,487.67,487.90,488.13,488.37,488.60,488.76,488.84,488.87,488.91,488.94,488.94,488.97,489.02,489.03,489.06,489.13,489.16,489.23,489.29,489.34,489.35,489.25,489.26,489.37,489.49,489.53,489.53,489.53,489.53,489.53,489.55,489.60,489.63,489.64,489.66,489.70,489.74,489.77,489.79,489.86,489.91,489.97,490.12,490.27,490.42,490.58,490.74,490.94,491.11,491.26,491.42,491.57,491.76,491.96,492.14,492.35,492.50,492.69,492.88,493.03,493.19,493.34,493.50,493.66,493.84,494.00,494.18,494.42,494.71,494.94,495.07,495.17,495.25,495.38,495.48,495.58,495.66,495.79,495.90,495.99,496.08,496.19,496.25,496.32,496.35,496.33,496.33,496.31,496.26,496.25,496.32,496.33,496.38,496.43,496.45,496.57,496.72,496.89,497.08,497.25,497.47,497.65,497.81,498.00,498.20,498.39,498.58,498.78,498.94,499.11,499.25,499.38,499.55,499.72,499.84,499.93,500.01,500.08,500.14,500.19,500.25,500.36,500.32,500.28,500.26,500.27,500.32,500.35,500.38,500.44,500.51,500.59,500.64,500.69,500.76,500.84,500.90,500.96,501.03,501.06,501.13,501.16,501.16,501.16,501.16,501.16,501.18,501.23,501.23,501.23,501.23,501.23,501.23,501.23,501.23,501.23,501.23,501.23,501.20,501.16,501.16,501.16,501.16,501.16,501.16,501.13,501.13,501.13,501.13,501.13,501.16,501.22,501.30,501.38,501.46,501.55,501.64,501.75,501.95,502.13,502.35,502.58,502.81,503.04,503.27,503.50,503.71,503.94,504.17,504.40,504.62,504.81,505.08,505.32,505.55,505.70,505.64,505.60,505.59,505.60,505.66,505.73,505.78,505.83,505.93,506.01,506.14,506.28,506.39,506.51,506.66
471.75,471.43,471.19,471.08,471.09,472.50,474.72,477.16,479.10,479.58,479.75,480.04,480.44,480.63,480.67,480.68,480.69,480.69,480.64,480.61,480.61,480.60,480.67,480.80,480.95,481.09,481.25,481.41,481.63,481.95,482.32,482.59,482.94,483.40,483.87,484.34,484.81,485.29,485.81,486.26,486.56,486.81,487.05,487.28,487.51,487.74,487.97,488.20,488.43,488.66,488.84,488.92,488.98,489.00,489.00,489.02,489.08,489.10,489.10,489.13,489.20,489.28,489.35,489.39,489.38,489.31,489.24,489.29,489.43,489.51,489.58,489.60,489.60,489.60,489.61,489.65,489.68,489.69,489.70,489.77,489.79,489.77,489.73,489.78,489.86,489.93,490.02,490.17,490.33,490.48,490.64,490.79,490.95,491.11,491.27,491.42,491.58,491.74,491.93,492.13,492.30,492.47,492.63,492.78,492.94,493.09,493.25,493.40,493.57,493.78,493.95,494.19,494.48,494.77,494.96,495.11,495.22,495.30,495.39,495.52,495.63,495.72,495.80,495.93,496.03,496.11,496.18,496.20,496.25,496.25,496.20,496.19,496.13,496.10,496.12,496.19,496.20,496.25,496.30,496.31,496.39,496.52,496.67,496.83,497.00,497.21,497.40,497.57,497.79,497.95,498.16,498.36,498.52,498.68,498.89,499.07,499.24,499.46,499.62,499.78,499.90,499.99,500.06,500.08,500.08,500.11,500.17,500.13,500.14,500.19,500.19,500.20,500.25,500.30,500.32,500.39,500.48,500.54,500.62,500.69,500.76,500.80,500.83,500.91,500.99,501.06,501.09,501.09,501.09,501.09,501.09,501.09,501.10,501.10,501.10,501.10,501.10,501.10,501.10,501.10,501.10,501.10,501.10,501.10,501.09,501.09,501.09,501.09,501.09,501.08,501.02,501.00,501.00,501.01,501.02,501.09,501.16,501.24,501.32,501.40,501.52,501.63,501.74,501.90,502.11,502.34,502.57,502.80,503.04,503.27,503.47,503.65,503.88,504.11,504.34,504.57,504.80,505.03,505.26,505.46,505.56,505.51,505.44,505.40,505.39,505.41,505.49,505.56,505.67,505.80,505.88,506.02,506.17,506.30,506.39,506.53
470.41,470.07,469.88,469.85,469.98,472.02,474.71,476.65,476.20,475.71,476.22,477.79,479.84,480.23,480.25,480.26,480.31,480.31,480.29,480.27,480.27,480.28,480.39,480.53,480.67,480.78,480.93,481.12,481.37,481.68,482.02,482.31,482.69,483.15,483.62,484.12,484.61,485.07,485.57,486.08,486.50,486.83,487.11,487.34,487.57,487.80,488.03,488.26,488.50,488.73,488.92,489.02,489.06,489.06,489.06,489.09,489.15,489.17,489.20,489.24,489.27,489.35,489.43,489.44,489.38,489.26,489.25,489.36,489.49,489.56,489.64,489.67,489.67,489.67,489.72,489.67,489.66,489.71,489.76,489.84,489.83,489.77,489.72,489.78,489.86,489.94,490.02,490.18,490.34,490.49,490.64,490.80,490.95,491.14,491.33,491.48,491.63,491.79,491.96,492.14,492.35,492.55,492.73,492.88,493.04,493.19,493.35,493.50,493.66,493.84,494.00,494.24,494.55,494.84,495.01,495.14,495.23,495.32,495.44,495.55,495.67,495.78,495.86,495.91,495.99,496.06,496.13,496.13,496.11,496.09,496.06,496.01,495.98,495.97,495.99,496.06,496.07,496.12,496.17,496.18,496.25,496.31,496.41,496.58,496.78,496.97,497.16,497.36,497.54,497.69,497.90,498.10,498.27,498.47,498.66,498.82,499.00,499.23,499.38,499.57,499.73,499.81,499.89,499.90,499.90,499.91,499.93,499.92,499.95,500.02,500.06,500.07,500.13,500.19,500.25,500.32,500.40,500.48,500.54,500.57,500.64,500.70,500.76,500.84,500.92,500.96,500.97,500.97,500.97,500.97,500.97,500.97,500.97,500.97,500.97,500.97,500.97,500.97,500.97,500.97,500.97,500.97,500.97,500.97,500.97,500.97,500.97,500.97,500.97,500.97,500.94,500.94,500.94,500.95,501.00,501.08,501.15,501.23,501.31,501.39,501.49,501.60,501.73,501.84,502.05,502.28,502.51,502.75,502.98,503.21,503.43,503.64,503.87,504.11,504.33,504.56,504.79,504.98,505.16,505.31,505.38,505.32,505.24,505.18,505.15,505.21,505.32,505.45,505.57,505.68,505.80,505.91,506.04,506.18,506.26,506.41
469.06,468.95,469.08,469.33,469.81,471.94,473.88,474.11,472.25,471.44,471.99,473.64,475.80,476.31,476.54,476.88,477.35,477.82,478.13,478.52,479.03,479.35,479.76,480.13,480.38,480.48,480.63,480.84,481.11,481.42,481.72,482.06,482.45,482.92,483.39,483.89,484.39,484.88,485.35,485.86,486.35,486.77,487.11,487.39,487.63,487.87,488.10,488.33,488.56,488.77,488.98,489.12,489.13,489.13,489.14,489.17,489.22,489.23,489.28,489.34,489.37,489.44,489.47,489.44,489.34,489.23,489.29,489.40,489.53,489.63,489.70,489.73,489.74,489.76,489.75,489.69,489.69,489.75,489.82,489.86,489.82,489.75,489.72,489.78,489.86,489.94,490.02,490.18,490.35,490.52,490.67,490.83,490.98,491.17,491.37,491.54,491.70,491.86,492.01,492.18,492.41,492.62,492.81,492.99,493.16,493.32,493.47,493.63,493.78,493.94,494.09,494.33,494.63,494.91,495.06,495.17,495.26,495.35,495.47,495.58,495.69,495.78,495.86,495.89,495.94,495.99,496.03,496.01,495.97,495.93,495.90,495.85,495.84,495.84,495.86,495.93,495.94,495.99,496.04,496.05,496.12,496.14,496.21,496.35,496.56,496.72,496.92,497.13,497.29,497.46,497.66,497.85,498.04,498.24,498.41,498.58,498.76,498.97,499.15,499.35,499.50,499.58,499.64,499.65,499.65,499.65,499.65,499.65,499.68,499.76,499.87,499.95,500.02,500.11,500.18,500.25,500.32,500.38,500.45,500.47,500.55,500.62,500.70,500.77,500.83,500.84,500.84,500.84,500.84,500.84,500.84,500.84,500.84,500.84,500.85,500.87,500.87,500.87,500.87,500.87,500.87,500.87,500.85,500.84,500.84,500.84,500.84,500.84,500.84,500.84,500.87,500.87,500.87,500.89,500.97,501.05,501.14,501.23,501.31,501.39,501.46,501.57,501.69,501.80,502.02,502.25,502.48,502.71,502.92,503.15,503.38,503.61,503.84,504.07,504.30,504.53,504.75,504.90,505.05,505.17,505.22,505.13,505.07,505.00,504.96,505.04,505.18,505.34,505.47,505.58,505.71,505.81,505.94,506.08,506.19,506.34
467.87,468.24,468.95,469.58,470.37,471.87,471.83,469.51,467.95,467.72,467.93,468.22,468.58,469.07,469.72,470.60,471.82,473.14,474.05,475.24,476.72,477.66,478.63,479.43,479.96,480.16,480.36,480.58,480.85,481.16,481.46,481.83,482.25,482.72,483.19,483.66,484.17,484.67,485.14,485.61,486.13,486.62,487.05,487.43,487.69,487.93,488.16,488.39,488.62,488.81,489.00,489.18,489.19,489.19,489.23,489.29,489.29,489.30,489.35,489.42,489.49,489.56,489.48,489.37,489.29,489.23,489.33,489.44,489.54,489.68,489.77,489.79,489.82,489.83,489.67,489.72,489.79,489.81,489.87,489.83,489.76,489.71,489.71,489.78,489.86,489.94,490.03,490.19,490.39,490.58,490.74,490.89,491.04,491.21,491.39,491.60,491.76,491.92,492.08,492.25,492.47,492.64,492.85,493.07,493.28,493.44,493.60,493.76,493.91,494.07,494.22,494.46,494.75,494.97,495.08,495.20,495.32,495.40,495.49,495.61,495.69,495.73,495.80,495.86,495.89,495.90,495.90,495.83,495.81,495.78,495.72,495.71,495.71,495.71,495.73,495.80,495.81,495.86,495.91,495.92,495.99,496.01,496.05,496.15,496.31,496.46,496.67,496.87,497.04,497.25,497.43,497.62,497.83,498.00,498.15,498.34,498.55,498.72,498.94,499.12,499.25,499.31,499.33,499.33,499.33,499.33,499.33,499.33,499.34,499.43,499.64,499.85,499.97,500.04,500.11,500.19,500.21,500.25,500.33,500.40,500.48,500.55,500.63,500.70,500.71,500.71,500.71,500.71,500.71,500.71,500.71,500.71,500.72,500.72,500.76,500.80,500.80,500.80,500.80,500.80,500.80,500.79,500.74,500.72,500.72,500.72,500.72,500.72,500.72,500.73,500.79,500.80,500.80,500.83,500.91,500.99,501.11,501.23,501.31,501.39,501.46,501.54,501.64,501.79,502.01,502.25,502.48,502.69,502.87,503.09,503.32,503.55,503.78,504.01,504.24,504.47,504.68,504.78,504.92,505.04,505.07,504.96,504.91,504.87,504.84,504.93,505.06,505.22,505.37,505.50,505.60,505.73,505.88,506.03,506.18,506.34
467.94,468.95,469.87,470.04,468.82,468.90,468.84,467.88,467.49,467.59,467.74,467.73,467.51,467.72,468.07,468.57,469.33,470.42,471.44,472.80,474.42,475.54,476.66,477.69,478.59,479.30,479.96,480.32,480.59,480.90,481.20,481.58,482.01,482.48,482.99,483.45,483.94,484.44,484.94,485.41,485.90,486.38,486.85,487.31,487.67,487.94,488.17,488.40,488.63,488.84,489.06,489.24,489.26,489.26,489.30,489.36,489.37,489.41,489.44,489.49,489.55,489.54,489.46,489.34,489.25,489.26,489.36,489.47,489.59,489.70,489.82,489.86,489.83,489.76,489.63,489.76,489.86,489.87,489.88,489.78,489.75,489.74,489.72,489.78,489.86,489.96,490.09,490.24,490.42,490.62,490.80,490.95,491.11,491.26,491.43,491.62,491.82,491.99,492.14,492.30,492.49,492.69,492.90,493.12,493.31,493.51,493.71,493.89,494.04,494.20,494.35,494.57,494.81,494.99,495.12,495.24,495.33,495.41,495.48,495.59,495.66,495.71,495.74,495.77,495.78,495.76,495.72,495.69,495.65,495.61,495.57,495.53,495.56,495.58,495.60,495.67,495.68,495.73,495.78,495.79,495.86,495.88,495.92,495.99,496.06,496.24,496.43,496.63,496.82,497.01,497.17,497.36,497.58,497.74,497.93,498.12,498.30,498.46,498.69,498.86,498.99,499.05,499.06,499.06,499.06,499.06,499.06,499.02,499.11,499.32,499.60,499.83,499.96,500.01,500.04,500.07,500.12,500.18,500.26,500.33,500.42,500.46,500.51,500.57,500.58,500.58,500.58,500.58,500.58,500.58,500.58,500.59,500.63,500.64,500.66,500.68,500.68,500.68,500.68,500.68,500.68,500.67,500.65,500.64,500.64,500.64,500.64,500.64,500.64,500.64,500.67,500.68,500.74,500.82,500.90,500.98,501.08,501.19,501.31,501.39,501.46,501.54,501.63,501.75,501.96,502.19,502.42,502.65,502.85,503.08,503.31,503.54,503.77,504.00,504.21,504.39,504.56,504.65,504.79,504.89,504.91,504.85,504.80,504.79,504.82,504.91,505.04,505.20,505.34,505.45,505.57,505.72,505.87,506.02,506.18,506.34
467.52,468.69,469.53,469.45,467.49,466.94,467.17,467.52,467.96,468.24,468.38,468.31,467.92,467.94,468.05,468.16,468.33,468.83,469.65,470.83,472.22,473.35,474.50,475.67,476.82,477.97,479.10,479.81,480.28,480.63,480.95,481.34,481.77,482.25,482.77,483.26,483.72,484.21,484.73,485.21,485.68,486.14,486.62,487.13,487.58,487.92,488.19,488.43,488.65,488.89,489.12,489.31,489.32,489.34,489.38,489.43,489.43,489.50,489.53,489.56,489.58,489.50,489.41,489.31,489.22,489.29,489.38,489.50,489.63,489.73,489.88,489.93,489.88,489.79,489.74,489.85,489.93,489.93,489.91,489.80,489.78,489.80,489.74,489.78,489.87,490.00,490.15,490.30,490.46,490.66,490.87,491.02,491.17,491.33,491.49,491.66,491.88,492.05,492.20,492.36,492.52,492.74,492.97,493.17,493.35,493.56,493.78,493.98,494.15,494.32,494.48,494.68,494.89,495.02,495.16,495.25,495.33,495.40,495.46,495.53,495.62,495.67,495.65,495.65,495.64,495.60,495.56,495.53,495.48,495.44,495.42,495.37,495.42,495.45,495.47,495.54,495.55,495.60,495.65,495.66,495.73,495.75,495.79,495.85,495.86,496.02,496.19,496.38,496.59,496.75,496.93,497.12,497.32,497.50,497.71,497.88,498.05,498.22,498.43,498.62,498.75,498.80,498.81,498.81,498.81,498.81,498.80,498.77,498.94,499.25,499.55,499.80,499.94,500.00,500.00,500.00,500.05,500.12,500.19,500.25,500.32,500.37,500.39,500.45,500.45,500.47,500.48,500.48,500.48,500.48,500.48,500.49,500.54,500.55,500.55,500.55,500.55,500.55,500.55,500.55,500.55,500.55,500.55,500.55,500.56,500.57,500.57,500.57,500.57,500.57,500.57,500.59,500.68,500.81,500.90,500.98,501.06,501.16,501.28,501.38,501.46,501.54,501.62,501.71,501.92,502.15,502.38,502.59,502.82,503.05,503.28,503.51,503.75,503.98,504.17,504.31,504.44,504.55,504.67,504.76,504.77,504.75,504.70,504.72,504.80,504.90,505.04,505.20,505.33,505.42,505.56,505.72,505.87,506.02,506.18,506.34
466.03,466.51,467.00,467.25,467.27,467.59,467.94,468.18,468.61,468.89,469.01,468.92,468.56,468.63,468.83,468.89,468.65,468.43,468.72,469.37,470.26,471.27,472.38,473.54,474.75,476.11,477.51,478.85,479.84,480.35,480.69,481.11,481.58,482.04,482.52,483.04,483.53,484.00,484.48,485.00,485.48,485.94,486.41,486.89,487.40,487.87,488.25,488.49,488.72,488.95,489.19,489.37,489.40,489.44,489.48,489.49,489.50,489.56,489.63,489.65,489.58,489.45,489.35,489.27,489.22,489.30,489.43,489.54,489.64,489.79,489.94,489.99,490.01,490.04,490.04,490.00,489.99,489.99,489.98,489.91,489.89,489.87,489.80,489.80,489.91,490.06,490.22,490.37,490.52,490.72,490.93,491.09,491.24,491.40,491.55,491.72,491.94,492.12,492.27,492.42,492.59,492.80,493.03,493.24,493.41,493.63,493.81,494.00,494.22,494.44,494.61,494.81,495.00,495.09,495.17,495.25,495.32,495.39,495.41,495.48,495.54,495.59,495.53,495.51,495.48,495.43,495.41,495.35,495.32,495.29,495.24,495.23,495.28,495.32,495.34,495.41,495.42,495.47,495.52,495.53,495.60,495.62,495.66,495.72,495.73,495.81,495.94,496.12,496.33,496.50,496.70,496.90,497.08,497.29,497.47,497.63,497.80,498.01,498.19,498.39,498.53,498.54,498.55,498.55,498.55,498.54,498.54,498.60,498.81,499.12,499.43,499.73,499.92,500.00,500.00,500.00,500.01,500.05,500.12,500.13,500.20,500.27,500.31,500.32,500.32,500.37,500.41,500.41,500.41,500.41,500.41,500.41,500.42,500.42,500.42,500.42,500.42,500.42,500.42,500.42,500.42,500.42,500.42,500.42,500.45,500.50,500.51,500.51,500.51,500.51,500.51,500.57,500.65,500.75,500.89,500.98,501.06,501.13,501.24,501.37,501.46,501.54,501.62,501.71,501.92,502.15,502.36,502.53,502.76,502.99,503.22,503.45,503.69,503.92,504.10,504.23,504.33,504.47,504.57,504.65,504.69,504.64,504.61,504.65,504.74,504.89,505.04,505.20,505.33,505.42,505.56,505.72,505.87,506.02,506.18,506.34
466.69,466.97,467.31,467.59,467.92,468.34,468.69,468.92,469.28,469.54,469.74,469.69,469.06,469.19,469.55,469.70,469.38,469.00,468.85,468.88,469.13,469.83,470.63,471.63,472.85,474.32,475.80,477.32,478.72,479.78,480.38,480.86,481.35,481.85,482.31,482.80,483.31,483.80,484.27,484.76,485.24,485.72,486.21,486.68,487.18,487.68,488.14,488.49,488.77,489.02,489.25,489.45,489.50,489.54,489.56,489.57,489.61,489.64,489.65,489.62,489.53,489.38,489.28,489.25,489.27,489.35,489.49,489.60,489.69,489.80,489.95,490.03,490.09,490.15,490.15,490.09,490.06,490.06,490.05,489.99,489.95,489.94,489.92,489.91,489.99,490.13,490.28,490.44,490.59,490.76,490.95,491.14,491.30,491.46,491.62,491.78,491.96,492.16,492.34,492.49,492.65,492.87,493.08,493.26,493.47,493.69,493.87,494.06,494.29,494.52,494.69,494.86,495.02,495.10,495.18,495.22,495.27,495.35,495.39,495.43,495.44,495.43,495.39,495.35,495.31,495.28,495.24,495.20,495.16,495.12,495.09,495.09,495.15,495.19,495.21,495.28,495.29,495.34,495.39,495.40,495.47,495.49,495.53,495.59,495.59,495.66,495.76,495.90,496.09,496.28,496.47,496.64,496.82,497.04,497.21,497.39,497.59,497.77,497.93,498.13,498.29,498.29,498.29,498.29,498.29,498.27,498.25,498.45,498.73,499.04,499.36,499.70,499.91,500.00,500.00,500.00,500.00,500.02,500.06,500.10,500.13,500.20,500.25,500.25,500.25,500.27,500.29,500.29,500.29,500.29,500.29,500.29,500.29,500.29,500.29,500.31,500.34,500.34,500.34,500.34,500.34,500.34,500.34,500.34,500.36,500.38,500.39,500.39,500.41,500.44,500.45,500.51,500.62,500.73,500.85,500.97,501.06,501.13,501.22,501.32,501.41,501.51,501.62,501.71,501.88,502.10,502.31,502.51,502.75,502.98,503.21,503.44,503.67,503.87,504.01,504.13,504.24,504.36,504.44,504.52,504.58,504.55,504.51,504.55,504.69,504.88,505.04,505.20,505.33,505.42,505.56,505.72,505.87,506.02,506.18,506.34
467.96,468.15,468.41,468.64,468.89,469.21,469.53,469.81,470.12,470.38,470.58,470.43,469.50,469.68,470.23,470.54,470.26,469.87,469.38,468.93,468.68,468.97,469.34,470.08,471.18,472.60,474.07,475.66,477.34,478.98,480.04,480.63,481.12,481.63,482.11,482.58,483.08,483.59,484.07,484.53,485.00,485.49,486.00,486.48,486.95,487.45,487.96,488.42,488.78,489.05,489.29,489.50,489.60,489.62,489.62,489.64,489.70,489.70,489.64,489.56,489.47,489.32,489.23,489.24,489.31,489.39,489.52,489.63,489.73,489.84,489.98,490.08,490.15,490.21,490.22,490.17,490.13,490.12,490.11,490.04,490.02,490.02,490.02,490.02,490.08,490.18,490.33,490.50,490.65,490.81,490.98,491.19,491.37,491.52,491.68,491.84,491.99,492.19,492.39,492.55,492.71,492.92,493.11,493.29,493.52,493.75,493.93,494.13,494.35,494.57,494.73,494.89,495.02,495.08,495.16,495.19,495.23,495.28,495.35,495.35,495.31,495.26,495.24,495.18,495.15,495.12,495.06,495.05,495.00,494.96,494.96,494.97,495.03,495.06,495.08,495.15,495.16,495.21,495.26,495.27,495.34,495.36,495.40,495.46,495.47,495.53,495.60,495.69,495.84,496.06,496.24,496.39,496.57,496.78,496.97,497.16,497.36,497.52,497.69,497.88,498.02,498.02,498.02,498.01,498.00,498.00,498.01,498.33,498.67,498.98,499.31,499.68,499.90,500.00,500.00,500.00,500.00,500.00,500.02,500.09,500.10,500.14,500.18,500.18,500.18,500.18,500.18,500.18,500.18,500.19,500.20,500.20,500.20,500.20,500.20,500.23,500.28,500.28,500.28,500.28,500.28,500.28,500.28,500.28,500.28,500.28,500.28,500.28,500.31,500.38,500.40,500.47,500.58,500.71,500.80,500.94,501.03,501.12,501.21,501.29,501.36,501.48,501.60,501.70,501.83,502.03,502.26,502.49,502.73,502.96,503.19,503.42,503.65,503.80,503.90,504.00,504.15,504.24,504.31,504.39,504.46,504.46,504.41,504.46,504.63,504.86,505.04,505.20,505.33,505.43,505.58,505.74,505.89,506.04,506.20,506.36
469.27,469.37,469.51,469.75,470.04,470.31,470.64,471.04,471.36,471.66,471.61,471.01,469.87,470.05,470.82,471.37,471.21,470.79,470.18,469.62,469.22,469.03,468.91,469.23,469.95,470.98,472.44,474.04,475.83,477.83,479.66,480.43,480.90,481.39,481.91,482.39,482.85,483.35,483.87,484.34,484.80,485.27,485.76,486.28,486.75,487.22,487.72,488.23,488.68,489.02,489.29,489.51,489.65,489.69,489.69,489.70,489.77,489.73,489.61,489.49,489.40,489.25,489.21,489.24,489.31,489.39,489.48,489.60,489.76,489.95,490.06,490.13,490.22,490.28,490.28,490.27,490.24,490.19,490.18,490.12,490.09,490.09,490.09,490.09,490.15,490.23,490.34,490.55,490.72,490.88,491.03,491.20,491.42,491.59,491.75,491.90,492.05,492.22,492.41,492.62,492.77,492.94,493.14,493.36,493.58,493.76,493.96,494.19,494.41,494.58,494.73,494.89,495.00,495.02,495.09,495.16,495.21,495.22,495.23,495.18,495.14,495.12,495.06,495.04,494.99,494.94,494.93,494.86,494.84,494.83,494.83,494.83,494.89,494.93,494.95,495.02,495.03,495.08,495.13,495.14,495.21,495.23,495.27,495.33,495.34,495.40,495.44,495.47,495.58,495.80,495.97,496.16,496.37,496.54,496.75,496.94,497.10,497.26,497.47,497.66,497.76,497.76,497.76,497.71,497.68,497.72,497.91,498.26,498.60,498.93,499.30,499.63,499.87,500.00,500.00,500.00,500.00,500.00,500.02,500.09,500.10,500.11,500.12,500.12,500.12,500.12,500.12,500.12,500.12,500.18,500.20,500.20,500.20,500.20,500.20,500.21,500.22,500.22,500.22,500.22,500.22,500.22,500.22,500.22,500.22,500.22,500.22,500.22,500.25,500.32,500.39,500.47,500.55,500.66,500.79,500.89,500.97,501.07,501.21,501.29,501.36,501.45,501.55,501.69,501.78,501.96,502.19,502.43,502.66,502.89,503.13,503.36,503.58,503.70,503.78,503.88,504.02,504.11,504.19,504.26,504.32,504.33,504.32,504.39,504.57,504.80,505.02,505.20,505.35,505.49,505.65,505.80,505.95,506.11,506.26,506.42
471.45,471.34,471.26,471.37,471.65,471.88,472.13,472.48,472.81,472.83,472.28,471.21,470.00,470.19,471.03,471.85,472.14,471.79,471.13,470.45,469.88,469.46,469.16,469.12,469.39,470.06,471.06,472.68,474.64,476.76,478.84,479.99,480.65,481.13,481.67,482.14,482.63,483.13,483.63,484.09,484.58,485.07,485.54,486.04,486.54,487.02,487.50,488.00,488.46,488.90,489.27,489.55,489.72,489.75,489.77,489.80,489.79,489.69,489.57,489.46,489.34,489.19,489.15,489.19,489.27,489.38,489.50,489.66,489.84,489.99,490.08,490.15,490.23,490.30,490.34,490.35,490.31,490.25,490.25,490.21,490.20,490.20,490.20,490.20,490.23,490.30,490.43,490.58,490.77,490.94,491.09,491.25,491.48,491.65,491.81,491.97,492.12,492.27,492.47,492.69,492.84,492.99,493.19,493.41,493.61,493.80,494.02,494.24,494.42,494.58,494.70,494.84,494.96,495.00,495.04,495.08,495.10,495.09,495.06,495.02,494.98,494.94,494.90,494.86,494.83,494.79,494.75,494.71,494.67,494.67,494.70,494.71,494.76,494.80,494.82,494.89,494.90,494.95,495.00,495.01,495.08,495.10,495.14,495.20,495.21,495.27,495.30,495.32,495.41,495.56,495.74,495.94,496.12,496.28,496.50,496.69,496.85,497.04,497.24,497.40,497.50,497.50,497.46,497.42,497.44,497.56,497.83,498.20,498.54,498.87,499.25,499.57,499.85,500.00,500.00,500.00,500.00,500.00,500.01,500.05,500.05,500.08,500.10,500.10,500.10,500.10,500.10,500.10,500.10,500.13,500.15,500.16,500.19,500.20,500.20,500.20,500.20,500.20,500.17,500.15,500.15,500.15,500.15,500.15,500.15,500.15,500.15,500.15,500.19,500.26,500.35,500.45,500.54,500.64,500.75,500.87,500.96,501.05,501.16,501.28,501.36,501.44,501.53,501.65,501.76,501.95,502.18,502.41,502.64,502.88,503.09,503.28,503.47,503.57,503.64,503.75,503.89,503.98,504.06,504.13,504.20,504.24,504.25,504.33,504.51,504.78,505.01,505.25,505.45,505.61,505.76,505.92,506.07,506.22,506.38,506.53
473.91,473.56,473.22,473.16,473.39,473.59,473.78,474.00,474.22,473.79,472.72,471.27,470.07,470.26,471.15,472.20,472.97,472.73,472.06,471.29,470.55,469.99,469.60,469.29,469.17,469.50,470.01,471.56,473.62,475.79,477.92,479.45,480.35,480.87,481.39,481.88,482.38,482.90,483.37,483.85,484.36,484.87,485.34,485.81,486.32,486.82,487.29,487.75,488.22,488.73,489.20,489.58,489.78,489.83,489.85,489.86,489.78,489.64,489.53,489.43,489.28,489.13,489.09,489.13,489.23,489.39,489.55,489.75,489.94,490.01,490.10,490.17,490.25,490.33,490.40,490.42,490.38,490.31,490.31,490.31,490.31,490.31,490.31,490.31,490.32,490.40,490.52,490.61,490.81,491.00,491.15,491.32,491.53,491.72,491.88,492.03,492.19,492.34,492.52,492.73,492.90,493.05,493.26,493.47,493.64,493.86,494.08,494.27,494.42,494.56,494.65,494.77,494.89,494.96,494.97,494.97,494.97,494.95,494.89,494.86,494.82,494.77,494.75,494.70,494.66,494.63,494.57,494.56,494.51,494.50,494.57,494.57,494.64,494.67,494.69,494.76,494.77,494.82,494.87,494.88,494.95,494.97,495.01,495.07,495.08,495.14,495.17,495.19,495.27,495.34,495.52,495.71,495.87,496.04,496.24,496.43,496.61,496.83,496.99,497.14,497.24,497.22,497.16,497.15,497.25,497.45,497.76,498.13,498.47,498.80,499.17,499.50,499.81,499.99,500.00,500.00,500.00,500.00,500.00,500.00,500.00,500.04,500.08,500.09,500.10,500.10,500.10,500.10,500.10,500.10,500.10,500.12,500.18,500.19,500.19,500.19,500.19,500.18,500.13,500.10,500.10,500.09,500.08,500.08,500.08,500.07,500.07,500.08,500.13,500.20,500.29,500.43,500.53,500.62,500.71,500.84,500.95,501.03,501.12,501.26,501.36,501.44,501.52,501.60,501.74,501.94,502.17,502.40,502.63,502.86,503.05,503.21,503.35,503.44,503.51,503.62,503.76,503.85,503.93,504.00,504.08,504.15,504.17,504.26,504.46,504.75,505.00,505.28,505.54,505.72,505.89,506.05,506.21,506.37,506.52,506.68
476.37,475.74,475.18,474.98,475.11,475.32,475.49,475.52,475.22,474.16,472.79,471.34,470.14,470.38,471.31,472.48,473.49,473.41,472.78,471.98,471.18,470.52,469.94,469.57,469.39,469.40,469.76,470.97,472.79,475.00,477.15,478.83,479.94,480.60,481.08,481.60,482.09,482.59,483.11,483.64,484.13,484.63,485.14,485.61,486.09,486.59,487.10,487.56,488.02,488.50,488.99,489.48,489.88,489.96,489.90,489.81,489.72,489.58,489.47,489.37,489.23,489.12,489.06,489.09,489.24,489.45,489.62,489.81,490.00,490.08,490.15,490.24,490.31,490.38,490.46,490.48,490.44,490.38,490.38,490.38,490.38,490.38,490.38,490.38,490.43,490.50,490.59,490.67,490.83,491.02,491.22,491.38,491.55,491.75,491.94,492.10,492.25,492.40,492.57,492.75,492.96,493.12,493.33,493.53,493.69,493.92,494.10,494.27,494.41,494.51,494.58,494.67,494.76,494.83,494.84,494.84,494.82,494.76,494.75,494.69,494.65,494.62,494.57,494.55,494.50,494.46,494.44,494.38,494.35,494.38,494.44,494.45,494.51,494.54,494.56,494.63,494.64,494.69,494.74,494.75,494.82,494.84,494.88,494.94,494.95,495.01,495.04,495.06,495.13,495.16,495.29,495.45,495.62,495.83,496.01,496.20,496.40,496.57,496.73,496.88,496.96,496.90,496.89,496.93,497.10,497.38,497.69,498.07,498.41,498.72,499.05,499.42,499.74,499.95,500.00,500.00,500.00,500.00,500.00,500.00,500.00,500.01,500.02,500.03,500.09,500.10,500.10,500.10,500.10,500.10,500.10,500.11,500.12,500.12,500.17,500.17,500.12,500.12,500.11,500.10,500.09,500.03,500.02,500.02,500.00,499.95,499.94,499.99,500.05,500.15,500.28,500.38,500.50,500.62,500.70,500.79,500.92,501.03,501.11,501.21,501.34,501.44,501.52,501.60,501.69,501.87,502.10,502.34,502.57,502.80,503.00,503.13,503.23,503.31,503.38,503.49,503.63,503.72,503.80,503.87,503.95,504.03,504.04,504.15,504.39,504.69,504.94,505.22,505.51,505.78,506.01,506.22,506.41,506.56,506.72,506.87
478.36,477.72,477.13,476.87,476.88,477.04,477.07,476.75,475.92,474.59,473.14,471.74,470.64,470.93,471.93,473.18,474.21,474.06,473.40,472.61,471.82,471.12,470.46,469.96,469.61,469.45,469.68,470.64,472.21,474.21,476.23,478.04,479.35,480.18,480.74,481.28,481.80,482.31,482.85,483.36,483.86,484.36,484.86,485.32,485.76,486.17,486.60,487.09,487.56,488.03,488.52,489.10,489.80,489.99,489.95,489.88,489.83,489.72,489.60,489.49,489.37,489.26,489.18,489.19,489.32,489.52,489.68,489.86,490.02,490.10,490.18,490.25,490.33,490.41,490.49,490.53,490.52,490.48,490.45,490.48,490.49,490.49,490.49,490.49,490.52,490.58,490.65,490.74,490.88,491.06,491.24,491.40,491.59,491.78,491.96,492.12,492.31,492.47,492.63,492.80,493.02,493.19,493.37,493.56,493.75,493.95,494.12,494.25,494.37,494.44,494.49,494.56,494.62,494.67,494.70,494.69,494.65,494.61,494.57,494.54,494.50,494.46,494.41,494.38,494.34,494.31,494.30,494.23,494.21,494.25,494.31,494.31,494.38,494.41,494.43,494.50,494.51,494.56,494.61,494.62,494.69,494.71,494.75,494.81,494.82,494.88,494.91,494.94,495.00,495.01,495.10,495.23,495.40,495.59,495.75,495.95,496.16,496.32,496.50,496.62,496.66,496.63,496.63,496.74,496.98,497.32,497.63,497.97,498.32,498.65,498.97,499.35,499.65,499.86,499.96,499.99,500.00,500.00,500.00,500.00,500.00,500.00,500.00,500.01,500.04,500.08,500.10,500.10,500.10,500.10,500.10,500.10,500.10,500.10,500.13,500.13,500.10,500.06,500.06,500.06,500.04,500.01,500.00,499.98,499.90,499.78,499.81,499.90,500.01,500.13,500.27,500.37,500.47,500.59,500.70,500.78,500.88,501.00,501.11,501.19,501.30,501.41,501.52,501.60,501.67,501.85,502.08,502.31,502.54,502.75,502.91,503.02,503.10,503.18,503.25,503.36,503.50,503.59,503.67,503.74,503.82,503.90,503.97,504.12,504.36,504.64,504.94,505.22,505.50,505.80,506.04,506.27,506.50,506.71,506.87,507.02
479.97,479.44,478.95,478.70,478.62,478.66,478.45,477.73,476.48,475.17,473.79,472.40,471.38,471.73,472.80,474.07,475.03,474.69,474.00,473.23,472.47,471.77,471.07,470.40,469.85,469.58,469.67,470.46,471.80,473.56,475.37,477.17,478.59,479.58,480.31,480.89,481.44,481.97,482.49,482.94,483.43,483.92,484.37,484.81,485.16,485.43,485.76,486.28,486.75,487.25,487.80,488.49,489.49,489.84,489.94,489.99,489.98,489.93,489.82,489.70,489.62,489.48,489.38,489.37,489.45,489.60,489.76,489.91,490.03,490.11,490.19,490.26,490.35,490.42,490.50,490.58,490.61,490.59,490.54,490.58,490.61,490.61,490.61,490.61,490.62,490.65,490.73,490.81,490.95,491.10,491.25,491.42,491.63,491.81,491.97,492.14,492.35,492.53,492.69,492.86,493.08,493.25,493.40,493.59,493.79,493.95,494.10,494.21,494.28,494.35,494.37,494.41,494.47,494.49,494.55,494.53,494.48,494.46,494.40,494.38,494.34,494.28,494.28,494.22,494.19,494.18,494.16,494.10,494.08,494.12,494.18,494.19,494.25,494.28,494.30,494.37,494.38,494.44,494.48,494.49,494.56,494.58,494.62,494.68,494.69,494.75,494.78,494.81,494.87,494.88,494.94,495.05,495.18,495.34,495.50,495.70,495.90,496.06,496.28,496.37,496.37,496.37,496.39,496.58,496.88,497.25,497.56,497.87,498.22,498.59,498.89,499.22,499.46,499.64,499.77,499.85,499.87,499.88,499.90,499.94,499.99,500.00,500.00,500.00,500.00,500.05,500.08,500.08,500.09,500.10,500.10,500.10,500.10,500.10,500.10,500.10,500.07,500.02,500.00,500.00,500.00,500.00,500.00,499.94,499.80,499.62,499.69,499.82,499.97,500.13,500.26,500.36,500.44,500.54,500.68,500.78,500.86,500.96,501.10,501.19,501.26,501.38,501.51,501.59,501.67,501.84,502.07,502.30,502.53,502.70,502.81,502.89,502.97,503.05,503.13,503.23,503.37,503.46,503.53,503.61,503.69,503.78,503.93,504.12,504.34,504.59,504.94,505.23,505.50,505.81,506.06,506.29,506.55,506.82,507.00,507.16
480.93,480.58,480.26,480.15,480.11,479.89,479.31,478.29,476.98,476.26,475.10,473.48,472.25,472.66,473.74,474.96,475.84,475.33,474.62,473.87,473.12,472.42,471.67,470.87,470.13,469.72,469.75,470.38,471.65,473.46,474.99,476.33,477.51,478.57,479.52,480.23,480.81,481.33,481.78,482.10,482.49,482.88,483.24,483.62,483.68,483.81,484.11,484.59,485.06,485.72,486.55,487.52,488.57,489.23,489.69,490.00,490.00,490.03,489.99,489.92,489.88,489.73,489.64,489.58,489.58,489.73,489.88,490.00,490.10,490.18,490.25,490.33,490.40,490.49,490.56,490.63,490.68,490.67,490.65,490.67,490.68,490.68,490.68,490.68,490.72,490.76,490.80,490.93,491.03,491.16,491.31,491.48,491.64,491.85,492.03,492.19,492.37,492.57,492.75,492.91,493.09,493.29,493.47,493.63,493.79,493.90,494.00,494.06,494.09,494.17,494.18,494.22,494.30,494.34,494.37,494.36,494.33,494.28,494.25,494.21,494.17,494.15,494.14,494.08,494.05,494.03,493.98,493.96,493.95,493.99,494.05,494.06,494.12,494.15,494.17,494.24,494.25,494.31,494.35,494.37,494.43,494.45,494.49,494.55,494.56,494.62,494.65,494.68,494.74,494.75,494.81,494.87,494.93,495.08,495.28,495.48,495.64,495.81,496.02,496.11,496.11,496.12,496.23,496.48,496.81,497.19,497.50,497.80,498.16,498.50,498.74,498.86,498.92,499.00,499.10,499.17,499.23,499.29,499.40,499.68,499.92,500.00,500.00,500.00,500.00,500.01,500.03,500.03,500.03,500.07,500.10,500.10,500.10,500.10,500.10,500.07,500.03,500.00,500.00,500.00,500.00,500.00,500.00,499.87,499.67,499.50,499.66,499.77,499.93,500.12,500.21,500.30,500.40,500.53,500.63,500.76,500.86,500.94,501.04,501.18,501.26,501.35,501.46,501.58,501.67,501.81,502.01,502.24,502.47,502.60,502.69,502.76,502.84,502.92,503.00,503.10,503.24,503.33,503.40,503.48,503.57,503.70,503.90,504.09,504.28,504.52,504.84,505.14,505.45,505.80,506.10,506.35,506.59,506.85,507.11,507.33
481.67,481.52,481.31,481.22,481.14,480.78,480.10,479.17,478.29,477.92,476.84,474.97,473.20,473.66,474.77,475.89,476.55,475.96,475.23,474.50,473.75,473.00,472.20,471.33,470.47,469.87,469.79,470.31,471.40,472.97,474.28,475.41,476.51,477.60,478.59,479.36,480.02,480.61,481.06,481.31,481.52,481.77,482.04,482.24,482.09,482.08,482.36,482.90,483.59,484.46,485.46,486.54,487.64,488.40,489.03,489.56,489.85,490.04,490.07,490.04,490.02,489.91,489.85,489.78,489.75,489.86,489.96,490.04,490.13,490.23,490.31,490.40,490.47,490.54,490.63,490.70,490.74,490.74,490.74,490.74,490.76,490.78,490.78,490.78,490.82,490.86,490.90,491.02,491.11,491.21,491.35,491.53,491.69,491.88,492.07,492.25,492.41,492.60,492.79,492.97,493.13,493.33,493.50,493.63,493.72,493.80,493.85,493.89,493.93,493.98,494.01,494.05,494.10,494.17,494.18,494.18,494.16,494.12,494.09,494.05,494.02,494.02,493.99,493.94,493.90,493.87,493.83,493.82,493.82,493.85,493.92,493.92,493.99,494.02,494.04,494.11,494.12,494.18,494.22,494.24,494.30,494.32,494.36,494.42,494.43,494.49,494.52,494.55,494.61,494.62,494.68,494.72,494.75,494.87,495.06,495.23,495.39,495.58,495.77,495.84,495.86,495.92,496.12,496.40,496.75,497.12,497.43,497.74,498.06,498.32,498.45,498.47,498.47,498.48,498.54,498.62,498.66,498.79,499.07,499.55,499.89,500.00,500.00,500.00,500.00,500.00,500.00,500.00,500.00,500.04,500.06,500.07,500.10,500.10,500.08,500.04,500.00,500.00,500.00,500.00,500.00,500.00,499.97,499.71,499.44,499.40,499.61,499.75,499.89,500.08,500.19,500.27,500.37,500.49,500.60,500.72,500.81,500.90,501.01,501.14,501.25,501.34,501.43,501.55,501.66,501.80,501.97,502.17,502.38,502.48,502.56,502.63,502.71,502.79,502.88,503.00,503.12,503.20,503.30,503.39,503.48,503.63,503.85,504.06,504.25,504.49,504.73,505.06,505.42,505.77,506.09,506.38,506.66,506.92,507.20,507.44
482.28,482.32,482.19,482.03,481.89,481.48,480.87,480.23,479.94,479.69,478.57,476.50,474.20,474.70,475.88,476.86,477.18,476.59,475.84,475.13,474.43,473.62,472.77,471.87,470.95,470.13,469.87,470.23,471.04,472.18,473.33,474.44,475.56,476.66,477.57,478.37,479.12,479.79,480.28,480.55,480.60,480.69,480.85,480.84,480.55,480.47,480.71,481.37,482.35,483.41,484.49,485.59,486.71,487.45,488.13,488.87,489.60,489.98,490.10,490.11,490.09,490.02,490.00,489.96,489.91,489.98,490.00,490.05,490.15,490.28,490.37,490.44,490.52,490.61,490.68,490.75,490.80,490.81,490.81,490.81,490.85,490.90,490.90,490.90,490.91,490.94,491.01,491.09,491.17,491.26,491.38,491.59,491.75,491.91,492.10,492.30,492.47,492.63,492.82,493.02,493.18,493.33,493.48,493.57,493.60,493.66,493.69,493.73,493.78,493.80,493.85,493.89,493.92,493.98,494.00,494.00,494.00,493.97,493.92,493.89,493.89,493.86,493.81,493.79,493.75,493.70,493.68,493.69,493.69,493.73,493.79,493.79,493.86,493.89,493.91,493.98,493.99,494.05,494.09,494.10,494.17,494.19,494.23,494.29,494.30,494.36,494.39,494.42,494.48,494.49,494.55,494.59,494.61,494.69,494.82,494.98,495.15,495.36,495.53,495.58,495.62,495.75,496.03,496.34,496.68,497.04,497.35,497.66,497.91,498.06,498.08,498.08,498.08,498.08,498.10,498.17,498.19,498.39,498.84,499.48,499.87,499.99,500.00,500.00,500.00,500.00,500.00,500.00,500.00,500.00,500.00,500.02,500.08,500.09,500.04,500.00,500.00,500.00,500.00,500.00,500.00,499.99,499.85,499.46,499.17,499.32,499.54,499.71,499.87,500.03,500.17,500.26,500.34,500.45,500.58,500.68,500.76,500.87,501.00,501.09,501.23,501.34,501.42,501.51,501.64,501.79,501.95,502.10,502.25,502.35,502.43,502.51,502.59,502.68,502.80,502.93,503.01,503.10,503.22,503.34,503.44,503.59,503.80,504.03,504.25,504.48,504.67,505.01,505.40,505.72,506.03,506.38,506.72,507.02,507.27,507.51
482.70,482.95,482.96,482.76,482.60,482.28,481.73,481.02,480.67,480.29,479.06,477.03,475.16,475.83,477.05,477.86,477.81,477.18,476.47,475.86,475.33,474.63,473.77,472.85,471.91,470.96,470.16,470.15,470.58,471.30,472.37,473.50,474.65,475.73,476.55,477.38,478.10,478.72,479.23,479.59,479.77,479.85,479.84,479.73,479.48,479.47,479.77,480.39,481.36,482.46,483.57,484.66,485.75,486.51,487.34,488.34,489.41,489.90,490.10,490.17,490.16,490.09,490.07,490.03,489.98,490.00,490.05,490.12,490.20,490.30,490.38,490.45,490.53,490.61,490.69,490.76,490.83,490.88,490.93,490.94,490.95,490.97,490.97,490.97,491.01,491.05,491.08,491.16,491.24,491.34,491.47,491.60,491.75,491.94,492.14,492.31,492.47,492.67,492.86,493.03,493.19,493.29,493.36,493.41,493.46,493.49,493.53,493.57,493.60,493.65,493.68,493.73,493.77,493.80,493.84,493.86,493.84,493.79,493.76,493.76,493.73,493.69,493.66,493.61,493.58,493.54,493.50,493.55,493.56,493.59,493.66,493.66,493.73,493.76,493.78,493.85,493.86,493.92,493.96,493.98,494.04,494.06,494.10,494.16,494.17,494.23,494.26,494.28,494.35,494.36,494.42,494.46,494.48,494.55,494.60,494.74,494.94,495.11,495.28,495.32,495.41,495.66,495.96,496.27,496.59,496.92,497.23,497.49,497.64,497.68,497.68,497.68,497.68,497.68,497.70,497.77,497.79,498.02,498.53,499.20,499.70,499.93,500.00,500.00,500.00,500.00,500.00,500.00,500.00,500.00,500.00,500.01,500.03,500.03,500.01,500.00,500.00,500.00,500.00,500.00,500.00,499.94,499.37,499.09,499.09,499.25,499.48,499.65,499.83,500.01,500.12,500.20,500.31,500.43,500.53,500.66,500.75,500.84,500.95,501.08,501.19,501.30,501.42,501.50,501.60,501.73,501.88,502.03,502.14,502.22,502.32,502.44,502.52,502.65,502.79,502.92,503.00,503.13,503.24,503.35,503.49,503.65,503.86,504.06,504.25,504.49,504.75,505.03,505.36,505.71,506.02,506.35,506.67,506.99,507.32,507.62
483.06,483.47,483.63,483.36,483.06,482.67,482.12,481.43,480.97,480.45,479.09,477.32,476.64,477.34,478.28,478.77,478.42,477.76,477.17,476.75,476.43,475.85,474.99,474.03,473.02,471.92,470.73,470.32,470.39,470.79,471.54,472.59,473.73,474.76,475.52,476.31,476.97,477.58,478.15,478.51,478.85,479.03,478.99,478.84,478.65,478.77,479.19,479.77,480.65,481.71,482.78,483.82,484.89,485.83,486.88,488.07,489.30,489.85,490.10,490.21,490.22,490.15,490.13,490.10,490.04,490.04,490.10,490.18,490.25,490.34,490.41,490.49,490.56,490.65,490.72,490.79,490.88,490.95,491.02,491.03,491.05,491.07,491.07,491.07,491.11,491.15,491.18,491.23,491.32,491.44,491.55,491.64,491.78,491.97,492.17,492.35,492.50,492.70,492.88,493.02,493.12,493.21,493.23,493.25,493.30,493.32,493.37,493.41,493.44,493.49,493.52,493.56,493.60,493.63,493.68,493.70,493.68,493.63,493.60,493.60,493.57,493.53,493.50,493.45,493.42,493.39,493.38,493.42,493.45,493.49,493.54,493.56,493.61,493.63,493.65,493.72,493.73,493.78,493.83,493.84,493.91,493.93,493.97,494.03,494.04,494.10,494.13,494.16,494.22,494.23,494.29,494.33,494.34,494.41,494.43,494.53,494.70,494.85,495.02,495.10,495.25,495.56,495.89,496.19,496.48,496.79,497.09,497.25,497.30,497.30,497.30,497.30,497.30,497.30,497.31,497.35,497.38,497.66,498.20,498.85,499.37,499.66,499.81,499.85,499.97,500.00,500.00,500.00,500.00,500.00,500.00,500.00,500.00,500.00,500.00,500.00,500.00,500.00,500.00,500.00,499.97,499.77,499.03,498.83,499.00,499.18,499.38,499.57,499.76,499.95,500.06,500.16,500.28,500.39,500.48,500.62,500.72,500.81,500.91,501.04,501.13,501.25,501.38,501.47,501.56,501.70,501.86,502.00,502.08,502.18,502.30,502.44,502.53,502.67,502.83,502.95,503.04,503.19,503.30,503.42,503.55,503.70,503.90,504.10,504.29,504.52,504.80,505.06,505.36,505.71,506.02,506.34,506.65,507.01,507.44,507.79
483.43,483.93,484.18,483.81,483.25,482.65,482.05,481.49,480.94,480.26,478.91,477.70,478.56,479.16,479.55,479.58,479.04,478.40,477.99,477.80,477.67,477.20,476.35,475.33,474.22,473.00,471.63,470.86,470.60,470.73,470.96,471.78,472.80,473.77,474.47,475.17,475.78,476.41,477.08,477.38,477.83,478.18,478.27,478.13,478.00,478.29,478.87,479.44,480.19,481.13,482.12,483.10,484.22,485.46,486.75,488.05,489.27,489.85,490.10,490.23,490.27,490.22,490.19,490.16,490.10,490.10,490.17,490.24,490.31,490.39,490.48,490.55,490.62,490.70,490.78,490.86,490.94,491.01,491.08,491.10,491.14,491.19,491.19,491.19,491.20,491.24,491.29,491.31,491.43,491.54,491.62,491.71,491.85,492.01,492.19,492.40,492.56,492.72,492.87,492.98,493.01,493.07,493.10,493.10,493.12,493.18,493.21,493.24,493.29,493.31,493.36,493.40,493.43,493.49,493.50,493.50,493.50,493.48,493.42,493.40,493.40,493.38,493.32,493.30,493.25,493.23,493.29,493.30,493.36,493.40,493.41,493.48,493.50,493.50,493.53,493.59,493.60,493.66,493.70,493.72,493.78,493.81,493.84,493.90,493.91,493.98,494.00,494.03,494.09,494.10,494.16,494.20,494.22,494.28,494.31,494.36,494.46,494.61,494.76,494.92,495.13,495.44,495.81,496.09,496.36,496.66,496.92,496.93,496.91,496.90,496.90,496.90,496.90,496.90,496.91,496.92,496.97,497.29,497.86,498.44,498.87,499.20,499.41,499.55,499.88,499.99,500.00,500.00,500.00,500.00,500.00,500.00,500.00,500.00,500.00,500.00,500.00,500.00,500.00,499.98,499.87,499.46,498.84,498.70,498.88,499.10,499.27,499.48,499.68,499.84,499.99,500.13,500.24,500.32,500.42,500.56,500.66,500.76,500.90,500.99,501.08,501.20,501.32,501.41,501.55,501.71,501.86,502.00,502.10,502.22,502.37,502.51,502.59,502.74,502.89,503.02,503.11,503.25,503.40,503.52,503.62,503.77,503.93,504.12,504.34,504.58,504.81,505.09,505.40,505.72,506.02,506.34,506.69,507.10,507.61,508.03
483.93,484.44,484.64,484.06,483.32,482.55,481.86,481.27,480.66,479.71,479.16,479.27,480.12,480.64,480.65,480.30,479.78,479.32,479.06,478.94,478.89,478.58,477.65,476.60,475.55,474.45,473.29,472.36,471.70,471.37,471.27,471.45,471.95,472.67,473.32,474.01,474.67,475.32,475.94,476.30,476.80,477.26,477.54,477.39,477.50,477.94,478.56,479.15,479.77,480.63,481.63,482.76,484.12,485.60,487.01,488.31,489.49,489.95,490.13,490.23,490.29,490.27,490.23,490.19,490.17,490.17,490.23,490.28,490.32,490.41,490.52,490.58,490.63,490.72,490.84,490.93,491.00,491.07,491.10,491.14,491.22,491.26,491.26,491.26,491.30,491.34,491.37,491.43,491.52,491.61,491.69,491.77,491.92,492.07,492.24,492.42,492.62,492.71,492.79,492.87,492.88,492.94,492.98,492.98,492.98,493.00,493.04,493.08,493.11,493.12,493.18,493.24,493.28,493.31,493.35,493.34,493.31,493.30,493.28,493.24,493.21,493.20,493.18,493.13,493.09,493.10,493.16,493.17,493.23,493.28,493.29,493.36,493.38,493.40,493.44,493.47,493.52,493.56,493.59,493.64,493.67,493.71,493.75,493.78,493.83,493.86,493.90,493.95,493.98,494.02,494.06,494.09,494.14,494.17,494.22,494.25,494.30,494.41,494.56,494.78,495.05,495.37,495.70,495.99,496.26,496.49,496.60,496.59,496.55,496.52,496.52,496.52,496.52,496.52,496.52,496.52,496.54,496.90,497.50,497.96,498.31,498.63,498.91,499.17,499.63,499.90,500.00,500.00,500.00,500.00,500.00,500.00,500.00,500.00,500.00,500.00,500.00,500.00,500.00,499.87,499.54,498.98,498.60,498.57,498.76,498.98,499.19,499.38,499.57,499.76,499.92,500.08,500.18,500.27,500.40,500.51,500.62,500.75,500.85,500.98,501.11,501.22,501.33,501.46,501.61,501.76,501.92,502.07,502.20,502.31,502.44,502.58,502.66,502.80,502.95,503.09,503.18,503.31,503.47,503.60,503.69,503.84,503.99,504.16,504.36,504.58,504.81,505.10,505.40,505.72,506.02,506.37,506.79,507.27,507.76,508.25
484.47,484.95,485.07,484.32,483.50,482.66,481.88,481.20,480.53,479.62,479.68,480.55,481.23,481.75,481.56,481.04,480.57,480.25,480.09,480.05,480.04,479.80,479.00,478.08,477.17,476.18,475.18,474.25,473.43,472.77,472.44,472.19,472.21,472.45,472.69,473.02,473.61,474.28,474.82,475.27,475.78,476.32,476.73,476.71,477.07,477.62,478.24,478.85,479.42,480.24,481.30,482.63,484.17,485.77,487.26,488.61,489.69,490.03,490.15,490.23,490.29,490.32,490.27,490.22,490.22,490.23,490.27,490.31,490.35,490.43,490.56,490.62,490.66,490.75,490.87,490.96,491.04,491.11,491.13,491.20,491.26,491.31,491.33,491.35,491.40,491.44,491.47,491.52,491.60,491.68,491.75,491.84,491.98,492.12,492.26,492.42,492.60,492.64,492.68,492.74,492.75,492.79,492.83,492.84,492.84,492.84,492.90,492.95,492.95,492.95,492.99,493.06,493.12,493.12,493.19,493.18,493.13,493.12,493.11,493.07,493.05,493.04,493.01,492.97,492.95,492.97,493.04,493.05,493.10,493.14,493.16,493.23,493.25,493.28,493.34,493.35,493.42,493.45,493.47,493.54,493.55,493.60,493.64,493.66,493.73,493.75,493.79,493.84,493.85,493.90,493.93,493.97,494.02,494.04,494.09,494.12,494.13,494.22,494.38,494.65,494.96,495.27,495.58,495.87,496.09,496.22,496.23,496.23,496.19,496.16,496.16,496.13,496.13,496.13,496.13,496.13,496.15,496.50,497.06,497.45,497.76,498.06,498.38,498.77,499.26,499.61,499.85,499.97,500.00,500.00,500.00,500.00,500.00,500.00,500.00,500.00,500.00,500.00,499.95,499.71,499.25,498.63,498.37,498.43,498.63,498.88,499.12,499.30,499.50,499.70,499.88,500.02,500.13,500.25,500.39,500.48,500.61,500.74,500.85,501.00,501.15,501.27,501.37,501.52,501.67,501.83,501.99,502.13,502.29,502.38,502.50,502.64,502.75,502.87,503.02,503.16,503.26,503.39,503.53,503.67,503.78,503.93,504.07,504.20,504.36,504.58,504.81,505.09,505.38,505.69,506.04,506.45,506.92,507.44,507.93,508.44
485.06,485.48,485.50,484.67,483.88,483.06,482.23,481.43,480.69,480.20,480.43,481.20,481.89,482.45,482.28,481.79,481.40,481.08,481.00,481.06,481.11,480.81,480.37,479.79,479.06,478.15,477.19,476.44,475.71,474.95,474.49,474.20,473.86,473.40,472.87,472.44,472.74,473.34,473.79,474.31,474.85,475.39,475.87,476.16,476.70,477.30,477.93,478.54,479.15,479.98,481.13,482.66,484.27,485.84,487.42,488.87,489.82,490.06,490.15,490.23,490.30,490.37,490.33,490.29,490.29,490.29,490.30,490.35,490.42,490.50,490.58,490.65,490.73,490.80,490.89,490.96,491.04,491.12,491.19,491.26,491.29,491.33,491.39,491.46,491.49,491.52,491.58,491.60,491.66,491.74,491.82,491.90,492.04,492.15,492.26,492.40,492.50,492.51,492.55,492.61,492.61,492.62,492.66,492.71,492.72,492.72,492.76,492.81,492.81,492.81,492.82,492.86,492.92,492.94,493.00,493.01,492.99,492.93,492.93,492.91,492.91,492.89,492.83,492.82,492.81,492.84,492.90,492.91,492.97,493.01,493.03,493.09,493.11,493.15,493.21,493.22,493.28,493.31,493.33,493.40,493.41,493.47,493.51,493.52,493.59,493.60,493.65,493.71,493.71,493.71,493.77,493.81,493.83,493.89,493.91,493.92,493.94,494.03,494.24,494.52,494.83,495.14,495.44,495.69,495.82,495.84,495.84,495.84,495.83,495.82,495.82,495.76,495.74,495.74,495.74,495.74,495.79,496.08,496.54,496.92,497.24,497.51,497.86,498.35,498.76,499.09,499.49,499.89,499.99,500.00,500.00,500.00,500.00,500.00,500.00,500.00,499.99,499.98,499.81,499.50,499.06,498.48,498.20,498.27,498.52,498.81,499.05,499.27,499.47,499.65,499.86,499.98,500.10,500.25,500.39,500.48,500.62,500.76,500.91,501.06,501.22,501.34,501.44,501.59,501.74,501.90,502.05,502.20,502.36,502.46,502.57,502.72,502.86,502.96,503.09,503.24,503.38,503.47,503.60,503.75,503.90,504.05,504.16,504.24,504.36,504.58,504.81,505.06,505.32,505.66,506.09,506.59,507.09,507.58,508.10,508.59
485.64,485.98,485.89,485.05,484.27,483.54,482.81,482.06,481.38,480.89,481.10,481.87,482.59,483.20,483.05,482.58,482.24,481.89,481.81,481.92,482.04,481.69,481.28,480.82,480.31,479.74,479.14,478.63,477.97,477.13,476.53,476.11,475.57,474.90,474.21,473.61,473.32,473.19,473.17,473.69,474.25,474.80,475.36,475.83,476.45,477.09,477.70,478.32,478.94,479.71,480.86,482.46,484.12,485.76,487.42,488.93,489.85,490.07,490.15,490.23,490.30,490.38,490.38,490.36,490.36,490.36,490.36,490.40,490.48,490.55,490.63,490.72,490.79,490.87,490.94,490.99,491.04,491.12,491.19,491.23,491.27,491.33,491.40,491.48,491.53,491.60,491.67,491.71,491.74,491.83,491.93,491.97,492.06,492.15,492.23,492.29,492.37,492.38,492.42,492.48,492.49,492.49,492.50,492.54,492.58,492.58,492.61,492.65,492.68,492.69,492.69,492.70,492.74,492.78,492.81,492.82,492.81,492.78,492.78,492.75,492.73,492.72,492.69,492.69,492.69,492.71,492.77,492.78,492.81,492.85,492.88,492.92,492.96,493.00,493.02,493.03,493.10,493.13,493.14,493.17,493.22,493.25,493.29,493.33,493.36,493.37,493.41,493.47,493.47,493.47,493.53,493.56,493.58,493.65,493.66,493.66,493.70,493.84,494.09,494.39,494.70,495.01,495.31,495.46,495.48,495.45,495.45,495.45,495.45,495.45,495.44,495.37,495.35,495.35,495.35,495.35,495.38,495.62,496.02,496.36,496.71,497.04,497.41,497.86,498.25,498.61,499.10,499.65,499.95,500.00,500.00,500.00,500.00,500.00,500.00,499.96,499.87,499.78,499.54,499.22,498.83,498.29,498.05,498.13,498.38,498.64,498.92,499.16,499.38,499.59,499.86,500.01,500.12,500.25,500.40,500.52,500.67,500.82,500.98,501.13,501.28,501.42,501.55,501.71,501.86,502.02,502.16,502.27,502.42,502.55,502.67,502.79,502.94,503.07,503.18,503.30,503.45,503.53,503.67,503.82,503.98,504.13,504.26,504.36,504.45,504.60,504.81,505.05,505.35,505.80,506.26,506.75,507.25,507.75,508.25,508.76
486.22,486.49,486.35,485.58,484.84,484.17,483.52,482.85,482.24,481.66,481.76,482.46,483.27,483.94,483.83,483.39,483.05,482.69,482.60,482.75,482.91,482.55,482.11,481.73,481.41,481.12,480.81,480.47,479.93,479.12,478.47,477.93,477.26,476.50,475.82,475.15,474.38,473.61,473.10,473.33,473.82,474.40,475.00,475.57,476.22,476.90,477.56,478.20,478.84,479.59,480.74,482.38,484.07,485.76,487.45,488.96,489.85,490.07,490.15,490.23,490.30,490.38,490.40,490.41,490.43,490.43,490.43,490.47,490.54,490.60,490.68,490.75,490.82,490.88,490.94,490.97,491.01,491.10,491.17,491.18,491.23,491.30,491.38,491.46,491.53,491.60,491.67,491.74,491.77,491.86,491.96,491.98,492.05,492.12,492.15,492.16,492.22,492.24,492.28,492.33,492.35,492.35,492.35,492.38,492.45,492.46,492.46,492.48,492.53,492.55,492.55,492.55,492.57,492.63,492.65,492.65,492.64,492.63,492.63,492.58,492.54,492.53,492.53,492.53,492.52,492.54,492.59,492.61,492.61,492.64,492.70,492.71,492.76,492.80,492.81,492.81,492.88,492.90,492.90,492.92,492.99,493.00,493.05,493.11,493.11,493.11,493.15,493.20,493.20,493.20,493.27,493.31,493.32,493.37,493.40,493.42,493.47,493.66,493.95,494.26,494.57,494.87,495.11,495.14,495.11,495.06,495.06,495.06,495.06,495.06,495.03,494.98,494.96,494.96,494.96,494.94,494.95,495.16,495.51,495.83,496.19,496.56,496.93,497.32,497.71,498.13,498.66,499.25,499.69,499.83,499.88,499.90,499.88,499.88,499.85,499.79,499.66,499.48,499.20,498.90,498.57,498.11,497.89,497.98,498.22,498.47,498.76,499.02,499.28,499.56,499.86,500.05,500.17,500.27,500.42,500.58,500.73,500.88,501.04,501.19,501.35,501.50,501.66,501.81,501.97,502.13,502.25,502.34,502.49,502.64,502.76,502.85,503.00,503.16,503.27,503.37,503.52,503.62,503.75,503.91,504.06,504.22,504.36,504.47,504.54,504.63,504.82,505.09,505.46,506.01,506.48,506.94,507.43,507.95,508.43,508.95
486.81,487.05,486.94,486.35,485.71,485.05,484.38,483.76,483.14,482.53,482.44,482.96,483.90,484.63,484.60,484.21,483.85,483.52,483.45,483.60,483.76,483.40,483.00,482.73,482.53,482.28,481.98,481.71,481.32,480.75,480.24,479.61,478.86,478.07,477.41,476.63,475.71,474.72,473.80,473.30,473.58,474.14,474.75,475.36,476.00,476.74,477.52,478.21,478.89,479.73,480.96,482.64,484.28,485.96,487.63,489.08,489.87,490.07,490.15,490.23,490.30,490.38,490.40,490.43,490.48,490.49,490.49,490.53,490.59,490.61,490.68,490.75,490.80,490.81,490.83,490.88,490.95,491.03,491.10,491.11,491.16,491.24,491.31,491.39,491.47,491.51,491.54,491.62,491.68,491.76,491.84,491.91,491.99,492.02,492.03,492.03,492.04,492.09,492.13,492.15,492.21,492.23,492.23,492.25,492.31,492.32,492.32,492.33,492.35,492.41,492.42,492.42,492.43,492.44,492.50,492.53,492.50,492.44,492.43,492.43,492.39,492.34,492.33,492.33,492.30,492.28,492.34,492.34,492.34,492.38,492.44,492.45,492.46,492.50,492.55,492.56,492.63,492.64,492.64,492.66,492.73,492.75,492.79,492.84,492.84,492.84,492.89,492.95,492.95,492.95,493.00,493.05,493.05,493.06,493.12,493.19,493.29,493.52,493.82,494.13,494.44,494.70,494.76,494.72,494.68,494.67,494.67,494.67,494.67,494.65,494.59,494.57,494.57,494.57,494.56,494.50,494.54,494.74,495.06,495.37,495.68,496.00,496.35,496.73,497.12,497.66,498.16,498.60,499.05,499.35,499.54,499.61,499.56,499.55,499.46,499.38,499.31,499.11,498.82,498.55,498.28,497.95,497.71,497.79,498.05,498.34,498.59,498.87,499.20,499.55,499.86,500.10,500.24,500.34,500.49,500.65,500.80,500.95,501.11,501.26,501.42,501.57,501.73,501.88,502.03,502.19,502.31,502.41,502.55,502.70,502.83,502.92,503.07,503.23,503.34,503.44,503.59,503.73,503.88,504.04,504.19,504.35,504.45,504.53,504.61,504.69,504.85,505.18,505.67,506.26,506.74,507.20,507.67,508.16,508.69,509.17
487.43,487.68,487.59,487.11,486.51,485.87,485.25,484.67,484.05,483.43,483.16,483.42,484.41,485.29,485.36,485.01,484.67,484.32,484.27,484.44,484.63,484.38,484.08,483.87,483.69,483.45,483.15,482.92,482.61,482.13,481.73,481.10,480.34,479.55,478.80,478.00,477.01,475.93,474.88,474.00,473.67,473.88,474.50,475.13,475.94,476.85,477.71,478.41,479.10,480.02,481.31,483.01,484.72,486.42,488.08,489.43,489.92,490.07,490.15,490.23,490.30,490.38,490.40,490.44,490.50,490.50,490.50,490.54,490.60,490.61,490.68,490.73,490.75,490.75,490.75,490.81,490.88,490.96,490.99,491.03,491.10,491.18,491.25,491.32,491.37,491.41,491.46,491.53,491.58,491.64,491.72,491.79,491.87,491.89,491.89,491.89,491.90,491.96,492.00,492.00,492.03,492.08,492.09,492.10,492.14,492.18,492.20,492.20,492.20,492.24,492.27,492.30,492.30,492.30,492.33,492.34,492.33,492.29,492.25,492.24,492.22,492.20,492.19,492.16,492.12,492.09,492.09,492.08,492.08,492.13,492.18,492.18,492.18,492.23,492.29,492.30,492.36,492.38,492.38,492.40,492.47,492.49,492.53,492.58,492.58,492.58,492.63,492.68,492.68,492.68,492.75,492.79,492.79,492.84,492.90,493.00,493.15,493.39,493.69,494.00,494.26,494.42,494.43,494.37,494.31,494.28,494.28,494.25,494.23,494.22,494.18,494.18,494.15,494.13,494.12,494.09,494.14,494.33,494.60,494.91,495.18,495.48,495.81,496.19,496.55,497.03,497.52,497.96,498.40,498.71,498.88,498.98,499.02,499.11,499.01,498.93,498.90,498.75,498.55,498.29,498.01,497.72,497.55,497.67,497.96,498.26,498.54,498.84,499.18,499.56,499.90,500.16,500.30,500.40,500.55,500.71,500.86,501.01,501.17,501.33,501.48,501.63,501.79,501.94,502.10,502.25,502.40,502.51,502.63,502.77,502.91,503.03,503.14,503.29,503.42,503.55,503.70,503.86,504.01,504.17,504.32,504.48,504.57,504.65,504.72,504.81,504.99,505.38,505.91,506.48,506.99,507.50,508.00,508.50,509.00,509.51
488.03,488.28,488.23,487.86,487.30,486.69,486.10,485.54,484.96,484.46,483.98,483.88,484.88,485.95,486.13,485.82,485.48,485.11,485.10,485.30,485.52,485.40,485.21,485.03,484.84,484.61,484.32,484.14,483.87,483.43,483.13,482.51,481.79,481.01,480.15,479.36,478.34,477.22,476.15,475.06,474.14,473.84,474.26,474.94,475.96,477.01,477.94,478.67,479.37,480.37,481.73,483.44,485.20,486.92,488.55,489.78,489.98,490.07,490.15,490.23,490.30,490.37,490.39,490.43,490.48,490.49,490.49,490.52,490.58,490.59,490.66,490.69,490.69,490.69,490.69,490.75,490.81,490.86,490.89,490.96,491.03,491.10,491.17,491.25,491.28,491.31,491.38,491.45,491.48,491.52,491.58,491.66,491.74,491.76,491.76,491.76,491.77,491.82,491.86,491.86,491.87,491.94,491.97,491.97,491.98,492.03,492.06,492.06,492.06,492.07,492.12,492.14,492.14,492.14,492.14,492.15,492.16,492.13,492.08,492.06,492.06,492.04,492.04,491.99,491.96,491.92,491.87,491.85,491.84,491.88,491.92,491.93,491.93,491.97,492.02,492.04,492.10,492.13,492.13,492.14,492.21,492.23,492.26,492.31,492.32,492.32,492.38,492.43,492.43,492.43,492.47,492.51,492.54,492.61,492.70,492.84,493.02,493.26,493.56,493.84,494.03,494.09,494.11,494.05,493.97,493.91,493.89,493.82,493.79,493.79,493.79,493.78,493.73,493.69,493.69,493.70,493.76,493.90,494.13,494.45,494.68,494.96,495.29,495.67,495.97,496.39,496.84,497.30,497.74,498.01,498.15,498.26,498.44,498.61,498.55,498.48,498.46,498.40,498.26,498.04,497.75,497.48,497.37,497.56,497.88,498.20,498.53,498.84,499.18,499.57,499.94,500.20,500.36,500.48,500.62,500.77,500.92,501.08,501.24,501.39,501.54,501.70,501.86,502.01,502.17,502.32,502.47,502.62,502.72,502.84,502.99,503.13,503.23,503.37,503.53,503.68,503.83,503.99,504.13,504.28,504.44,504.59,504.69,504.77,504.89,505.10,505.30,505.69,506.21,506.74,507.28,507.81,508.34,508.87,509.35,509.85
488.57,488.77,488.74,488.56,488.12,487.54,486.93,486.35,485.87,485.78,485.08,484.34,485.36,486.64,486.94,486.65,486.27,485.90,485.96,486.21,486.44,486.43,486.34,486.16,485.96,485.78,485.49,485.38,485.14,484.69,484.52,483.90,483.20,482.49,481.59,480.74,479.74,478.67,477.63,476.50,475.30,474.37,474.08,474.91,476.01,477.11,478.11,478.92,479.63,480.77,482.23,483.89,485.66,487.37,488.90,489.94,490.00,490.07,490.15,490.23,490.29,490.31,490.37,490.41,490.41,490.41,490.41,490.46,490.51,490.52,490.60,490.62,490.62,490.62,490.62,490.68,490.72,490.75,490.81,490.89,490.97,491.02,491.04,491.12,491.18,491.22,491.25,491.32,491.39,491.42,491.46,491.53,491.61,491.63,491.63,491.63,491.64,491.69,491.74,491.74,491.74,491.81,491.83,491.83,491.83,491.85,491.90,491.94,491.94,491.94,491.94,491.95,491.95,491.95,491.95,492.00,492.01,491.95,491.94,491.94,491.90,491.85,491.85,491.84,491.79,491.75,491.73,491.67,491.65,491.65,491.66,491.66,491.66,491.71,491.76,491.78,491.84,491.87,491.87,491.88,491.95,491.97,491.97,492.00,492.06,492.06,492.11,492.16,492.16,492.16,492.17,492.21,492.28,492.36,492.48,492.67,492.89,493.13,493.43,493.61,493.69,493.71,493.77,493.72,493.65,493.57,493.51,493.43,493.40,493.40,493.39,493.34,493.31,493.30,493.30,493.31,493.37,493.46,493.63,493.98,494.18,494.44,494.77,495.14,495.40,495.76,496.19,496.64,497.03,497.29,497.43,497.57,497.85,498.07,498.07,498.01,498.01,498.00,497.87,497.70,497.51,497.28,497.18,497.39,497.77,498.14,498.51,498.84,499.18,499.57,499.94,500.20,500.42,500.59,500.69,500.84,500.99,501.15,501.30,501.45,501.61,501.76,501.92,502.08,502.23,502.38,502.53,502.69,502.83,502.94,503.05,503.20,503.35,503.50,503.66,503.81,503.96,504.12,504.23,504.35,504.50,504.65,504.80,504.91,505.14,505.78,505.93,506.21,506.64,507.13,507.66,508.16,508.67,509.20,509.72,510.16
489.11,489.28,489.26,489.16,488.90,488.38,487.87,487.56,487.41,487.30,486.28,485.11,485.92,487.31,487.70,487.45,487.08,486.64,486.76,487.07,487.31,487.32,487.29,487.22,487.12,486.95,486.69,486.61,486.44,486.06,485.91,485.33,484.66,483.94,483.06,482.17,481.18,480.14,479.07,477.89,476.61,475.39,474.57,474.84,475.93,477.13,478.24,479.22,480.08,481.31,482.76,484.35,486.11,487.77,489.13,490.00,490.04,490.09,490.15,490.22,490.25,490.25,490.31,490.35,490.35,490.35,490.38,490.42,490.46,490.50,490.50,490.51,490.52,490.55,490.56,490.58,490.62,490.67,490.75,490.82,490.88,490.92,490.96,491.03,491.08,491.12,491.17,491.24,491.29,491.32,491.38,491.45,491.49,491.53,491.53,491.51,491.51,491.54,491.57,491.60,491.61,491.64,491.68,491.71,491.71,491.71,491.74,491.75,491.75,491.75,491.75,491.75,491.75,491.76,491.79,491.83,491.84,491.80,491.76,491.75,491.74,491.71,491.70,491.67,491.61,491.56,491.55,491.52,491.48,491.46,491.45,491.41,491.40,491.45,491.50,491.51,491.58,491.61,491.61,491.62,491.69,491.70,491.70,491.72,491.80,491.81,491.85,491.90,491.90,491.90,491.93,491.99,492.07,492.15,492.32,492.53,492.77,493.03,493.21,493.31,493.36,493.37,493.40,493.38,493.32,493.25,493.17,493.09,493.01,492.97,492.96,492.92,492.91,492.90,492.87,492.87,492.96,493.06,493.19,493.49,493.66,493.92,494.24,494.58,494.85,495.16,495.54,495.98,496.32,496.58,496.74,496.93,497.27,497.58,497.58,497.53,497.56,497.56,497.50,497.38,497.21,497.04,497.04,497.30,497.69,498.08,498.46,498.82,499.18,499.57,499.94,500.20,500.44,500.63,500.75,500.90,501.05,501.21,501.37,501.52,501.67,501.83,501.99,502.14,502.29,502.45,502.60,502.75,502.91,503.03,503.17,503.32,503.48,503.60,503.74,503.89,504.04,504.20,504.33,504.46,504.61,504.78,505.23,505.73,506.28,506.99,507.14,507.17,507.27,507.59,508.10,508.59,509.07,509.56,510.03,510.40
489.69,489.88,489.87,489.78,489.69,489.28,488.95,488.94,489.06,488.78,487.48,486.02,486.55,487.98,488.45,488.25,487.90,487.41,487.58,487.93,488.16,488.17,488.17,488.21,488.22,488.09,487.90,487.85,487.74,487.49,487.30,486.77,486.11,485.38,484.54,483.61,482.63,481.60,480.52,479.29,477.96,476.59,475.38,474.89,475.73,476.95,478.21,479.45,480.58,481.88,483.30,484.80,486.50,488.06,489.28,490.01,490.09,490.10,490.14,490.19,490.19,490.19,490.25,490.28,490.29,490.30,490.36,490.38,490.41,490.47,490.41,490.39,490.42,490.47,490.48,490.49,490.53,490.61,490.68,490.75,490.78,490.81,490.89,490.95,490.98,491.02,491.10,491.16,491.19,491.23,491.29,491.36,491.39,491.43,491.45,491.39,491.38,491.38,491.42,491.47,491.48,491.48,491.52,491.56,491.56,491.56,491.56,491.56,491.56,491.56,491.57,491.57,491.57,491.58,491.64,491.66,491.66,491.65,491.59,491.57,491.57,491.56,491.55,491.50,491.43,491.37,491.37,491.37,491.32,491.27,491.25,491.19,491.17,491.20,491.25,491.25,491.32,491.34,491.34,491.36,491.43,491.45,491.45,491.47,491.54,491.55,491.59,491.64,491.64,491.64,491.71,491.80,491.87,491.97,492.16,492.40,492.64,492.89,492.93,492.98,493.03,493.04,493.04,493.03,492.99,492.92,492.84,492.77,492.64,492.53,492.53,492.53,492.51,492.48,492.43,492.44,492.56,492.68,492.81,493.03,493.19,493.44,493.73,494.02,494.32,494.58,494.91,495.31,495.62,495.86,496.06,496.30,496.69,497.08,497.10,497.05,497.11,497.11,497.11,497.03,496.90,496.82,496.96,497.27,497.65,498.02,498.41,498.79,499.17,499.56,499.93,500.20,500.44,500.65,500.80,500.95,501.11,501.26,501.42,501.57,501.72,501.87,502.02,502.18,502.33,502.48,502.65,502.84,503.04,503.21,503.37,503.52,503.68,503.78,503.90,504.05,504.20,504.36,504.50,504.66,504.83,505.08,505.90,506.87,507.75,508.34,508.50,508.28,508.03,508.13,508.58,509.06,509.51,509.94,510.31,510.64
490.38,490.74,490.81,490.62,490.53,490.37,490.30,490.37,490.30,489.88,488.52,486.99,487.29,488.69,489.19,489.02,488.70,488.30,488.49,488.81,489.00,489.01,489.01,489.06,489.12,489.13,489.09,489.08,489.05,488.95,488.74,488.20,487.54,486.83,486.01,485.06,484.02,483.02,482.05,480.80,479.30,477.83,476.48,475.38,475.31,476.18,477.66,479.39,480.96,482.40,483.80,485.22,486.68,488.12,489.28,490.01,490.09,490.10,490.11,490.13,490.13,490.13,490.18,490.23,490.24,490.29,490.31,490.32,490.35,490.40,490.35,490.32,490.33,490.35,490.41,490.43,490.47,490.54,490.61,490.64,490.68,490.75,490.82,490.84,490.89,490.96,491.02,491.04,491.10,491.13,491.17,491.24,491.31,491.33,491.34,491.31,491.26,491.25,491.28,491.34,491.34,491.34,491.35,491.37,491.37,491.37,491.37,491.37,491.37,491.37,491.42,491.45,491.45,491.45,491.46,491.47,491.47,491.47,491.45,491.45,491.41,491.37,491.37,491.35,491.30,491.23,491.18,491.23,491.19,491.12,491.07,491.04,490.99,490.98,490.99,491.00,491.06,491.08,491.08,491.10,491.17,491.18,491.18,491.20,491.28,491.29,491.30,491.33,491.38,491.38,491.49,491.60,491.69,491.82,491.99,492.23,492.48,492.59,492.61,492.62,492.65,492.71,492.71,492.66,492.62,492.60,492.52,492.44,492.32,492.19,492.14,492.13,492.09,492.05,492.05,492.11,492.24,492.38,492.53,492.70,492.86,493.07,493.30,493.51,493.81,494.06,494.31,494.60,494.90,495.15,495.41,495.72,496.11,496.55,496.61,496.59,496.65,496.65,496.65,496.61,496.57,496.72,496.98,497.33,497.69,498.03,498.41,498.75,499.11,499.49,499.87,500.18,500.44,500.65,500.80,500.96,501.11,501.26,501.42,501.57,501.68,501.80,501.96,502.12,502.26,502.42,502.64,502.99,503.37,503.63,503.81,503.97,504.13,504.27,504.38,504.49,504.64,504.80,504.96,505.11,505.34,505.91,507.04,508.26,509.25,509.62,509.69,509.42,509.04,508.90,509.15,509.57,509.98,510.32,510.65,510.96
