482.39,482.54,482.70,482.85,483.06,483.26,483.43,483.64,483.80,483.92,484.03,484.17,484.26,484.34,484.42,484.49,484.57,484.66,484.74,484.87,485.16,485.46,485.77,486.09,486.40,486.76,487.10,487.42,487.74,488.11,488.44,488.74,489.02,489.26,489.48,489.67,489.82,489.94,489.95,489.97,490.02,490.13,490.28,490.42,490.48,490.51,490.60,490.88,491.19,491.47,491.67,491.69,491.59,491.48,491.42,491.41,491.40,491.44,491.50,491.50,491.50,491.50,491.54,491.59,491.60,491.60,491.63,491.66,491.59,491.51,491.44,491.36,491.28,491.20,491.13,491.05,490.97,490.90,490.82,490.79,490.79,490.79,490.80,490.79,490.73,490.56,490.34,490.18,490.01,489.81,489.51,489.20,488.94,488.68,488.42,488.39,488.57,488.84,489.13,489.38,489.66,489.88,490.03,490.19,490.34,490.45,490.56,490.70,490.78,490.74,490.70,490.70,490.68,490.62,490.55,490.50,490.49,490.49,490.55,490.70,490.94,491.16,491.38,491.62,491.83,492.00,492.22,492.46,492.69,492.92,493.13,493.22,493.22,493.16,493.10,493.09,493.06,493.31,494.10,494.74,495.31,495.86,496.43,497.10,497.74,498.40,499.00,499.31,499.23,499.03,498.79,498.52,498.09,497.68,497.42,497.41,497.84,498.25,498.63,499.01,499.37,499.63,499.93,500.28,500.61,500.73,500.32,499.53,498.49,497.34,496.18,495.34,494.84,494.71,494.61,494.48,494.37,494.28,494.21,494.07,494.00,494.00,494.00,494.00,494.00,494.00,494.00,494.00,494.00,493.99,493.98,493.98,493.98,493.99,494.02,494.10,494.18,494.26,494.34,494.42,494.49,494.57,494.65,494.72,494.80,494.88,495.78,497.08,498.42,499.40,499.73,499.74,499.61,499.35,499.05,498.81,498.66,498.67,498.93,499.29,499.67,500.07,500.56,500.87,500.93,500.84,500.72,500.84,501.11,501.41,501.59,501.34,501.09,500.98,500.95,500.88,500.82,500.76,500.69,500.65,500.71,500.89,501.18,501.57,501.95,502.35,502.73,503.14,503.58,503.98,504.31,504.58,504.80,504.95,504.98,504.98
482.49,482.61,482.75,482.87,483.06,483.27,483.48,483.66,483.82,483.99,484.15,484.31,484.44,484.53,484.61,484.69,484.76,484.84,484.94,485.09,485.29,485.54,485.83,486.14,486.45,486.78,487.14,487.48,487.79,488.13,488.48,488.81,489.12,489.39,489.63,489.82,489.96,490.05,490.06,490.10,490.16,490.25,490.39,490.51,490.61,490.70,490.81,491.08,491.36,491.57,491.67,491.60,491.53,491.49,491.47,491.47,491.47,491.51,491.56,491.56,491.56,491.56,491.60,491.66,491.67,491.67,491.68,491.70,491.71,491.65,491.57,491.50,491.42,491.34,491.26,491.19,491.11,491.03,490.95,490.93,490.93,490.93,490.97,490.92,490.80,490.64,490.46,490.30,490.14,489.96,489.70,489.40,489.14,488.88,488.63,488.69,488.89,489.15,489.45,489.68,489.90,490.05,490.17,490.32,490.43,490.55,490.69,490.83,490.91,490.90,490.86,490.83,490.82,490.80,490.74,490.67,490.63,490.63,490.65,490.77,490.99,491.18,491.40,491.63,491.86,492.06,492.29,492.52,492.75,492.99,493.21,493.40,493.50,493.51,493.53,493.53,493.49,493.61,494.13,494.69,495.28,495.87,496.48,497.16,497.83,498.52,499.15,499.58,499.59,499.42,499.13,498.75,498.33,497.94,497.65,497.59,497.99,498.38,498.80,499.22,499.59,499.93,500.27,500.64,500.94,500.85,500.36,499.51,498.43,497.27,496.12,495.30,494.86,494.75,494.63,494.52,494.40,494.28,494.21,494.10,494.06,494.06,494.06,494.06,494.10,494.11,494.06,494.06,494.06,494.06,494.06,494.06,494.06,494.06,494.07,494.11,494.18,494.26,494.34,494.42,494.49,494.57,494.65,494.72,494.80,494.88,496.55,498.40,499.58,500.33,500.68,500.62,500.26,499.81,499.48,499.22,499.03,498.94,499.04,499.36,499.72,500.13,500.74,501.25,501.31,501.11,500.99,501.11,501.33,501.64,501.90,501.76,501.62,501.54,501.48,501.40,501.32,501.25,501.17,501.10,501.08,501.03,501.21,501.63,502.02,502.45,502.85,503.25,503.66,504.05,504.42,504.72,504.92,504.99,505.04,505.04
482.60,482.69,482.84,482.93,483.10,483.30,483.49,483.66,483.84,484.03,484.23,484.41,484.56,484.69,484.80,484.93,485.01,485.11,485.22,485.36,485.51,485.71,485.96,486.25,486.54,486.83,487.17,487.52,487.85,488.16,488.51,488.86,489.19,489.49,489.75,489.94,490.05,490.12,490.15,490.21,490.29,490.38,490.50,490.61,490.73,490.85,490.97,491.23,491.46,491.62,491.62,491.53,491.51,491.52,491.52,491.52,491.52,491.58,491.63,491.63,491.63,491.63,491.66,491.72,491.72,491.72,491.72,491.75,491.81,491.77,491.70,491.63,491.55,491.47,491.40,491.32,491.24,491.16,491.08,491.05,491.06,491.08,491.12,491.02,490.87,490.71,490.56,490.40,490.25,490.08,489.86,489.60,489.36,489.12,488.91,488.98,489.19,489.45,489.73,489.93,490.07,490.19,490.29,490.42,490.52,490.65,490.79,490.93,491.03,491.05,491.01,490.95,490.95,490.95,490.91,490.84,490.78,490.76,490.75,490.84,491.03,491.21,491.43,491.66,491.89,492.13,492.36,492.59,492.82,493.05,493.28,493.51,493.69,493.79,493.85,493.88,493.86,493.92,494.20,494.68,495.28,495.91,496.56,497.26,497.97,498.67,499.32,499.79,499.89,499.76,499.46,499.03,498.64,498.24,497.90,497.76,498.11,498.50,498.94,499.39,499.82,500.25,500.65,501.02,501.25,500.93,500.36,499.47,498.37,497.21,496.11,495.30,494.87,494.78,494.63,494.54,494.42,494.28,494.21,494.17,494.16,494.16,494.16,494.16,494.19,494.20,494.16,494.16,494.16,494.16,494.16,494.16,494.16,494.16,494.16,494.16,494.21,494.27,494.34,494.42,494.49,494.57,494.65,494.73,494.90,495.44,497.62,499.65,500.60,501.19,501.58,501.45,500.92,500.35,499.94,499.63,499.41,499.29,499.27,499.50,499.80,500.21,500.97,501.63,501.70,501.43,501.27,501.35,501.56,501.87,502.18,502.19,502.13,502.05,501.97,501.89,501.82,501.74,501.66,501.58,501.48,501.27,501.31,501.67,502.06,502.51,502.93,503.32,503.71,504.11,504.50,504.83,505.01,505.05,505.09,505.08
482.72,482.82,482.97,483.06,483.19,483.33,483.45,483.66,483.88,484.07,484.25,484.46,484.63,484.78,484.97,485.22,485.34,485.46,485.59,485.69,485.83,486.00,486.20,486.44,486.68,486.92,487.21,487.55,487.91,488.22,488.54,488.89,489.25,489.56,489.86,490.03,490.11,490.19,490.26,490.34,490.42,490.50,490.59,490.72,490.83,490.93,491.09,491.31,491.49,491.58,491.53,491.51,491.55,491.59,491.60,491.60,491.60,491.63,491.69,491.69,491.69,491.69,491.73,491.79,491.79,491.79,491.79,491.81,491.88,491.88,491.83,491.75,491.68,491.60,491.52,491.45,491.37,491.29,491.22,491.19,491.20,491.26,491.21,491.09,490.93,490.78,490.62,490.47,490.31,490.16,490.00,489.82,489.62,489.42,489.27,489.27,489.45,489.70,489.96,490.07,490.16,490.28,490.40,490.50,490.64,490.74,490.86,491.00,491.15,491.18,491.15,491.09,491.09,491.09,491.03,490.98,490.97,490.90,490.89,490.93,491.04,491.26,491.50,491.72,491.95,492.19,492.42,492.65,492.88,493.12,493.35,493.58,493.80,493.97,493.99,494.05,494.12,494.19,494.34,494.71,495.32,496.00,496.69,497.39,498.13,498.86,499.50,499.93,500.12,500.06,499.80,499.41,499.02,498.58,498.17,497.95,498.19,498.60,499.06,499.55,500.07,500.59,501.02,501.38,501.52,500.98,500.31,499.41,498.32,497.19,496.20,495.38,494.88,494.78,494.64,494.54,494.42,494.29,494.23,494.26,494.28,494.28,494.28,494.28,494.29,494.29,494.28,494.28,494.28,494.28,494.28,494.28,494.28,494.28,494.28,494.28,494.29,494.30,494.35,494.42,494.50,494.58,494.65,494.75,495.13,496.77,498.88,500.47,501.20,501.87,502.32,502.19,501.61,501.06,500.54,500.13,499.87,499.79,499.72,499.78,499.98,500.43,501.34,502.07,502.16,501.85,501.60,501.58,501.80,502.13,502.47,502.61,502.58,502.50,502.43,502.35,502.27,502.19,502.12,502.02,501.88,501.62,501.51,501.68,502.06,502.51,502.93,503.32,503.71,504.16,504.56,504.89,505.09,505.16,505.13,505.14
482.86,482.95,483.10,483.19,483.32,483.44,483.54,483.72,483.87,484.04,484.25,484.48,484.68,484.85,485.07,485.40,485.63,485.80,485.94,486.06,486.17,486.31,486.49,486.69,486.92,487.15,487.40,487.68,487.97,488.24,488.57,488.92,489.26,489.57,489.88,490.05,490.14,490.25,490.34,490.44,490.54,490.63,490.70,490.80,490.90,491.00,491.20,491.35,491.47,491.55,491.56,491.56,491.58,491.62,491.66,491.66,491.66,491.70,491.75,491.75,491.75,491.75,491.79,491.85,491.86,491.86,491.86,491.88,491.94,491.95,491.93,491.88,491.81,491.73,491.66,491.58,491.50,491.42,491.38,491.37,491.38,491.40,491.33,491.20,491.05,490.89,490.74,490.59,490.43,490.29,490.17,490.03,489.91,489.80,489.70,489.65,489.75,489.91,490.07,490.20,490.28,490.38,490.49,490.61,490.72,490.84,490.96,491.08,491.23,491.29,491.27,491.22,491.22,491.22,491.19,491.16,491.12,491.08,491.04,491.03,491.11,491.33,491.56,491.77,491.97,492.20,492.47,492.72,492.95,493.18,493.41,493.65,493.88,494.07,494.16,494.24,494.35,494.47,494.62,494.94,495.41,496.03,496.76,497.46,498.18,498.92,499.58,500.02,500.29,500.30,500.09,499.75,499.36,498.92,498.51,498.24,498.25,498.63,499.09,499.56,500.08,500.69,501.24,501.61,501.62,501.00,500.31,499.44,498.43,497.38,496.43,495.54,494.95,494.79,494.68,494.56,494.42,494.31,494.32,494.34,494.36,494.36,494.36,494.36,494.36,494.36,494.36,494.36,494.36,494.36,494.36,494.36,494.36,494.36,494.36,494.36,494.36,494.36,494.40,494.48,494.55,494.63,494.70,494.83,495.43,498.01,499.87,501.00,501.69,502.38,503.00,503.07,502.62,502.04,501.53,501.17,500.93,500.82,500.74,500.68,500.76,501.11,501.91,502.55,502.61,502.30,502.02,501.87,502.05,502.37,502.70,502.98,503.01,502.95,502.88,502.80,502.72,502.64,502.57,502.47,502.24,501.94,501.71,501.69,502.06,502.47,502.90,503.32,503.71,504.16,504.60,504.95,505.15,505.19,505.21,505.25
482.97,483.08,483.21,483.31,483.44,483.56,483.66,483.79,483.90,484.04,484.24,484.46,484.69,484.88,485.12,485.48,485.81,486.04,486.22,486.39,486.50,486.64,486.78,486.94,487.16,487.40,487.64,487.88,488.12,488.36,488.67,488.99,489.28,489.59,489.88,490.06,490.16,490.29,490.39,490.52,490.64,490.73,490.81,490.90,490.99,491.09,491.28,491.37,491.44,491.50,491.57,491.60,491.60,491.64,491.70,491.72,491.72,491.76,491.81,491.82,491.82,491.82,491.86,491.92,491.93,491.93,491.93,491.94,492.01,492.02,492.02,492.00,491.94,491.88,491.80,491.73,491.65,491.58,491.55,491.54,491.54,491.53,491.45,491.31,491.16,491.00,490.85,490.71,490.56,490.43,490.34,490.21,490.15,490.12,490.04,489.98,490.00,490.05,490.15,490.30,490.39,490.48,490.58,490.72,490.82,490.94,491.06,491.16,491.29,491.40,491.41,491.36,491.35,491.35,491.35,491.31,491.25,491.24,491.20,491.16,491.19,491.38,491.60,491.80,491.99,492.22,492.51,492.77,493.01,493.25,493.48,493.71,493.94,494.16,494.32,494.43,494.56,494.73,494.93,495.23,495.59,496.12,496.81,497.52,498.21,498.92,499.59,500.05,500.40,500.50,500.38,500.05,499.68,499.25,498.87,498.58,498.38,498.64,499.07,499.52,500.00,500.66,501.32,501.76,501.75,501.05,500.34,499.50,498.56,497.58,496.66,495.74,495.06,494.82,494.72,494.59,494.45,494.34,494.41,494.43,494.43,494.44,494.43,494.43,494.44,494.45,494.44,494.43,494.43,494.43,494.43,494.43,494.43,494.43,494.43,494.43,494.43,494.44,494.47,494.54,494.62,494.69,494.77,495.03,496.06,499.03,500.59,501.41,502.13,502.84,503.60,503.90,503.69,503.11,502.67,502.39,502.19,502.06,501.99,501.84,501.75,501.88,502.48,503.02,503.04,502.73,502.43,502.14,502.29,502.60,502.94,503.31,503.42,503.39,503.33,503.25,503.18,503.09,502.99,502.87,502.58,502.27,501.96,501.78,502.07,502.45,502.88,503.32,503.71,504.16,504.61,504.97,505.18,505.17,505.22,505.31
483.07,483.19,483.29,483.43,483.53,483.64,483.77,483.87,484.00,484.12,484.24,484.41,484.63,484.85,485.10,485.43,485.80,486.11,486.40,486.65,486.81,486.96,487.08,487.19,487.37,487.65,487.90,488.16,488.44,488.68,488.88,489.10,489.36,489.65,489.91,490.09,490.21,490.31,490.45,490.55,490.66,490.79,490.88,491.00,491.11,491.19,491.29,491.37,491.41,491.45,491.52,491.58,491.60,491.64,491.71,491.77,491.78,491.79,491.82,491.88,491.88,491.88,491.92,491.98,491.99,491.99,491.99,492.00,492.08,492.09,492.09,492.08,492.07,492.06,492.00,491.92,491.85,491.76,491.70,491.68,491.68,491.66,491.53,491.38,491.23,491.07,490.92,490.81,490.69,490.56,490.47,490.39,490.32,490.25,490.18,490.16,490.12,490.13,490.22,490.36,490.45,490.57,490.70,490.79,490.93,491.04,491.15,491.28,491.38,491.50,491.56,491.54,491.48,491.47,491.47,491.44,491.38,491.38,491.37,491.33,491.30,491.40,491.60,491.83,492.05,492.28,492.52,492.81,493.08,493.31,493.54,493.77,494.00,494.24,494.45,494.61,494.76,494.96,495.25,495.56,495.92,496.33,496.84,497.57,498.22,498.86,499.47,499.98,500.38,500.67,500.68,500.32,500.00,499.62,499.26,498.95,498.69,498.69,499.00,499.44,499.87,500.48,501.20,501.83,502.03,501.21,500.43,499.57,498.64,497.71,496.84,495.93,495.22,494.89,494.73,494.63,494.51,494.41,494.47,494.49,494.53,494.55,494.50,494.49,494.53,494.57,494.56,494.50,494.49,494.49,494.49,494.49,494.49,494.49,494.49,494.49,494.49,494.54,494.58,494.61,494.68,494.75,494.85,495.46,497.31,499.65,500.94,501.76,502.52,503.28,504.05,504.61,504.74,504.22,503.92,503.72,503.56,503.43,503.40,503.23,502.87,502.57,502.97,503.43,503.43,503.12,502.80,502.38,502.48,502.82,503.20,503.57,503.75,503.81,503.78,503.71,503.63,503.51,503.37,503.19,502.90,502.60,502.28,502.05,502.12,502.45,502.88,503.32,503.71,504.16,504.53,504.88,505.15,505.06,505.09,505.20
483.17,483.28,483.40,483.55,483.68,483.80,483.91,484.03,484.15,484.26,484.38,484.50,484.64,484.84,485.11,485.46,485.80,486.13,486.44,486.74,487.01,487.25,487.40,487.50,487.66,487.88,488.13,488.40,488.68,488.95,489.16,489.37,489.60,489.82,489.99,490.12,490.22,490.31,490.46,490.56,490.67,490.80,490.89,491.03,491.14,491.22,491.29,491.34,491.38,491.43,491.50,491.54,491.58,491.64,491.71,491.75,491.78,491.82,491.86,491.90,491.94,491.95,491.97,492.00,492.04,492.06,492.06,492.07,492.14,492.16,492.16,492.16,492.16,492.19,492.14,492.06,491.99,491.91,491.83,491.80,491.80,491.78,491.65,491.47,491.30,491.18,491.03,490.94,490.84,490.72,490.62,490.53,490.48,490.43,490.36,490.31,490.25,490.22,490.28,490.43,490.55,490.67,490.78,490.90,491.01,491.13,491.25,491.36,491.48,491.60,491.67,491.68,491.61,491.60,491.60,491.59,491.56,491.51,491.50,491.49,491.45,491.46,491.65,491.88,492.12,492.35,492.58,492.84,493.11,493.38,493.61,493.84,494.09,494.35,494.58,494.75,495.00,495.33,495.66,495.98,496.31,496.66,497.05,497.58,498.11,498.69,499.30,499.82,500.26,500.69,500.89,500.72,500.42,499.99,499.60,499.29,499.00,498.85,499.01,499.38,499.79,500.35,501.13,501.95,502.38,501.55,500.65,499.73,498.82,497.93,497.04,496.13,495.36,494.92,494.77,494.69,494.57,494.47,494.54,494.59,494.63,494.64,494.61,494.60,494.63,494.66,494.65,494.61,494.60,494.60,494.60,494.60,494.56,494.56,494.56,494.56,494.56,494.62,494.67,494.71,494.75,494.82,495.45,496.77,498.74,500.30,501.29,502.09,502.86,503.64,504.44,505.15,505.57,505.43,505.24,505.07,504.92,504.79,504.77,504.60,504.18,503.66,503.56,503.89,503.85,503.50,503.14,502.69,502.75,503.07,503.46,503.83,504.10,504.20,504.19,504.11,504.03,503.91,503.73,503.49,503.22,502.92,502.61,502.34,502.20,502.46,502.88,503.31,503.66,504.07,504.42,504.69,504.88,504.90,504.99,505.13
483.26,483.37,483.52,483.67,483.81,483.93,484.04,484.19,484.29,484.41,484.55,484.64,484.72,484.89,485.16,485.52,485.85,486.16,486.47,486.79,487.15,487.48,487.68,487.81,487.97,488.13,488.37,488.64,488.89,489.19,489.44,489.66,489.86,490.00,490.07,490.15,490.23,490.32,490.46,490.56,490.67,490.80,490.89,491.03,491.13,491.21,491.27,491.30,491.34,491.42,491.48,491.50,491.55,491.62,491.69,491.70,491.76,491.83,491.89,491.91,491.97,491.99,492.00,492.03,492.09,492.11,492.12,492.13,492.19,492.21,492.22,492.22,492.23,492.29,492.27,492.19,492.12,492.04,491.97,491.93,491.93,491.90,491.76,491.56,491.40,491.31,491.18,491.08,490.99,490.90,490.76,490.68,490.64,490.61,490.53,490.45,490.38,490.33,490.36,490.50,490.65,490.77,490.87,491.01,491.11,491.23,491.35,491.45,491.59,491.69,491.77,491.81,491.74,491.73,491.73,491.73,491.72,491.65,491.63,491.63,491.62,491.57,491.71,491.94,492.18,492.41,492.65,492.89,493.15,493.43,493.67,493.90,494.17,494.46,494.70,494.90,495.28,495.71,496.10,496.42,496.74,497.06,497.38,497.68,498.09,498.60,499.14,499.65,500.13,500.65,501.04,501.11,500.86,500.38,499.94,499.62,499.31,499.07,499.10,499.34,499.74,500.24,501.08,502.06,502.69,501.91,500.95,499.98,499.05,498.17,497.24,496.31,495.50,494.94,494.82,494.74,494.63,494.54,494.61,494.68,494.71,494.72,494.73,494.73,494.72,494.72,494.72,494.72,494.72,494.72,494.72,494.71,494.65,494.63,494.63,494.63,494.63,494.68,494.75,494.84,494.99,495.32,496.55,498.36,500.05,500.92,501.68,502.44,503.22,503.99,504.82,505.63,506.29,506.56,506.53,506.42,506.28,506.15,506.15,505.97,505.55,504.94,504.38,504.42,504.26,503.87,503.47,503.01,503.04,503.33,503.72,504.11,504.43,504.58,504.58,504.51,504.44,504.30,504.08,503.79,503.53,503.23,502.92,502.63,502.35,502.50,502.86,503.26,503.59,503.94,504.26,504.47,504.57,504.73,504.88,505.03
483.36,483.50,483.65,483.75,483.84,483.96,484.10,484.31,484.42,484.54,484.69,484.82,484.91,485.08,485.32,485.60,485.96,486.29,486.60,486.91,487.23,487.54,487.83,488.08,488.29,488.45,488.63,488.85,489.15,489.46,489.70,489.88,489.98,490.07,490.10,490.15,490.25,490.38,490.48,490.56,490.67,490.80,490.89,491.03,491.11,491.14,491.22,491.28,491.31,491.35,491.42,491.49,491.51,491.55,491.63,491.69,491.71,491.76,491.84,491.89,491.91,491.97,492.02,492.08,492.10,492.15,492.18,492.19,492.20,492.26,492.28,492.28,492.29,492.36,492.37,492.32,492.25,492.17,492.10,492.06,492.04,491.97,491.82,491.66,491.53,491.45,491.36,491.23,491.12,491.04,490.95,490.87,490.80,490.74,490.66,490.58,490.50,490.46,490.48,490.57,490.72,490.86,490.99,491.09,491.22,491.33,491.44,491.57,491.67,491.79,491.90,491.94,491.87,491.86,491.86,491.86,491.85,491.78,491.76,491.76,491.76,491.75,491.78,491.97,492.25,492.48,492.71,492.98,493.26,493.50,493.74,493.97,494.24,494.53,494.78,495.15,495.59,496.06,496.49,496.81,497.16,497.53,497.88,498.13,498.46,498.77,499.11,499.54,500.05,500.59,501.07,501.37,501.28,500.83,500.34,499.94,499.64,499.39,499.29,499.39,499.73,500.19,501.10,502.13,502.81,502.26,501.38,500.38,499.35,498.37,497.38,496.48,495.63,494.95,494.82,494.74,494.65,494.60,494.67,494.69,494.74,494.80,494.86,494.86,494.82,494.78,494.78,494.78,494.78,494.78,494.78,494.78,494.77,494.76,494.76,494.76,494.76,494.77,494.82,495.02,495.70,497.11,498.67,499.99,500.80,501.47,502.16,502.90,503.67,504.44,505.23,506.04,506.82,507.38,507.66,507.72,507.64,507.52,507.56,507.40,506.98,506.36,505.75,505.13,504.65,504.25,503.80,503.33,503.33,503.59,503.98,504.42,504.71,504.89,504.98,504.96,504.89,504.73,504.47,504.17,503.87,503.52,503.21,502.94,502.66,502.60,502.80,503.15,503.51,503.78,504.03,504.24,504.38,504.53,504.69,504.84
483.40,483.59,483.74,483.85,483.94,484.04,484.16,484.32,484.44,484.59,484.78,484.97,485.16,485.37,485.60,485.84,486.15,486.44,486.72,487.03,487.34,487.65,487.96,488.25,488.48,488.67,488.86,489.08,489.36,489.63,489.84,489.99,490.05,490.10,490.13,490.19,490.28,490.39,490.48,490.58,490.69,490.81,490.93,491.02,491.07,491.11,491.15,491.23,491.28,491.31,491.36,491.44,491.48,491.52,491.57,491.64,491.69,491.73,491.77,491.85,491.89,491.93,491.99,492.06,492.09,492.13,492.18,492.21,492.25,492.28,492.32,492.35,492.35,492.39,492.43,492.43,492.39,492.34,492.27,492.22,492.16,492.04,491.93,491.78,491.66,491.58,491.50,491.39,491.28,491.18,491.10,491.02,490.97,490.91,490.83,490.75,490.65,490.57,490.56,490.64,490.78,490.94,491.06,491.16,491.30,491.42,491.54,491.66,491.77,491.89,492.01,492.08,492.04,492.00,491.99,491.99,491.99,491.95,491.91,491.89,491.89,491.89,491.89,492.01,492.23,492.49,492.73,493.01,493.29,493.52,493.76,494.02,494.28,494.55,494.80,495.26,495.81,496.30,496.67,497.08,497.55,497.99,498.36,498.63,498.93,499.20,499.45,499.78,500.20,500.68,501.16,501.53,501.64,501.24,500.72,500.26,499.92,499.64,499.47,499.47,499.74,500.18,501.07,502.12,502.89,502.63,501.80,500.77,499.71,498.70,497.70,496.75,495.82,495.01,494.86,494.78,494.70,494.66,494.69,494.74,494.79,494.88,495.00,495.14,495.07,494.96,494.93,494.86,494.85,494.85,494.85,494.85,494.85,494.85,494.85,494.85,494.85,494.93,495.37,496.24,497.41,498.79,500.01,500.93,501.48,502.08,502.74,503.42,504.13,504.90,505.67,506.48,507.31,508.00,508.46,508.70,508.79,508.83,508.93,508.84,508.44,507.76,506.99,506.07,505.22,504.54,504.08,503.65,503.59,503.80,504.20,504.66,505.08,505.40,505.60,505.59,505.49,505.21,504.84,504.47,504.15,503.81,503.50,503.23,502.93,502.78,502.84,503.05,503.35,503.60,503.83,504.04,504.23,504.38,504.54,504.69
483.42,483.63,483.79,483.95,484.07,484.17,484.25,484.33,484.45,484.63,484.84,485.08,485.38,485.65,485.89,486.13,486.37,486.60,486.87,487.17,487.47,487.78,488.09,488.37,488.61,488.84,489.07,489.31,489.55,489.77,489.93,490.03,490.10,490.12,490.18,490.25,490.32,490.40,490.48,490.61,490.73,490.82,490.96,491.00,491.04,491.09,491.11,491.18,491.25,491.29,491.31,491.38,491.45,491.49,491.52,491.60,491.66,491.69,491.73,491.80,491.87,491.89,491.94,492.01,492.07,492.10,492.14,492.22,492.28,492.30,492.35,492.39,492.40,492.41,492.47,492.51,492.51,492.50,492.44,492.38,492.28,492.13,492.04,491.92,491.80,491.72,491.64,491.56,491.44,491.31,491.22,491.16,491.13,491.10,491.01,490.94,490.81,490.70,490.66,490.71,490.85,491.00,491.13,491.22,491.37,491.52,491.64,491.73,491.88,491.98,492.10,492.21,492.21,492.15,492.12,492.12,492.12,492.12,492.06,492.02,492.02,492.02,492.02,492.06,492.20,492.49,492.73,493.01,493.28,493.52,493.76,494.05,494.32,494.55,494.80,495.28,495.86,496.36,496.64,497.12,497.71,498.26,498.70,499.09,499.43,499.71,499.94,500.18,500.48,500.88,501.31,501.68,501.94,501.59,501.06,500.56,500.18,499.85,499.64,499.58,499.78,500.24,501.10,502.11,502.96,503.03,502.23,501.17,500.11,499.09,498.08,497.09,496.08,495.20,494.97,494.86,494.77,494.72,494.72,494.78,494.85,494.96,495.19,495.51,495.48,495.34,495.26,495.14,495.12,495.10,495.10,495.21,495.26,495.30,495.33,495.37,495.41,495.69,496.55,497.95,499.35,500.31,501.04,501.65,502.20,502.81,503.42,504.04,504.67,505.38,506.13,506.94,507.77,508.51,509.11,509.53,509.85,510.07,510.23,510.18,509.79,509.05,508.12,507.05,505.86,504.84,504.35,503.94,503.83,503.98,504.36,504.82,505.42,505.96,506.30,506.29,506.15,505.73,505.19,504.71,504.39,504.07,503.78,503.49,503.20,503.01,502.93,502.99,503.21,503.42,503.64,503.86,504.08,504.24,504.40,504.56
483.40,483.58,483.79,484.00,484.20,484.36,484.43,484.51,484.60,484.71,484.85,485.09,485.43,485.75,486.04,486.32,486.56,486.79,487.06,487.36,487.62,487.91,488.19,488.45,488.73,488.97,489.20,489.46,489.73,489.91,489.98,490.04,490.11,490.17,490.25,490.29,490.32,490.40,490.48,490.61,490.73,490.81,490.91,490.98,491.01,491.04,491.10,491.17,491.21,491.25,491.31,491.38,491.42,491.45,491.51,491.59,491.62,491.66,491.72,491.79,491.82,491.87,491.93,492.00,492.02,492.07,492.14,492.21,492.23,492.28,492.35,492.40,492.41,492.46,492.53,492.57,492.57,492.57,492.56,492.50,492.40,492.26,492.18,492.08,492.00,491.91,491.78,491.69,491.60,491.50,491.37,491.34,491.29,491.22,491.15,491.07,490.98,490.89,490.82,490.79,490.91,491.06,491.19,491.28,491.43,491.59,491.70,491.80,491.94,492.09,492.20,492.29,492.33,492.28,492.25,492.25,492.25,492.25,492.19,492.15,492.15,492.15,492.15,492.16,492.25,492.49,492.73,492.98,493.24,493.52,493.76,494.05,494.32,494.55,494.80,495.19,495.56,495.88,496.13,496.54,497.11,497.83,498.65,499.36,499.84,500.19,500.45,500.63,500.87,501.23,501.62,501.97,502.11,501.77,501.28,500.82,500.44,500.06,499.83,499.76,499.93,500.51,501.33,502.23,503.06,503.51,502.72,501.62,500.53,499.43,498.46,497.47,496.55,495.80,495.25,494.98,494.83,494.78,494.78,494.85,494.89,495.05,495.50,496.03,496.22,496.22,496.16,496.18,496.19,496.05,496.06,496.70,496.95,497.16,497.38,497.56,497.80,498.52,499.28,499.92,500.63,501.39,502.05,502.62,503.21,503.78,504.38,504.97,505.50,505.95,506.61,507.39,508.22,508.99,509.71,510.35,510.86,511.18,511.34,511.19,510.75,510.03,509.04,507.83,506.48,505.29,504.63,504.15,504.02,504.11,504.38,504.84,505.56,506.35,506.95,506.93,506.75,506.21,505.50,504.87,504.52,504.21,503.96,503.75,503.51,503.29,503.10,503.03,503.19,503.32,503.47,503.67,503.89,504.05,504.25,504.46
483.38,483.56,483.79,484.02,484.25,484.45,484.58,484.67,484.77,484.86,484.97,485.21,485.51,485.81,486.10,486.40,486.70,486.95,487.21,487.51,487.74,488.01,488.28,488.55,488.83,489.09,489.31,489.54,489.80,489.97,490.02,490.08,490.15,490.20,490.27,490.32,490.37,490.44,490.52,490.63,490.73,490.81,490.89,490.94,490.98,491.02,491.10,491.17,491.22,491.26,491.31,491.38,491.42,491.46,491.51,491.59,491.63,491.67,491.72,491.79,491.80,491.86,491.93,492.00,492.00,492.06,492.14,492.20,492.21,492.27,492.35,492.40,492.41,492.48,492.56,492.60,492.61,492.64,492.64,492.61,492.54,492.43,492.31,492.22,492.15,492.06,491.94,491.83,491.74,491.65,491.53,491.49,491.43,491.36,491.27,491.20,491.12,491.04,490.97,490.91,490.99,491.13,491.27,491.38,491.50,491.65,491.78,491.90,492.02,492.17,492.28,492.36,492.46,492.44,492.40,492.38,492.38,492.38,492.35,492.32,492.31,492.29,492.28,492.28,492.33,492.50,492.73,492.96,493.21,493.48,493.75,494.02,494.29,494.54,494.75,495.03,495.23,495.38,495.57,495.87,496.53,497.41,498.40,499.30,499.94,500.41,500.75,501.03,501.27,501.60,501.98,502.27,502.27,501.93,501.49,501.05,500.69,500.31,500.06,499.98,500.10,500.64,501.40,502.22,503.03,503.68,503.29,502.38,501.25,500.08,499.09,498.25,497.53,496.92,496.27,495.75,495.32,495.01,494.87,494.88,494.97,495.23,495.79,496.39,496.81,497.02,497.07,497.11,497.15,497.10,497.36,498.60,498.96,499.13,499.28,499.43,499.65,500.29,500.84,501.18,501.68,502.40,503.05,503.63,504.21,504.79,505.37,505.91,506.35,506.69,507.20,507.88,508.65,509.47,510.43,511.32,511.99,512.27,512.37,512.12,511.63,510.91,509.87,508.58,507.11,505.72,504.81,504.33,504.24,504.31,504.48,504.86,505.66,506.63,507.44,507.55,507.32,506.70,505.90,505.18,504.72,504.41,504.17,503.98,503.75,503.52,503.28,503.16,503.27,503.36,503.49,503.66,503.85,503.98,504.17,504.38
483.38,483.56,483.79,484.02,484.25,484.49,484.69,484.79,484.94,485.06,485.18,485.40,485.65,485.89,486.15,486.46,486.81,487.08,487.35,487.64,487.86,488.10,488.37,488.65,488.89,489.17,489.38,489.57,489.79,489.96,490.06,490.13,490.19,490.20,490.27,490.35,490.41,490.50,490.58,490.65,490.73,490.80,490.88,490.89,490.94,491.02,491.11,491.19,491.27,491.32,491.34,491.40,491.48,491.52,491.54,491.61,491.69,491.72,491.75,491.81,491.83,491.88,491.95,492.02,492.03,492.09,492.16,492.22,492.24,492.30,492.37,492.42,492.44,492.50,492.58,492.62,492.64,492.70,492.72,492.72,492.69,492.60,492.46,492.37,492.29,492.20,492.12,491.99,491.88,491.80,491.71,491.63,491.56,491.48,491.41,491.33,491.25,491.18,491.10,491.03,491.07,491.19,491.35,491.49,491.58,491.72,491.86,492.00,492.09,492.23,492.35,492.45,492.58,492.60,492.56,492.52,492.51,492.51,492.50,492.50,492.49,492.43,492.42,492.41,492.43,492.52,492.73,492.96,493.19,493.44,493.74,493.99,494.26,494.52,494.68,494.84,494.91,494.95,495.05,495.26,496.01,496.98,498.00,499.01,499.85,500.44,500.89,501.33,501.62,501.97,502.33,502.57,502.45,502.12,501.70,501.27,500.95,500.58,500.34,500.23,500.28,500.69,501.38,502.16,502.93,503.66,503.87,503.32,502.26,501.19,500.21,499.53,499.00,498.44,497.78,497.01,496.26,495.62,495.25,495.15,495.27,495.57,496.05,496.64,497.24,497.69,497.91,497.98,498.05,498.20,498.83,500.46,500.88,500.91,500.89,500.92,501.01,501.29,501.62,502.00,502.63,503.37,504.05,504.65,505.21,505.80,506.37,506.84,507.21,507.52,507.90,508.42,509.10,510.04,511.26,512.39,513.15,513.37,513.37,513.02,512.47,511.71,510.63,509.33,507.76,506.17,504.95,504.51,504.47,504.58,504.75,505.00,505.80,506.86,507.81,508.16,507.90,507.23,506.43,505.68,505.05,504.67,504.41,504.18,503.95,503.71,503.48,503.34,503.42,503.50,503.63,503.78,503.93,504.01,504.14,504.34
483.38,483.56,483.79,484.02,484.25,484.49,484.71,484.90,485.10,485.27,485.43,485.66,485.94,486.19,486.43,486.69,486.96,487.25,487.52,487.76,487.95,488.17,488.41,488.66,488.89,489.09,489.30,489.51,489.75,489.95,490.06,490.11,490.14,490.20,490.27,490.35,490.42,490.50,490.58,490.65,490.71,490.74,490.81,490.83,490.90,491.03,491.17,491.30,491.39,491.46,491.51,491.53,491.60,491.67,491.71,491.74,491.81,491.84,491.86,491.94,492.00,492.03,492.07,492.15,492.20,492.23,492.28,492.35,492.41,492.43,492.49,492.56,492.61,492.64,492.70,492.74,492.76,492.83,492.89,492.88,492.82,492.74,492.64,492.55,492.45,492.33,492.25,492.16,492.07,491.98,491.85,491.77,491.69,491.61,491.53,491.46,491.38,491.31,491.22,491.16,491.16,491.26,491.42,491.56,491.65,491.78,491.93,492.07,492.16,492.29,492.44,492.56,492.66,492.72,492.72,492.69,492.65,492.64,492.64,492.64,492.64,492.61,492.56,492.54,492.55,492.59,492.75,492.96,493.19,493.44,493.74,493.99,494.23,494.47,494.62,494.72,494.79,494.84,494.88,494.99,495.53,496.38,497.46,498.62,499.68,500.36,500.80,501.31,501.77,502.21,502.62,502.88,502.66,502.34,501.97,501.59,501.27,500.89,500.65,500.51,500.47,500.78,501.44,502.21,502.98,503.68,504.24,504.23,503.85,503.49,502.81,502.04,501.25,500.43,499.46,498.70,498.05,497.45,496.93,496.56,496.36,496.28,496.36,496.86,497.46,498.05,498.56,498.88,499.01,499.46,500.28,501.25,501.72,501.82,501.83,501.88,501.97,502.14,502.42,502.86,503.58,504.34,505.06,505.69,506.23,506.79,507.34,507.79,508.11,508.37,508.74,509.19,509.86,511.05,512.29,513.43,514.22,514.44,514.37,513.99,513.32,512.39,511.31,510.15,508.60,506.81,505.24,504.71,504.71,505.00,505.43,505.60,506.21,507.15,508.17,508.81,508.55,507.98,507.30,506.53,505.75,505.10,504.67,504.44,504.20,503.92,503.67,503.51,503.55,503.67,503.78,503.93,504.10,504.14,504.22,504.39
483.40,483.59,483.80,484.02,484.25,484.49,484.71,484.92,485.17,485.40,485.62,485.85,486.13,486.38,486.61,486.84,487.07,487.34,487.60,487.82,487.98,488.19,488.43,488.66,488.88,489.05,489.25,489.47,489.65,489.85,490.00,490.06,490.08,490.16,490.24,490.31,490.39,490.47,490.57,490.64,490.68,490.71,490.75,490.79,490.88,491.04,491.19,491.35,491.47,491.57,491.66,491.70,491.74,491.80,491.87,491.88,491.94,491.99,492.02,492.07,492.15,492.19,492.23,492.28,492.35,492.39,492.43,492.49,492.56,492.60,492.64,492.70,492.76,492.80,492.84,492.88,492.91,492.96,493.04,493.02,492.94,492.87,492.79,492.72,492.61,492.46,492.38,492.31,492.23,492.14,492.02,491.93,491.86,491.78,491.70,491.60,491.51,491.44,491.36,491.28,491.25,491.33,491.48,491.63,491.71,491.84,492.00,492.14,492.22,492.36,492.51,492.65,492.73,492.83,492.87,492.85,492.81,492.77,492.77,492.77,492.77,492.77,492.73,492.69,492.67,492.69,492.79,492.98,493.19,493.43,493.71,493.98,494.21,494.39,494.52,494.60,494.68,494.74,494.77,494.85,495.15,495.85,496.97,498.25,499.45,500.23,500.71,501.25,501.82,502.34,502.79,503.09,502.89,502.59,502.25,501.90,501.56,501.21,500.98,500.81,500.69,500.88,501.49,502.25,503.00,503.70,504.39,504.84,505.12,505.47,505.45,505.03,504.37,503.51,502.34,501.42,500.52,499.58,498.76,498.13,497.64,497.24,496.96,497.14,497.65,498.31,498.97,499.49,499.85,500.50,501.34,501.95,502.48,502.65,502.68,502.76,502.87,502.98,503.25,503.75,504.51,505.28,506.04,506.73,507.27,507.81,508.31,508.71,509.00,509.34,509.81,510.34,511.07,512.30,513.44,514.35,514.93,515.10,515.03,514.71,514.12,513.25,512.20,511.13,509.75,508.10,506.36,505.44,505.31,505.74,506.44,506.62,507.03,507.72,508.61,509.40,509.26,508.82,508.20,507.38,506.52,505.66,505.02,504.67,504.43,504.13,503.87,503.69,503.69,503.82,503.94,504.10,504.29,504.31,504.37,504.50
483.43,483.64,483.80,484.02,484.25,484.49,484.70,484.87,485.13,485.43,485.71,485.95,486.19,486.43,486.66,486.89,487.13,487.37,487.60,487.82,487.98,488.19,488.43,488.66,488.87,489.04,489.24,489.41,489.51,489.67,489.87,489.99,490.02,490.10,490.18,490.25,490.33,490.42,490.55,490.60,490.63,490.69,490.71,490.77,490.88,491.04,491.19,491.35,491.50,491.64,491.78,491.87,491.90,491.94,492.00,492.01,492.07,492.14,492.19,492.21,492.28,492.35,492.40,492.42,492.49,492.56,492.60,492.63,492.69,492.76,492.80,492.83,492.91,492.97,492.99,493.03,493.10,493.11,493.17,493.16,493.07,493.00,492.92,492.85,492.74,492.60,492.51,492.44,492.36,492.28,492.20,492.12,492.04,491.96,491.88,491.75,491.65,491.57,491.49,491.41,491.33,491.39,491.54,491.69,491.77,491.90,492.06,492.20,492.29,492.42,492.58,492.72,492.81,492.94,493.00,493.00,492.98,492.93,492.90,492.90,492.90,492.90,492.89,492.86,492.81,492.82,492.88,493.01,493.20,493.43,493.67,493.95,494.17,494.31,494.40,494.48,494.56,494.63,494.71,494.78,494.89,495.44,496.56,497.91,499.17,500.06,500.65,501.20,501.81,502.37,502.88,503.24,503.13,502.85,502.54,502.21,501.84,501.52,501.30,501.12,500.94,500.99,501.51,502.23,502.99,503.68,504.37,505.09,505.90,506.86,507.72,508.03,507.86,507.23,506.08,504.93,503.52,501.94,500.76,499.82,499.05,498.38,497.85,497.57,497.89,498.50,499.18,499.81,500.51,501.28,502.03,502.67,503.28,503.49,503.53,503.62,503.75,503.85,504.12,504.64,505.42,506.20,507.00,507.75,508.31,508.87,509.35,509.71,510.02,510.53,511.15,511.85,512.65,513.66,514.57,515.07,515.30,515.38,515.38,515.18,514.82,514.23,513.27,512.22,511.14,509.86,508.17,506.71,506.31,506.76,507.65,507.94,508.19,508.56,509.14,509.91,509.96,509.63,509.03,508.16,507.26,506.31,505.48,504.89,504.61,504.32,504.06,503.88,503.84,503.96,504.11,504.29,504.48,504.50,504.55,504.64
483.43,483.64,483.80,484.02,484.25,484.47,484.64,484.80,485.04,485.32,485.62,485.85,486.13,486.38,486.63,486.90,487.13,487.37,487.60,487.82,487.98,488.19,488.43,488.65,488.82,488.94,489.09,489.24,489.32,489.47,489.65,489.81,489.95,490.03,490.15,490.25,490.32,490.40,490.51,490.57,490.61,490.64,490.69,490.76,490.88,491.04,491.19,491.35,491.50,491.65,491.80,491.93,492.04,492.11,492.14,492.19,492.22,492.27,492.35,492.39,492.42,492.49,492.55,492.60,492.63,492.69,492.76,492.80,492.83,492.90,492.96,493.00,493.04,493.11,493.13,493.17,493.24,493.28,493.32,493.28,493.20,493.13,493.05,492.97,492.89,492.77,492.66,492.56,492.49,492.41,492.33,492.25,492.18,492.10,492.02,491.92,491.84,491.73,491.62,491.54,491.46,491.49,491.61,491.75,491.84,491.97,492.13,492.27,492.35,492.49,492.65,492.79,492.92,493.07,493.13,493.13,493.13,493.10,493.06,493.03,493.03,493.03,493.03,493.01,492.99,492.99,492.97,493.07,493.24,493.43,493.66,493.91,494.09,494.20,494.32,494.41,494.49,494.56,494.64,494.72,494.83,495.32,496.34,497.65,498.95,499.91,500.60,501.19,501.80,502.40,502.97,503.38,503.37,503.11,502.80,502.48,502.15,501.84,501.63,501.44,501.24,501.15,501.53,502.15,502.88,503.57,504.22,504.87,505.71,507.06,508.39,509.17,509.46,509.29,508.75,508.01,506.68,504.93,503.57,502.14,500.69,499.50,498.91,498.53,498.41,498.69,499.40,500.12,500.96,501.81,502.61,503.37,504.05,504.30,504.38,504.50,504.61,504.70,504.94,505.47,506.36,507.16,507.95,508.70,509.36,510.13,510.85,511.44,511.94,512.47,512.98,513.57,514.18,514.62,515.05,515.35,515.54,515.64,515.65,515.48,515.20,514.84,514.25,513.26,512.23,511.12,509.79,508.45,507.73,507.87,508.75,509.20,509.35,509.51,509.78,510.17,510.30,510.05,509.46,508.57,507.74,506.86,505.98,505.22,504.79,504.50,504.25,504.07,504.02,504.15,504.30,504.47,504.63,504.69,504.72,504.77
483.44,483.64,483.80,484.02,484.25,484.46,484.61,484.77,484.98,485.24,485.51,485.75,486.05,486.31,486.56,486.85,487.10,487.34,487.57,487.79,487.97,488.16,488.36,488.55,488.70,488.79,488.92,489.04,489.13,489.31,489.48,489.69,489.88,489.99,490.14,490.25,490.32,490.40,490.45,490.52,490.58,490.61,490.66,490.75,490.88,491.04,491.19,491.35,491.50,491.65,491.81,491.97,492.12,492.22,492.27,492.35,492.38,492.42,492.48,492.55,492.58,492.63,492.69,492.76,492.78,492.83,492.90,492.96,492.99,493.04,493.11,493.16,493.17,493.24,493.28,493.31,493.37,493.44,493.46,493.41,493.33,493.26,493.18,493.11,493.02,492.94,492.79,492.69,492.63,492.58,492.51,492.42,492.34,492.26,492.18,492.11,492.03,491.93,491.80,491.70,491.62,491.61,491.67,491.82,491.93,492.05,492.19,492.34,492.44,492.57,492.71,492.87,493.02,493.17,493.25,493.26,493.26,493.26,493.22,493.18,493.16,493.16,493.16,493.16,493.16,493.15,493.11,493.17,493.29,493.45,493.66,493.87,494.03,494.17,494.31,494.40,494.48,494.55,494.63,494.71,494.83,495.37,496.47,497.81,498.96,499.87,500.60,501.22,501.83,502.45,503.04,503.50,503.62,503.40,503.08,502.75,502.45,502.21,502.01,501.79,501.55,501.36,501.56,502.05,502.74,503.41,504.02,504.58,505.33,506.79,508.38,509.53,510.18,510.33,510.28,509.94,509.00,507.64,506.47,504.84,503.05,501.50,500.55,499.71,499.13,499.07,499.62,500.40,501.30,502.20,503.08,503.96,504.74,505.11,505.26,505.38,505.46,505.54,505.74,506.19,507.11,507.98,508.84,509.71,510.58,511.58,512.51,513.22,513.69,514.07,514.39,514.77,515.13,515.22,515.37,515.55,515.74,515.88,515.93,515.75,515.49,515.23,514.90,514.05,513.06,512.03,510.94,509.76,508.95,508.91,509.67,510.19,510.31,510.36,510.44,510.52,510.51,510.25,509.69,508.81,507.99,507.15,506.26,505.41,504.88,504.60,504.39,504.25,504.26,504.38,504.52,504.68,504.82,504.88,504.89,504.93
483.48,483.64,483.80,484.02,484.25,484.46,484.62,484.78,484.99,485.23,485.47,485.70,486.00,486.26,486.50,486.75,487.03,487.28,487.51,487.74,487.95,488.06,488.20,488.35,488.50,488.59,488.72,488.85,488.96,489.18,489.40,489.63,489.85,489.99,490.14,490.25,490.32,490.38,490.41,490.47,490.53,490.59,490.62,490.73,490.88,491.04,491.19,491.35,491.50,491.65,491.81,491.97,492.12,492.27,492.39,492.47,492.54,492.59,492.62,492.69,492.76,492.78,492.82,492.90,492.96,492.98,493.03,493.11,493.17,493.19,493.24,493.29,493.30,493.37,493.44,493.48,493.51,493.58,493.59,493.54,493.47,493.39,493.31,493.24,493.16,493.07,492.92,492.83,492.78,492.77,492.75,492.64,492.53,492.45,492.38,492.30,492.22,492.14,492.05,491.90,491.81,491.75,491.74,491.89,492.04,492.14,492.25,492.41,492.55,492.65,492.77,492.93,493.09,493.24,493.34,493.39,493.39,493.39,493.38,493.35,493.30,493.29,493.29,493.29,493.29,493.29,493.28,493.29,493.36,493.51,493.68,493.85,494.03,494.23,494.38,494.47,494.54,494.62,494.69,494.77,494.90,495.64,497.11,498.50,499.28,499.97,500.68,501.30,501.91,502.53,503.12,503.62,503.89,503.72,503.38,503.02,502.73,502.66,502.47,502.18,501.89,501.65,501.62,501.94,502.60,503.22,503.78,504.29,504.95,506.17,507.84,509.25,510.17,510.46,510.61,510.50,510.21,509.76,509.13,507.73,506.19,504.61,502.93,501.24,500.22,499.79,499.97,500.71,501.61,502.52,503.46,504.43,505.35,505.88,506.14,506.23,506.31,506.38,506.51,506.83,507.60,508.60,509.65,510.77,511.97,513.15,514.17,514.80,514.98,515.05,515.15,515.27,515.39,515.49,515.63,515.78,515.94,516.10,516.22,516.03,515.73,515.44,515.16,514.52,513.63,512.60,511.52,510.44,509.84,509.84,510.38,510.83,510.99,511.05,511.06,510.95,510.61,510.22,509.69,508.88,507.99,507.13,506.24,505.41,504.88,504.60,504.46,504.44,504.56,504.66,504.79,504.94,505.07,505.08,505.08,505.13
483.49,483.64,483.80,483.98,484.20,484.44,484.67,484.88,485.10,485.33,485.56,485.80,486.05,486.33,486.59,486.83,487.09,487.29,487.46,487.61,487.79,487.89,488.01,488.15,488.26,488.38,488.56,488.74,488.93,489.20,489.44,489.69,489.92,490.00,490.14,490.25,490.31,490.34,490.39,490.42,490.48,490.55,490.60,490.73,490.88,491.04,491.19,491.35,491.50,491.65,491.81,491.97,492.12,492.27,492.42,492.54,492.67,492.74,492.79,492.82,492.90,492.95,492.99,493.03,493.10,493.15,493.19,493.24,493.31,493.32,493.37,493.44,493.47,493.51,493.58,493.64,493.68,493.71,493.72,493.67,493.60,493.52,493.44,493.36,493.28,493.20,493.10,493.01,492.95,492.92,492.91,492.86,492.76,492.65,492.57,492.50,492.42,492.34,492.25,492.10,492.01,491.91,491.85,491.96,492.11,492.22,492.32,492.48,492.63,492.72,492.84,493.00,493.15,493.30,493.44,493.52,493.52,493.52,493.52,493.50,493.47,493.43,493.42,493.42,493.42,493.42,493.42,493.42,493.46,493.59,493.78,493.98,494.17,494.34,494.45,494.53,494.61,494.69,494.76,494.84,495.36,496.77,498.77,499.51,499.93,500.39,500.95,501.53,502.14,502.73,503.31,503.84,504.16,503.99,503.66,503.34,503.11,503.14,503.01,502.73,502.42,502.10,501.88,501.96,502.42,502.98,503.53,504.02,504.56,505.42,506.93,508.50,509.71,510.33,510.68,510.86,510.82,510.60,510.23,509.51,508.73,507.72,506.14,504.37,502.88,501.89,501.51,501.59,502.31,503.22,504.15,505.11,506.04,506.63,506.96,507.07,507.15,507.23,507.34,507.58,508.10,509.01,510.22,511.62,513.07,514.22,514.92,515.30,515.42,515.44,515.50,515.57,515.67,515.79,515.90,516.03,516.19,516.34,516.45,516.27,515.99,515.68,515.34,514.90,514.08,513.02,511.98,511.13,510.69,510.68,511.03,511.35,511.59,511.51,511.16,510.76,510.35,509.92,509.40,508.69,507.82,506.93,506.09,505.36,504.88,504.68,504.63,504.68,504.83,504.96,505.07,505.20,505.33,505.34,505.34,505.40
483.50,483.64,483.79,483.95,484.15,484.41,484.69,484.93,485.20,485.45,485.67,485.90,486.15,486.41,486.66,486.86,487.07,487.23,487.35,487.45,487.58,487.69,487.81,487.96,488.08,488.24,488.47,488.71,488.95,489.25,489.50,489.76,489.99,490.03,490.15,490.24,490.28,490.29,490.36,490.39,490.43,490.49,490.59,490.73,490.88,491.04,491.19,491.35,491.50,491.65,491.81,491.97,492.12,492.27,492.43,492.58,492.74,492.87,492.96,492.97,493.03,493.10,493.16,493.18,493.24,493.31,493.35,493.37,493.44,493.47,493.51,493.57,493.65,493.67,493.73,493.80,493.85,493.85,493.85,493.81,493.74,493.65,493.57,493.49,493.42,493.34,493.26,493.19,493.12,493.07,493.07,493.07,492.98,492.86,492.77,492.69,492.61,492.53,492.45,492.32,492.21,492.07,491.96,492.03,492.17,492.27,492.38,492.54,492.69,492.78,492.90,493.06,493.22,493.37,493.52,493.63,493.65,493.67,493.66,493.65,493.64,493.58,493.56,493.54,493.54,493.54,493.54,493.53,493.57,493.70,493.93,494.16,494.35,494.48,494.54,494.62,494.69,494.80,495.03,495.58,496.59,498.28,500.17,500.42,500.62,500.93,501.35,501.87,502.43,502.98,503.54,504.10,504.42,504.26,503.96,503.68,503.49,503.60,503.55,503.31,502.99,502.61,502.27,502.13,502.29,502.76,503.27,503.76,504.23,504.79,506.01,507.58,509.03,510.01,510.59,511.01,511.19,511.13,510.91,510.70,510.48,509.99,508.84,507.44,505.81,504.47,503.65,503.19,503.47,504.09,504.90,505.82,506.74,507.36,507.72,507.88,507.99,508.07,508.20,508.39,508.72,509.53,510.86,512.48,514.03,514.96,515.37,515.57,515.71,515.72,515.77,515.84,515.93,516.08,516.19,516.31,516.45,516.59,516.67,516.49,516.19,515.85,515.49,515.17,514.44,513.44,512.50,511.88,511.53,511.48,511.70,511.86,512.00,511.73,511.12,510.50,510.01,509.54,509.01,508.36,507.58,506.76,506.00,505.37,504.95,504.80,504.83,504.94,505.07,505.23,505.34,505.45,505.57,505.61,505.62,505.69
483.54,483.64,483.80,483.95,484.15,484.39,484.63,484.87,485.24,485.55,485.74,485.97,486.25,486.47,486.63,486.73,486.89,487.00,487.11,487.25,487.33,487.47,487.63,487.79,488.00,488.23,488.50,488.77,489.01,489.32,489.57,489.80,490.01,490.08,490.17,490.21,490.22,490.23,490.30,490.36,490.40,490.44,490.58,490.73,490.88,491.04,491.19,491.35,491.50,491.65,491.81,491.97,492.12,492.27,492.43,492.58,492.74,492.93,493.09,493.15,493.17,493.23,493.30,493.36,493.38,493.44,493.47,493.50,493.57,493.64,493.67,493.70,493.78,493.85,493.93,493.97,493.97,493.97,493.97,493.97,493.92,493.79,493.70,493.62,493.54,493.47,493.40,493.31,493.27,493.26,493.26,493.26,493.21,493.10,492.97,492.88,492.81,492.73,492.65,492.56,492.43,492.24,492.08,492.11,492.24,492.35,492.45,492.61,492.76,492.85,492.97,493.13,493.28,493.43,493.59,493.72,493.78,493.85,493.81,493.77,493.77,493.76,493.70,493.68,493.68,493.68,493.68,493.63,493.68,493.89,494.12,494.35,494.54,494.66,494.69,494.76,494.85,495.07,495.71,497.47,498.95,500.01,500.67,501.02,501.22,501.51,501.90,502.32,502.80,503.27,503.80,504.36,504.68,504.56,504.28,504.01,503.88,504.04,504.06,503.89,503.57,503.19,502.81,502.47,502.29,502.60,503.04,503.51,503.97,504.48,505.23,506.59,508.14,509.49,510.29,510.91,511.38,511.62,511.43,511.25,511.10,510.82,510.29,509.72,508.53,507.28,506.34,505.78,505.23,505.15,505.62,506.54,507.40,508.04,508.46,508.67,508.82,508.93,509.08,509.31,509.61,510.36,511.75,513.42,514.80,515.34,515.62,515.85,516.03,516.04,516.05,516.10,516.19,516.35,516.49,516.60,516.71,516.85,516.93,516.67,516.30,515.93,515.61,515.30,514.69,513.90,513.20,512.69,512.34,512.25,512.42,512.38,512.09,511.62,511.04,510.37,509.71,509.15,508.58,507.96,507.31,506.70,506.09,505.52,505.14,505.01,505.05,505.18,505.28,505.42,505.57,505.69,505.78,505.91,505.94,505.99
483.60,483.69,483.84,483.96,484.13,484.34,484.56,484.75,485.06,485.43,485.79,485.98,486.17,486.33,486.47,486.55,486.70,486.80,486.91,487.05,487.13,487.31,487.52,487.76,487.99,488.22,488.50,488.78,489.02,489.29,489.56,489.81,490.00,490.04,490.12,490.14,490.16,490.21,490.28,490.32,490.37,490.43,490.58,490.73,490.88,491.04,491.19,491.35,491.50,491.65,491.81,491.97,492.12,492.27,492.43,492.58,492.74,492.91,493.10,493.24,493.34,493.39,493.44,493.51,493.55,493.59,493.63,493.67,493.71,493.78,493.84,493.87,493.92,493.99,494.06,494.13,494.16,494.16,494.12,494.11,494.06,493.92,493.83,493.75,493.68,493.61,493.56,493.50,493.44,493.42,493.45,493.46,493.41,493.32,493.21,493.09,493.00,492.92,492.85,492.76,492.59,492.40,492.24,492.18,492.30,492.40,492.51,492.67,492.82,492.92,493.03,493.20,493.39,493.55,493.70,493.83,493.91,493.94,493.96,493.96,493.95,493.92,493.87,493.84,493.80,493.80,493.80,493.78,493.85,494.08,494.31,494.55,494.72,494.80,494.83,495.06,495.61,496.39,497.45,499.00,500.12,500.78,501.13,501.47,501.76,502.08,502.44,502.82,503.28,503.72,504.18,504.67,504.91,504.84,504.59,504.31,504.30,504.49,504.57,504.45,504.06,503.67,503.26,502.83,502.49,502.51,502.89,503.35,503.81,504.24,504.76,505.83,507.26,508.78,509.98,510.70,511.22,511.62,511.79,511.79,511.68,511.46,511.07,510.68,509.99,509.22,508.51,507.84,507.02,506.50,506.50,507.31,508.12,508.77,509.23,509.47,509.78,510.07,510.37,510.72,511.18,511.92,513.12,514.39,515.20,515.58,515.86,516.12,516.31,516.36,516.37,516.41,516.50,516.61,516.76,516.87,516.97,517.11,517.15,516.83,516.40,515.99,515.64,515.36,514.94,514.41,513.90,513.50,513.14,512.90,512.77,512.48,512.03,511.50,510.94,510.34,509.79,509.23,508.63,508.01,507.36,506.76,506.22,505.77,505.52,505.40,505.39,505.44,505.52,505.67,505.79,505.91,506.03,506.14,506.19,506.25
483.65,483.75,483.89,483.99,484.11,484.27,484.47,484.63,484.85,485.24,485.72,485.90,486.01,486.13,486.26,486.35,486.49,486.59,486.72,486.88,486.99,487.18,487.45,487.74,487.97,488.21,488.49,488.77,489.00,489.25,489.53,489.79,489.96,489.99,490.05,490.08,490.11,490.19,490.26,490.28,490.31,490.41,490.55,490.72,490.88,491.04,491.19,491.35,491.50,491.65,491.81,491.97,492.12,492.27,492.43,492.58,492.74,492.89,493.07,493.28,493.45,493.52,493.57,493.65,493.72,493.74,493.78,493.84,493.86,493.92,493.99,494.04,494.07,494.14,494.20,494.27,494.33,494.33,494.27,494.24,494.19,494.05,493.96,493.89,493.82,493.76,493.73,493.67,493.60,493.57,493.63,493.65,493.61,493.53,493.44,493.31,493.20,493.12,493.04,492.95,492.75,492.56,492.41,492.27,492.38,492.48,492.58,492.74,492.89,492.99,493.12,493.28,493.50,493.66,493.81,493.95,494.03,494.03,494.10,494.14,494.12,494.06,494.04,494.00,493.96,493.96,493.94,493.94,494.02,494.25,494.49,494.73,494.95,495.11,495.20,495.59,496.52,497.78,499.06,500.10,500.77,501.24,501.59,501.91,502.26,502.60,502.93,503.33,503.77,504.18,504.59,504.96,505.12,505.08,504.87,504.61,504.68,504.87,505.00,504.91,504.50,504.09,503.64,503.17,502.75,502.57,502.82,503.21,503.62,504.02,504.42,505.20,506.42,508.03,509.57,510.40,510.94,511.42,511.93,512.15,512.18,512.05,511.70,511.33,511.00,510.65,510.20,509.50,508.69,507.96,507.63,508.23,509.01,509.74,510.30,510.68,511.15,511.61,512.01,512.40,512.91,513.54,514.40,515.18,515.48,515.79,516.10,516.37,516.58,516.66,516.67,516.71,516.80,516.89,517.02,517.13,517.23,517.36,517.35,516.99,516.53,516.08,515.69,515.39,515.10,514.77,514.40,514.07,513.71,513.31,512.90,512.44,511.92,511.40,510.89,510.39,509.99,509.44,508.81,508.17,507.48,506.87,506.41,506.11,505.96,505.87,505.78,505.74,505.79,505.91,506.02,506.13,506.26,506.35,506.44,506.51
483.68,483.81,483.90,484.04,484.14,484.24,484.35,484.50,484.72,485.01,485.36,485.63,485.80,485.91,486.01,486.15,486.24,486.37,486.55,486.76,486.97,487.14,487.39,487.68,487.91,488.14,488.42,488.70,488.94,489.24,489.49,489.70,489.84,489.91,489.99,490.01,490.04,490.12,490.20,490.22,490.25,490.34,490.50,490.70,490.88,491.04,491.19,491.35,491.50,491.65,491.81,491.97,492.12,492.27,492.43,492.58,492.74,492.89,493.05,493.23,493.44,493.59,493.70,493.77,493.85,493.87,493.91,493.98,494.04,494.06,494.12,494.19,494.25,494.33,494.36,494.40,494.46,494.46,494.40,494.37,494.32,494.18,494.09,494.06,494.02,493.94,493.88,493.80,493.76,493.75,493.77,493.82,493.80,493.72,493.64,493.55,493.43,493.31,493.24,493.15,492.95,492.76,492.58,492.41,492.46,492.53,492.65,492.80,492.95,493.10,493.25,493.40,493.57,493.73,493.88,494.03,494.15,494.17,494.22,494.26,494.26,494.25,494.19,494.16,494.15,494.14,494.09,494.06,494.13,494.32,494.61,494.90,495.35,495.86,496.14,496.51,497.40,498.54,499.56,500.35,501.00,501.59,502.10,502.42,502.74,503.06,503.39,503.77,504.17,504.61,504.99,505.22,505.32,505.24,505.07,504.92,504.94,505.09,505.20,505.16,504.87,504.43,503.92,503.43,503.04,502.92,502.91,503.03,503.30,503.75,504.21,504.74,505.70,507.33,508.92,509.95,510.62,511.10,511.63,512.05,512.46,512.68,512.48,512.16,511.80,511.43,511.01,510.51,510.02,509.53,509.21,509.47,510.32,511.27,512.16,512.93,513.48,513.90,514.23,514.46,514.57,514.75,515.11,515.49,515.75,516.05,516.36,516.63,516.83,516.92,516.93,516.97,517.07,517.20,517.30,517.38,517.49,517.61,517.55,517.19,516.72,516.26,515.82,515.38,515.03,514.72,514.39,514.02,513.64,513.23,512.78,512.31,511.84,511.40,510.98,510.57,510.18,509.60,508.92,508.24,507.54,507.06,506.74,506.57,506.47,506.34,506.24,506.14,506.06,506.12,506.25,506.37,506.47,506.60,506.69,506.77
483.72,483.83,483.94,484.06,484.18,484.27,484.36,484.44,484.63,484.87,485.12,485.41,485.56,485.68,485.81,485.95,486.07,486.24,486.45,486.69,486.91,487.11,487.35,487.61,487.85,488.11,488.38,488.64,488.88,489.18,489.40,489.56,489.68,489.79,489.88,489.95,490.02,490.10,490.14,490.18,490.23,490.33,490.48,490.67,490.86,491.04,491.19,491.35,491.50,491.65,491.81,491.97,492.12,492.27,492.43,492.58,492.74,492.89,493.05,493.21,493.40,493.59,493.75,493.86,493.97,494.03,494.07,494.12,494.19,494.23,494.27,494.32,494.40,494.48,494.52,494.56,494.60,494.59,494.56,494.52,494.46,494.35,494.27,494.21,494.18,494.13,494.06,493.98,493.94,493.94,493.94,493.98,493.97,493.92,493.84,493.76,493.66,493.54,493.42,493.31,493.12,492.93,492.74,492.57,492.55,492.60,492.71,492.87,493.02,493.17,493.33,493.49,493.63,493.79,493.94,494.10,494.24,494.28,494.36,494.40,494.40,494.39,494.36,494.32,494.29,494.29,494.22,494.20,494.27,494.47,494.70,495.02,495.55,496.20,496.70,497.23,498.04,498.98,499.84,500.53,501.13,501.66,502.11,502.50,502.85,503.30,503.79,504.17,504.53,504.91,505.25,505.48,505.57,505.46,505.33,505.24,505.25,505.35,505.42,505.36,505.07,504.69,504.22,503.74,503.35,503.25,503.23,503.26,503.35,503.58,504.00,504.47,505.24,506.55,508.13,509.33,510.16,510.71,511.18,511.67,512.20,512.64,512.86,512.84,512.55,512.16,511.77,511.38,511.02,510.78,510.76,511.23,512.12,513.03,513.84,514.44,514.72,514.90,515.06,515.20,515.24,515.31,515.50,515.77,516.04,516.32,516.62,516.89,517.10,517.22,517.24,517.26,517.32,517.44,517.56,517.64,517.75,517.86,517.76,517.38,516.92,516.45,515.99,515.50,515.05,514.65,514.30,513.91,513.53,513.12,512.69,512.23,511.80,511.39,511.01,510.62,510.24,509.64,508.94,508.23,507.67,507.30,507.08,506.98,506.93,506.83,506.72,506.60,506.49,506.45,506.50,506.59,506.71,506.86,506.95,507.06
483.75,483.85,483.99,484.08,484.22,484.34,484.41,484.43,484.59,484.76,484.95,485.20,485.33,485.46,485.63,485.80,485.96,486.17,486.40,486.63,486.85,487.08,487.32,487.55,487.79,488.08,488.34,488.58,488.83,489.11,489.30,489.42,489.51,489.64,489.75,489.88,490.01,490.08,490.10,490.15,490.22,490.33,490.48,490.63,490.82,491.02,491.18,491.35,491.50,491.65,491.81,491.97,492.12,492.27,492.43,492.58,492.74,492.89,493.05,493.20,493.36,493.56,493.75,493.92,494.07,494.17,494.22,494.25,494.32,494.40,494.43,494.46,494.54,494.62,494.69,494.72,494.72,494.72,494.72,494.68,494.60,494.52,494.46,494.39,494.33,494.31,494.24,494.16,494.13,494.13,494.14,494.14,494.14,494.11,494.03,493.96,493.88,493.77,493.61,493.45,493.29,493.09,492.89,492.73,492.64,492.67,492.78,492.93,493.09,493.24,493.40,493.55,493.70,493.86,494.01,494.17,494.31,494.41,494.48,494.51,494.53,494.53,494.53,494.49,494.44,494.42,494.35,494.33,494.41,494.62,494.79,495.11,495.63,496.30,496.98,497.68,498.44,499.24,500.00,500.62,501.12,501.50,501.81,502.26,502.71,503.38,504.11,504.50,504.82,505.14,505.46,505.73,505.83,505.73,505.63,505.56,505.57,505.64,505.64,505.51,505.22,504.91,504.50,504.04,503.66,503.59,503.65,503.65,503.57,503.54,503.84,504.27,504.87,505.79,507.28,508.58,509.56,510.22,510.67,511.19,511.74,512.33,512.97,513.30,513.19,512.89,512.52,512.21,511.91,511.90,512.26,513.06,513.91,514.67,515.25,515.57,515.53,515.44,515.41,515.46,515.54,515.62,515.79,516.05,516.35,516.59,516.88,517.15,517.38,517.53,517.56,517.56,517.58,517.67,517.80,517.90,518.00,518.11,517.95,517.54,517.07,516.59,516.11,515.58,515.05,514.55,514.17,513.78,513.40,513.01,512.60,512.15,511.75,511.36,510.96,510.57,510.18,509.60,508.90,508.25,507.84,507.58,507.43,507.36,507.34,507.27,507.17,507.05,506.96,506.83,506.79,506.85,506.97,507.11,507.21,507.33
483.78,483.90,484.00,484.13,484.28,484.40,484.48,484.54,484.60,484.70,484.85,484.98,485.12,485.30,485.51,485.73,485.94,486.17,486.40,486.62,486.80,487.02,487.25,487.48,487.72,488.02,488.27,488.53,488.80,489.00,489.17,489.28,489.36,489.46,489.64,489.81,489.95,490.02,490.08,490.11,490.18,490.32,490.48,490.63,490.79,490.96,491.12,491.33,491.50,491.65,491.81,491.97,492.12,492.27,492.43,492.58,492.74,492.89,493.05,493.20,493.36,493.52,493.71,493.91,494.07,494.21,494.34,494.44,494.46,494.53,494.60,494.66,494.74,494.81,494.85,494.86,494.86,494.86,494.86,494.81,494.73,494.67,494.64,494.58,494.51,494.44,494.37,494.29,494.25,494.27,494.32,494.33,494.33,494.30,494.23,494.15,494.07,493.96,493.81,493.65,493.45,493.25,493.07,492.87,492.72,492.77,492.89,493.00,493.15,493.30,493.46,493.61,493.76,493.92,494.08,494.23,494.38,494.52,494.57,494.60,494.67,494.72,494.68,494.65,494.62,494.56,494.48,494.45,494.52,494.69,494.85,495.09,495.52,496.11,496.75,497.49,498.33,499.20,499.99,500.52,500.78,500.91,501.06,501.52,502.16,503.17,504.20,504.63,504.96,505.31,505.65,505.93,506.08,506.04,505.95,505.89,505.89,505.96,505.84,505.60,505.35,505.10,504.73,504.30,503.94,503.96,504.08,504.10,504.00,503.88,503.79,504.08,504.55,505.18,506.38,507.62,508.68,509.49,510.12,510.68,511.25,511.90,512.63,513.24,513.64,513.69,513.37,513.06,512.80,513.00,513.66,514.51,515.13,515.59,515.98,516.24,516.19,515.97,515.79,515.73,515.80,515.88,516.05,516.31,516.61,516.85,517.13,517.43,517.70,517.86,517.89,517.89,517.91,517.99,518.08,518.16,518.26,518.34,518.05,517.57,517.04,516.52,516.00,515.46,514.92,514.43,514.04,513.65,513.27,512.86,512.42,512.01,511.62,511.20,510.77,510.38,509.94,509.37,508.82,508.42,508.08,507.88,507.75,507.68,507.61,507.55,507.49,507.44,507.36,507.27,507.25,507.23,507.23,507.32,507.45,507.56
483.83,483.97,484.05,484.19,484.32,484.44,484.54,484.63,484.67,484.73,484.82,484.94,485.08,485.26,485.46,485.67,485.90,486.13,486.36,486.58,486.77,487.00,487.23,487.46,487.69,487.97,488.21,488.46,488.72,488.88,489.01,489.12,489.25,489.39,489.58,489.75,489.88,489.96,490.03,490.08,490.17,490.32,490.48,490.63,490.78,490.94,491.10,491.29,491.48,491.65,491.81,491.97,492.12,492.27,492.43,492.58,492.74,492.89,493.05,493.20,493.36,493.51,493.68,493.88,494.07,494.23,494.38,494.51,494.58,494.66,494.74,494.81,494.89,494.93,494.97,494.99,494.99,494.99,494.99,494.94,494.87,494.83,494.79,494.73,494.67,494.62,494.54,494.46,494.43,494.45,494.51,494.53,494.53,494.50,494.42,494.35,494.27,494.16,494.00,493.84,493.62,493.44,493.26,493.04,492.87,492.89,492.98,493.06,493.22,493.37,493.52,493.67,493.83,493.99,494.16,494.34,494.49,494.61,494.67,494.72,494.79,494.83,494.83,494.81,494.76,494.69,494.64,494.63,494.66,494.76,494.92,495.15,495.51,495.98,496.55,497.25,498.12,498.99,499.72,500.16,500.30,500.31,500.40,500.81,501.61,502.85,504.10,504.69,505.08,505.41,505.71,505.97,506.19,506.29,506.29,506.25,506.21,506.19,506.01,505.75,505.52,505.29,504.97,504.61,504.32,504.35,504.49,504.53,504.45,504.29,504.04,504.11,504.39,504.83,505.63,506.74,507.78,508.63,509.41,510.13,510.80,511.48,512.22,512.92,513.52,513.93,514.04,513.88,513.71,513.98,514.68,515.49,516.01,516.37,516.67,516.88,516.80,516.57,516.33,516.17,516.13,516.15,516.33,516.60,516.87,517.14,517.44,517.75,518.02,518.14,518.16,518.16,518.18,518.26,518.34,518.42,518.52,518.61,518.32,517.73,517.07,516.45,515.88,515.31,514.77,514.29,513.87,513.48,513.10,512.69,512.27,511.91,511.56,511.17,510.76,510.39,509.98,509.47,509.01,508.72,508.39,508.17,508.03,507.96,507.91,507.84,507.79,507.75,507.67,507.62,507.59,507.53,507.49,507.55,507.67,507.77
483.89,484.02,484.11,484.25,484.36,484.47,484.60,484.69,484.76,484.81,484.86,484.98,485.14,485.29,485.45,485.63,485.84,486.08,486.30,486.52,486.75,486.98,487.22,487.45,487.68,487.92,488.15,488.38,488.59,488.75,488.85,488.98,489.14,489.36,489.53,489.68,489.81,489.88,489.97,490.05,490.17,490.32,490.48,490.63,490.78,490.94,491.09,491.25,491.45,491.65,491.81,491.97,492.12,492.27,492.43,492.58,492.74,492.89,493.05,493.20,493.36,493.52,493.68,493.85,494.06,494.23,494.38,494.54,494.69,494.78,494.86,494.93,495.00,495.02,495.07,495.11,495.12,495.12,495.12,495.08,495.02,495.00,494.94,494.87,494.82,494.80,494.72,494.65,494.62,494.64,494.70,494.72,494.72,494.69,494.62,494.54,494.46,494.35,494.19,494.02,493.81,493.63,493.44,493.23,493.06,493.01,493.04,493.13,493.28,493.44,493.60,493.75,493.91,494.06,494.26,494.45,494.60,494.70,494.77,494.86,494.93,494.95,495.01,495.00,494.92,494.83,494.82,494.83,494.84,494.87,495.01,495.27,495.58,495.93,496.40,497.02,497.81,498.63,499.27,499.64,499.75,499.77,499.84,500.19,501.09,502.45,503.88,504.74,505.19,505.48,505.73,505.98,506.28,506.51,506.62,506.60,506.51,506.38,506.17,505.94,505.71,505.48,505.19,504.91,504.73,504.73,504.87,504.94,504.90,504.72,504.44,504.30,504.36,504.65,505.05,505.99,506.94,507.78,508.71,509.60,510.36,511.06,511.76,512.44,513.08,513.79,514.48,514.59,514.62,514.91,515.49,516.21,516.71,517.08,517.36,517.53,517.40,517.18,516.95,516.72,516.52,516.44,516.62,516.91,517.16,517.47,517.77,518.08,518.34,518.42,518.44,518.44,518.46,518.53,518.61,518.68,518.79,518.87,518.68,517.99,517.19,516.46,515.81,515.18,514.64,514.17,513.75,513.37,512.99,512.61,512.25,511.95,511.65,511.30,510.94,510.62,510.23,509.76,509.36,509.08,508.72,508.46,508.31,508.24,508.22,508.16,508.09,508.01,507.95,507.93,507.87,507.80,507.75,507.81,507.89,507.97
483.93,484.03,484.16,484.27,484.39,484.51,484.62,484.74,484.84,484.90,484.95,485.00,485.14,485.29,485.47,485.67,485.85,486.07,486.27,486.46,486.69,486.93,487.16,487.39,487.62,487.85,488.08,488.29,488.47,488.62,488.76,488.91,489.08,489.30,489.47,489.59,489.68,489.76,489.89,490.02,490.17,490.32,490.48,490.63,490.78,490.94,491.09,491.25,491.42,491.61,491.80,491.97,492.12,492.27,492.43,492.58,492.74,492.89,493.05,493.20,493.36,493.55,493.74,493.90,494.07,494.23,494.38,494.55,494.75,494.90,494.96,495.00,495.07,495.13,495.16,495.20,495.24,495.24,495.24,495.23,495.20,495.15,495.12,495.06,494.99,494.94,494.86,494.82,494.82,494.82,494.85,494.90,494.92,494.89,494.81,494.74,494.66,494.54,494.38,494.18,493.99,493.79,493.59,493.42,493.21,493.11,493.11,493.19,493.35,493.54,493.72,493.88,494.03,494.19,494.36,494.52,494.68,494.81,494.90,495.01,495.13,495.25,495.33,495.32,495.19,494.98,495.00,495.09,495.14,495.11,495.20,495.42,495.70,496.02,496.38,496.79,497.35,497.98,498.54,499.03,499.23,499.35,499.50,499.83,500.63,501.95,503.50,504.79,505.27,505.61,505.93,506.22,506.52,506.77,506.88,506.86,506.72,506.52,506.33,506.14,505.91,505.68,505.39,505.14,505.01,505.06,505.19,505.32,505.34,505.07,504.82,504.60,504.52,504.63,504.85,505.50,506.35,507.31,508.32,509.13,509.86,510.55,511.24,511.88,512.55,513.37,514.31,514.93,515.49,515.90,516.29,516.88,517.37,517.77,518.06,518.17,517.99,517.76,517.54,517.30,517.06,516.79,516.91,517.25,517.54,517.85,518.16,518.44,518.66,518.75,518.76,518.76,518.77,518.79,518.87,518.98,519.08,519.10,519.03,518.37,517.56,516.78,516.00,515.26,514.66,514.19,513.85,513.57,513.25,512.92,512.62,512.41,512.16,511.87,511.54,511.22,510.80,510.24,509.71,509.37,509.04,508.78,508.62,508.55,508.49,508.42,508.38,508.34,508.26,508.20,508.14,508.08,508.05,508.03,508.13,508.22
483.96,484.07,484.20,484.30,484.42,484.54,484.65,484.77,484.88,484.98,485.03,485.04,485.15,485.29,485.48,485.69,485.86,486.07,486.28,486.46,486.67,486.89,487.11,487.32,487.55,487.78,488.00,488.19,488.37,488.53,488.69,488.84,489.00,489.20,489.39,489.49,489.56,489.67,489.82,489.95,490.11,490.28,490.44,490.59,490.73,490.87,491.02,491.17,491.33,491.50,491.70,491.86,492.03,492.20,492.36,492.54,492.70,492.86,493.02,493.20,493.36,493.54,493.74,493.92,494.07,494.23,494.38,494.56,494.78,494.95,495.02,495.06,495.14,495.22,495.26,495.31,495.37,495.38,495.38,495.38,495.36,495.31,495.28,495.24,495.18,495.11,495.06,495.05,495.05,495.05,495.08,495.13,495.14,495.12,495.05,494.96,494.87,494.74,494.56,494.34,494.18,493.98,493.76,493.57,493.37,493.22,493.18,493.29,493.45,493.64,493.83,494.01,494.17,494.34,494.51,494.67,494.85,495.01,495.15,495.29,495.44,495.60,495.69,495.66,495.51,495.30,495.31,495.43,495.49,495.43,495.44,495.59,495.83,496.14,496.45,496.76,497.16,497.62,498.07,498.53,498.84,499.10,499.35,499.71,500.77,502.35,503.98,505.03,505.45,505.81,506.17,506.48,506.78,507.04,507.13,507.07,506.89,506.69,506.50,506.31,506.10,505.87,505.58,505.34,505.24,505.34,505.50,505.67,505.70,505.39,505.10,504.85,504.69,504.69,504.91,505.41,506.13,506.99,507.90,508.66,509.39,510.08,510.68,511.27,511.98,512.82,513.75,514.69,515.61,516.29,516.83,517.52,518.01,518.44,518.74,518.78,518.58,518.35,518.10,517.84,517.57,517.18,517.22,517.55,517.89,518.20,518.51,518.78,518.99,519.07,519.09,519.07,519.05,519.06,519.15,519.27,519.34,519.34,519.33,518.75,517.97,517.19,516.44,515.60,514.90,514.40,514.13,513.92,513.64,513.34,513.09,512.95,512.76,512.50,512.19,511.86,511.38,510.76,510.17,509.74,509.37,509.11,508.94,508.84,508.76,508.70,508.67,508.63,508.55,508.47,508.40,508.35,508.33,508.27,508.38,508.48
483.98,484.12,484.20,484.34,484.45,484.56,484.69,484.78,484.92,485.02,485.08,485.11,485.17,485.29,485.48,485.70,485.87,486.07,486.30,486.51,486.68,486.89,487.09,487.27,487.50,487.72,487.91,488.09,488.30,488.46,488.62,488.77,488.93,489.09,489.29,489.39,489.45,489.60,489.75,489.85,489.99,490.19,490.34,490.49,490.61,490.72,490.88,491.03,491.19,491.36,491.52,491.68,491.89,492.08,492.25,492.46,492.63,492.79,492.97,493.18,493.34,493.49,493.67,493.88,494.04,494.21,494.38,494.56,494.78,494.95,495.05,495.12,495.20,495.27,495.35,495.43,495.49,495.49,495.50,495.51,495.51,495.50,495.44,495.41,495.38,495.32,495.31,495.30,495.30,495.32,495.39,495.41,495.41,495.38,495.30,495.22,495.10,494.94,494.77,494.55,494.37,494.17,493.94,493.72,493.54,493.34,493.27,493.42,493.58,493.75,493.94,494.16,494.31,494.53,494.72,494.90,495.12,495.27,495.48,495.67,495.83,495.99,496.08,496.02,495.87,495.73,495.71,495.82,495.88,495.80,495.74,495.78,495.97,496.28,496.59,496.90,497.22,497.55,497.88,498.21,498.62,499.02,499.42,499.94,501.53,503.46,505.00,505.39,505.71,506.07,506.43,506.74,507.04,507.29,507.36,507.25,507.04,506.86,506.66,506.46,506.28,506.06,505.78,505.54,505.45,505.60,505.81,505.99,506.03,505.72,505.35,505.07,504.87,504.81,505.18,505.70,506.26,506.87,507.57,508.31,509.05,509.71,510.21,510.76,511.45,512.17,512.91,513.98,515.13,516.14,517.06,517.99,518.60,519.09,519.39,519.37,519.16,518.93,518.66,518.35,518.03,517.59,517.54,517.81,518.20,518.53,518.84,519.11,519.31,519.39,519.40,519.36,519.31,519.33,519.45,519.55,519.60,519.61,519.59,519.12,518.41,517.67,517.06,516.15,515.36,514.79,514.53,514.35,514.08,513.81,513.61,513.52,513.38,513.15,512.84,512.49,511.94,511.33,510.75,510.22,509.75,509.44,509.23,509.11,509.03,509.00,508.95,508.89,508.80,508.72,508.66,508.61,508.59,508.53,508.63,508.74
483.99,484.12,484.21,484.35,484.45,484.56,484.70,484.78,484.88,484.97,485.05,485.15,485.19,485.29,485.48,485.70,485.91,486.10,486.30,486.51,486.68,486.89,487.09,487.26,487.49,487.67,487.84,488.00,488.19,488.38,488.55,488.71,488.87,489.01,489.15,489.26,489.38,489.53,489.64,489.72,489.82,489.95,490.05,490.20,490.34,490.49,490.69,490.85,491.03,491.24,491.44,491.60,491.81,492.01,492.17,492.35,492.55,492.73,492.89,493.06,493.22,493.34,493.48,493.66,493.87,494.12,494.34,494.56,494.78,494.95,495.05,495.13,495.21,495.28,495.36,495.44,495.51,495.56,495.61,495.66,495.70,495.69,495.62,495.60,495.59,495.57,495.57,495.57,495.57,495.59,495.66,495.71,495.70,495.64,495.57,495.48,495.35,495.19,495.02,494.80,494.58,494.37,494.13,493.90,493.70,493.47,493.40,493.56,493.76,493.97,494.19,494.40,494.56,494.78,495.00,495.21,495.43,495.59,495.81,496.03,496.22,496.38,496.46,496.38,496.22,496.17,496.17,496.24,496.27,496.19,496.12,496.04,496.16,496.47,496.77,497.08,497.43,497.77,498.09,498.44,498.84,499.27,499.88,501.22,503.12,504.55,505.35,505.66,505.97,506.33,506.69,507.00,507.30,507.55,507.57,507.39,507.21,507.01,506.82,506.63,506.43,506.25,505.97,505.75,505.71,505.90,506.08,506.28,506.37,506.09,505.72,505.41,505.17,505.15,505.73,506.34,506.90,507.45,508.04,508.61,509.18,509.75,510.32,510.91,511.20,511.40,511.84,513.08,514.47,515.64,516.65,517.75,518.79,519.51,519.89,519.90,519.73,519.48,519.18,518.86,518.49,518.00,517.82,517.99,518.46,518.88,519.18,519.43,519.63,519.71,519.69,519.65,519.63,519.64,519.73,519.79,519.84,519.91,519.82,519.44,518.96,518.44,517.78,516.92,516.14,515.50,515.00,514.70,514.49,514.29,514.13,514.04,513.95,513.76,513.46,513.04,512.54,512.02,511.48,510.89,510.27,509.83,509.56,509.42,509.34,509.29,509.22,509.15,509.07,508.98,508.94,508.91,508.87,508.84,508.88,508.97
483.99,484.12,484.21,484.35,484.45,484.56,484.70,484.78,484.84,484.91,485.00,485.12,485.20,485.31,485.48,485.70,485.94,486.11,486.30,486.51,486.68,486.89,487.09,487.25,487.46,487.62,487.77,487.93,488.09,488.29,488.48,488.64,488.79,488.92,489.03,489.16,489.31,489.44,489.51,489.59,489.66,489.72,489.82,489.97,490.13,490.32,490.55,490.72,490.92,491.15,491.37,491.53,491.71,491.88,492.03,492.19,492.39,492.56,492.72,492.85,493.02,493.18,493.34,493.53,493.76,494.03,494.29,494.52,494.75,494.92,495.02,495.10,495.18,495.25,495.32,495.39,495.45,495.53,495.63,495.73,495.81,495.85,495.83,495.82,495.82,495.82,495.82,495.82,495.82,495.85,495.95,496.01,495.99,495.92,495.82,495.72,495.58,495.42,495.25,495.00,494.74,494.50,494.26,494.03,493.80,493.57,493.50,493.67,493.92,494.15,494.38,494.60,494.79,495.06,495.29,495.50,495.73,495.91,496.13,496.36,496.58,496.76,496.83,496.75,496.62,496.62,496.62,496.65,496.66,496.58,496.50,496.36,496.40,496.64,496.97,497.30,497.67,498.04,498.38,498.76,499.15,499.69,500.67,502.60,504.39,505.38,505.76,506.04,506.31,506.62,506.94,507.25,507.56,507.79,507.78,507.56,507.40,507.18,506.98,506.79,506.59,506.41,506.15,505.98,506.00,506.19,506.38,506.59,506.69,506.45,506.11,505.78,505.56,505.62,506.29,506.96,507.58,508.16,508.72,509.26,509.88,510.58,511.36,511.96,511.94,511.72,511.67,512.33,513.68,515.00,516.16,517.38,518.66,519.61,520.17,520.29,520.18,519.95,519.67,519.34,518.94,518.43,518.11,518.16,518.70,519.19,519.58,519.89,520.12,520.22,520.18,520.24,520.42,520.63,520.79,520.89,520.94,520.91,520.73,520.32,519.87,519.36,518.66,517.86,517.12,516.41,515.74,515.37,515.14,514.96,514.79,514.67,514.54,514.36,514.08,513.66,513.22,512.77,512.25,511.59,510.88,510.32,509.95,509.77,509.64,509.55,509.48,509.41,509.33,509.27,509.24,509.20,509.15,509.13,509.13,509.19
483.99,484.12,484.21,484.35,484.45,484.56,484.70,484.78,484.81,484.85,484.92,485.01,485.19,485.33,485.48,485.70,485.94,486.11,486.30,486.51,486.67,486.88,487.08,487.24,487.39,487.55,487.71,487.86,488.02,488.18,488.39,488.57,488.71,488.81,488.94,489.09,489.23,489.31,489.38,489.46,489.51,489.56,489.70,489.85,490.04,490.27,490.48,490.64,490.84,491.07,491.29,491.45,491.56,491.68,491.83,491.99,492.15,492.31,492.45,492.56,492.77,493.04,493.30,493.52,493.75,493.99,494.22,494.45,494.68,494.84,494.95,495.03,495.11,495.19,495.26,495.30,495.32,495.41,495.54,495.69,495.83,495.95,496.03,496.05,496.06,496.07,496.08,496.08,496.09,496.13,496.25,496.28,496.28,496.22,496.07,495.93,495.77,495.61,495.42,495.12,494.83,494.57,494.34,494.11,493.88,493.65,493.57,493.74,494.02,494.27,494.50,494.74,494.99,495.33,495.58,495.77,496.00,496.23,496.45,496.69,496.92,497.13,497.18,497.13,497.07,497.07,497.07,497.07,497.05,496.97,496.89,496.75,496.69,496.79,497.15,497.53,497.91,498.30,498.67,499.06,499.44,500.23,501.69,503.85,505.18,505.93,506.33,506.56,506.75,506.97,507.23,507.54,507.84,508.02,507.97,507.76,507.59,507.38,507.15,506.94,506.77,506.55,506.32,506.22,506.30,506.47,506.68,506.91,507.02,506.78,506.48,506.17,506.01,506.18,506.83,507.52,508.20,508.88,509.53,510.23,511.14,512.21,513.23,513.76,513.63,513.16,512.53,511.92,512.86,514.25,515.63,516.93,518.20,519.38,520.23,520.51,520.49,520.36,520.12,519.80,519.40,518.89,518.45,518.37,518.90,519.45,520.03,520.50,520.79,520.94,520.93,521.17,521.70,522.29,522.63,522.86,522.89,522.64,522.34,521.80,521.13,520.41,519.71,518.94,518.21,517.49,516.78,516.37,516.11,515.89,515.66,515.44,515.21,514.97,514.70,514.37,513.99,513.54,513.00,512.29,511.54,510.92,510.48,510.21,510.00,509.90,509.82,509.72,509.64,509.61,509.54,509.49,509.46,509.41,509.39,509.43
483.99,484.12,484.21,484.35,484.45,484.56,484.69,484.74,484.77,484.81,484.86,484.94,485.06,485.25,485.48,485.70,485.94,486.11,486.28,486.46,486.62,486.79,486.99,487.18,487.34,487.49,487.64,487.80,487.95,488.11,488.28,488.45,488.60,488.73,488.83,488.97,489.10,489.17,489.21,489.27,489.38,489.52,489.67,489.83,490.02,490.24,490.37,490.48,490.64,490.84,491.05,491.17,491.29,491.43,491.58,491.74,491.89,492.08,492.27,492.45,492.67,492.96,493.24,493.47,493.70,493.93,494.14,494.33,494.56,494.73,494.86,494.97,495.05,495.12,495.16,495.18,495.20,495.32,495.43,495.57,495.71,495.82,495.94,496.04,496.12,496.18,496.26,496.32,496.37,496.43,496.53,496.55,496.52,496.43,496.28,496.17,495.99,495.77,495.51,495.20,494.93,494.69,494.47,494.28,494.05,493.86,493.73,493.76,494.04,494.29,494.54,494.84,495.17,495.54,495.84,496.08,496.31,496.55,496.78,497.01,497.24,497.46,497.54,497.55,497.52,497.52,497.48,497.46,497.44,497.36,497.28,497.18,497.08,497.06,497.26,497.62,498.00,498.39,498.78,499.16,499.55,500.50,502.27,504.44,505.69,506.44,506.91,507.14,507.35,507.53,507.75,508.01,508.27,508.30,508.17,507.94,507.74,507.55,507.34,507.12,506.92,506.73,506.51,506.44,506.57,506.78,507.00,507.24,507.36,507.16,506.87,506.59,506.49,506.75,507.41,508.10,508.79,509.57,510.60,511.59,512.80,513.93,514.50,514.77,514.65,514.27,513.60,512.54,512.50,513.42,514.86,516.23,517.64,519.11,520.18,520.54,520.75,520.76,520.60,520.31,519.91,519.40,518.90,518.69,519.13,519.83,520.54,521.16,521.59,521.77,522.00,522.39,522.96,523.69,524.08,524.27,524.30,524.10,523.75,523.05,522.26,521.50,520.75,519.98,519.23,518.50,517.88,517.54,517.33,517.12,516.87,516.55,516.22,515.85,515.44,515.09,514.70,514.26,513.71,512.95,512.19,511.72,511.43,511.24,510.94,510.93,510.80,510.53,510.29,510.13,509.93,509.79,509.74,509.71,509.67,509.69
483.99,484.12,484.21,484.35,484.45,484.55,484.67,484.70,484.75,484.79,484.81,484.87,484.95,485.15,485.44,485.69,485.92,486.09,486.24,486.39,486.55,486.71,486.89,487.09,487.26,487.42,487.58,487.73,487.88,488.04,488.19,488.35,488.50,488.63,488.72,488.83,488.95,489.02,489.06,489.16,489.32,489.51,489.65,489.79,489.96,490.14,490.19,490.25,490.39,490.57,490.77,490.88,491.02,491.18,491.36,491.53,491.71,491.91,492.15,492.38,492.61,492.89,493.17,493.40,493.63,493.85,494.02,494.17,494.36,494.52,494.66,494.79,494.90,495.02,495.05,495.05,495.08,495.23,495.31,495.44,495.57,495.66,495.78,495.93,496.06,496.17,496.30,496.39,496.46,496.54,496.62,496.68,496.70,496.65,496.50,496.40,496.23,495.98,495.68,495.37,495.11,494.87,494.66,494.50,494.29,494.11,493.94,493.85,494.04,494.26,494.53,494.86,495.23,495.63,495.97,496.30,496.65,496.90,497.13,497.36,497.59,497.82,497.92,497.95,497.95,497.94,497.88,497.86,497.83,497.77,497.68,497.59,497.47,497.36,497.40,497.69,498.07,498.45,498.84,499.23,499.61,500.70,502.69,504.85,506.06,506.88,507.48,507.75,507.97,508.15,508.33,508.49,508.64,508.57,508.38,508.16,507.95,507.77,507.56,507.32,507.11,506.94,506.73,506.69,506.89,507.12,507.35,507.58,507.72,507.57,507.30,507.04,506.96,507.23,507.88,508.60,509.34,510.26,511.63,512.90,514.16,515.09,515.31,515.41,515.30,515.04,514.51,513.47,512.66,512.90,514.02,515.40,516.87,518.55,519.88,520.41,520.83,521.00,521.01,520.87,520.47,519.98,519.45,519.12,519.32,520.01,520.78,521.52,522.16,522.58,523.04,523.52,524.05,524.66,524.97,525.10,525.12,525.00,524.70,524.03,523.24,522.44,521.66,520.89,520.14,519.47,518.96,518.74,518.58,518.36,518.02,517.58,517.14,516.66,516.19,515.83,515.42,514.95,514.36,513.62,512.88,512.61,512.52,512.43,512.16,512.25,512.15,511.84,511.49,511.22,510.94,510.72,510.58,510.46,510.35,510.30
483.99,484.12,484.21,484.35,484.45,484.53,484.61,484.68,484.71,484.75,484.80,484.82,484.88,485.06,485.33,485.67,485.86,486.02,486.18,486.33,486.49,486.64,486.80,486.98,487.19,487.36,487.51,487.67,487.82,487.98,488.13,488.28,488.42,488.51,488.59,488.68,488.76,488.85,488.98,489.16,489.35,489.50,489.59,489.67,489.80,489.93,489.94,489.95,490.10,490.30,490.46,490.61,490.75,490.95,491.17,491.40,491.62,491.85,492.08,492.31,492.55,492.83,493.10,493.33,493.55,493.72,493.85,493.93,494.04,494.18,494.30,494.42,494.64,494.84,494.89,494.90,494.94,495.08,495.19,495.31,495.44,495.52,495.60,495.74,495.89,496.02,496.11,496.19,496.26,496.34,496.43,496.62,496.81,496.89,496.76,496.62,496.51,496.31,496.00,495.69,495.39,495.13,494.92,494.76,494.60,494.40,494.20,494.07,494.04,494.20,494.47,494.78,495.11,495.53,495.89,496.33,496.97,497.27,497.51,497.75,497.98,498.21,498.31,498.35,498.35,498.34,498.27,498.25,498.24,498.20,498.08,497.98,497.87,497.72,497.63,497.81,498.13,498.52,498.91,499.29,499.68,500.86,503.02,505.17,506.33,507.24,508.02,508.37,508.56,508.76,508.90,508.91,508.88,508.80,508.64,508.43,508.26,508.05,507.82,507.59,507.37,507.20,506.99,506.99,507.27,507.51,507.74,507.97,508.12,508.02,507.80,507.52,507.37,507.56,508.21,508.95,509.83,510.94,512.50,514.00,514.90,515.36,515.63,515.74,515.59,515.38,515.11,514.53,513.47,512.90,513.21,514.50,515.83,517.57,519.17,520.09,520.61,520.98,521.31,521.46,521.06,520.65,520.16,519.67,519.43,519.88,520.59,521.42,522.33,523.27,523.90,524.43,524.86,525.02,525.14,525.23,525.25,525.15,524.98,524.65,524.01,523.14,522.37,521.60,520.91,520.34,519.98,519.90,519.77,519.47,518.96,518.38,517.79,517.30,516.92,516.58,516.15,515.60,514.96,514.27,513.64,513.57,513.65,513.67,513.59,513.75,513.80,513.68,513.37,513.08,512.83,512.58,512.28,511.89,511.63,511.45
483.96,484.08,484.20,484.35,484.45,484.51,484.55,484.63,484.68,484.72,484.75,484.80,484.87,484.96,485.16,485.52,485.78,485.96,486.11,486.26,486.42,486.58,486.73,486.89,487.08,487.28,487.44,487.60,487.75,487.91,488.06,488.20,488.30,488.38,488.46,488.56,488.68,488.80,488.96,489.11,489.24,489.34,489.42,489.50,489.59,489.69,489.73,489.77,489.91,490.08,490.19,490.34,490.50,490.73,491.04,491.31,491.55,491.78,492.01,492.25,492.52,492.79,492.99,493.08,493.15,493.28,493.40,493.49,493.61,493.72,493.81,493.94,494.16,494.36,494.40,494.46,494.62,494.84,495.02,495.15,495.26,495.33,495.41,495.54,495.68,495.79,495.86,495.95,496.02,496.10,496.24,496.45,496.68,496.88,497.00,496.95,496.84,496.63,496.33,496.06,495.76,495.45,495.17,494.98,494.81,494.64,494.46,494.31,494.19,494.22,494.38,494.65,494.92,495.25,495.56,496.00,496.68,497.30,497.79,498.14,498.37,498.59,498.70,498.73,498.73,498.73,498.70,498.66,498.63,498.62,498.51,498.39,498.25,498.11,498.01,498.00,498.23,498.59,498.97,499.36,499.74,501.11,503.56,505.60,506.96,507.85,508.48,508.94,509.15,509.24,509.25,509.16,509.08,509.00,508.89,508.73,508.54,508.31,508.07,507.86,507.67,507.43,507.23,507.28,507.61,507.84,508.08,508.31,508.47,508.41,508.21,507.96,507.77,507.84,508.48,509.20,510.20,511.55,513.17,514.53,515.23,515.58,515.90,516.09,515.96,515.73,515.46,515.06,514.18,513.31,512.98,513.85,514.94,516.44,517.95,519.15,520.10,520.65,521.14,521.59,521.66,521.28,520.77,520.24,519.81,519.82,520.46,521.41,522.53,523.67,524.40,524.84,525.08,525.15,525.23,525.33,525.37,525.25,525.13,524.94,524.46,523.69,522.88,522.17,521.53,521.00,520.70,520.66,520.45,520.08,519.56,519.00,518.46,518.02,517.68,517.32,516.87,516.25,515.55,514.89,514.43,514.44,514.56,514.62,514.63,514.72,514.79,514.77,514.59,514.40,514.25,514.09,513.87,513.46,513.02,512.62
483.94,484.04,484.20,484.35,484.44,484.49,484.51,484.57,484.64,484.68,484.70,484.77,484.85,484.89,485.00,485.31,485.65,485.87,486.05,486.20,486.36,486.52,486.69,486.84,487.00,487.21,487.38,487.53,487.69,487.85,487.99,488.10,488.18,488.25,488.34,488.47,488.61,488.76,488.90,489.00,489.07,489.15,489.23,489.30,489.38,489.46,489.54,489.63,489.75,489.88,489.98,490.11,490.27,490.55,490.92,491.22,491.48,491.72,491.96,492.20,492.48,492.68,492.77,492.75,492.68,492.77,492.88,492.98,493.12,493.21,493.30,493.44,493.64,493.78,493.86,494.00,494.25,494.56,494.82,494.97,495.05,495.14,495.22,495.34,495.45,495.53,495.60,495.68,495.76,495.86,496.03,496.26,496.50,496.79,497.11,497.22,497.19,497.00,496.70,496.45,496.14,495.78,495.43,495.19,495.03,494.88,494.72,494.58,494.44,494.34,494.38,494.54,494.75,494.96,495.20,495.58,496.23,497.20,498.03,498.54,498.76,498.98,499.08,499.10,499.10,499.10,499.10,499.06,499.02,499.01,498.94,498.81,498.66,498.52,498.41,498.26,498.37,498.66,499.04,499.42,499.94,501.53,504.18,506.13,507.69,508.58,509.06,509.54,509.66,509.62,509.50,509.36,509.28,509.20,509.13,509.03,508.80,508.57,508.35,508.15,507.95,507.64,507.46,507.55,507.91,508.17,508.41,508.64,508.80,508.78,508.59,508.37,508.16,508.14,508.71,509.37,510.44,511.98,513.63,514.81,515.43,515.79,516.17,516.44,516.34,516.08,515.73,515.38,514.74,513.80,513.04,513.41,514.31,515.50,516.83,518.18,519.48,520.20,520.83,521.51,522.03,521.86,521.38,520.84,520.33,519.99,520.55,521.58,522.79,524.01,524.75,525.07,525.16,525.24,525.31,525.43,525.47,525.32,525.24,525.10,524.76,524.18,523.40,522.75,522.13,521.60,521.31,521.22,520.92,520.51,520.06,519.57,519.14,518.78,518.45,518.05,517.56,516.89,516.15,515.52,515.21,515.20,515.29,515.37,515.41,515.42,515.47,515.50,515.44,515.37,515.26,515.17,515.04,514.71,514.23,513.71
483.94,484.04,484.20,484.35,484.41,484.44,484.50,484.51,484.57,484.62,484.63,484.71,484.78,484.86,484.92,485.03,485.42,485.75,485.98,486.13,486.30,486.50,486.68,486.84,487.00,487.16,487.32,487.47,487.63,487.78,487.88,487.97,488.05,488.13,488.26,488.37,488.48,488.63,488.72,488.80,488.88,488.95,489.03,489.11,489.19,489.26,489.35,489.48,489.59,489.70,489.83,489.93,490.12,490.42,490.79,491.10,491.39,491.65,491.91,492.18,492.38,492.41,492.36,492.29,492.23,492.28,492.36,492.46,492.60,492.69,492.81,492.97,493.12,493.22,493.38,493.63,493.93,494.24,494.54,494.70,494.80,494.93,495.02,495.11,495.20,495.27,495.34,495.42,495.50,495.61,495.83,496.06,496.34,496.64,496.96,497.29,497.50,497.45,497.14,496.84,496.48,496.10,495.74,495.46,495.28,495.14,495.00,494.91,494.76,494.67,494.58,494.53,494.63,494.78,494.92,495.16,495.77,497.01,498.24,498.97,499.15,499.37,499.42,499.43,499.43,499.43,499.43,499.42,499.41,499.40,499.33,499.24,499.12,498.95,498.74,498.58,498.60,498.78,499.11,499.49,500.41,502.28,504.90,506.84,508.40,509.40,509.95,510.18,510.02,509.84,509.70,509.55,509.47,509.39,509.35,509.29,509.06,508.83,508.64,508.45,508.21,507.85,507.69,507.81,508.18,508.48,508.78,509.00,509.13,509.11,508.97,508.75,508.56,508.50,508.88,509.42,510.47,512.05,513.75,514.89,515.56,516.00,516.43,516.75,516.70,516.42,515.98,515.54,515.03,514.24,513.41,513.29,514.11,515.11,516.21,517.48,518.77,519.69,520.46,521.22,521.92,522.31,522.06,521.48,520.98,520.64,521.13,522.06,523.20,524.44,524.94,525.16,525.29,525.37,525.44,525.53,525.53,525.39,525.30,525.17,524.98,524.65,524.02,523.39,522.78,522.23,521.87,521.60,521.25,520.86,520.47,520.13,519.84,519.55,519.23,518.81,518.20,517.50,516.80,516.19,515.96,515.78,515.76,515.87,515.82,515.81,515.86,515.91,515.89,515.82,515.65,515.49,515.39,515.21,514.99,514.67
483.94,484.04,484.19,484.31,484.38,484.42,484.45,484.49,484.53,484.57,484.62,484.69,484.74,484.80,484.86,484.93,485.14,485.53,485.90,486.12,486.28,486.46,486.63,486.79,486.94,487.10,487.25,487.41,487.56,487.67,487.76,487.84,487.92,488.00,488.14,488.25,488.35,488.49,488.54,488.61,488.68,488.77,488.88,489.00,489.12,489.23,489.35,489.50,489.60,489.70,489.86,490.01,490.20,490.45,490.75,491.02,491.33,491.59,491.82,492.03,492.09,492.05,491.95,491.84,491.77,491.78,491.84,491.94,492.09,492.17,492.30,492.46,492.62,492.81,493.06,493.35,493.66,493.96,494.21,494.37,494.50,494.64,494.77,494.85,494.93,495.00,495.08,495.16,495.25,495.36,495.63,495.83,496.08,496.39,496.77,497.20,497.59,497.73,497.53,497.19,496.81,496.45,496.10,495.77,495.52,495.37,495.41,495.63,495.60,495.38,495.03,494.69,494.66,494.72,494.80,495.00,495.59,497.06,498.53,499.39,499.61,499.94,500.00,500.00,500.00,500.00,500.00,500.03,500.02,499.94,499.82,499.64,499.47,499.30,499.07,498.87,498.82,498.95,499.27,499.61,500.96,503.08,505.58,507.55,509.08,510.05,510.54,510.64,510.40,510.17,509.96,509.75,509.67,509.59,509.55,509.51,509.31,509.12,508.93,508.71,508.42,508.05,507.92,508.07,508.45,508.80,509.12,509.36,509.50,509.48,509.35,509.22,509.11,509.03,509.13,509.55,510.53,512.07,513.77,514.91,515.59,516.04,516.52,517.02,516.95,516.58,516.09,515.62,515.16,514.48,513.70,513.28,513.96,514.79,515.76,517.00,518.19,519.15,520.00,520.80,521.57,522.25,522.50,522.38,522.01,521.76,522.15,522.96,523.99,524.75,525.06,525.24,525.38,525.49,525.58,525.63,525.61,525.49,525.38,525.23,525.08,524.85,524.35,523.82,523.25,522.73,522.35,521.96,521.58,521.22,520.92,520.65,520.41,520.13,519.81,519.43,518.79,518.09,517.44,516.91,516.61,516.31,516.23,516.34,516.31,516.26,516.27,516.30,516.29,516.18,515.98,515.80,515.68,515.53,515.34,515.11
483.94,484.04,484.19,484.26,484.33,484.39,484.41,484.47,484.49,484.53,484.60,484.67,484.69,484.74,484.81,484.88,484.90,485.28,485.74,486.08,486.26,486.42,486.57,486.73,486.88,487.03,487.19,487.34,487.47,487.56,487.63,487.71,487.78,487.87,488.01,488.12,488.22,488.36,488.39,488.47,488.56,488.66,488.81,488.96,489.12,489.27,489.42,489.58,489.69,489.80,489.97,490.19,490.37,490.55,490.76,491.00,491.28,491.52,491.69,491.77,491.72,491.64,491.54,491.41,491.33,491.30,491.33,491.42,491.56,491.65,491.79,491.97,492.16,492.45,492.76,493.07,493.38,493.68,493.86,494.02,494.17,494.33,494.48,494.59,494.67,494.75,494.82,494.90,494.99,495.12,495.39,495.57,495.79,496.11,496.56,497.03,497.58,497.94,497.93,497.56,497.17,496.82,496.48,496.10,495.77,495.73,496.03,496.56,496.68,496.37,495.79,495.16,494.88,494.76,494.77,494.98,495.65,497.31,498.95,499.98,500.36,500.76,500.85,500.85,500.85,500.85,500.85,500.87,500.82,500.65,500.45,500.13,499.84,499.59,499.36,499.14,499.07,499.18,499.49,499.90,501.66,503.99,506.33,508.32,509.73,510.58,511.00,511.06,510.81,510.56,510.30,510.03,509.91,509.82,509.76,509.71,509.57,509.42,509.21,508.94,508.61,508.24,508.15,508.33,508.72,509.10,509.44,509.75,509.95,509.93,509.81,509.74,509.68,509.58,509.45,509.78,510.70,512.14,513.80,514.92,515.60,516.09,516.62,517.29,517.19,516.74,516.19,515.69,515.21,514.62,513.90,513.33,513.82,514.51,515.39,516.59,517.65,518.60,519.50,520.34,521.11,521.93,522.65,523.04,522.91,522.84,523.18,523.87,524.68,524.96,525.13,525.28,525.44,525.60,525.70,525.73,525.70,525.60,525.45,525.29,525.14,524.94,524.58,524.13,523.63,523.15,522.75,522.30,521.91,521.59,521.36,521.11,520.87,520.60,520.30,519.96,519.36,518.67,518.06,517.63,517.24,516.85,516.71,516.81,516.80,516.75,516.71,516.70,516.67,516.52,516.31,516.11,515.94,515.78,515.56,515.35
483.94,484.04,484.18,484.21,484.27,484.34,484.40,484.42,484.47,484.51,484.54,484.61,484.68,484.71,484.75,484.82,484.88,484.99,485.36,485.94,486.18,486.35,486.50,486.66,486.81,486.97,487.13,487.25,487.34,487.43,487.50,487.58,487.65,487.74,487.88,487.99,488.09,488.24,488.37,488.50,488.64,488.78,488.93,489.09,489.24,489.40,489.55,489.71,489.85,490.00,490.16,490.38,490.56,490.69,490.83,491.06,491.30,491.43,491.44,491.35,491.26,491.18,491.11,491.01,490.94,490.87,490.85,490.90,491.05,491.14,491.34,491.60,491.83,492.13,492.44,492.75,493.06,493.35,493.54,493.69,493.85,494.00,494.16,494.30,494.41,494.49,494.56,494.64,494.75,494.90,495.09,495.25,495.53,495.90,496.32,496.77,497.48,498.13,498.42,498.02,497.62,497.24,496.87,496.48,496.11,496.50,497.21,497.80,498.02,497.85,497.25,496.37,495.52,495.02,494.87,495.18,496.20,497.94,499.74,501.13,501.93,502.26,502.33,502.33,502.33,502.33,502.33,502.22,502.03,501.78,501.39,500.92,500.34,499.80,499.56,499.38,499.36,499.48,499.82,500.62,502.72,505.14,507.38,509.32,510.29,510.90,511.35,511.50,511.31,511.08,510.81,510.53,510.32,510.17,510.04,509.92,509.82,509.68,509.44,509.12,508.75,508.42,508.38,508.59,508.98,509.36,509.79,510.25,510.59,510.58,510.51,510.35,510.18,510.04,509.90,510.27,511.14,512.42,513.89,514.94,515.66,516.26,516.92,517.61,517.51,517.04,516.42,515.78,515.24,514.62,513.95,513.47,513.73,514.28,515.10,516.18,517.15,518.04,518.96,519.88,520.60,521.38,522.13,522.72,523.00,523.32,523.84,524.35,524.72,524.96,525.13,525.29,525.45,525.66,525.81,525.86,525.81,525.67,525.52,525.36,525.21,525.03,524.75,524.33,523.89,523.46,523.02,522.61,522.26,521.98,521.74,521.44,521.15,520.89,520.62,520.30,519.87,519.22,518.61,518.27,517.88,517.50,517.31,517.32,517.27,517.25,517.20,517.14,517.06,516.86,516.63,516.41,516.20,516.04,515.77,515.52
483.94,484.03,484.14,484.19,484.23,484.28,484.35,484.35,484.42,484.47,484.51,484.55,484.63,484.68,484.71,484.76,484.83,484.88,485.09,485.54,486.05,486.28,486.44,486.60,486.78,486.92,487.03,487.14,487.22,487.30,487.40,487.50,487.58,487.69,487.81,487.93,488.05,488.20,488.36,488.53,488.71,488.87,489.02,489.17,489.33,489.49,489.63,489.79,489.94,490.09,490.22,490.37,490.50,490.62,490.75,490.94,491.14,491.20,491.14,491.02,490.91,490.80,490.69,490.58,490.50,490.42,490.37,490.38,490.55,490.75,491.02,491.31,491.55,491.85,492.13,492.43,492.73,493.03,493.21,493.37,493.52,493.68,493.83,494.01,494.17,494.27,494.35,494.43,494.53,494.66,494.81,494.97,495.25,495.60,495.99,496.61,497.40,498.19,498.69,498.40,497.97,497.53,497.12,496.72,496.51,497.20,498.20,498.97,499.21,499.15,498.75,498.04,497.15,496.47,496.14,496.33,497.24,498.71,500.56,502.29,503.49,503.74,503.77,503.77,503.77,503.76,503.64,503.44,503.15,502.76,502.27,501.69,500.99,500.30,499.88,499.65,499.60,499.78,500.36,501.64,503.84,506.21,508.30,509.89,510.64,511.18,511.68,511.98,511.83,511.60,511.35,511.09,510.88,510.72,510.58,510.47,510.33,510.01,509.66,509.32,508.98,508.66,508.61,508.81,509.19,509.55,510.02,510.58,511.06,511.17,511.13,510.94,510.73,510.57,510.59,511.06,511.82,512.84,514.12,515.09,515.84,516.50,517.19,517.89,517.87,517.43,516.77,516.07,515.39,514.74,514.15,513.71,513.79,514.24,514.90,515.73,516.64,517.57,518.48,519.32,520.00,520.75,521.49,522.10,522.54,523.12,523.84,524.41,524.73,524.96,525.16,525.33,525.50,525.73,525.89,525.97,525.93,525.78,525.62,525.47,525.31,525.15,524.94,524.55,524.14,523.75,523.33,522.97,522.65,522.37,522.12,521.82,521.51,521.22,520.94,520.59,520.21,519.70,519.23,518.91,518.53,518.15,517.89,517.80,517.76,517.73,517.58,517.37,517.15,516.92,516.69,516.44,516.19,516.00,515.74,515.49
483.94,484.02,484.10,484.17,484.19,484.23,484.29,484.30,484.36,484.43,484.49,484.51,484.57,484.63,484.69,484.72,484.77,484.85,484.90,485.09,485.80,486.18,486.39,486.56,486.75,486.85,486.94,487.02,487.10,487.19,487.32,487.44,487.53,487.67,487.77,487.89,488.03,488.19,488.36,488.56,488.75,488.90,489.06,489.21,489.37,489.52,489.69,489.83,489.98,490.09,490.17,490.24,490.32,490.43,490.58,490.74,490.89,490.91,490.84,490.76,490.61,490.46,490.31,490.18,490.11,490.05,489.98,489.96,490.12,490.44,490.76,491.03,491.28,491.58,491.84,492.11,492.42,492.72,492.89,493.04,493.20,493.36,493.52,493.72,493.91,494.05,494.14,494.22,494.30,494.41,494.57,494.72,494.97,495.29,495.74,496.53,497.37,498.23,498.88,498.78,498.33,497.82,497.32,496.91,496.93,497.78,498.93,499.89,500.14,500.23,500.12,499.78,499.15,498.44,498.00,497.99,498.59,499.65,501.40,503.31,504.81,505.01,505.06,505.06,505.06,505.03,504.79,504.53,504.18,503.66,503.11,502.45,501.72,500.99,500.37,500.06,499.99,500.28,501.23,502.91,505.02,507.21,509.12,510.25,510.90,511.44,511.98,512.44,512.35,512.13,511.91,511.70,511.54,511.38,511.25,511.15,510.91,510.37,509.88,509.51,509.20,508.89,508.81,508.98,509.33,509.67,510.16,510.80,511.41,511.73,511.70,511.51,511.28,511.13,511.37,511.95,512.62,513.37,514.45,515.33,516.07,516.76,517.46,518.15,518.23,517.83,517.13,516.42,515.62,514.93,514.39,513.98,513.93,514.29,514.80,515.36,516.19,517.14,518.01,518.75,519.38,520.11,520.79,521.38,521.92,522.66,523.53,524.26,524.72,524.96,525.19,525.38,525.55,525.78,525.95,526.07,526.06,525.91,525.75,525.60,525.44,525.28,525.10,524.78,524.42,524.05,523.67,523.35,523.03,522.76,522.51,522.21,521.89,521.57,521.23,520.85,520.46,520.10,519.78,519.47,519.11,518.75,518.45,518.26,518.19,518.09,517.82,517.43,517.07,516.81,516.58,516.31,516.03,515.80,515.57,515.33
483.94,484.02,484.09,484.12,484.16,484.21,484.24,484.29,484.31,484.37,484.44,484.49,484.52,484.57,484.64,484.69,484.72,484.78,484.85,484.94,485.20,485.92,486.38,486.53,486.64,486.73,486.84,486.96,487.04,487.17,487.27,487.39,487.52,487.62,487.75,487.86,487.98,488.13,488.34,488.53,488.69,488.85,489.00,489.16,489.31,489.48,489.68,489.79,489.89,489.96,489.98,490.00,490.06,490.17,490.33,490.48,490.59,490.62,490.58,490.50,490.34,490.19,490.06,489.98,489.96,489.94,489.91,489.91,489.97,490.21,490.47,490.73,491.01,491.27,491.55,491.85,492.16,492.45,492.59,492.72,492.89,493.10,493.25,493.42,493.59,493.75,493.88,493.97,494.07,494.21,494.37,494.52,494.74,495.13,495.81,496.64,497.49,498.37,499.13,499.30,498.94,498.34,497.67,497.14,497.32,498.04,499.02,499.98,500.36,500.75,500.99,501.01,500.81,500.32,500.00,499.96,500.30,501.06,502.31,503.82,505.20,505.61,505.77,505.78,505.76,505.79,505.63,505.32,504.94,504.49,503.90,503.23,502.52,501.86,501.35,501.02,500.99,501.54,503.01,504.61,506.33,508.13,509.78,510.58,511.16,511.70,512.26,512.79,512.87,512.75,512.57,512.40,512.25,512.05,511.90,511.74,511.29,510.65,510.08,509.65,509.34,509.03,508.95,509.07,509.36,509.73,510.24,510.93,511.69,512.26,512.24,512.03,511.81,511.69,512.10,512.74,513.42,514.13,514.93,515.63,516.32,517.02,517.72,518.41,518.52,518.14,517.39,516.63,515.85,515.14,514.53,514.12,514.11,514.41,514.87,515.40,515.98,516.75,517.53,518.23,518.85,519.50,520.17,520.85,521.56,522.38,523.24,524.05,524.70,524.96,525.19,525.38,525.56,525.79,526.00,526.16,526.19,526.04,525.88,525.73,525.55,525.35,525.18,524.98,524.73,524.44,524.11,523.75,523.42,523.15,522.90,522.60,522.24,521.84,521.43,521.04,520.65,520.28,519.96,519.70,519.43,519.16,518.91,518.65,518.32,518.00,517.65,517.25,516.82,516.51,516.26,516.02,515.77,515.54,515.31,515.08
483.93,483.98,484.05,484.06,484.12,484.17,484.21,484.25,484.29,484.32,484.38,484.45,484.49,484.53,484.58,484.66,484.69,484.74,484.80,484.86,484.93,485.46,486.06,486.48,486.56,486.66,486.80,486.93,487.02,487.17,487.26,487.38,487.51,487.60,487.71,487.83,487.94,488.08,488.30,488.47,488.63,488.78,488.94,489.09,489.25,489.41,489.60,489.69,489.75,489.79,489.82,489.82,489.88,489.98,490.12,490.29,490.36,490.37,490.32,490.24,490.12,490.02,489.94,489.90,489.90,489.90,489.90,489.90,489.92,490.09,490.31,490.55,490.79,491.00,491.26,491.55,491.86,492.15,492.30,492.44,492.61,492.80,492.96,493.11,493.27,493.43,493.60,493.70,493.82,493.99,494.18,494.38,494.63,495.07,495.87,496.79,497.73,498.63,499.39,499.71,499.52,499.04,498.44,497.89,497.85,498.10,498.66,499.48,499.99,500.49,500.88,501.14,501.29,501.38,501.58,501.84,502.14,502.74,503.51,504.46,505.43,505.93,506.26,506.38,506.41,506.47,506.37,506.06,505.69,505.29,504.75,504.06,503.41,502.88,502.48,502.15,502.12,502.71,504.22,505.68,507.18,508.76,510.23,511.00,511.57,512.14,512.71,513.24,513.39,513.33,513.19,513.04,512.91,512.73,512.54,512.27,511.64,510.93,510.28,509.78,509.48,509.25,509.18,509.23,509.44,509.77,510.31,511.07,511.94,512.71,512.74,512.55,512.32,512.23,512.77,513.46,514.16,514.81,515.41,516.01,516.64,517.33,518.05,518.75,518.97,518.65,517.87,517.04,516.18,515.36,514.67,514.29,514.29,514.55,514.99,515.56,516.09,516.78,517.46,518.04,518.57,519.10,519.73,520.46,521.27,522.11,522.96,523.81,524.56,524.94,525.19,525.40,525.60,525.83,526.06,526.26,526.32,526.17,526.01,525.86,525.68,525.49,525.33,525.18,525.00,524.78,524.51,524.14,523.81,523.54,523.28,522.91,522.51,522.07,521.63,521.27,520.89,520.49,520.11,519.83,519.59,519.36,519.12,518.80,518.32,517.87,517.43,517.01,516.59,516.21,515.94,515.72,515.51,515.28,515.05,514.77
483.89,483.92,483.99,484.00,484.05,484.12,484.19,484.21,484.25,484.29,484.32,484.39,484.46,484.50,484.53,484.61,484.67,484.70,484.74,484.81,484.89,484.96,485.53,486.31,486.49,486.65,486.80,486.92,487.02,487.16,487.26,487.37,487.50,487.59,487.68,487.79,487.92,488.02,488.24,488.41,488.56,488.72,488.87,489.02,489.18,489.34,489.49,489.57,489.59,489.63,489.69,489.69,489.75,489.83,489.94,490.14,490.19,490.15,490.08,490.00,489.93,489.90,489.90,489.90,489.90,489.90,489.90,489.90,489.92,490.06,490.26,490.47,490.63,490.79,491.01,491.27,491.56,491.85,492.03,492.17,492.33,492.50,492.66,492.81,492.96,493.13,493.34,493.45,493.58,493.76,494.00,494.29,494.60,495.07,495.89,496.93,498.01,498.95,499.67,500.02,500.02,499.80,499.43,498.94,498.54,498.21,498.28,498.87,499.42,499.87,500.23,500.54,500.89,501.60,502.41,503.13,503.58,504.17,504.65,505.09,505.56,506.09,506.57,506.86,507.01,507.10,507.07,506.80,506.47,506.13,505.67,505.02,504.48,504.13,503.79,503.45,503.33,503.76,504.99,506.30,507.74,509.19,510.53,511.44,512.08,512.68,513.28,513.76,513.90,513.87,513.77,513.63,513.54,513.40,513.18,512.80,512.10,511.33,510.60,510.02,509.72,509.58,509.48,509.47,509.57,509.81,510.45,511.29,512.25,513.11,513.25,513.09,512.85,512.77,513.39,514.15,514.89,515.52,515.99,516.50,517.04,517.66,518.42,519.13,519.47,519.25,518.47,517.55,516.57,515.62,514.83,514.48,514.47,514.71,515.16,515.82,516.44,517.12,517.72,518.18,518.58,518.97,519.52,520.22,521.05,521.90,522.75,523.60,524.38,524.91,525.21,525.44,525.67,525.90,526.13,526.36,526.44,526.29,526.14,525.99,525.83,525.67,525.52,525.36,525.21,525.05,524.87,524.52,524.20,523.91,523.62,523.18,522.72,522.26,521.84,521.51,521.14,520.70,520.27,519.91,519.66,519.42,519.14,518.78,518.26,517.74,517.24,516.79,516.38,515.93,515.63,515.41,515.24,515.00,514.77,514.42
483.86,483.91,483.94,483.98,484.01,484.06,484.13,484.19,484.22,484.26,484.31,484.33,484.40,484.46,484.52,484.59,484.63,484.67,484.73,484.81,484.88,484.90,485.13,485.65,486.39,486.65,486.77,486.88,487.01,487.11,487.23,487.35,487.46,487.58,487.67,487.76,487.87,488.01,488.18,488.34,488.50,488.65,488.80,488.96,489.14,489.32,489.42,489.45,489.47,489.49,489.56,489.56,489.62,489.70,489.80,489.96,490.00,489.98,489.94,489.87,489.84,489.83,489.85,489.89,489.90,489.90,489.90,489.90,489.92,490.10,490.28,490.46,490.61,490.76,490.98,491.19,491.40,491.60,491.77,491.91,492.09,492.29,492.45,492.60,492.76,492.92,493.09,493.23,493.41,493.63,493.92,494.22,494.57,495.07,495.90,497.00,498.13,499.15,499.91,500.24,500.29,500.22,500.07,499.80,499.54,499.27,499.20,499.46,499.75,499.89,499.91,499.89,499.95,500.37,501.08,501.91,502.78,503.69,504.50,505.08,505.47,506.05,506.58,507.01,507.36,507.63,507.78,507.66,507.45,507.21,506.81,506.41,506.15,505.98,505.59,505.01,504.59,504.71,505.68,506.95,508.34,509.66,510.80,511.68,512.50,513.23,513.83,514.23,514.36,514.36,514.31,514.22,514.13,513.99,513.81,513.55,513.08,512.31,511.50,510.81,510.37,510.11,509.91,509.80,509.80,509.96,510.80,511.83,512.84,513.69,513.87,513.69,513.41,513.30,513.97,514.86,515.82,516.66,517.03,517.37,517.61,517.99,518.76,519.51,519.80,519.61,518.92,517.95,516.91,515.93,515.12,514.67,514.58,514.85,515.46,516.35,517.04,517.73,518.34,518.83,519.21,519.51,519.85,520.34,521.10,521.94,522.79,523.63,524.42,524.97,525.31,525.56,525.80,526.03,526.26,526.46,526.53,526.42,526.27,526.12,525.96,525.81,525.65,525.50,525.38,525.26,525.09,524.88,524.55,524.20,523.84,523.38,522.92,522.45,522.03,521.71,521.34,520.90,520.45,520.03,519.73,519.45,519.13,518.74,518.25,517.72,517.19,516.68,516.19,515.73,515.36,515.09,514.92,514.64,514.35,513.97
