531.96,532.38,532.60,532.34,531.94,531.53,531.08,530.60,530.02,529.38,528.80,528.59,528.99,529.40,529.67,529.85,530.20,530.85,531.67,532.63,533.77,534.72,535.36,535.68,535.58,535.34,535.66,536.67,538.30,539.79,541.18,542.67,544.29,545.78,546.73,547.35,547.85,548.31,548.57,549.39,550.29,551.01,551.91,552.95,553.87,554.64,555.36,556.12,556.61,556.97,557.36,557.68,557.85,557.93,558.13,558.92,560.18,561.72,563.36,564.84,565.34,565.39,565.32,565.31,565.57,566.47,567.55,568.53,569.24,569.94,570.90,571.83,572.40,572.65,571.68,570.48,569.50,568.77,569.11,569.25,569.26,569.88,571.20,572.58,573.11,572.43,571.70,572.32,573.33,574.34,575.37,576.22,577.11,578.04,579.01,580.22,581.80,583.37,584.32,583.51,582.48,581.73,581.51,582.09,582.91,584.00,585.20,586.41,587.51,588.00,588.23,588.24,587.73,586.72,585.96,586.03,587.34,588.72,589.87,590.72,591.27,591.62,591.88,592.25,592.84,593.70,594.66,595.54,596.40,597.26,598.09,598.77,599.44,600.25,601.31,601.86,602.52,603.39,604.42,605.67,606.91,608.10,609.25,610.47,611.90,613.32,614.65,615.84,616.98,617.99,618.87,619.57,620.13,620.90,621.74,622.46,622.70,622.15,621.50,620.98,620.75,621.00,621.49,622.07,622.67,623.23,623.89,624.37,624.71,625.12,625.38,625.62,625.84,625.96,625.89,626.75,627.72,628.43,628.79,628.78,628.32,628.11,628.99,630.39,632.27,634.37,636.50,638.44,639.84,640.51,640.64,640.51,640.51,641.08,642.20,643.84,645.75,647.13,648.10,648.65,648.63,648.34,648.06,647.93,648.04,648.40,648.72,649.03,649.46,650.08,650.92,651.68,652.02,651.54,651.35,651.58,651.89,652.02,652.12,652.33,652.91,653.79,654.34,653.51,652.44,651.41,650.48,649.89,649.79,649.67,649.23,648.51,647.27,645.90,644.66,643.84,643.45,643.36,643.38,643.45,643.47,643.60,643.23,642.49,642.49,643.12,643.88,644.64,645.41,646.10,646.47,646.74,646.96,646.77,645.74,645.13
532.28,532.75,533.16,533.01,532.63,532.20,531.77,531.26,530.71,530.12,529.55,529.21,529.19,529.28,529.41,529.59,529.89,530.67,531.69,532.82,533.95,534.83,535.54,536.07,536.17,535.84,535.98,536.90,538.62,540.17,541.88,543.72,545.57,547.10,548.38,549.07,549.34,549.42,549.42,549.92,550.60,551.22,551.84,552.58,553.38,554.20,554.96,555.73,556.45,557.14,557.79,558.19,558.49,558.69,558.86,559.20,560.34,561.88,563.59,565.26,566.51,566.85,566.82,566.76,566.81,567.09,567.39,567.78,568.53,569.23,570.22,571.38,572.41,572.72,571.82,570.65,569.71,569.30,569.87,570.18,570.18,570.43,571.61,572.89,573.84,574.08,573.34,573.94,574.94,575.87,576.58,577.30,578.15,579.08,580.01,581.00,582.29,583.76,584.91,584.47,583.56,582.86,582.68,583.24,583.89,584.60,585.53,586.75,587.96,588.90,589.66,590.04,589.53,588.44,587.30,586.81,587.60,588.91,590.07,591.10,591.99,592.50,592.78,593.05,593.49,594.34,595.21,596.06,596.94,597.83,598.63,599.33,600.18,601.25,602.47,603.16,603.63,604.05,604.60,605.70,606.88,608.01,609.11,610.24,611.68,613.10,614.50,616.09,617.63,618.83,619.73,620.36,620.91,621.64,622.42,623.06,623.14,622.68,622.24,621.88,621.63,621.64,622.11,622.72,623.33,623.89,624.75,625.34,625.79,626.55,626.87,627.15,627.32,627.21,626.76,627.48,628.60,629.60,630.01,629.92,629.45,629.05,629.27,630.14,632.15,634.57,636.96,639.02,640.68,641.60,641.89,641.87,642.34,643.25,644.48,645.96,647.67,648.97,649.69,649.88,649.81,649.59,649.39,649.28,649.32,649.50,649.87,650.36,650.99,651.91,652.93,653.78,654.17,653.69,653.18,653.13,653.30,653.39,653.53,653.79,654.30,654.90,654.90,654.01,653.05,652.14,651.29,650.92,650.89,650.67,650.01,649.23,648.03,646.87,645.93,645.25,644.93,644.85,644.87,644.95,645.01,644.76,644.11,643.38,643.56,644.23,644.96,645.68,646.44,647.09,647.48,647.78,648.02,647.97,647.14,647.24
532.61,533.09,533.56,533.61,533.31,532.88,532.44,531.91,531.37,530.82,530.32,529.95,529.75,529.70,529.72,529.83,530.11,530.84,531.85,533.01,534.15,534.94,535.63,536.25,536.61,536.47,536.63,537.45,539.06,540.65,542.41,544.25,546.10,547.94,549.56,550.38,550.58,550.55,550.54,550.76,551.19,551.77,552.35,552.96,553.68,554.46,555.10,555.59,556.29,557.08,557.82,558.38,558.89,559.35,559.73,560.03,561.02,562.51,564.20,565.86,567.22,568.00,568.37,568.41,568.35,568.37,568.35,568.40,568.88,569.44,570.40,571.59,572.70,573.22,572.49,571.40,570.46,569.99,570.53,571.05,571.26,571.25,571.88,573.00,574.13,574.87,574.88,575.53,576.37,577.14,577.80,578.46,579.24,580.13,581.09,582.02,583.10,584.32,585.38,585.34,584.58,583.99,583.93,584.59,585.28,585.84,586.45,587.28,588.35,589.43,590.47,591.16,590.79,589.83,588.75,588.04,588.15,588.82,589.79,590.94,592.14,593.09,593.64,593.97,594.29,594.88,595.76,596.63,597.50,598.37,599.19,600.09,601.15,602.37,603.60,604.49,605.01,605.35,605.75,606.38,607.07,607.94,609.02,610.12,611.45,612.82,614.28,616.01,617.72,619.20,620.32,620.99,621.54,622.23,622.97,623.59,623.81,623.47,623.10,622.79,622.51,622.37,622.77,623.42,624.16,624.94,625.90,626.47,626.80,627.43,628.08,628.58,628.76,628.50,627.91,628.26,629.17,630.24,630.92,631.11,630.81,630.36,630.28,630.97,632.86,635.15,637.44,639.55,641.27,642.53,643.23,643.30,644.15,645.31,646.60,647.98,649.30,650.29,650.84,650.98,650.93,650.73,650.60,650.61,650.86,651.19,651.67,652.25,652.91,653.76,654.89,655.83,656.27,655.82,655.10,654.89,654.96,655.05,655.16,655.34,655.72,656.07,655.60,654.69,653.78,652.91,652.08,651.84,651.87,651.66,650.97,650.13,649.09,648.09,647.25,646.70,646.42,646.31,646.32,646.38,646.34,645.87,645.04,644.30,644.63,645.26,645.98,646.71,647.43,648.06,648.51,648.85,649.08,649.11,648.75,649.01
532.93,533.43,533.93,534.18,533.99,533.57,533.08,532.56,532.04,531.54,531.10,530.72,530.44,530.30,530.25,530.31,530.59,531.21,532.09,533.20,534.31,535.04,535.71,536.40,537.01,537.15,537.34,538.04,539.52,541.14,542.89,544.63,546.43,548.48,550.34,551.32,551.65,551.73,551.78,551.78,551.97,552.45,553.04,553.63,554.33,555.05,555.59,555.83,556.38,557.10,557.76,558.43,559.13,559.85,560.53,561.03,561.93,563.32,564.96,566.48,567.75,568.91,569.70,569.93,569.82,569.72,569.57,569.44,569.57,569.94,570.82,571.96,573.05,573.82,573.28,572.30,571.36,570.75,571.19,571.91,572.38,572.19,572.25,573.11,574.25,575.29,576.12,576.87,577.54,578.16,578.84,579.49,580.24,581.10,582.10,583.04,583.98,584.98,585.91,586.22,585.61,585.13,585.21,586.05,586.83,587.30,587.63,588.03,588.84,589.90,591.07,592.00,591.91,591.13,590.23,589.46,589.00,588.96,589.63,590.77,592.19,593.52,594.42,594.91,595.18,595.49,596.28,597.17,598.06,598.93,599.85,600.97,602.22,603.51,604.75,605.81,606.46,606.86,607.22,607.38,607.56,608.11,609.12,610.17,611.35,612.63,614.07,615.72,617.46,619.21,620.58,621.31,621.89,622.56,623.28,623.98,624.45,624.32,624.02,623.71,623.41,623.17,623.53,624.23,625.13,626.13,627.12,627.64,627.80,628.14,629.06,629.78,630.05,629.73,629.09,629.07,629.68,630.71,631.64,632.21,632.17,631.79,631.57,632.18,633.92,636.01,638.08,640.13,641.84,643.37,644.51,644.83,645.94,647.20,648.50,649.74,650.69,651.40,651.84,652.03,652.02,651.86,651.82,652.03,652.51,653.10,653.69,654.31,654.94,655.65,656.80,657.80,658.28,657.84,656.95,656.66,656.74,656.81,656.79,656.85,657.05,657.11,656.31,655.42,654.55,653.70,652.91,652.73,652.82,652.66,652.01,651.12,650.25,649.37,648.59,648.16,647.90,647.77,647.73,647.72,647.55,646.91,645.99,645.23,645.70,646.30,647.01,647.75,648.42,649.03,649.52,649.88,650.10,650.17,650.24,650.46
533.29,533.82,534.34,534.76,534.67,534.25,533.68,533.19,532.76,532.32,531.88,531.49,531.13,530.95,530.91,531.01,531.35,531.83,532.50,533.39,534.40,535.15,535.84,536.59,537.45,537.85,537.95,538.48,539.93,541.59,543.34,545.11,546.88,548.66,550.30,551.53,552.45,553.11,553.11,553.04,553.02,553.17,553.71,554.45,555.23,555.99,556.66,557.01,557.30,557.57,557.85,558.39,559.11,559.95,560.93,562.01,562.99,564.27,565.73,567.03,568.21,569.34,570.25,570.77,570.72,570.60,570.47,570.35,570.24,570.40,571.15,572.21,573.29,574.29,573.95,573.08,572.14,571.52,571.96,572.84,573.48,573.26,573.09,573.46,574.27,575.40,576.48,577.40,578.11,578.68,579.32,580.05,580.89,581.82,582.82,583.81,584.80,585.81,586.73,587.22,586.73,586.32,586.53,587.63,588.44,588.82,589.02,589.26,589.75,590.57,591.65,592.72,593.12,592.48,591.69,590.99,590.44,590.12,590.34,591.14,592.44,593.75,594.96,595.74,596.15,596.39,596.71,597.57,598.59,599.56,600.75,602.02,603.32,604.63,605.91,607.12,607.88,608.37,608.75,608.77,608.75,609.04,609.74,610.64,611.66,612.80,613.98,615.14,616.73,618.62,620.12,620.83,621.50,622.23,623.05,623.93,624.77,625.10,625.00,624.69,624.38,624.08,624.55,625.38,626.35,627.35,628.31,628.78,628.83,628.87,629.58,630.38,630.87,630.75,630.12,629.90,630.32,631.20,632.03,632.95,633.32,633.22,632.97,633.51,635.25,637.32,639.24,640.98,642.57,644.12,645.52,646.56,647.62,648.74,649.80,650.75,651.62,652.39,652.88,653.07,653.13,653.05,653.26,653.72,654.29,655.10,655.74,656.32,656.94,657.60,658.63,659.56,660.04,659.57,658.52,658.32,658.59,658.67,658.21,658.19,658.10,657.67,656.89,656.10,655.30,654.52,653.86,653.65,653.76,653.67,653.11,652.27,651.42,650.63,649.97,649.59,649.38,649.23,649.08,648.89,648.56,647.89,646.91,646.12,646.77,647.45,648.15,648.83,649.45,649.97,650.39,650.75,650.99,651.03,651.09,651.27
533.62,534.16,534.70,535.20,535.25,534.93,534.40,533.93,533.52,533.10,532.65,532.26,531.88,531.62,531.54,531.72,532.08,532.50,533.05,533.79,534.67,535.52,536.34,537.17,538.09,538.59,538.63,539.02,540.36,541.96,543.60,545.24,546.87,548.42,549.83,551.09,552.32,553.53,554.18,554.28,554.20,554.20,554.50,555.27,556.11,556.91,557.65,558.17,558.41,558.49,558.55,558.83,559.41,560.26,561.35,562.61,563.74,564.98,566.26,567.43,568.59,569.69,570.72,571.47,571.49,571.36,571.23,571.08,570.88,570.89,571.47,572.42,573.49,574.53,574.52,573.87,572.96,572.37,572.68,573.54,574.31,574.31,574.08,574.09,574.54,575.53,576.67,577.65,578.46,579.17,579.87,580.69,581.58,582.53,583.54,584.54,585.57,586.60,587.51,588.04,587.75,587.40,587.61,588.92,589.83,590.16,590.28,590.41,590.62,591.26,592.28,593.45,594.23,593.78,593.12,592.50,591.90,591.43,591.32,591.84,593.01,594.31,595.60,596.55,597.13,597.35,597.51,598.05,598.90,599.99,601.34,602.72,604.10,605.49,606.86,608.17,609.08,609.66,609.99,609.97,609.91,610.07,610.55,611.29,612.22,613.49,614.95,616.27,617.24,618.30,619.38,620.36,621.16,622.02,622.92,623.87,624.84,625.53,625.76,625.65,625.31,625.00,625.26,626.11,627.41,628.52,629.46,629.87,629.88,629.87,630.35,631.08,631.67,631.73,631.15,630.77,631.02,631.81,632.63,633.61,634.28,634.51,634.37,634.80,636.44,638.42,640.23,641.83,643.38,644.92,646.43,647.77,648.83,649.82,650.75,651.60,652.44,653.26,653.84,654.11,654.21,654.38,654.87,655.50,656.09,656.98,657.70,658.28,658.80,659.33,660.11,660.88,661.31,660.87,660.08,659.93,660.17,660.25,659.57,659.26,658.87,658.21,657.47,656.74,655.98,655.27,654.76,654.56,654.68,654.67,654.25,653.43,652.58,651.86,651.29,650.96,650.74,650.58,650.37,650.05,649.64,648.85,647.77,646.95,647.72,648.58,649.28,649.87,650.40,650.85,651.25,651.60,651.85,651.88,651.96,652.14
533.95,534.48,535.02,535.56,535.77,535.63,535.16,534.70,534.29,533.87,533.43,533.04,532.65,532.30,532.17,532.42,532.79,533.19,533.68,534.31,535.07,535.99,536.93,537.87,538.77,539.38,539.42,539.67,540.78,542.17,543.63,545.11,546.55,547.92,549.14,550.38,551.76,553.42,554.91,555.39,555.43,555.37,555.41,556.07,556.92,557.77,558.56,559.26,559.54,559.57,559.51,559.52,559.91,560.69,561.81,563.05,564.33,565.55,566.69,567.79,568.93,570.03,571.13,572.06,572.19,572.07,571.90,571.74,571.52,571.41,571.81,572.61,573.68,574.69,575.03,574.67,573.83,573.26,573.37,574.12,575.02,575.35,575.13,574.89,575.01,575.72,576.80,577.77,578.68,579.57,580.40,581.35,582.30,583.26,584.25,585.27,586.32,587.37,588.28,588.77,588.68,588.40,588.59,589.97,590.97,591.36,591.49,591.54,591.50,591.98,592.93,594.16,595.23,595.06,594.55,593.98,593.37,592.82,592.47,592.73,593.73,595.01,596.26,597.33,598.08,598.32,598.49,598.65,599.19,600.32,601.74,603.21,604.67,606.14,607.60,608.99,610.05,610.75,611.07,611.04,611.04,611.16,611.47,612.05,612.96,614.46,616.35,618.04,618.45,618.45,618.87,620.04,620.98,621.95,622.91,623.86,624.85,625.78,626.38,626.55,626.23,625.90,625.86,626.65,628.26,629.54,630.50,630.92,630.95,630.98,631.22,631.84,632.47,632.71,632.18,631.69,631.78,632.47,633.31,634.23,635.09,635.66,635.72,636.01,637.52,639.40,641.13,642.67,644.22,645.77,647.30,648.72,649.79,650.70,651.56,652.41,653.27,654.12,654.78,655.16,655.26,655.66,656.38,657.16,657.82,658.72,659.49,660.06,660.46,660.86,661.39,661.98,662.35,661.98,661.61,661.49,661.59,661.66,660.88,660.24,659.57,658.80,658.09,657.39,656.64,655.99,655.65,655.47,655.59,655.67,655.39,654.59,653.75,653.08,652.62,652.31,652.07,651.88,651.63,651.24,650.72,649.74,648.54,647.75,648.63,649.66,650.37,650.84,651.29,651.70,652.09,652.45,652.68,652.72,652.85,652.99
534.31,534.81,535.35,535.89,536.30,536.34,535.88,535.47,535.04,534.61,534.21,533.81,533.38,532.99,532.83,533.13,533.51,533.93,534.40,534.93,535.59,536.34,537.26,538.29,539.28,540.31,540.50,540.53,541.06,541.85,543.15,544.57,545.90,547.18,548.46,549.78,551.27,553.08,554.84,556.05,556.62,556.59,556.56,556.83,557.51,558.47,559.39,560.12,560.41,560.43,560.36,560.30,560.53,561.21,562.33,563.56,564.81,566.00,567.14,568.24,569.38,570.44,571.48,572.41,572.88,572.76,572.55,572.39,572.22,572.03,572.19,572.81,573.88,574.88,575.57,575.50,574.73,574.14,574.05,574.73,575.75,576.35,576.17,575.88,575.76,576.03,576.91,577.83,578.73,579.66,580.78,581.98,583.04,584.01,584.98,586.03,587.06,588.11,589.03,589.45,589.43,589.36,589.62,590.65,591.64,592.31,592.66,592.68,592.53,592.77,593.58,594.82,595.95,596.27,595.98,595.41,594.80,594.20,593.81,593.85,594.45,595.67,596.91,598.07,598.95,599.28,599.46,599.57,599.89,600.67,602.02,603.48,604.97,606.49,607.95,609.35,610.47,611.37,612.01,612.02,612.13,612.30,612.51,612.89,613.98,615.59,617.46,619.20,620.04,619.86,619.71,620.32,621.21,622.15,623.12,624.09,625.05,626.02,626.81,627.25,627.16,626.83,626.58,627.10,628.56,630.11,631.23,631.85,632.05,632.06,632.13,632.64,633.32,633.74,633.27,632.74,632.66,633.12,633.97,634.83,635.72,636.49,636.92,637.02,638.44,640.33,642.08,643.49,645.04,646.62,648.15,649.62,650.70,651.64,652.52,653.38,654.28,655.14,655.84,656.24,656.30,656.51,657.23,658.25,659.23,660.16,660.77,661.19,661.54,661.99,662.51,663.06,663.41,663.15,663.03,662.95,662.93,662.83,662.14,661.33,660.48,659.62,658.87,658.16,657.38,656.75,656.53,656.38,656.50,656.64,656.49,655.69,654.89,654.33,653.97,653.67,653.43,653.17,652.88,652.48,651.71,650.43,649.17,648.56,649.58,650.56,651.24,651.68,652.09,652.53,652.97,653.31,653.48,653.56,653.73,653.59
534.74,535.13,535.67,536.19,536.73,536.94,536.58,536.17,535.76,535.43,535.13,534.72,534.28,533.81,533.58,533.96,534.39,534.83,535.23,535.64,536.32,536.95,537.70,538.65,539.85,541.16,541.65,541.76,542.00,542.44,543.33,544.32,545.35,546.61,547.91,549.32,550.89,552.67,554.51,556.44,557.64,557.77,557.74,557.74,558.18,559.05,560.00,560.76,561.17,561.30,561.20,561.12,561.21,561.77,562.85,564.07,565.28,566.46,567.60,568.68,569.78,570.79,571.76,572.69,573.41,573.46,573.30,573.11,572.89,572.67,572.64,573.06,574.07,575.05,575.93,576.14,575.59,575.03,574.69,575.32,576.51,577.33,577.23,576.92,576.66,576.66,577.23,577.97,578.79,579.71,580.90,582.17,583.33,584.41,585.50,586.63,587.72,588.79,589.75,590.28,590.37,590.42,590.68,591.37,592.32,593.17,593.71,593.80,593.64,593.63,594.29,595.50,596.68,597.43,597.33,596.78,596.21,595.57,595.22,595.04,595.22,596.41,597.71,598.96,599.97,600.48,600.58,600.56,600.69,601.20,602.30,603.70,605.21,606.74,608.23,609.64,610.81,611.83,612.73,613.01,613.23,613.44,613.63,613.87,614.67,616.05,617.77,619.51,620.89,621.11,620.91,621.00,621.64,622.54,623.50,624.47,625.39,626.31,627.13,627.75,627.96,627.78,627.46,627.67,628.72,630.29,631.46,632.34,632.94,633.13,633.15,633.50,634.10,634.63,634.27,633.75,633.50,633.74,634.61,635.49,636.38,637.23,637.89,638.06,639.40,641.20,642.96,644.50,645.98,647.46,648.95,650.40,651.60,652.65,653.60,654.44,655.36,656.22,656.91,657.30,657.33,657.40,658.06,659.11,660.19,661.19,661.83,662.25,662.59,663.08,663.61,664.15,664.54,664.46,664.44,664.39,664.29,664.06,663.33,662.41,661.47,660.56,659.73,658.91,658.16,657.62,657.44,657.31,657.42,657.61,657.59,656.84,656.13,655.71,655.48,655.14,654.85,654.53,654.14,653.58,652.50,651.12,649.90,649.36,650.33,651.35,652.05,652.52,652.94,653.37,653.83,654.16,654.31,654.41,654.39,653.95
535.20,535.45,535.98,536.46,537.08,537.46,537.27,536.84,536.50,536.30,536.14,535.71,535.28,534.70,534.36,534.81,535.37,535.82,536.14,536.42,537.14,537.73,538.30,539.08,540.47,541.90,542.75,543.17,543.40,543.72,544.09,544.50,545.10,546.27,547.52,548.96,550.54,552.19,554.11,556.65,558.46,558.90,558.95,558.79,558.96,559.58,560.47,561.27,561.88,562.17,562.05,561.96,561.95,562.38,563.36,564.57,565.75,566.91,568.05,569.13,570.12,571.06,571.99,572.92,573.80,574.15,574.12,573.87,573.59,573.34,573.17,573.39,574.26,575.20,576.18,576.64,576.42,575.90,575.33,575.91,577.23,578.24,578.29,577.98,577.65,577.52,577.76,578.28,578.98,579.84,580.88,582.05,583.27,584.51,585.79,587.02,588.20,589.33,590.37,591.14,591.40,591.55,591.75,592.16,593.05,593.98,594.66,594.91,594.76,594.57,595.04,596.18,597.41,598.50,598.58,598.11,597.60,596.94,596.66,596.32,596.10,597.16,598.55,599.85,600.96,601.73,601.75,601.57,601.52,601.83,602.63,603.91,605.40,606.94,608.46,609.87,611.05,612.14,613.21,613.88,614.27,614.55,614.76,614.94,615.22,616.14,617.60,619.31,621.14,622.10,622.27,621.98,622.21,623.03,623.99,624.90,625.80,626.61,627.38,628.10,628.62,628.70,628.48,628.41,628.88,630.23,631.36,632.51,633.59,634.12,634.24,634.41,634.85,635.42,635.21,634.74,634.35,634.37,635.26,636.18,637.06,637.91,638.70,639.18,640.46,642.13,643.92,645.65,647.03,648.37,649.75,651.14,652.48,653.69,654.72,655.57,656.47,657.33,657.99,658.34,658.37,658.39,658.95,659.88,660.89,661.94,662.74,663.29,663.65,664.17,664.71,665.25,665.69,665.82,665.83,665.78,665.67,665.37,664.56,663.59,662.63,661.70,660.73,659.72,659.00,658.58,658.37,658.26,658.36,658.60,658.74,658.01,657.42,657.16,657.06,656.70,656.33,655.93,655.42,654.61,653.25,651.89,650.72,650.15,650.98,652.07,652.86,653.39,653.84,654.25,654.68,655.01,655.15,655.22,654.83,654.14
535.61,535.71,536.25,536.77,537.41,537.90,537.96,537.55,537.25,537.16,537.13,536.72,536.15,535.46,535.03,535.36,536.15,536.78,537.16,537.35,537.69,538.50,539.25,539.97,541.09,542.37,543.49,544.30,544.75,545.12,545.44,545.74,546.07,546.62,547.49,548.62,549.92,551.49,553.94,556.76,558.90,559.85,560.18,559.98,559.92,560.24,561.01,561.78,562.51,562.93,562.88,562.80,562.74,563.03,563.81,564.98,566.14,567.33,568.52,569.60,570.39,571.23,572.15,573.12,574.04,574.77,574.93,574.66,574.40,574.17,573.95,573.96,574.45,575.38,576.38,577.06,577.20,576.74,576.19,576.57,577.71,578.94,579.30,579.01,578.63,578.47,578.64,579.18,579.80,580.39,581.03,581.95,583.09,584.34,585.60,586.89,588.16,589.38,590.56,591.67,592.38,592.72,592.89,593.15,593.83,594.74,595.57,596.03,595.78,595.54,595.81,596.69,598.01,599.27,599.64,599.41,598.91,598.29,598.13,597.80,597.32,597.77,599.01,600.20,601.29,602.42,602.64,602.46,602.25,602.34,603.15,604.24,605.57,607.08,608.60,609.97,611.08,612.12,613.25,614.20,615.05,615.60,615.82,616.03,616.26,616.75,617.67,619.29,621.09,622.74,623.54,623.15,622.89,623.53,624.42,625.28,626.10,626.83,627.59,628.34,629.01,629.37,629.55,629.52,629.46,630.10,631.24,632.54,633.80,634.83,635.21,635.38,635.69,636.19,636.19,635.80,635.31,635.13,635.97,636.85,637.74,638.62,639.49,640.44,641.91,643.64,645.38,646.84,648.24,649.58,650.86,652.13,653.33,654.53,655.72,656.80,657.65,658.50,659.11,659.39,659.46,659.60,660.04,660.75,661.71,662.68,663.61,664.33,664.80,665.28,665.81,666.35,666.81,666.99,666.98,666.94,666.94,666.86,666.25,665.37,664.43,663.43,662.20,660.94,660.05,659.55,659.33,659.19,659.26,659.66,660.08,659.27,658.73,658.53,658.49,658.29,657.94,657.41,656.72,655.78,654.37,652.97,651.67,650.89,651.73,652.80,653.66,654.29,654.75,655.19,655.58,655.85,655.93,655.67,655.02,654.22
536.10,536.09,536.56,537.11,537.75,538.32,538.60,538.26,538.02,538.05,538.12,537.65,536.96,536.19,535.69,535.89,536.79,537.59,538.12,538.34,538.38,539.16,540.05,540.88,541.80,542.96,544.17,545.22,545.94,546.45,546.82,547.11,547.31,547.45,547.91,548.67,549.78,551.57,554.56,557.48,559.65,560.82,561.37,561.19,561.07,561.26,561.84,562.43,563.11,563.62,563.73,563.66,563.57,563.70,564.25,565.41,566.63,567.88,569.11,570.19,570.81,571.48,572.30,573.25,574.20,575.13,575.55,575.48,575.24,575.01,574.78,574.59,574.67,575.57,576.57,577.42,577.86,577.50,577.03,577.23,578.09,579.37,580.23,580.12,579.72,579.54,579.68,580.21,580.74,581.18,581.60,582.22,583.08,584.13,585.38,586.66,587.97,589.24,590.48,591.74,592.91,593.68,594.07,594.26,594.69,595.51,596.44,597.09,596.93,596.66,596.65,597.15,598.47,599.74,600.36,600.39,599.98,599.54,599.43,599.12,598.57,598.52,599.46,600.52,601.63,602.93,603.49,603.40,603.08,602.98,603.66,604.59,605.73,607.05,608.48,609.82,610.92,611.95,613.11,614.22,615.35,616.22,616.74,617.10,617.34,617.59,618.20,619.68,621.31,623.22,624.44,624.28,623.85,624.14,624.80,625.60,626.37,627.09,627.83,628.59,629.34,630.00,630.58,630.77,630.56,630.69,631.50,632.64,633.94,635.25,636.04,636.35,636.60,636.99,637.18,636.86,636.32,635.99,636.63,637.50,638.43,639.48,640.80,642.18,643.69,645.33,647.02,648.39,649.71,650.95,652.13,653.28,654.42,655.61,656.82,657.99,658.85,659.65,660.22,660.51,660.63,660.90,661.26,661.80,662.68,663.61,664.57,665.35,665.87,666.38,666.92,667.45,667.89,668.09,668.10,668.13,668.22,668.28,667.94,667.20,666.25,665.13,663.77,662.40,661.53,661.08,660.84,660.69,660.79,661.14,661.41,660.44,659.95,659.81,659.79,659.62,659.29,658.71,657.95,656.98,655.56,654.14,652.70,651.75,652.50,653.57,654.52,655.23,655.70,656.16,656.48,656.65,656.58,656.00,655.20,654.34
536.66,536.56,536.91,537.48,538.10,538.71,539.16,538.95,538.82,538.95,539.09,538.51,537.71,536.89,536.34,536.44,537.33,538.25,539.01,539.41,539.27,539.72,540.65,541.73,542.58,543.69,544.85,545.96,546.94,547.65,548.13,548.49,548.71,548.76,548.90,549.34,550.40,552.64,556.02,558.81,560.75,561.84,562.51,562.42,562.40,562.65,562.98,563.27,563.76,564.29,564.60,564.50,564.41,564.39,564.68,565.83,567.17,568.49,569.75,570.83,571.39,571.88,572.50,573.36,574.32,575.26,575.96,576.29,576.08,575.85,575.62,575.28,574.96,575.77,576.76,577.71,578.37,578.18,577.82,577.85,578.40,579.55,581.00,581.27,581.00,580.77,580.91,581.30,581.75,582.17,582.54,582.91,583.34,584.05,585.22,586.41,587.70,588.97,590.19,591.41,593.01,594.38,595.24,595.45,595.65,596.33,597.25,598.08,598.21,597.94,597.61,597.66,598.80,599.96,600.75,601.04,600.80,600.67,600.54,600.24,599.77,599.44,600.02,600.97,602.11,603.38,604.36,604.40,604.02,603.78,604.14,604.97,605.92,606.96,608.19,609.48,610.63,611.73,612.89,614.04,615.25,616.43,617.47,618.09,618.39,618.61,619.14,620.48,621.89,623.66,625.04,625.36,625.04,624.90,625.20,625.89,626.65,627.41,628.13,628.86,629.67,630.62,631.53,632.07,632.13,632.05,632.24,632.98,634.14,635.45,636.69,637.28,637.55,637.82,638.16,637.89,637.36,636.94,637.24,638.16,639.19,640.57,642.63,644.39,645.77,647.18,648.73,650.21,651.37,652.45,653.53,654.58,655.76,656.93,658.06,659.13,660.04,660.79,661.35,661.69,661.87,662.26,662.59,663.02,663.81,664.71,665.63,666.36,666.86,667.45,668.00,668.51,668.92,669.14,669.23,669.34,669.48,669.59,669.50,668.95,667.99,666.70,665.38,664.10,663.43,663.15,662.89,662.78,662.89,662.96,662.66,661.51,661.06,660.98,660.94,660.65,660.34,659.79,659.06,658.18,656.79,655.34,653.84,652.75,653.31,654.42,655.45,656.23,656.67,657.13,657.37,657.39,657.09,656.25,655.38,654.52
537.28,537.04,537.26,537.81,538.43,539.07,539.63,539.71,539.65,539.76,539.88,539.38,538.48,537.53,536.91,537.06,537.95,538.93,539.91,540.62,540.30,540.40,541.15,542.28,543.27,544.40,545.50,546.57,547.62,548.52,549.28,549.98,550.53,550.70,550.95,551.59,552.91,555.32,558.19,560.25,561.75,562.88,563.66,563.77,563.87,564.11,564.37,564.65,564.96,565.25,565.42,565.34,565.26,565.19,565.32,566.09,567.36,568.62,569.82,571.05,572.13,572.66,573.07,573.63,574.43,575.37,576.27,576.90,576.89,576.70,576.47,576.10,575.64,576.02,576.89,577.89,578.68,578.78,578.49,578.37,578.69,579.70,581.15,582.28,582.71,582.44,582.57,582.78,583.00,583.24,583.53,583.88,584.25,584.71,585.36,586.19,587.38,588.62,589.79,591.12,592.85,594.57,595.94,596.56,596.78,597.17,597.91,598.89,599.33,599.19,598.88,598.71,599.13,600.08,600.91,601.48,601.72,601.76,601.58,601.25,600.87,600.63,601.01,601.86,602.97,604.13,605.24,605.38,605.03,604.68,604.72,605.53,606.48,607.38,608.39,609.53,610.62,611.70,612.90,614.06,615.28,616.52,617.70,618.65,619.35,619.73,620.20,621.44,622.80,624.49,625.92,626.50,626.21,625.96,626.02,626.41,627.09,627.80,628.51,629.26,630.16,631.24,632.32,633.23,633.78,633.78,633.89,634.25,634.84,635.66,636.90,637.91,638.49,638.68,639.07,638.89,638.39,637.90,637.92,638.81,640.27,642.19,644.55,646.71,648.15,649.23,650.26,651.58,652.85,653.98,655.01,656.07,657.16,658.26,659.33,660.28,661.07,661.83,662.46,662.91,663.10,663.51,663.92,664.36,664.98,665.83,666.67,667.36,667.87,668.40,668.97,669.49,669.92,670.21,670.25,670.38,670.54,670.64,670.65,670.39,669.57,668.25,666.92,666.00,665.56,665.36,665.12,665.07,664.94,664.48,663.53,662.47,662.09,661.94,661.78,661.47,661.21,660.69,660.03,659.25,657.99,656.60,655.02,653.82,654.50,655.57,656.61,657.38,657.70,658.02,658.16,657.97,657.35,656.45,655.47,654.82
537.94,537.63,537.70,538.12,538.70,539.36,540.04,540.44,540.49,540.51,540.49,539.98,538.99,538.10,537.69,538.08,538.93,539.83,540.85,541.71,541.38,541.25,541.78,542.83,543.94,545.09,546.13,547.14,548.19,549.20,550.16,551.16,552.11,552.71,553.43,554.48,556.01,558.15,560.23,561.66,562.86,563.99,564.85,565.11,565.26,565.48,565.69,565.95,566.10,566.18,566.22,566.19,566.11,566.02,566.03,566.42,567.52,568.64,569.76,571.08,572.56,573.42,573.90,574.24,574.75,575.53,576.47,577.32,577.67,577.54,577.32,576.96,576.41,576.30,577.05,578.06,578.94,579.37,579.20,579.01,579.18,580.02,581.28,582.90,584.00,584.16,584.32,584.39,584.46,584.54,584.64,584.92,585.31,585.66,585.94,586.39,587.28,588.31,589.45,590.90,592.74,594.71,596.49,597.59,597.95,598.17,598.67,599.57,600.23,600.32,600.10,599.78,599.68,600.32,601.10,601.83,602.41,602.70,602.62,602.34,601.99,601.87,602.08,602.84,603.91,605.00,606.11,606.34,606.05,605.60,605.36,606.08,607.05,608.00,608.88,609.91,610.92,611.96,613.11,614.23,615.40,616.60,617.81,618.99,620.10,620.86,621.47,622.44,623.71,625.32,626.79,627.60,627.37,627.13,627.02,627.13,627.62,628.26,628.94,629.71,630.71,631.87,633.03,634.16,635.11,635.44,635.60,635.80,636.12,636.62,637.49,638.48,639.28,639.73,640.18,639.98,639.43,638.85,638.68,639.46,641.21,643.51,646.05,648.55,650.13,651.11,651.84,652.99,654.29,655.46,656.50,657.53,658.51,659.48,660.43,661.33,662.06,662.84,663.55,664.10,664.33,664.74,665.21,665.68,666.20,666.95,667.71,668.36,668.87,669.32,669.87,670.38,670.83,671.20,671.23,671.35,671.51,671.59,671.66,671.50,670.79,669.60,668.49,667.93,667.69,667.55,667.37,667.19,666.65,665.64,664.29,663.37,663.02,662.80,662.56,662.28,662.02,661.54,660.93,660.24,659.19,657.83,656.14,654.79,655.53,656.78,657.88,658.58,658.76,658.89,658.81,658.36,657.48,656.52,655.73,655.38
538.67,538.40,538.30,538.45,538.91,539.60,540.41,541.13,541.29,541.18,540.87,540.17,539.14,538.62,538.76,539.57,540.32,541.00,541.83,542.61,542.49,542.29,542.60,543.44,544.58,545.74,546.75,547.72,548.72,549.72,550.72,551.87,553.19,554.53,556.03,557.61,559.16,560.59,561.86,563.01,564.12,565.18,566.07,566.37,566.51,566.68,566.84,567.00,567.02,567.00,567.02,567.07,566.98,566.87,566.82,566.94,567.75,568.70,569.74,571.03,572.59,574.04,574.98,575.27,575.40,575.80,576.55,577.53,578.39,578.37,578.19,577.85,577.18,576.66,577.26,578.25,579.23,579.98,579.99,579.87,579.98,580.60,581.57,583.03,584.57,585.73,586.02,586.09,586.14,586.13,585.92,586.01,586.37,586.77,587.05,587.21,587.50,588.15,589.26,590.81,592.82,594.94,596.95,598.49,599.11,599.36,599.64,600.16,600.88,601.29,601.17,600.73,600.56,600.79,601.38,602.11,602.78,603.41,603.66,603.54,603.17,603.08,603.15,603.81,604.88,605.96,606.99,607.29,607.07,606.55,606.08,606.57,607.57,608.69,609.62,610.63,611.61,612.56,613.53,614.55,615.63,616.75,617.90,619.13,620.56,621.90,622.94,623.49,624.55,626.03,627.55,628.63,628.51,628.32,628.14,628.04,628.27,628.82,629.45,630.22,631.31,632.51,633.68,634.83,635.95,636.87,637.16,637.50,638.02,638.54,638.70,639.10,639.91,641.02,641.60,641.22,640.49,639.81,639.60,640.21,641.87,644.21,646.88,649.59,651.37,652.55,653.45,654.53,655.71,656.87,657.96,658.90,659.78,660.55,661.35,662.25,663.02,663.85,664.61,665.22,665.54,665.98,666.44,666.92,667.47,668.10,668.77,669.38,669.83,670.23,670.69,671.16,671.62,672.03,672.16,672.29,672.42,672.50,672.57,672.25,671.57,670.68,670.06,669.79,669.70,669.66,669.47,668.96,667.84,666.40,665.00,664.25,663.87,663.60,663.35,663.11,662.82,662.35,661.77,661.13,660.37,658.98,657.13,655.59,656.29,658.00,659.22,659.76,659.84,659.73,659.28,658.51,657.47,656.50,656.29,656.26
539.62,539.52,539.29,539.13,539.31,539.85,540.71,541.64,541.89,541.59,540.88,540.07,539.40,539.35,539.84,540.66,541.42,542.13,542.89,543.57,543.66,543.45,543.59,544.21,545.25,546.38,547.48,548.45,549.30,550.25,551.24,552.33,553.57,555.09,556.67,558.18,559.58,560.96,562.74,564.23,565.44,566.44,567.21,567.43,567.54,567.70,567.84,567.84,567.78,567.75,567.80,567.91,567.86,567.75,567.67,567.80,568.50,569.37,570.39,571.74,573.24,574.72,575.83,576.37,576.56,576.51,576.83,577.63,578.66,579.06,579.04,578.69,578.01,577.39,577.58,578.38,579.60,580.72,580.93,580.90,580.95,581.28,581.93,583.24,584.82,586.28,587.25,587.63,587.75,587.66,587.26,587.06,587.36,587.84,588.15,588.25,588.25,588.63,589.66,591.25,593.23,595.30,597.33,599.11,600.07,600.42,600.62,600.95,601.60,602.08,602.01,601.56,601.43,601.50,601.82,602.38,603.11,603.81,604.40,604.59,604.38,604.30,604.28,604.82,605.79,606.83,607.83,608.24,608.11,607.57,607.04,607.18,607.98,609.14,610.09,611.24,612.34,613.37,614.35,615.35,616.34,617.27,618.17,619.29,620.79,622.34,623.72,624.71,625.54,626.79,628.28,629.56,629.59,629.38,629.14,628.97,629.04,629.60,630.26,631.04,632.10,633.23,634.36,635.51,636.69,637.80,638.54,639.16,639.72,640.13,640.05,640.32,641.05,642.16,643.00,642.60,641.93,641.51,641.49,641.87,642.71,644.24,646.73,649.24,650.98,652.48,654.02,655.66,657.03,658.22,659.33,660.39,661.16,661.75,662.39,663.22,664.00,664.83,665.62,666.30,666.75,667.21,667.67,668.15,668.70,669.23,669.81,670.34,670.75,671.14,671.55,671.95,672.34,672.78,673.03,673.18,673.27,673.35,673.42,673.01,672.39,671.73,671.25,671.08,671.08,671.01,670.52,669.69,668.36,666.93,665.79,665.35,664.96,664.55,664.18,663.90,663.64,663.19,662.61,661.92,661.10,659.76,657.81,656.18,657.48,659.11,660.21,660.74,660.79,660.39,659.50,658.42,657.43,657.03,657.18,657.20
540.62,540.61,540.23,539.82,539.77,540.20,541.13,542.17,542.43,541.93,540.96,540.10,539.81,540.09,540.73,541.51,542.30,543.10,543.86,544.51,544.84,544.66,544.67,545.08,545.93,547.07,548.23,549.22,549.95,550.85,551.80,552.78,553.87,555.28,556.72,558.00,559.22,560.65,563.10,565.23,566.76,567.69,568.34,568.51,568.57,568.65,568.70,568.59,568.50,568.50,568.58,568.71,568.71,568.63,568.59,568.77,569.37,570.16,571.20,572.64,574.06,575.45,576.64,577.44,577.79,577.49,577.40,577.84,578.80,579.59,579.92,579.75,579.08,578.37,578.04,578.57,579.95,581.34,581.88,582.03,582.06,582.16,582.48,583.53,584.96,586.50,588.03,588.87,589.24,589.19,588.62,588.14,588.34,588.89,589.34,589.38,589.11,589.29,590.25,591.85,593.78,595.78,597.76,599.63,600.92,601.42,601.60,601.84,602.36,602.83,602.79,602.40,602.34,602.32,602.43,602.79,603.45,604.14,604.95,605.47,605.56,605.52,605.44,605.85,606.70,607.75,608.71,609.17,609.12,608.61,608.06,607.86,608.45,609.59,610.46,611.64,612.86,614.03,615.12,616.21,617.19,618.01,618.76,619.85,621.37,622.93,624.44,625.86,626.62,627.62,628.94,630.25,630.59,630.40,630.15,629.99,630.02,630.56,631.22,631.98,632.94,634.02,635.13,636.28,637.45,638.57,639.76,640.69,641.29,641.54,641.46,641.72,642.40,643.42,644.45,644.23,643.81,643.67,643.82,644.02,644.18,644.82,646.58,648.45,650.11,651.86,653.88,656.01,657.75,659.19,660.46,661.62,662.47,663.00,663.50,664.20,664.98,665.81,666.61,667.35,667.93,668.42,668.88,669.36,669.88,670.37,670.84,671.28,671.68,672.05,672.43,672.78,673.12,673.55,673.90,674.06,674.14,674.22,674.28,673.86,673.30,672.79,672.35,672.22,672.19,671.92,671.05,669.96,668.62,667.44,666.72,666.51,666.11,665.62,665.13,664.78,664.49,664.02,663.37,662.53,661.55,660.26,658.30,656.72,658.58,660.02,661.00,661.56,661.57,660.94,659.78,658.57,657.76,657.88,658.15,658.13
541.59,541.47,540.90,540.38,540.26,540.71,541.76,542.82,542.92,542.33,541.36,540.57,540.45,540.71,541.26,542.10,542.94,543.78,544.62,545.41,546.01,545.89,545.84,546.10,546.65,547.81,549.01,550.00,550.72,551.57,552.43,553.34,554.31,555.39,556.53,557.62,558.68,560.06,562.83,565.88,568.04,568.90,569.47,569.70,569.71,569.59,569.41,569.31,569.29,569.31,569.39,569.49,569.54,569.58,569.63,569.80,570.18,570.90,572.02,573.57,574.88,576.24,577.49,578.42,578.88,578.75,578.45,578.33,578.87,579.90,580.84,581.19,580.58,579.61,578.75,578.92,580.20,581.64,582.79,583.27,583.34,583.36,583.42,583.97,585.03,586.57,588.16,589.58,590.48,590.67,590.00,589.35,589.38,589.96,590.69,590.56,589.97,589.98,590.96,592.50,594.43,596.40,598.30,600.07,601.65,602.33,602.59,602.84,603.18,603.57,603.58,603.32,603.30,603.24,603.28,603.45,603.82,604.47,605.28,606.06,606.64,606.72,606.63,606.90,607.65,608.80,609.66,610.07,610.08,609.67,609.03,608.63,609.10,610.16,610.75,611.71,612.95,614.30,615.63,616.97,618.06,618.97,619.87,621.13,622.67,624.07,625.36,626.73,627.74,628.58,629.46,630.49,631.45,631.44,631.25,631.20,631.35,631.78,632.36,633.02,633.82,634.91,636.11,637.25,638.28,639.28,640.76,642.00,642.72,642.78,642.87,643.21,643.91,644.97,645.97,646.25,646.31,646.36,646.52,646.69,646.77,646.82,646.98,647.56,649.07,650.95,652.93,655.07,657.35,659.41,661.10,662.23,663.55,664.28,664.71,665.21,666.01,666.81,667.59,668.36,669.07,669.59,670.05,670.51,671.00,671.52,671.87,672.21,672.64,672.97,673.34,673.69,674.02,674.41,674.79,674.97,675.04,675.13,675.19,674.84,674.36,673.89,673.46,673.37,673.05,672.32,671.09,669.82,668.74,668.06,667.85,667.68,667.28,666.81,666.33,665.83,665.38,664.83,664.01,662.85,661.65,660.36,658.58,657.27,659.29,660.57,661.53,662.17,662.09,661.36,660.27,659.29,658.80,659.08,659.14,658.97
542.29,542.38,541.80,541.29,541.05,541.38,542.45,543.47,543.50,542.87,541.92,541.21,541.18,541.38,541.82,542.64,543.48,544.42,545.42,546.42,547.16,547.10,547.03,547.19,547.67,548.55,549.61,550.63,551.48,552.25,553.11,554.02,554.95,555.93,556.99,558.02,559.17,560.87,563.77,567.02,569.31,570.13,570.64,571.06,571.31,571.30,570.90,570.81,571.09,571.44,571.64,571.83,571.78,571.45,571.03,571.13,571.20,571.71,572.77,574.40,575.87,577.21,578.41,579.37,580.00,580.11,579.84,579.48,579.48,579.95,580.98,581.95,582.10,580.94,579.71,579.36,580.15,581.62,583.10,584.06,584.49,584.53,584.61,584.88,585.38,586.28,587.84,589.21,590.28,591.17,592.02,591.75,591.52,591.72,592.34,592.20,591.50,591.27,591.92,593.16,594.99,596.94,598.79,600.43,601.99,602.95,603.50,603.80,604.08,604.34,604.39,604.27,604.23,604.19,604.18,604.25,604.52,605.00,605.60,606.33,607.09,607.66,607.75,607.90,608.45,609.56,610.38,610.78,610.75,610.29,609.70,609.41,609.75,610.51,611.04,611.76,612.92,614.31,615.71,617.10,618.35,619.35,620.14,621.05,622.39,623.91,625.49,627.08,628.41,629.40,630.24,631.09,632.13,632.44,632.46,632.48,632.69,633.08,633.62,634.24,634.89,635.74,636.94,638.22,639.44,640.55,641.97,643.26,644.11,644.20,644.38,644.73,645.40,646.46,647.38,647.84,648.09,648.30,648.59,648.92,649.21,649.30,649.05,648.73,649.35,650.62,652.32,654.19,656.20,658.37,660.39,661.69,663.43,664.99,666.03,666.47,667.14,667.98,668.79,669.52,670.20,670.70,671.16,671.64,672.15,672.69,672.91,673.17,673.60,673.89,674.25,674.59,674.92,675.30,675.65,675.85,675.94,675.98,676.05,675.78,675.39,675.00,674.60,674.35,673.69,672.64,671.46,670.34,669.56,669.15,669.06,668.90,668.50,668.01,667.49,666.91,666.33,665.48,664.33,662.88,661.59,660.34,658.86,657.87,659.50,660.75,661.87,662.69,662.66,661.72,660.56,659.78,659.79,660.50,660.37,659.87
542.93,543.28,542.77,542.30,541.93,542.13,543.17,544.12,544.11,543.47,542.57,541.92,541.92,542.08,542.42,543.17,544.07,545.12,546.28,547.45,548.28,548.30,548.19,548.30,548.82,549.37,550.23,551.25,552.18,552.91,553.80,554.73,555.66,556.61,557.65,558.70,560.03,562.17,565.15,568.30,570.50,571.34,571.87,572.48,572.99,573.21,572.86,572.84,573.41,574.13,574.59,574.93,574.63,573.75,572.71,572.61,572.41,572.60,573.45,575.14,576.80,578.21,579.40,580.38,581.15,581.43,581.26,580.81,580.41,580.35,581.25,582.61,583.47,582.16,580.65,579.85,580.16,581.65,583.31,584.68,585.55,585.73,585.88,586.00,586.05,586.29,587.57,588.61,589.63,591.07,593.36,593.93,593.82,593.80,594.17,594.04,593.30,592.91,593.27,594.24,595.76,597.45,599.12,600.65,602.13,603.39,604.27,604.69,604.95,605.14,605.21,605.18,605.11,605.09,605.03,605.06,605.33,605.66,606.05,606.58,607.36,608.36,608.75,608.90,609.26,610.27,611.07,611.43,611.33,610.81,610.30,610.18,610.40,610.85,611.35,611.87,612.90,614.25,615.63,616.95,618.25,619.29,619.96,620.47,621.65,623.32,625.21,627.00,628.59,629.84,630.82,631.62,632.57,633.20,633.57,633.77,634.04,634.39,634.92,635.50,636.05,636.65,637.76,639.11,640.55,641.97,643.33,644.61,645.56,645.73,645.93,646.25,646.89,647.93,648.82,649.33,649.71,650.07,650.49,651.01,651.52,651.80,651.49,650.53,650.25,650.83,652.26,654.03,655.70,657.66,659.65,661.06,663.21,665.64,667.35,667.77,668.29,669.15,669.99,670.68,671.30,671.80,672.27,672.77,673.31,673.85,674.00,674.18,674.56,674.82,675.16,675.50,675.83,676.21,676.51,676.72,676.82,676.85,676.90,676.67,676.37,676.05,675.68,675.25,674.30,673.09,672.04,671.11,670.52,670.22,670.13,669.96,669.59,669.12,668.58,667.92,667.23,666.12,664.65,663.00,661.59,660.35,659.17,658.52,659.61,660.88,662.20,663.23,663.30,662.15,660.87,660.18,660.54,661.68,661.62,660.91
543.66,544.15,543.73,543.27,542.87,543.00,543.93,544.74,544.69,544.13,543.33,542.64,542.64,542.79,543.08,543.74,544.84,546.04,547.25,548.43,549.32,549.47,549.35,549.39,550.06,550.42,551.07,551.92,552.78,553.55,554.49,555.45,556.39,557.38,558.34,559.43,561.05,563.67,566.76,569.49,571.45,572.52,573.21,573.88,574.47,574.98,575.47,575.70,576.33,577.30,578.37,578.86,578.05,576.51,574.89,574.32,574.03,573.71,573.97,575.68,577.47,579.10,580.47,581.55,582.38,582.62,582.45,582.07,581.79,582.00,582.61,583.57,584.36,582.97,581.36,580.46,580.67,582.11,583.71,585.25,586.45,586.97,587.18,587.38,587.44,587.43,587.87,588.28,588.91,590.07,592.19,594.38,595.63,596.17,596.31,596.02,595.29,595.01,595.56,596.55,597.19,597.96,599.04,600.53,602.06,603.54,604.72,605.39,605.72,605.95,606.02,605.96,605.88,605.82,605.75,605.79,606.12,606.60,606.84,607.10,607.62,608.60,609.47,609.90,610.25,611.12,611.86,612.07,611.89,611.46,611.00,610.90,611.04,611.33,611.69,612.15,613.00,614.19,615.52,616.57,617.54,618.43,619.17,619.65,620.93,622.64,624.46,626.12,627.73,629.27,630.61,631.64,632.48,633.31,634.20,635.01,635.38,635.71,636.21,636.79,637.28,637.88,638.66,639.71,641.22,643.32,644.90,646.23,647.20,647.40,647.52,647.77,648.36,649.38,650.41,650.99,651.46,651.97,652.48,653.02,653.63,653.96,653.49,652.34,651.78,652.11,653.51,655.90,657.75,659.05,660.01,661.16,663.69,666.55,668.54,668.99,669.47,670.16,670.94,671.72,672.34,672.88,673.40,673.94,674.48,675.01,675.16,675.26,675.49,675.78,676.10,676.41,676.74,677.11,677.38,677.56,677.68,677.74,677.75,677.52,677.21,676.91,676.62,675.99,675.04,673.95,672.95,672.07,671.27,670.80,670.71,670.55,670.30,669.95,669.46,668.71,667.96,666.79,665.30,663.61,661.91,660.49,659.55,659.28,659.87,661.19,662.68,663.86,664.04,662.83,661.40,660.51,660.65,661.95,662.74,662.35
544.49,544.96,544.72,544.29,543.86,543.88,544.63,545.34,545.33,544.83,544.05,543.36,543.38,543.53,543.73,544.22,545.41,546.75,548.07,549.31,550.22,550.49,550.49,550.58,551.15,551.59,552.17,552.90,553.74,554.52,555.33,556.12,556.94,558.00,558.98,560.30,562.18,564.81,567.63,570.00,571.71,572.77,573.69,574.63,575.53,576.38,577.17,577.82,578.64,579.57,580.35,580.45,579.39,577.74,576.18,575.97,575.78,575.29,575.03,575.91,577.69,579.46,580.85,581.84,582.85,583.64,583.79,583.49,583.41,583.71,584.18,584.82,585.28,583.95,582.45,581.57,581.63,582.76,584.26,585.83,587.15,587.90,588.29,588.60,588.77,588.79,588.90,589.03,589.38,590.25,592.18,594.73,596.65,597.80,598.16,597.95,597.16,596.85,597.43,598.51,599.09,599.35,599.68,600.62,602.04,603.58,604.97,606.01,606.47,606.71,606.77,606.69,606.62,606.54,606.48,606.55,606.86,607.38,607.73,607.95,608.18,608.83,609.74,610.42,610.99,611.79,612.54,612.81,612.68,612.26,611.84,611.72,611.71,611.82,612.23,612.63,613.22,614.02,614.97,615.87,616.73,617.60,618.43,619.12,620.32,621.84,623.51,625.17,626.79,628.39,629.85,631.04,631.88,632.76,633.80,634.89,635.64,636.35,637.16,637.93,638.52,639.23,640.09,641.21,642.76,644.89,646.48,647.82,648.87,649.23,649.30,649.50,650.19,651.43,652.41,652.94,653.40,653.94,654.49,655.06,655.76,656.11,655.46,654.17,653.44,653.59,654.90,657.50,659.47,660.86,661.94,663.15,665.42,667.92,669.65,670.08,670.55,671.22,671.99,672.77,673.41,673.97,674.54,675.11,675.64,676.19,676.34,676.37,676.50,676.79,677.04,677.34,677.68,678.02,678.24,678.40,678.53,678.59,678.56,678.34,678.07,677.79,677.46,676.83,675.90,674.86,673.94,673.05,672.16,671.54,671.30,671.14,670.89,670.54,670.07,669.43,668.67,667.48,665.96,664.34,662.90,661.67,660.75,660.30,660.56,661.75,663.23,664.50,664.84,663.63,662.24,661.35,661.41,662.69,663.83,663.62
545.37,545.75,545.70,545.32,544.86,544.77,545.30,545.96,546.00,545.53,544.76,544.08,544.13,544.28,544.39,544.69,545.81,547.21,548.63,549.92,550.88,551.36,551.61,551.82,552.23,552.79,553.35,554.00,554.83,555.60,556.28,556.87,557.51,558.54,559.57,561.10,563.13,565.60,568.01,570.05,571.56,572.56,573.75,574.98,576.22,577.35,578.24,579.28,580.31,581.17,581.60,581.14,579.92,578.39,577.21,577.57,577.56,577.05,576.39,576.24,577.74,579.45,580.80,581.75,583.00,584.42,585.03,584.97,585.10,585.42,585.79,586.15,586.23,585.02,583.71,582.89,582.83,583.59,584.90,586.40,587.77,588.68,589.31,589.77,590.09,590.23,590.25,590.25,590.40,591.02,592.70,595.06,597.28,598.98,599.79,599.84,599.02,598.58,599.06,600.17,600.99,601.02,600.72,600.98,602.16,603.64,605.18,606.53,607.19,607.46,607.49,607.40,607.33,607.25,607.23,607.31,607.59,608.06,608.60,608.90,608.92,609.13,609.87,610.72,611.53,612.32,613.08,613.52,613.54,613.13,612.76,612.59,612.41,612.34,612.82,613.19,613.56,613.98,614.50,615.25,616.03,616.88,617.80,618.70,619.73,621.00,622.50,624.18,625.81,627.38,628.86,630.16,631.08,631.94,632.99,634.19,635.33,636.46,637.60,638.61,639.38,640.25,641.39,642.79,644.47,646.44,648.00,649.38,650.53,651.14,651.22,651.48,652.31,653.74,654.59,655.02,655.43,655.95,656.49,657.12,657.83,658.11,657.25,655.88,655.10,655.12,656.24,658.81,660.82,662.52,664.07,665.50,667.38,669.27,670.62,671.10,671.56,672.25,673.01,673.77,674.47,675.07,675.67,676.27,676.81,677.35,677.50,677.50,677.56,677.81,678.00,678.26,678.62,678.92,679.09,679.25,679.37,679.42,679.35,679.17,678.94,678.65,678.26,677.70,676.81,675.81,674.93,674.01,673.09,672.34,671.90,671.72,671.43,671.03,670.56,670.06,669.36,668.20,666.75,665.28,664.21,663.25,662.29,661.50,661.52,662.52,663.91,665.20,665.67,664.51,663.24,662.42,662.47,663.68,664.92,664.84
546.32,546.61,546.61,546.27,545.87,545.71,546.03,546.67,546.67,546.18,545.43,544.84,544.87,545.05,545.20,545.31,545.88,547.12,548.50,549.73,550.85,551.86,552.61,553.11,553.45,553.92,554.45,555.09,555.88,556.64,557.35,557.92,558.41,558.98,560.04,561.43,563.24,565.65,567.71,569.49,570.93,572.09,573.47,574.88,576.19,577.36,578.34,579.40,580.51,581.75,582.79,581.97,580.48,579.17,578.57,579.12,579.30,578.87,578.05,577.34,577.81,578.97,580.28,581.58,583.09,584.62,585.76,586.43,586.69,586.96,587.22,587.41,587.25,586.15,584.95,584.23,584.21,584.80,585.69,586.96,588.35,589.46,590.29,590.91,591.38,591.65,591.67,591.63,591.70,592.13,593.38,595.42,597.63,599.62,601.06,601.65,600.96,600.31,600.40,601.30,602.23,602.44,602.15,602.02,602.65,603.96,605.48,606.87,607.84,608.21,608.24,608.12,608.04,607.96,607.97,608.09,608.33,608.63,609.25,609.73,609.87,609.75,610.18,610.92,611.76,612.58,613.31,613.97,614.27,614.04,613.77,613.46,613.13,612.95,613.32,613.78,614.17,614.52,614.93,615.37,615.85,616.54,617.44,618.26,619.15,620.21,621.51,623.14,624.77,626.34,627.83,629.15,630.20,631.14,632.18,633.36,634.51,635.62,636.75,637.88,638.92,639.95,641.47,643.37,645.52,647.57,649.28,650.80,652.12,653.06,653.39,653.99,654.98,656.17,656.79,657.15,657.49,657.89,658.45,659.15,659.70,659.63,658.44,657.11,656.59,656.56,657.21,659.48,661.36,663.06,664.75,666.50,668.40,669.98,671.20,672.03,672.48,673.13,673.87,674.64,675.39,676.11,676.80,677.44,677.98,678.52,678.67,678.67,678.70,678.82,678.97,679.19,679.47,679.76,679.94,680.09,680.22,680.26,680.14,680.02,679.79,679.44,679.04,678.56,677.75,676.76,675.85,674.93,674.00,673.14,672.50,672.30,671.93,671.48,671.00,670.48,669.94,669.07,667.95,666.78,665.75,664.81,663.85,663.00,662.78,663.69,664.94,666.08,666.55,665.55,664.40,663.62,663.63,664.84,666.09,666.19
547.14,547.44,547.54,547.21,546.85,546.66,546.80,547.39,547.32,546.80,546.10,545.60,545.57,545.77,545.97,546.06,546.26,547.16,548.31,549.46,550.65,551.85,552.85,553.62,554.25,554.92,555.54,556.15,556.84,557.60,558.37,559.03,559.57,560.09,561.13,562.40,563.93,565.87,567.46,569.04,570.51,571.86,573.32,574.79,576.13,577.31,578.31,579.27,580.25,581.62,583.25,583.15,581.81,580.48,579.92,580.80,581.31,580.82,579.69,578.60,578.40,579.00,580.17,581.81,583.55,585.23,586.65,587.62,587.93,588.20,588.42,588.50,588.22,587.21,586.11,585.57,585.74,586.26,586.78,587.82,589.21,590.52,591.49,592.22,592.77,593.11,593.14,593.08,593.07,593.34,594.31,595.90,597.87,599.94,601.86,603.30,602.85,602.01,601.69,602.35,603.32,603.73,603.61,603.35,603.47,604.41,605.76,607.19,608.44,608.92,608.97,608.83,608.76,608.71,608.74,608.87,609.11,609.37,609.92,610.51,610.88,610.70,610.85,611.29,611.96,612.80,613.54,614.30,614.81,614.88,614.64,614.28,613.89,613.63,613.81,614.28,614.74,615.14,615.52,615.87,616.22,616.71,617.38,618.01,618.86,619.85,621.01,622.44,623.88,625.34,626.79,628.14,629.29,630.32,631.38,632.51,633.67,634.85,636.07,637.32,638.52,639.68,641.30,643.40,645.80,647.87,649.68,651.34,652.84,654.14,655.17,656.26,657.40,658.44,658.98,659.34,659.53,659.69,660.09,660.75,661.05,660.71,659.57,658.69,658.29,658.13,658.46,660.22,661.97,663.69,665.39,667.09,668.82,670.29,671.54,672.59,673.35,674.03,674.75,675.51,676.26,677.03,677.79,678.51,679.14,679.72,679.83,679.78,679.77,679.84,679.95,680.11,680.31,680.61,680.81,680.95,681.04,681.03,680.95,680.87,680.64,680.26,679.87,679.44,678.69,677.73,676.80,675.88,674.93,674.00,673.23,672.87,672.44,672.00,671.54,671.04,670.60,669.94,669.14,668.27,667.34,666.43,665.47,664.53,664.05,664.82,665.97,667.03,667.53,666.68,665.61,664.88,664.90,666.06,667.22,667.42
547.84,548.24,548.46,548.15,547.85,547.63,547.58,548.10,547.95,547.42,546.79,546.35,546.27,546.46,546.72,546.87,546.91,547.39,548.17,549.18,550.38,551.55,552.61,553.61,554.65,555.64,556.40,557.04,557.66,558.44,559.30,560.13,560.90,561.65,562.68,563.86,565.15,566.51,567.62,568.96,570.39,571.81,573.26,574.73,576.07,577.24,578.20,579.01,579.79,581.11,583.21,584.46,583.55,582.07,581.28,582.50,583.46,582.95,581.50,580.17,579.52,579.52,580.45,582.38,584.31,586.18,587.67,588.64,588.96,589.26,589.47,589.50,589.16,588.26,587.27,586.92,587.34,587.85,588.12,588.95,590.31,591.75,592.82,593.61,594.22,594.60,594.63,594.57,594.49,594.61,595.40,596.54,598.17,600.18,602.44,604.75,604.65,603.73,603.05,603.40,604.34,604.95,605.09,604.86,604.60,605.03,606.04,607.47,608.99,609.63,609.74,609.60,609.53,609.48,609.51,609.65,609.90,610.19,610.62,611.23,611.85,611.83,611.76,611.87,612.25,613.01,613.77,614.54,615.22,615.61,615.42,615.08,614.70,614.38,614.33,614.75,615.29,615.78,616.17,616.55,616.89,617.22,617.57,617.99,618.86,619.85,620.90,622.09,623.30,624.64,626.02,627.34,628.56,629.67,630.75,631.84,633.01,634.29,635.64,637.00,638.30,639.56,641.15,643.25,645.68,647.69,649.56,651.32,652.97,654.60,656.40,657.99,659.28,660.25,660.91,661.36,661.47,661.34,661.51,662.04,662.08,661.56,660.69,660.41,660.06,659.76,659.90,661.18,662.88,664.61,666.25,667.69,669.11,670.51,671.82,672.97,674.14,674.92,675.64,676.39,677.11,677.87,678.67,679.48,680.20,680.83,680.93,680.84,680.80,680.87,680.95,681.03,681.17,681.45,681.69,681.82,681.84,681.78,681.76,681.71,681.49,681.11,680.72,680.26,679.51,678.58,677.64,676.71,675.73,674.78,673.98,673.48,673.00,672.57,672.16,671.70,671.30,670.80,670.25,669.66,668.87,668.06,667.14,666.14,665.43,665.95,666.96,667.99,668.53,667.86,666.83,666.13,666.24,667.34,668.35,668.60
548.35,548.97,549.27,549.16,548.91,548.59,548.36,548.72,548.53,548.07,547.56,547.12,547.00,547.20,547.53,547.76,547.78,547.93,548.30,548.99,550.13,551.25,552.30,553.32,554.40,555.46,556.37,557.22,558.10,558.98,560.00,561.21,562.48,563.51,564.54,565.73,567.07,568.45,569.29,570.11,570.96,571.93,573.23,574.70,576.04,577.15,578.02,578.72,579.42,580.68,582.93,585.36,585.05,583.66,582.68,583.90,585.52,585.48,584.19,582.76,581.55,580.82,581.34,583.39,585.47,587.42,588.80,589.57,589.93,590.20,590.42,590.48,590.17,589.48,588.63,588.38,588.89,589.41,589.73,590.48,591.68,593.06,594.17,595.01,595.66,596.09,596.12,596.06,595.93,595.93,596.58,597.66,599.00,600.79,603.27,605.80,606.25,605.67,604.85,604.56,605.38,606.22,606.66,606.52,606.28,606.08,606.40,607.63,609.41,610.45,610.75,610.61,610.52,610.33,610.30,610.44,610.73,610.98,611.35,611.87,612.47,612.94,612.93,612.88,612.96,613.27,613.97,614.74,615.49,616.09,616.19,615.95,615.62,615.27,614.94,615.24,615.84,616.43,616.82,617.21,617.58,617.91,618.21,618.47,619.28,620.23,621.24,622.42,623.77,625.16,626.44,627.56,628.68,629.82,630.90,631.94,633.07,634.39,635.78,637.14,638.47,639.86,641.56,643.53,645.66,647.52,649.38,651.11,652.75,654.40,656.24,657.95,659.39,660.50,661.63,662.60,662.96,662.80,662.73,663.18,663.04,662.41,661.78,661.71,661.53,661.33,661.50,662.93,664.70,666.46,668.03,669.20,670.21,671.26,672.37,673.52,674.65,675.59,676.42,677.19,677.94,678.72,679.47,680.18,680.84,681.46,681.76,681.83,681.77,681.85,681.93,682.00,682.11,682.31,682.54,682.63,682.62,682.55,682.55,682.53,682.36,682.01,681.59,680.75,679.82,678.88,677.90,676.92,675.92,675.09,674.55,674.25,673.74,673.27,672.86,672.41,672.01,671.56,671.11,670.70,670.14,669.57,668.85,668.01,667.27,667.21,667.88,668.81,669.33,668.98,668.00,667.30,667.55,668.77,669.58,669.78
548.63,549.45,549.85,549.86,549.70,549.43,549.20,549.39,549.22,548.82,548.33,547.90,547.75,547.96,548.32,548.57,548.68,548.72,548.86,549.28,550.13,551.07,552.03,553.04,554.12,555.20,556.18,557.13,558.13,559.06,560.16,561.51,562.99,564.26,565.47,566.82,568.29,569.69,570.46,571.14,571.78,572.45,573.43,574.73,575.98,577.02,577.80,578.50,579.21,580.51,582.96,585.94,586.39,585.47,584.45,585.24,587.33,587.87,586.96,585.51,583.83,582.39,582.40,584.35,586.51,588.52,589.82,590.46,590.86,591.16,591.40,591.40,591.01,590.51,589.95,589.85,590.30,590.79,591.33,592.20,593.36,594.68,595.67,596.50,597.16,597.57,597.55,597.43,597.27,597.22,597.74,598.81,599.93,601.51,604.05,606.71,607.79,607.55,606.44,605.67,606.43,607.43,608.09,608.12,608.00,607.50,607.26,607.90,609.71,610.94,611.55,611.66,611.50,611.23,611.13,611.23,611.53,611.80,612.13,612.55,613.08,613.73,613.97,613.99,613.93,613.95,614.31,614.98,615.75,616.46,616.89,616.83,616.57,616.21,615.73,615.79,616.33,617.00,617.43,617.82,618.25,618.63,618.90,619.07,619.62,620.53,621.68,622.95,624.39,625.82,627.13,628.27,629.38,630.51,631.59,632.64,633.76,635.01,636.26,637.47,638.65,639.89,641.73,643.78,645.80,647.62,649.44,651.15,652.77,654.41,656.16,657.87,659.38,660.68,662.11,663.48,664.15,664.11,664.02,664.27,663.93,663.28,662.89,662.89,662.83,662.80,663.19,664.81,666.61,668.29,669.72,670.74,671.53,672.34,673.25,674.25,675.33,676.33,677.16,677.87,678.64,679.39,680.10,680.78,681.43,682.05,682.52,682.75,682.75,682.82,682.89,682.97,683.06,683.19,683.37,683.42,683.40,683.37,683.36,683.36,683.21,682.85,682.25,681.16,680.05,679.03,678.02,677.02,676.09,675.49,675.29,675.13,674.62,674.08,673.60,673.12,672.72,672.28,671.92,671.67,671.24,670.81,670.28,669.62,668.98,668.61,669.02,669.93,670.62,670.29,669.27,668.56,668.85,670.05,670.82,670.85
548.74,549.72,550.20,550.29,550.23,550.14,550.06,550.07,549.94,549.59,549.10,548.67,548.53,548.73,549.08,549.32,549.55,549.69,549.81,550.03,550.46,551.10,551.90,552.85,553.91,554.95,555.93,556.88,557.88,558.82,559.91,561.18,562.59,564.02,565.50,567.07,568.66,570.05,570.94,571.80,572.56,573.16,573.81,574.82,575.90,576.88,577.61,578.36,579.12,580.55,583.22,586.27,587.58,587.42,586.48,586.40,588.67,589.83,589.48,588.11,586.12,584.11,583.56,585.15,587.29,589.31,590.58,591.19,591.67,592.10,592.37,592.29,591.77,591.42,591.25,591.30,591.59,592.02,592.90,594.03,595.29,596.54,597.32,598.06,598.70,599.06,598.94,598.73,598.55,598.51,598.92,599.97,600.91,602.27,604.74,607.45,609.19,609.22,607.75,606.72,607.51,608.58,609.35,609.61,609.64,609.14,608.50,608.35,609.95,611.19,612.13,612.68,612.43,612.19,612.01,612.01,612.32,612.62,612.93,613.29,613.71,614.26,614.87,615.12,615.09,615.01,614.87,615.29,616.01,616.77,617.48,617.67,617.53,617.17,616.66,616.38,616.78,617.48,618.01,618.40,618.88,619.33,619.63,619.74,619.93,620.82,622.22,623.59,625.03,626.49,627.91,629.25,630.43,631.56,632.66,633.77,634.91,636.02,637.06,638.02,638.96,639.86,641.78,643.99,646.07,647.96,649.76,651.46,653.08,654.70,656.34,657.97,659.53,660.99,662.51,664.13,665.07,665.28,665.34,665.31,664.79,664.19,664.06,664.04,664.04,664.20,664.87,666.62,668.40,669.95,671.21,672.20,672.98,673.70,674.43,675.21,676.20,677.14,677.88,678.49,679.23,679.92,680.62,681.31,681.99,682.62,683.22,683.61,683.71,683.79,683.87,683.95,684.03,684.11,684.20,684.23,684.22,684.20,684.20,684.20,684.05,683.62,682.74,681.51,680.26,679.11,678.11,677.10,676.35,676.05,676.17,676.09,675.58,674.97,674.39,673.87,673.44,673.02,672.73,672.63,672.22,671.87,671.48,671.00,670.57,670.16,670.46,671.36,672.29,671.72,670.58,669.85,670.06,671.17,671.99,671.75
548.81,549.82,550.37,550.63,550.67,550.65,550.62,550.56,550.39,550.12,549.78,549.43,549.26,549.48,549.86,550.11,550.52,550.81,550.98,551.12,551.40,551.77,552.35,553.12,553.99,554.83,555.75,556.72,557.68,558.66,559.70,560.89,562.24,563.61,565.00,566.42,567.88,569.31,570.51,571.48,572.34,573.18,574.03,575.02,575.97,576.82,577.57,578.34,579.11,580.56,583.30,586.60,588.61,589.16,588.32,586.76,588.58,590.18,590.59,589.66,587.76,585.75,584.77,585.50,587.38,589.19,590.42,591.18,591.89,592.58,593.11,593.26,592.86,592.55,592.53,592.68,592.94,593.38,594.52,595.85,597.19,598.44,599.05,599.67,600.27,600.63,600.39,600.14,599.98,599.99,600.39,601.19,601.94,603.08,605.20,607.76,609.82,610.13,608.74,607.79,608.72,609.71,610.35,610.75,610.86,610.35,609.59,609.17,610.32,611.48,612.62,613.48,613.37,613.11,612.88,612.84,613.10,613.40,613.75,614.10,614.46,614.90,615.51,616.00,616.25,616.16,615.99,615.95,616.26,617.03,617.75,618.30,618.41,618.09,617.55,616.97,617.21,617.94,618.62,619.00,619.41,619.95,620.50,620.66,620.81,621.65,623.00,624.30,625.65,627.09,628.54,629.97,631.28,632.53,633.76,634.98,636.13,637.23,638.31,639.30,640.13,640.93,642.46,644.37,646.43,648.48,650.35,652.06,653.67,655.25,656.86,658.48,660.06,661.58,663.08,664.61,665.71,666.23,666.34,666.22,665.75,665.34,665.42,665.43,665.47,665.57,666.06,667.82,669.57,671.10,672.39,673.48,674.45,675.26,676.01,676.71,677.27,678.03,678.71,679.26,679.83,680.42,681.08,681.77,682.46,683.13,683.77,684.30,684.66,684.76,684.84,684.92,685.00,685.08,685.15,685.14,685.09,685.05,685.05,685.01,684.83,684.33,683.14,681.81,680.49,679.29,678.28,677.28,676.89,676.89,677.03,676.99,676.50,675.91,675.33,674.75,674.20,673.88,673.72,673.62,673.29,672.97,672.61,672.27,672.20,672.09,672.44,673.14,673.68,672.89,671.62,670.77,670.95,672.22,672.81,672.20
548.88,549.88,550.46,550.87,551.05,551.12,551.13,551.08,550.88,550.65,550.41,550.14,550.00,550.20,550.58,550.95,551.47,551.88,552.14,552.30,552.51,552.71,553.06,553.58,554.31,555.03,555.90,556.81,557.65,558.62,559.62,560.86,562.36,563.88,565.36,566.75,568.04,569.20,570.34,571.29,572.23,573.25,574.26,575.26,576.13,576.88,577.62,578.37,579.14,580.63,583.53,587.15,589.39,590.29,589.71,587.66,588.44,589.86,590.88,590.82,589.04,587.21,585.99,585.90,587.37,588.95,590.16,591.05,591.95,592.86,593.68,594.13,594.01,593.76,593.84,594.03,594.26,594.63,595.68,597.02,598.48,599.86,600.67,601.28,601.84,602.23,601.97,601.75,601.64,601.68,602.05,602.71,603.37,604.18,605.53,607.73,609.94,610.68,609.76,609.00,609.80,610.60,611.13,611.63,611.95,611.48,610.68,610.16,610.84,611.89,613.09,614.09,614.28,614.06,613.79,613.68,613.89,614.21,614.56,614.90,615.22,615.62,616.12,616.72,617.24,617.33,617.22,616.89,616.82,617.31,617.99,618.75,619.16,619.09,618.45,617.71,617.77,618.43,619.22,619.70,620.23,620.93,621.65,621.74,621.83,622.61,623.89,625.16,626.46,627.87,629.28,630.63,631.97,633.29,634.62,635.92,637.15,638.34,639.44,640.42,641.22,642.06,643.31,644.95,646.94,649.09,650.93,652.61,654.18,655.71,657.30,658.89,660.45,661.99,663.53,665.07,666.34,667.16,667.30,667.14,666.76,666.53,666.80,666.88,666.93,666.96,667.26,668.71,670.38,671.93,673.32,674.54,675.75,676.73,677.60,678.32,678.63,679.09,679.57,680.01,680.43,680.93,681.53,682.20,682.89,683.59,684.23,684.87,685.45,685.73,685.84,685.92,686.00,686.07,686.11,686.10,686.06,686.01,685.98,685.92,685.67,685.03,683.65,682.25,680.89,679.66,678.64,677.69,677.56,677.74,677.91,677.89,677.42,676.85,676.26,675.61,675.04,674.82,674.79,674.75,674.47,674.14,673.94,673.92,674.09,674.21,674.62,675.03,674.84,673.74,672.37,671.54,671.84,673.22,673.52,672.47
548.93,549.92,550.47,550.99,551.35,551.56,551.64,551.65,551.48,551.25,551.02,550.80,550.75,550.89,551.24,551.79,552.34,552.83,553.22,553.50,553.68,553.86,554.00,554.26,554.87,555.59,556.43,557.20,557.85,558.74,559.71,561.14,563.04,564.97,566.81,568.36,569.47,570.05,570.68,571.51,572.48,573.53,574.52,575.51,576.36,577.05,577.76,578.45,579.20,580.75,583.84,587.77,589.82,590.67,590.57,589.30,588.62,589.16,590.53,591.67,590.05,588.46,587.18,586.49,587.39,588.77,589.99,590.98,591.98,593.02,594.06,594.84,595.12,595.03,595.17,595.36,595.53,595.74,596.34,597.50,599.03,600.66,602.08,602.86,603.38,603.80,603.70,603.60,603.55,603.60,603.89,604.56,605.24,605.65,605.91,607.47,609.64,610.95,610.92,610.33,610.69,611.21,611.71,612.28,612.96,612.60,611.84,611.32,611.59,612.48,613.55,614.55,615.17,615.03,614.73,614.56,614.69,615.04,615.37,615.68,616.01,616.39,616.74,617.30,617.99,618.47,618.46,618.10,617.74,617.71,618.31,619.02,619.79,620.19,619.37,618.59,618.47,618.93,619.77,620.58,621.42,622.34,623.09,622.96,622.91,623.63,624.91,626.22,627.53,628.88,630.16,631.30,632.55,633.85,635.19,636.55,637.91,639.26,640.34,641.23,642.12,643.10,644.28,645.75,647.59,649.74,651.45,653.01,654.55,656.04,657.58,659.09,660.60,662.18,663.84,665.52,667.03,668.11,668.27,668.11,667.82,667.75,668.15,668.33,668.37,668.38,668.54,669.39,670.91,672.51,674.00,675.38,676.80,678.02,679.07,679.87,680.23,680.31,680.44,680.71,681.05,681.49,682.00,682.59,683.28,683.98,684.62,685.30,686.03,686.65,686.86,686.96,687.03,687.09,687.04,687.07,687.12,687.10,687.04,686.96,686.59,685.75,684.32,682.92,681.54,680.25,679.20,678.37,678.30,678.55,678.80,678.81,678.36,677.76,677.11,676.40,675.97,675.82,675.89,676.02,675.77,675.39,675.46,675.98,676.25,676.44,676.84,676.91,675.78,674.28,672.90,672.27,672.82,674.19,674.21,672.75
548.95,549.88,550.42,550.92,551.35,551.73,552.06,552.30,552.13,551.91,551.73,551.60,551.54,551.60,551.82,552.24,552.89,553.55,554.11,554.54,554.92,555.13,555.26,555.38,555.55,556.15,557.03,557.89,558.53,559.23,560.13,561.65,563.77,565.91,568.01,569.54,570.47,570.91,571.52,572.29,573.13,573.99,574.86,575.76,576.56,577.24,577.89,578.54,579.20,580.52,583.14,586.76,589.34,590.65,590.87,590.58,589.57,589.52,590.58,592.03,591.12,589.62,588.31,587.62,587.85,588.96,590.14,591.19,592.24,593.28,594.31,595.26,595.98,596.29,596.49,596.66,596.81,596.95,597.44,598.23,599.38,601.07,602.92,604.06,604.77,605.26,605.53,605.52,605.49,605.52,605.71,606.31,607.03,607.50,607.48,607.83,609.28,611.19,612.54,611.50,611.45,611.81,612.32,612.97,613.72,613.59,613.07,612.69,612.88,613.42,614.23,615.20,616.01,615.98,615.70,615.49,615.54,615.93,616.20,616.48,616.83,617.17,617.48,617.95,618.58,619.26,619.78,619.42,618.94,618.93,619.18,619.53,620.44,621.25,620.08,619.22,618.97,619.31,620.34,621.79,622.86,623.80,624.50,624.24,624.04,624.76,626.16,627.52,628.84,630.01,631.12,632.23,633.50,634.77,636.00,637.23,638.53,639.87,641.08,642.22,643.39,644.58,645.66,646.80,648.15,650.02,651.68,653.24,654.78,656.30,657.88,659.42,660.98,662.63,664.32,666.02,667.66,668.93,669.18,669.07,668.89,668.95,669.46,669.70,669.72,669.69,669.77,670.21,671.54,673.09,674.62,676.10,677.57,678.89,679.99,680.76,681.23,681.27,681.28,681.43,681.78,682.15,682.54,683.02,683.68,684.37,685.07,685.79,686.52,687.25,687.71,687.93,688.00,688.01,687.92,688.02,688.15,688.15,688.12,687.98,687.49,686.53,685.13,683.73,682.37,681.06,679.90,679.03,678.96,679.26,679.62,679.74,679.23,678.48,677.72,677.14,676.95,676.88,676.99,677.26,677.10,676.58,676.59,677.29,678.01,678.53,678.65,678.19,676.86,675.24,674.05,673.59,674.08,675.26,675.25,674.08
548.76,549.66,550.27,550.75,551.23,551.75,552.31,552.78,552.77,552.62,552.48,552.40,552.33,552.34,552.46,552.73,553.32,554.07,554.79,555.39,555.94,556.32,556.56,556.63,556.48,556.79,557.63,558.58,559.32,559.94,560.77,562.26,564.38,566.60,568.82,570.28,571.09,571.58,572.23,572.94,573.64,574.33,575.06,575.84,576.57,577.22,577.83,578.44,579.06,580.04,581.88,584.65,587.49,589.38,590.34,591.33,590.78,590.58,591.27,592.58,592.15,590.75,589.47,588.87,588.75,589.57,590.63,591.70,592.78,593.81,594.83,595.86,596.80,597.35,597.63,597.84,598.03,598.20,598.67,599.24,600.12,601.73,603.75,605.20,606.11,606.66,607.22,607.38,607.42,607.45,607.57,608.03,608.71,609.26,609.28,608.78,609.39,611.45,613.77,612.71,612.24,612.41,612.98,613.69,614.44,614.60,614.39,614.15,614.42,614.76,615.22,615.87,616.74,616.86,616.66,616.41,616.37,616.83,617.08,617.32,617.64,617.96,618.28,618.66,619.21,620.10,621.13,620.97,620.56,620.62,620.69,620.78,621.63,622.47,621.02,620.05,619.63,619.85,621.00,622.85,624.17,625.20,625.87,625.52,625.15,625.87,627.38,628.79,630.07,631.12,632.11,633.23,634.51,635.75,636.94,638.11,639.39,640.75,642.12,643.48,644.85,646.15,647.14,648.01,648.98,650.39,651.95,653.53,655.12,656.71,658.32,659.90,661.51,663.19,664.87,666.58,668.28,669.70,670.19,670.16,670.09,670.24,670.76,671.02,671.02,670.95,670.94,671.09,672.19,673.65,675.20,676.73,678.25,679.57,680.65,681.42,682.03,682.15,682.14,682.22,682.53,682.85,683.16,683.55,684.12,684.79,685.53,686.28,687.00,687.74,688.42,688.83,688.99,688.95,688.80,688.95,689.16,689.19,689.17,688.97,688.39,687.35,686.01,684.66,683.34,682.04,680.79,679.90,679.79,680.08,680.47,680.59,679.97,679.11,678.33,677.98,677.97,677.94,678.08,678.50,678.41,677.75,677.64,678.40,679.42,680.22,680.16,679.36,677.99,676.10,675.30,675.14,675.40,676.35,676.51,675.92
548.24,549.20,549.97,550.49,551.01,551.59,552.28,552.98,553.33,553.38,553.26,553.18,553.11,553.12,553.23,553.41,553.69,554.38,555.19,555.96,556.60,557.33,557.80,557.94,557.78,557.59,558.19,559.17,560.10,560.87,561.72,562.99,564.77,566.91,569.07,570.45,571.26,571.91,572.54,573.13,573.73,574.35,574.99,575.64,576.28,576.88,577.44,578.05,578.67,579.31,580.09,581.42,583.78,586.24,588.63,591.32,592.10,592.39,592.87,593.62,593.07,591.84,590.70,590.11,590.23,590.77,591.60,592.62,593.69,594.77,595.84,596.84,597.63,598.08,598.45,598.81,599.15,599.46,599.97,600.64,601.57,602.97,604.80,606.35,607.41,607.97,608.62,609.07,609.29,609.36,609.46,609.71,610.17,610.71,611.02,610.49,610.33,611.80,614.21,614.02,613.15,613.07,613.69,614.45,615.16,615.68,615.82,615.68,616.18,616.65,616.65,616.52,617.31,617.65,617.60,617.32,617.13,617.75,618.05,618.22,618.43,618.74,619.11,619.46,620.01,621.15,622.51,622.84,622.75,622.80,623.04,623.22,623.71,623.97,622.46,621.34,620.68,620.73,621.83,623.54,625.19,626.49,627.16,626.78,626.26,626.90,628.42,629.90,631.07,632.11,633.14,634.25,635.49,636.73,637.99,639.30,640.69,642.19,643.70,645.15,646.47,647.72,648.63,649.46,650.29,651.10,652.42,653.99,655.65,657.33,658.96,660.58,662.20,663.84,665.47,667.20,668.90,670.40,671.38,671.50,671.51,671.69,672.07,672.33,672.28,672.14,672.02,672.02,672.85,674.17,675.73,677.28,678.87,680.10,681.08,681.96,682.70,682.97,683.04,683.09,683.27,683.57,683.87,684.22,684.66,685.26,685.98,686.74,687.50,688.21,688.95,689.60,690.00,689.93,689.74,689.86,690.10,690.21,690.15,689.91,689.27,688.23,686.98,685.72,684.46,683.20,681.97,681.12,680.92,681.10,681.39,681.27,680.52,679.65,679.01,679.01,679.02,678.98,679.17,679.71,679.68,678.93,678.72,679.43,680.42,681.29,681.28,680.53,679.16,676.63,676.47,676.85,676.74,677.42,678.01,678.17
547.73,548.70,549.56,550.23,550.86,551.51,552.22,552.98,553.59,553.96,554.08,553.96,553.88,553.90,554.00,554.15,554.30,554.75,555.43,556.27,557.06,557.97,558.70,559.13,559.14,558.77,558.96,559.63,560.62,561.67,562.83,564.00,565.26,566.90,568.79,570.13,570.98,571.63,572.29,572.87,573.44,574.05,574.67,575.29,575.91,576.51,577.06,577.66,578.25,578.79,579.29,579.94,581.23,583.68,587.20,590.73,592.46,593.42,594.13,594.59,594.02,593.09,592.23,591.73,591.80,592.18,592.79,593.63,594.71,595.79,596.84,597.73,598.29,598.70,599.12,599.56,600.03,600.54,601.38,602.31,603.27,604.38,606.06,607.56,608.63,609.23,609.72,610.16,610.47,610.63,610.72,610.86,611.18,611.65,612.14,612.18,612.25,613.31,615.05,615.17,614.22,613.86,614.24,614.97,615.67,616.46,616.98,617.16,617.78,618.38,618.15,617.50,617.96,618.47,618.51,618.18,617.87,618.55,618.93,619.09,619.23,619.61,620.07,620.52,621.14,622.30,623.76,624.67,625.03,625.05,625.33,625.55,625.68,625.45,624.29,623.26,622.41,622.10,622.85,624.43,626.09,627.57,628.53,628.31,627.55,627.84,629.07,630.47,631.70,632.89,634.06,635.23,636.46,637.67,638.99,640.47,642.11,643.78,645.34,646.80,648.12,649.26,650.24,651.18,652.06,652.74,653.47,654.57,656.02,657.72,659.43,661.11,662.77,664.43,666.10,667.78,669.40,670.89,672.15,672.73,672.97,673.13,673.38,673.62,673.57,673.39,673.22,673.13,673.50,674.69,676.46,678.21,679.68,680.74,681.60,682.44,683.25,683.62,683.78,683.88,684.04,684.33,684.66,685.02,685.41,685.77,686.35,687.05,687.81,688.55,689.32,690.19,690.91,690.94,690.82,690.89,691.07,691.18,691.13,690.84,690.24,689.29,688.09,686.80,685.47,684.23,683.21,682.40,682.09,682.16,682.34,681.80,680.95,680.22,679.84,679.94,679.96,679.99,680.21,680.66,680.75,680.02,679.82,680.51,681.50,682.48,682.29,681.27,679.91,676.95,677.58,678.57,678.11,678.66,679.18,679.46
547.28,548.25,549.16,549.99,550.74,551.45,552.17,552.92,553.69,554.33,554.72,554.72,554.65,554.67,554.77,554.92,555.00,555.22,555.69,556.45,557.38,558.37,559.32,560.12,560.50,560.18,560.07,560.46,561.50,562.77,564.19,565.31,566.11,567.11,568.56,569.78,570.66,571.26,571.91,572.49,573.05,573.66,574.28,574.90,575.52,576.12,576.67,577.27,577.83,578.33,578.77,579.16,579.63,581.90,586.01,589.78,592.08,593.57,594.59,595.08,594.93,594.43,593.86,593.44,593.43,593.68,594.12,594.76,595.76,596.81,597.80,598.53,598.90,599.31,599.81,600.36,600.94,601.62,602.75,603.92,604.97,605.92,607.43,608.77,609.79,610.41,610.75,611.09,611.39,611.64,611.77,611.86,612.07,612.47,613.09,613.74,614.27,615.10,616.11,616.31,615.38,614.77,614.80,615.44,616.14,617.13,617.96,618.45,619.17,619.95,619.66,618.67,618.73,619.34,619.48,619.11,618.63,619.26,619.84,620.11,620.20,620.64,621.16,621.68,622.36,623.47,624.96,626.35,627.18,627.30,627.50,627.64,627.46,626.89,626.07,625.18,624.23,623.60,623.89,625.29,626.88,628.45,629.71,629.83,628.88,628.77,629.64,630.95,632.25,633.57,634.86,636.11,637.32,638.49,639.89,641.59,643.49,645.31,646.96,648.44,649.75,650.82,651.91,652.99,653.97,654.72,655.02,655.51,656.46,658.07,659.82,661.54,663.23,664.94,666.64,668.29,669.85,671.34,672.78,673.85,674.36,674.55,674.71,674.91,674.85,674.67,674.46,674.31,674.28,675.24,677.03,678.95,680.34,681.32,682.15,682.94,683.76,684.23,684.48,684.64,684.82,685.11,685.46,685.85,686.20,686.40,686.78,687.35,688.10,688.87,689.66,690.70,691.72,691.97,691.95,691.95,692.04,692.15,692.08,691.71,691.10,690.25,689.14,687.82,686.48,685.30,684.46,683.68,683.28,683.20,683.13,682.26,681.39,680.86,680.68,680.81,680.86,680.98,681.24,681.57,681.72,681.07,680.94,681.73,682.77,683.48,682.83,681.42,680.08,677.80,679.12,680.34,679.51,679.71,680.19,680.65
546.99,547.92,548.86,549.82,550.64,551.40,552.16,552.87,553.63,554.34,554.96,555.41,555.44,555.46,555.56,555.70,555.79,555.89,556.10,556.55,557.44,558.43,559.49,560.66,561.83,561.90,561.81,562.22,563.41,564.66,566.08,567.14,567.72,568.08,568.80,569.73,570.57,571.06,571.62,572.13,572.66,573.28,573.89,574.51,575.13,575.73,576.28,576.88,577.41,577.86,578.29,578.91,579.56,581.63,585.16,588.35,590.57,592.14,593.37,594.50,595.74,595.88,595.52,595.19,595.17,595.27,595.58,596.11,596.84,597.80,598.64,599.21,599.51,600.00,600.68,601.38,602.06,602.84,603.99,605.24,606.49,607.66,608.89,609.96,610.83,611.45,611.78,612.00,612.19,612.40,612.72,612.83,612.97,613.31,613.99,615.00,615.90,616.75,617.45,617.51,616.64,615.83,615.51,615.93,616.64,617.71,618.67,619.31,620.19,621.28,621.18,620.11,619.73,620.34,620.57,620.19,619.46,619.84,620.88,621.52,621.56,622.00,622.48,622.95,623.56,624.59,626.11,627.69,628.91,629.47,629.44,629.20,628.79,628.22,627.49,626.65,625.78,625.03,624.82,625.99,627.45,628.97,630.37,631.11,630.18,629.75,630.28,631.54,632.84,634.15,635.46,636.74,637.92,639.09,640.63,642.61,644.70,646.64,648.48,650.09,651.34,652.49,653.67,654.85,655.96,656.95,657.38,657.24,657.20,658.45,660.14,661.82,663.51,665.26,666.96,668.66,670.26,671.80,673.32,674.77,675.58,675.91,676.06,676.16,676.08,675.92,675.75,675.59,675.37,675.83,677.08,678.98,680.48,681.69,682.68,683.51,684.30,684.87,685.20,685.37,685.59,685.88,686.24,686.63,686.99,687.23,687.40,687.76,688.43,689.20,690.02,691.15,692.35,693.01,693.05,692.99,693.02,693.12,693.00,692.42,691.68,690.88,689.95,688.71,687.54,686.53,685.69,684.91,684.48,684.11,683.55,682.61,681.97,681.63,681.51,681.61,681.73,681.96,682.26,682.54,682.64,682.06,682.12,683.21,684.43,683.87,682.33,680.46,679.08,680.06,681.74,682.25,680.99,680.12,680.98,682.24
547.12,547.99,548.91,549.84,550.62,551.34,552.11,552.85,553.61,554.35,555.03,555.65,555.99,556.18,556.32,556.43,556.51,556.62,556.77,557.04,557.62,558.48,559.48,560.64,562.11,562.94,563.65,564.54,565.74,566.90,568.13,568.95,569.27,569.39,569.76,570.42,571.13,571.60,572.13,572.62,573.15,573.74,574.22,574.71,575.21,575.71,576.17,576.64,577.21,577.80,578.36,579.04,580.08,582.16,585.10,587.42,589.27,590.85,592.30,593.75,595.35,596.29,596.74,596.87,596.91,596.95,597.15,597.56,598.16,598.91,599.51,599.97,600.39,600.99,601.69,602.40,603.14,604.05,605.25,606.48,607.67,608.82,609.95,610.93,611.78,612.47,612.93,613.12,613.26,613.44,613.70,613.84,613.98,614.22,614.74,615.89,616.97,617.91,618.56,618.61,617.89,617.12,616.56,616.48,617.22,618.32,619.42,620.38,621.35,622.44,622.59,621.88,621.39,622.01,621.93,621.25,620.63,621.00,622.12,622.84,622.97,623.41,623.87,624.32,624.82,625.62,627.05,628.65,630.03,630.83,630.79,630.46,630.00,629.44,628.81,628.06,627.24,626.44,626.01,626.98,628.23,629.67,631.23,632.44,631.67,630.99,631.12,632.19,633.44,634.73,636.05,637.34,638.56,639.96,641.81,644.01,646.08,647.97,649.68,651.22,652.55,653.80,655.10,656.35,657.55,658.67,659.42,658.98,658.29,659.36,660.80,662.25,663.78,665.45,667.11,668.77,670.35,671.88,673.47,675.11,676.40,677.19,677.36,677.45,677.36,677.20,677.05,676.89,676.61,676.57,677.16,678.90,680.42,681.73,682.90,683.93,684.76,685.48,685.93,686.13,686.36,686.60,686.97,687.42,687.82,688.11,688.24,688.42,688.81,689.50,690.43,691.61,692.88,693.91,694.08,694.05,694.06,694.06,693.72,693.04,692.25,691.43,690.56,689.52,688.54,687.67,686.83,686.05,685.42,684.76,683.97,683.11,682.68,682.43,682.31,682.44,682.65,682.96,683.29,683.55,683.57,683.04,683.25,684.48,685.64,684.29,681.99,680.05,679.82,681.68,683.66,684.12,682.57,681.11,681.75,683.10
547.43,548.22,549.12,549.96,550.66,551.33,552.08,552.83,553.59,554.34,555.03,555.71,556.35,556.76,557.00,557.14,557.24,557.37,557.51,557.69,557.94,558.60,559.44,560.50,562.07,563.61,565.13,566.54,567.73,568.84,569.87,570.52,570.72,570.74,570.91,571.36,571.92,572.40,572.94,573.43,573.97,574.52,574.85,575.22,575.61,575.99,576.33,576.62,577.20,577.94,578.63,579.33,580.68,582.72,585.08,586.68,588.20,589.78,591.44,593.12,594.79,596.45,597.69,598.29,598.44,598.50,598.65,598.98,599.50,600.02,600.41,600.81,601.38,602.07,602.76,603.49,604.27,605.20,606.41,607.57,608.65,609.73,610.81,611.80,612.69,613.45,614.07,614.30,614.44,614.59,614.74,614.89,615.05,615.20,615.50,616.53,617.72,618.82,619.62,619.77,619.19,618.44,617.70,617.15,617.78,618.82,620.04,621.33,622.45,623.50,623.97,623.79,623.36,623.81,623.31,622.37,622.00,622.44,623.44,624.14,624.38,624.83,625.28,625.70,626.12,626.68,627.92,629.44,630.87,631.87,631.94,631.62,631.15,630.61,630.06,629.43,628.69,627.90,627.36,628.03,629.07,630.44,632.15,633.70,633.19,632.40,632.16,632.94,634.06,635.34,636.64,637.94,639.23,640.96,643.13,645.49,647.54,649.33,650.84,652.23,653.63,654.96,656.33,657.65,658.89,660.13,661.20,660.70,659.73,660.75,661.94,663.12,664.36,665.79,667.32,668.88,670.38,671.87,673.50,675.28,677.03,678.33,678.66,678.79,678.69,678.53,678.36,678.19,677.91,677.49,677.46,678.82,680.27,681.64,682.97,684.25,685.21,686.06,686.63,686.89,687.12,687.31,687.68,688.17,688.64,689.03,689.18,689.22,689.33,689.91,690.96,692.16,693.44,694.74,695.07,695.12,695.11,694.98,694.39,693.62,692.79,691.93,691.05,690.19,689.38,688.58,687.77,687.01,686.17,685.27,684.40,683.74,683.47,683.26,683.13,683.31,683.61,683.96,684.32,684.57,684.52,684.05,684.36,685.67,686.72,684.92,682.18,680.33,681.11,683.07,685.32,685.99,684.32,682.42,682.60,683.74
547.89,548.58,549.38,550.17,550.85,551.48,552.13,552.79,553.53,554.30,555.02,555.66,556.33,556.93,557.43,557.83,558.00,558.11,558.23,558.40,558.63,558.97,559.55,560.53,562.18,563.80,565.36,566.85,568.22,569.44,570.49,571.32,571.82,571.84,571.88,572.24,572.77,573.24,573.83,574.38,574.94,575.49,575.76,576.12,576.51,576.83,576.97,577.11,577.62,578.32,579.01,579.66,580.86,582.50,584.35,585.96,587.61,589.32,591.11,593.04,594.96,596.84,598.27,598.98,599.27,599.52,599.82,600.19,600.61,601.03,601.41,601.85,602.42,603.16,603.87,604.70,605.60,606.18,607.20,608.26,609.30,610.38,611.47,612.52,613.51,614.36,615.04,615.44,615.67,615.81,615.91,616.06,616.21,616.34,616.48,616.80,617.99,619.45,620.73,621.28,620.59,619.62,618.77,618.21,618.20,618.96,620.16,621.63,623.20,624.43,625.36,625.86,625.62,625.38,624.51,623.66,623.64,624.17,624.88,625.44,625.79,626.20,626.60,627.02,627.46,627.92,628.77,630.02,631.43,632.68,633.03,632.75,632.25,631.71,631.18,630.77,630.24,629.58,628.93,628.94,629.86,631.29,633.01,634.69,634.60,634.04,633.67,633.89,634.77,635.98,637.27,638.55,639.98,642.10,644.47,646.86,649.10,650.76,652.13,653.39,654.64,656.00,657.34,658.65,659.95,661.24,662.45,662.37,661.93,663.20,664.34,665.21,665.99,666.86,667.98,669.25,670.59,672.00,673.64,675.54,677.49,679.11,679.96,680.25,680.14,679.93,679.72,679.49,679.20,678.80,678.49,678.80,680.08,681.49,682.90,684.36,685.64,686.55,687.18,687.60,687.84,688.11,688.40,688.79,689.38,690.05,690.25,690.23,690.27,690.77,691.79,692.99,694.24,695.44,696.00,696.15,696.11,695.88,695.14,694.22,693.29,692.36,691.40,690.48,689.65,688.89,688.17,687.51,686.59,685.60,684.82,684.60,684.40,684.17,684.05,684.28,684.63,684.97,685.31,685.60,685.50,685.09,685.46,686.77,687.84,686.18,683.95,682.32,682.31,684.41,686.93,687.91,686.46,684.17,683.70,684.49
548.36,549.00,549.61,550.25,550.89,551.55,552.20,552.85,553.57,554.30,554.99,555.64,556.30,556.95,557.58,558.13,558.51,558.74,558.91,559.13,559.49,559.80,560.30,561.15,562.55,564.03,565.58,567.14,568.62,569.86,571.03,572.12,572.90,572.90,572.89,573.15,573.63,574.16,574.74,575.32,575.91,576.45,576.72,577.07,577.40,577.63,577.67,577.69,578.15,578.84,579.55,580.33,581.60,583.07,584.58,586.05,587.60,589.29,591.16,593.26,595.32,597.30,598.82,599.62,600.09,600.47,600.85,601.25,601.67,602.06,602.44,602.92,603.61,604.51,605.40,606.24,606.92,607.18,608.01,609.01,610.02,611.04,612.12,613.22,614.29,615.24,616.00,616.55,616.86,617.01,617.15,617.21,617.25,617.38,617.67,617.73,618.49,619.62,620.91,622.23,622.21,621.29,620.10,619.35,619.03,619.44,620.48,622.06,623.84,625.35,626.52,627.26,627.32,626.76,625.74,624.94,625.08,625.59,626.16,626.65,627.05,627.47,627.89,628.33,628.78,629.23,629.87,630.92,632.22,633.51,634.13,633.88,633.40,632.98,632.59,632.35,631.92,631.32,630.64,630.27,631.02,632.38,634.09,635.71,636.03,635.70,635.20,635.01,635.69,636.73,637.91,639.24,640.95,643.23,645.66,648.05,650.25,651.88,653.32,654.65,655.86,657.11,658.36,659.63,660.95,662.26,663.56,664.13,664.39,665.43,666.34,667.04,667.66,668.33,669.21,670.21,671.27,672.42,673.85,675.66,677.57,679.30,680.55,681.40,681.84,681.93,681.72,681.47,680.88,680.16,679.54,679.48,680.36,681.62,683.05,684.59,686.07,687.03,687.75,688.27,688.55,688.83,689.09,689.49,690.21,691.09,691.45,691.53,691.57,691.97,692.87,693.97,695.16,696.32,696.97,697.15,697.07,696.76,696.05,695.13,694.17,693.20,692.20,691.17,690.20,689.34,688.67,687.93,686.94,686.08,685.63,685.62,685.44,685.12,684.90,685.24,685.62,685.97,686.32,686.60,686.51,686.16,686.51,687.76,688.91,688.06,686.33,684.55,683.73,685.49,687.98,689.22,688.15,685.70,684.83,685.57
548.81,549.38,549.77,550.21,550.83,551.52,552.22,552.92,553.62,554.29,554.93,555.62,556.26,556.93,557.61,558.23,558.82,559.23,559.56,559.94,560.49,560.93,561.47,562.20,563.27,564.56,566.04,567.59,569.05,570.26,571.59,572.92,573.93,573.95,573.94,574.12,574.52,575.12,575.67,576.26,576.88,577.42,577.70,578.04,578.29,578.38,578.36,578.31,578.74,579.43,580.17,581.17,582.60,584.05,585.39,586.67,588.03,589.66,591.56,593.72,595.82,597.86,599.43,600.29,600.92,601.41,601.83,602.24,602.69,603.08,603.48,603.99,604.81,606.03,607.15,607.91,608.23,608.25,608.91,609.80,610.74,611.69,612.76,613.89,615.01,616.06,616.93,617.62,618.02,618.21,618.38,618.36,618.23,618.36,618.92,619.00,619.27,619.83,620.90,622.97,623.93,623.24,621.73,620.73,620.25,620.37,621.19,622.78,624.55,626.29,627.57,628.34,628.70,628.04,626.96,626.22,626.41,626.84,627.35,627.83,628.24,628.68,629.13,629.59,630.07,630.58,631.12,632.04,633.21,634.43,635.26,635.06,634.66,634.36,634.13,634.03,633.68,633.11,632.47,631.91,632.38,633.59,635.25,636.76,637.45,637.34,636.78,636.30,636.72,637.59,638.68,640.05,642.03,644.36,646.79,649.17,651.22,652.87,654.45,655.92,657.16,658.30,659.44,660.65,661.96,663.28,664.64,665.82,666.75,667.41,668.06,668.71,669.36,670.03,670.81,671.59,672.38,673.22,674.26,675.79,677.47,679.10,680.62,682.14,683.31,683.92,683.93,683.74,682.84,681.73,680.85,680.73,681.09,682.10,683.46,684.95,686.48,687.54,688.34,688.92,689.26,689.56,689.88,690.35,691.16,692.16,692.74,692.98,693.06,693.37,694.09,695.05,696.15,697.31,697.93,698.11,697.99,697.63,697.05,696.20,695.24,694.24,693.20,692.08,690.95,689.97,689.24,688.31,687.30,686.68,686.67,686.71,686.50,686.05,685.71,686.16,686.58,686.97,687.33,687.58,687.52,687.23,687.52,688.61,689.85,689.96,688.75,686.80,685.25,686.44,688.76,690.15,689.38,686.96,685.89,686.73
549.11,549.44,549.72,550.01,550.62,551.35,552.05,552.80,553.50,554.19,554.87,555.56,556.24,556.96,557.68,558.35,558.92,559.46,560.13,560.96,561.73,562.38,563.02,563.79,564.88,566.16,567.45,568.63,569.68,570.93,572.29,573.67,574.78,575.00,575.04,575.16,575.49,576.09,576.64,577.24,577.83,578.36,578.71,578.99,579.11,579.07,578.97,578.94,579.38,580.06,580.80,581.98,583.49,585.03,586.49,587.83,589.12,590.73,592.59,594.51,596.58,598.68,600.31,601.19,601.87,602.38,602.83,603.26,603.67,604.06,604.48,604.99,605.80,607.61,608.90,609.50,609.55,609.57,610.03,610.66,611.39,612.29,613.39,614.50,615.62,616.74,617.76,618.60,619.14,619.41,619.51,619.41,619.23,619.32,619.92,620.37,620.71,621.13,622.02,624.05,625.55,625.31,623.98,622.88,622.34,622.38,623.03,624.30,625.75,627.37,628.61,629.44,630.01,629.18,628.13,627.51,627.70,628.09,628.55,629.02,629.45,629.86,630.22,630.66,631.25,631.96,632.48,633.38,634.50,635.65,636.49,636.48,636.19,635.90,635.69,635.68,635.42,634.98,634.49,633.86,633.84,634.68,636.30,637.81,638.76,638.95,638.56,637.96,637.83,638.68,639.92,641.23,643.16,645.50,647.94,650.26,652.27,653.99,655.55,657.03,658.40,659.62,660.75,661.89,663.13,664.49,665.83,667.08,668.15,668.88,669.56,670.31,671.10,671.89,672.71,673.46,674.20,674.89,675.34,676.19,677.29,678.59,680.11,681.80,683.37,684.72,685.66,685.83,685.16,684.13,683.18,682.87,682.62,683.30,684.44,685.61,686.83,688.12,689.03,689.55,690.03,690.54,691.06,691.68,692.46,693.36,694.01,694.40,694.59,694.86,695.40,696.21,697.24,698.34,698.88,699.02,698.88,698.50,698.00,697.21,696.28,695.25,694.14,693.03,691.97,690.93,689.89,688.70,687.79,687.49,687.79,687.82,687.41,686.84,686.50,687.02,687.52,687.95,688.31,688.54,688.45,688.25,688.44,689.20,690.33,690.75,690.18,688.68,686.77,687.43,689.53,690.74,689.79,687.55,686.62,687.55
549.21,549.42,549.65,549.88,550.42,551.11,551.82,552.59,553.30,554.00,554.73,555.42,556.12,556.84,557.57,558.25,558.86,559.66,560.71,561.92,562.94,563.77,564.58,565.47,566.62,567.81,568.99,570.00,570.77,571.95,573.26,574.58,575.69,576.11,576.18,576.19,576.41,577.10,577.68,578.27,578.84,579.35,579.73,579.95,579.97,579.85,579.69,579.68,580.07,580.67,581.44,582.78,584.32,585.91,587.45,588.89,590.16,591.70,593.45,595.25,597.20,599.18,600.83,601.93,602.80,603.35,603.81,604.27,604.72,605.16,605.62,606.06,606.66,608.24,609.50,610.41,611.03,611.41,611.71,612.06,612.52,613.15,614.06,615.12,616.25,617.40,618.48,619.54,620.32,620.75,620.84,620.75,620.61,620.70,621.24,621.76,622.13,622.50,623.27,625.24,627.01,627.23,626.24,625.03,624.51,624.54,625.07,626.09,627.33,628.74,629.87,630.71,631.32,630.46,629.42,628.84,629.00,629.33,629.70,630.10,630.52,630.91,631.24,631.74,632.45,633.26,633.83,634.72,635.80,636.86,637.61,637.76,637.66,637.48,637.35,637.39,637.23,636.91,636.51,635.88,635.50,635.92,637.26,638.85,640.10,640.52,640.20,639.48,638.99,639.77,641.19,642.76,644.65,646.81,649.07,651.28,653.25,655.07,656.71,658.22,659.60,660.86,662.02,663.17,664.35,665.63,666.98,668.26,669.38,670.27,671.22,672.11,672.95,673.78,674.65,675.38,676.04,676.55,676.69,677.15,677.88,678.91,680.35,682.08,683.84,685.58,687.07,687.65,687.50,686.69,685.62,684.90,684.28,684.71,685.66,686.64,687.70,688.93,689.90,690.54,691.17,691.79,692.41,693.07,693.86,694.70,695.38,695.84,696.11,696.37,696.79,697.49,698.40,699.33,699.83,699.93,699.75,699.35,698.89,698.20,697.31,696.25,695.13,694.06,692.95,691.78,690.55,689.25,688.44,688.37,688.88,688.79,688.25,687.63,687.33,687.87,688.40,688.92,689.43,689.86,689.90,689.73,689.77,690.27,691.33,691.59,690.95,689.60,688.10,688.89,690.78,691.72,690.73,689.06,688.32,688.56
549.17,549.36,549.59,549.82,550.24,550.81,551.50,552.26,552.98,553.71,554.45,555.16,555.86,556.57,557.27,557.97,558.66,559.78,561.13,562.58,563.85,564.88,565.88,566.95,568.17,569.25,570.42,571.44,572.17,573.21,574.40,575.60,576.63,577.22,577.34,577.21,577.31,578.08,578.74,579.31,579.87,580.38,580.76,580.92,580.89,580.72,580.54,580.57,580.86,581.34,582.12,583.56,585.12,586.69,588.29,589.80,591.09,592.51,594.13,595.87,597.64,599.38,601.01,602.45,603.62,604.30,604.80,605.28,605.81,606.32,606.82,607.23,607.58,608.43,609.50,610.89,612.46,613.41,613.71,613.87,614.05,614.30,614.84,615.76,616.86,618.00,619.12,620.41,621.46,622.11,622.33,622.32,622.30,622.44,622.83,623.25,623.59,623.91,624.60,626.50,628.36,628.95,628.36,627.11,626.68,626.75,627.21,628.06,629.17,630.32,631.32,632.13,632.60,631.79,630.78,630.15,630.25,630.53,630.80,631.12,631.50,631.89,632.23,632.85,633.69,634.51,635.17,636.06,637.07,638.04,638.63,638.93,639.04,639.04,639.03,639.09,639.02,638.82,638.46,637.88,637.29,637.28,638.17,639.86,641.44,642.03,641.73,640.91,640.24,640.86,642.38,644.35,646.24,648.14,650.16,652.25,654.20,656.12,657.89,659.44,660.74,661.97,663.20,664.40,665.57,666.70,668.08,669.35,670.46,671.55,672.87,673.92,674.81,675.65,676.57,677.31,677.84,678.14,678.19,678.52,679.07,679.91,681.21,682.92,684.75,686.59,688.25,689.24,689.67,689.15,687.94,686.77,686.01,686.25,687.02,687.96,688.94,689.97,690.93,691.80,692.56,693.21,693.83,694.50,695.28,696.08,696.75,697.25,697.56,697.87,698.19,698.78,699.56,700.23,700.72,700.81,700.60,700.20,699.74,699.15,698.31,697.24,696.15,695.10,693.87,692.53,691.24,689.92,689.19,689.27,689.91,689.67,689.09,688.50,688.21,688.71,689.26,689.99,690.82,691.57,691.84,691.65,691.52,691.81,692.74,692.49,691.32,689.90,689.25,690.52,692.19,692.90,692.13,691.17,690.54,689.68
549.08,549.29,549.52,549.71,549.95,550.33,550.90,551.61,552.35,553.08,553.81,554.55,555.30,556.05,556.78,557.49,558.28,559.45,560.75,562.04,563.35,564.65,565.95,567.26,568.55,569.82,571.03,572.26,573.51,574.43,575.50,576.57,577.52,578.25,578.43,578.30,578.30,578.83,579.61,580.27,580.84,581.36,581.79,581.99,581.99,581.87,581.72,581.80,582.00,582.28,582.84,584.24,585.81,587.40,588.96,590.48,591.73,593.10,594.60,596.12,597.68,599.34,600.95,602.46,603.96,605.14,605.89,606.38,606.90,607.26,607.85,608.54,609.16,609.80,610.60,611.71,613.12,614.45,615.34,615.71,615.82,615.93,616.12,616.52,617.24,618.34,619.61,620.90,622.05,623.05,623.85,624.01,624.16,624.39,624.70,625.17,625.53,625.70,626.10,627.82,629.58,630.24,629.89,629.09,628.84,628.95,629.40,630.20,631.09,631.95,632.85,633.60,633.63,632.79,631.90,631.34,631.27,631.53,631.83,632.13,632.48,632.87,633.36,634.07,634.92,635.76,636.55,637.44,638.32,639.06,639.66,640.10,640.36,640.48,640.49,640.55,640.55,640.42,640.08,639.58,639.00,638.69,639.09,640.74,642.49,643.34,643.23,642.46,641.84,642.05,643.14,645.03,646.98,648.94,651.04,653.24,655.27,657.22,658.97,660.47,661.67,662.81,664.06,665.34,666.59,667.78,669.07,670.18,671.16,672.29,673.72,675.10,676.33,677.41,678.43,679.13,679.51,679.65,679.68,679.96,680.50,681.30,682.47,684.12,685.97,687.81,689.45,690.60,691.10,690.71,689.69,688.58,687.82,687.92,688.53,689.36,690.26,691.20,692.14,693.05,693.91,694.62,695.26,695.93,696.66,697.23,697.86,698.42,698.82,699.13,699.44,699.88,700.39,700.83,701.28,701.55,701.50,701.10,700.59,700.04,699.27,698.26,697.12,695.88,694.60,693.32,692.06,690.75,689.93,690.05,690.87,690.55,690.16,689.69,689.33,689.56,690.22,691.58,693.06,694.05,694.44,694.17,693.87,693.88,694.26,693.21,691.72,690.52,690.31,691.30,692.66,693.54,693.47,692.75,691.89,690.63
549.10,549.28,549.46,549.60,549.74,549.97,550.41,551.17,551.99,552.79,553.63,554.62,555.53,556.34,557.08,557.82,558.50,559.33,560.28,561.39,562.76,564.25,565.73,567.14,568.45,569.74,571.03,572.48,574.11,575.30,576.46,577.50,578.41,579.21,579.44,579.35,579.28,579.65,580.39,581.09,581.69,582.25,582.78,583.07,583.14,583.07,583.05,583.25,583.51,583.75,584.05,584.84,586.09,587.60,589.25,590.89,592.29,593.68,595.11,596.51,597.94,599.52,601.10,602.65,604.33,605.84,606.86,607.48,607.99,608.25,608.87,609.75,610.63,611.34,612.04,612.92,614.10,615.58,616.76,617.35,617.55,617.66,617.67,617.82,618.29,619.18,620.27,621.45,622.63,623.80,624.94,625.47,625.89,626.29,626.65,627.14,627.48,627.53,627.64,629.00,630.62,631.35,631.23,630.80,630.86,631.13,631.64,632.41,633.18,633.88,634.59,635.07,634.63,633.74,632.99,632.49,632.29,632.51,632.86,633.21,633.59,633.99,634.41,635.15,636.10,637.00,637.85,638.72,639.51,640.15,640.81,641.36,641.74,641.94,641.95,641.97,641.98,641.86,641.50,641.18,640.78,640.47,640.66,642.03,643.70,644.68,644.78,644.08,643.51,643.44,644.10,645.61,647.51,649.50,651.66,653.95,656.13,658.18,659.91,661.35,662.55,663.67,664.88,666.17,667.47,668.70,669.88,670.87,671.78,672.94,674.42,675.97,677.44,678.78,679.98,680.68,681.01,681.11,681.17,681.54,682.15,682.93,683.91,685.32,687.11,688.88,690.41,691.61,692.30,692.05,691.11,690.09,689.37,689.39,689.84,690.48,691.28,692.28,693.30,694.27,695.21,696.01,696.68,697.32,697.94,698.30,698.92,699.57,700.03,700.28,700.53,700.84,701.17,701.51,701.92,702.26,702.32,701.92,701.35,700.76,700.05,699.12,697.90,696.55,695.23,694.00,692.83,691.63,690.79,690.89,691.80,691.65,691.40,691.00,690.61,690.67,691.43,693.19,695.14,696.47,697.04,696.74,696.26,695.87,695.51,694.07,692.50,691.36,691.22,692.04,693.20,694.23,694.71,694.12,693.10,691.88
549.24,549.34,549.42,549.50,549.63,549.80,550.13,551.05,552.00,552.96,554.05,555.42,556.61,557.51,558.27,559.03,559.43,559.59,559.97,560.86,562.30,563.88,565.37,566.75,568.03,569.18,570.57,572.18,573.97,575.78,577.23,578.38,579.31,580.11,580.38,580.32,580.26,580.61,581.15,581.80,582.46,583.08,583.73,584.17,584.30,584.27,584.42,584.87,585.34,585.68,585.76,585.51,586.06,587.35,589.19,591.05,592.77,594.30,595.70,597.09,598.50,599.97,601.50,603.11,604.79,606.41,607.68,608.54,609.08,609.33,609.94,610.85,611.89,612.87,613.64,614.47,615.52,616.94,618.02,618.73,619.15,619.34,619.37,619.58,619.99,620.55,621.12,622.14,623.29,624.45,625.61,626.63,627.40,628.02,628.54,629.03,629.32,629.28,629.19,630.06,631.52,632.35,632.48,632.30,632.74,633.28,633.90,634.67,635.45,636.07,636.48,636.47,635.63,634.72,634.07,633.63,633.34,633.54,633.94,634.39,634.84,635.27,635.40,636.07,637.15,638.14,639.06,639.89,640.64,641.34,642.09,642.73,643.19,643.42,643.42,643.38,643.35,643.22,642.91,642.84,642.72,642.65,642.87,643.78,645.13,646.10,646.36,645.75,645.20,645.03,645.36,646.32,647.97,649.90,652.06,654.39,656.73,658.95,660.66,662.05,663.35,664.53,665.71,666.95,668.24,669.46,670.52,671.45,672.39,673.57,675.05,676.60,678.14,679.70,681.15,681.95,682.36,682.55,682.70,683.27,683.99,684.74,685.49,686.50,688.11,689.76,691.13,692.33,693.37,693.27,692.28,691.29,690.60,690.60,690.91,691.28,692.01,693.17,694.36,695.42,696.43,697.36,698.09,698.66,699.10,699.31,699.94,700.67,701.18,701.33,701.49,701.70,701.97,702.34,702.67,702.99,703.05,702.65,702.00,701.31,700.60,699.75,698.49,697.13,695.82,694.61,693.58,692.54,691.76,691.83,692.76,692.99,692.78,692.38,692.01,692.05,692.88,694.73,696.89,698.59,699.34,699.09,698.43,697.58,696.46,695.09,693.60,692.36,691.98,692.85,693.93,695.03,695.81,695.32,694.34,693.48
549.43,549.51,549.58,549.57,549.66,549.86,550.26,551.33,552.49,553.65,554.88,556.38,557.75,558.88,559.80,560.51,560.71,560.53,560.47,560.90,562.03,563.52,564.99,566.34,567.56,568.78,570.25,571.96,573.88,575.82,577.60,579.04,580.10,580.90,581.19,581.25,581.33,581.63,582.14,582.76,583.39,584.01,584.65,585.21,585.44,585.42,585.54,586.51,587.30,587.69,587.60,587.05,586.72,587.47,589.32,591.12,593.07,594.84,596.37,597.70,599.20,600.72,602.22,603.72,605.27,606.92,608.28,609.33,610.16,610.63,611.22,612.06,613.14,614.19,615.12,616.02,617.03,618.26,619.20,619.93,620.45,620.65,620.68,620.93,621.28,621.64,622.08,622.93,623.99,625.16,626.36,627.50,628.38,629.11,629.78,630.39,630.64,630.60,630.60,631.44,632.65,633.46,633.85,634.16,634.74,635.37,636.04,636.81,637.72,638.01,637.95,637.58,636.72,635.88,635.29,634.80,634.42,634.84,635.31,635.78,636.24,636.67,636.76,636.98,637.58,638.79,640.10,641.08,641.86,642.56,643.33,644.01,644.55,644.87,644.91,644.86,644.76,644.84,645.19,645.27,645.08,644.95,645.11,645.80,646.69,647.54,647.96,647.47,646.90,646.64,646.90,647.73,648.74,650.41,652.50,654.83,657.15,659.25,660.95,662.43,663.87,665.23,666.51,667.75,668.95,670.08,671.08,672.05,673.04,674.07,675.53,677.05,678.56,680.12,681.84,683.07,683.72,683.99,684.42,685.07,685.81,686.51,687.09,687.83,689.12,690.57,691.99,693.33,694.43,694.34,693.32,692.30,691.50,691.45,691.77,692.14,692.76,693.95,695.25,696.45,697.59,698.60,699.36,699.86,700.13,700.34,700.80,701.42,702.05,702.29,702.46,702.63,702.86,703.19,703.50,703.78,703.74,703.16,702.44,701.66,700.89,700.06,698.95,697.76,696.61,695.52,694.51,693.47,692.77,692.91,693.89,694.40,694.19,693.75,693.39,693.46,694.23,696.12,698.25,699.70,700.34,700.10,699.44,698.50,697.22,695.85,694.45,693.25,692.77,693.63,694.68,695.72,696.56,696.43,695.93,695.37
549.66,549.74,549.76,549.68,549.76,550.08,550.78,551.97,553.25,554.55,555.85,557.17,558.56,559.80,560.87,561.67,561.79,561.46,561.13,561.20,562.07,563.33,564.67,565.98,567.23,568.55,570.09,571.87,573.86,575.78,577.75,579.40,580.61,581.48,581.95,582.23,582.45,582.70,583.18,583.77,584.39,585.01,585.63,586.23,586.53,586.56,586.63,587.79,588.85,589.40,589.24,588.53,587.67,587.92,589.47,591.27,593.47,595.58,597.29,598.43,599.82,601.25,602.70,604.20,605.78,607.43,608.88,610.10,611.19,611.91,612.55,613.33,614.35,615.43,616.47,617.47,618.46,619.54,620.39,621.12,621.67,621.86,622.06,622.37,622.66,622.92,623.26,623.81,624.71,625.91,627.14,628.33,629.26,630.06,630.84,631.58,631.82,631.88,632.12,633.02,634.02,634.77,635.35,636.00,636.63,637.31,638.03,638.83,639.73,639.67,639.24,638.63,637.80,637.07,636.49,635.94,635.50,636.08,636.67,637.19,637.67,638.13,638.24,638.14,638.28,639.29,640.71,641.93,642.93,643.78,644.54,645.26,645.88,646.31,646.40,646.40,646.26,646.44,647.32,647.71,647.47,647.24,647.36,647.93,648.52,649.14,649.50,649.14,648.55,648.22,648.46,649.29,649.91,651.20,653.06,655.25,657.44,659.40,661.09,662.63,664.15,665.66,667.09,668.44,669.71,670.88,671.90,672.95,673.96,674.75,675.96,677.38,678.82,680.32,682.21,683.89,684.91,685.37,685.90,686.66,687.51,688.25,688.66,689.23,690.28,691.60,693.04,694.47,695.53,695.39,694.35,693.29,692.35,692.25,692.61,693.05,693.58,694.65,695.95,697.29,698.57,699.65,700.47,700.98,701.14,701.37,701.71,702.22,702.85,703.23,703.43,703.59,703.77,704.04,704.35,704.52,704.32,703.58,702.80,702.02,701.25,700.46,699.54,698.52,697.50,696.49,695.48,694.41,693.77,693.96,694.98,695.73,695.54,695.13,694.85,694.92,695.40,697.16,699.18,700.39,700.98,700.74,700.10,699.19,697.93,696.60,695.28,694.12,693.51,694.34,695.36,696.35,697.20,697.51,697.43,697.15
549.98,550.08,550.01,549.84,549.89,550.47,551.74,553.00,554.25,555.61,556.91,557.79,558.94,560.07,561.20,562.28,562.50,562.18,561.79,561.72,562.51,563.43,564.51,565.74,567.13,568.52,570.10,571.89,573.88,575.76,577.69,579.40,580.75,581.74,582.65,583.24,583.56,583.79,584.23,584.82,585.43,586.05,586.66,587.23,587.59,587.73,587.76,588.59,589.77,590.63,590.56,589.69,588.85,588.73,589.64,591.60,594.06,596.58,598.54,599.34,600.30,601.38,602.75,604.48,606.27,607.94,609.47,610.85,612.10,613.04,613.81,614.57,615.49,616.55,617.63,618.71,619.76,620.72,621.59,622.36,622.88,623.06,623.67,624.05,624.29,624.53,624.76,624.84,625.48,626.68,627.92,629.14,630.13,630.97,631.82,632.65,632.93,633.23,633.84,634.73,635.61,636.33,636.96,637.65,638.34,639.04,639.83,640.69,641.33,641.02,640.39,639.68,638.87,638.25,637.65,637.01,636.55,637.17,637.93,638.59,639.14,639.65,639.81,639.70,639.56,639.77,640.81,642.33,643.82,644.97,645.72,646.48,647.18,647.73,647.90,648.03,647.85,647.95,648.96,649.88,649.75,649.49,649.60,650.13,650.68,650.98,650.99,650.73,650.11,649.76,650.01,650.92,651.56,652.39,653.78,655.67,657.63,659.51,661.19,662.72,664.22,665.81,667.39,669.00,670.58,671.96,673.14,674.28,675.24,675.71,676.38,677.58,678.96,680.36,682.30,684.36,685.87,686.67,687.02,687.90,689.00,689.88,690.16,690.67,691.68,692.94,694.34,695.70,696.67,696.47,695.41,694.32,693.24,693.11,693.51,694.02,694.50,695.29,696.44,697.88,699.30,700.45,701.38,702.00,702.18,702.41,702.75,703.18,703.68,704.17,704.40,704.56,704.71,704.90,705.19,705.16,704.74,703.93,703.16,702.48,701.81,701.10,700.35,699.45,698.47,697.47,696.45,695.38,694.74,694.93,695.99,696.92,696.81,696.53,696.42,696.48,696.41,697.77,699.58,700.74,701.46,701.22,700.60,699.77,698.61,697.38,696.14,694.96,694.18,694.93,695.93,696.91,697.81,698.55,698.66,698.67
