584.74,586.38,587.98,589.17,590.02,590.74,591.51,592.65,594.05,595.49,596.88,598.22,599.56,600.92,602.32,603.74,605.10,606.54,607.94,609.23,610.26,610.89,611.26,611.59,612.14,612.71,613.13,613.26,613.14,613.50,615.26,617.37,619.60,622.70,626.29,629.98,633.73,637.67,641.50,645.65,649.67,653.31,656.69,659.61,662.03,664.00,665.58,667.04,668.33,669.50,670.56,671.50,672.28,672.91,673.34,673.47,673.38,673.19,673.00,672.89,672.81,672.85,673.00,673.37,674.08,675.02,675.71,676.12,676.50,676.81,677.06,677.00,676.49,676.37,676.51,677.34,679.05,681.60,684.35,686.74,688.54,689.43,689.29,688.49,687.48,686.46,685.50,684.57,684.39,685.05,686.26,687.29,688.48,689.78,690.98,691.44,691.58,691.60,691.62,691.88,692.40,693.34,694.51,695.61,696.60,697.42,698.28,699.27,700.22,701.09,701.94,702.84,703.82,704.87,705.92,706.95,707.94,709.04,710.02,711.01,712.18,713.84,715.29,716.50,717.58,718.65,719.65,720.79,721.88,722.71,723.11,723.28,723.56,724.39,726.47,728.59,730.21,731.52,732.78,733.90,734.91,735.98,737.16,738.28,739.10,739.23,739.27,740.40,742.17,744.18,746.10,747.72,749.07,750.00,750.47,750.62,750.94,752.02,753.17,754.24,755.23,756.12,757.10,758.09,759.06,760.13,761.35,762.62,763.83,764.88,765.79,766.70,767.62,768.74,770.78,773.00,775.43,777.94,780.04,781.58,782.73,783.78,785.01,786.35,787.45,788.41,789.27,789.89,790.46,791.26,792.31,793.53,794.76,795.96,797.13,798.22,799.04,799.79,800.25,800.37,800.32,799.93,799.34,798.91,799.14,800.19,801.02,801.13,800.44,799.60,798.61,797.67,797.05,797.26,798.05,798.95,799.74,800.32,800.74,801.05,801.25,801.37,801.52,801.67,801.74,801.77,801.84,801.91,801.98,802.01,802.01,801.99,801.80,801.70,801.76,801.96,802.10,802.08,802.38,803.49,804.99,806.19,807.20,808.13,809.02,809.98,810.90,811.80,812.70,813.51,814.27,814.40,813.74,813.38,813.10,813.01
584.98,586.55,588.16,589.66,590.94,591.82,592.33,593.37,594.72,596.17,597.62,599.05,600.89,602.60,604.14,605.59,606.79,607.88,609.20,610.81,612.15,613.13,613.83,614.42,615.07,615.52,615.84,615.88,615.48,615.02,615.62,616.66,618.20,621.07,624.49,627.85,631.33,635.39,639.64,644.32,648.88,652.97,656.59,659.75,662.41,664.67,666.64,668.36,669.75,670.93,672.00,673.00,673.90,674.63,675.13,675.34,675.25,675.09,674.96,674.88,674.80,674.75,674.71,674.75,675.18,675.98,676.78,677.47,677.97,678.31,678.59,678.70,678.52,678.43,678.53,679.06,680.21,682.14,684.84,687.43,689.49,690.54,690.17,689.23,688.16,687.13,686.09,685.11,684.81,685.21,685.98,686.88,688.10,689.66,691.44,692.69,693.17,693.35,693.53,694.00,694.49,695.13,695.89,696.73,697.66,698.42,699.23,700.26,701.26,702.22,703.17,704.01,704.52,705.54,706.66,707.74,708.78,709.90,710.88,711.82,712.87,714.23,715.50,716.67,717.80,718.94,720.06,721.07,722.09,723.16,723.98,724.57,725.08,725.81,727.33,729.36,731.04,732.49,733.96,735.23,736.40,737.60,738.85,740.01,741.01,741.12,740.84,741.30,742.30,743.88,745.74,747.63,749.29,750.56,751.51,752.17,752.60,753.44,754.46,755.53,756.57,757.53,758.49,759.41,760.33,761.44,762.74,764.04,765.26,766.33,767.10,767.84,768.98,770.97,773.97,776.16,778.03,779.87,781.62,783.04,784.17,785.11,785.99,787.23,788.31,789.31,790.28,791.14,791.78,792.59,793.63,794.81,796.03,797.26,798.48,799.63,800.60,801.57,802.07,802.05,801.98,801.59,800.87,800.23,800.29,801.00,801.68,801.79,801.15,800.37,799.41,798.53,797.94,797.96,798.74,799.74,800.66,801.36,801.78,802.05,802.19,802.25,802.36,802.49,802.55,802.60,802.68,802.76,802.83,802.89,802.93,802.96,802.89,802.88,803.00,803.23,803.46,803.43,803.39,803.82,805.35,806.81,807.99,808.91,809.84,810.86,811.83,812.75,813.66,814.48,815.36,815.71,815.30,815.09,814.86,814.69
585.45,587.03,588.63,590.34,592.01,593.07,593.29,594.10,595.36,596.79,598.27,599.83,602.30,604.49,606.26,607.73,608.64,609.27,610.36,612.16,613.90,615.31,616.41,617.30,618.04,618.44,618.65,618.56,618.04,617.54,617.15,617.13,617.94,620.51,623.65,626.64,629.79,633.81,638.32,643.25,648.10,652.54,656.35,659.72,662.63,665.20,667.63,669.58,671.05,672.27,673.38,674.46,675.48,676.31,676.88,677.19,677.13,677.03,676.95,676.87,676.80,676.73,676.55,676.32,676.50,676.96,677.73,678.69,679.47,679.91,680.33,680.70,680.88,680.81,680.94,681.37,682.12,683.17,685.34,687.77,689.95,691.28,690.90,689.89,688.77,687.71,686.64,685.70,685.32,685.46,685.76,686.49,687.63,689.29,691.53,693.53,694.47,694.99,695.46,696.17,696.77,697.16,697.46,697.95,698.81,699.58,700.45,701.54,702.64,703.71,704.73,705.43,705.34,706.19,707.30,708.46,709.63,710.81,711.85,712.84,713.84,714.85,715.89,717.00,718.18,719.41,720.63,721.50,722.31,723.32,724.44,725.51,726.36,727.00,727.75,729.53,731.42,733.24,735.00,736.35,737.64,738.93,740.17,741.27,742.35,742.76,742.72,742.83,743.02,743.96,745.42,747.16,748.82,750.29,751.72,753.06,753.98,754.77,755.72,756.77,757.77,758.82,759.82,760.71,761.57,762.74,764.07,765.45,766.79,767.93,768.69,769.40,770.84,773.67,777.38,779.41,780.72,781.93,783.31,784.64,785.86,786.80,787.36,788.31,789.30,790.28,791.29,792.32,793.06,793.91,794.94,796.06,797.27,798.56,799.87,801.13,802.32,803.48,803.95,803.73,803.64,803.24,802.40,801.68,801.78,802.18,802.53,802.53,802.03,801.33,800.41,799.55,798.87,798.60,799.29,800.34,801.41,802.26,802.75,803.02,803.13,803.16,803.23,803.31,803.43,803.56,803.65,803.74,803.82,803.90,803.96,803.95,804.03,804.13,804.25,804.52,804.83,804.90,804.66,804.38,805.64,807.25,808.60,809.60,810.62,811.68,812.67,813.60,814.54,815.48,816.46,816.96,816.81,816.65,816.49,816.29
586.23,588.20,589.95,591.58,593.13,594.26,594.66,594.86,595.87,597.30,598.94,600.86,603.51,606.07,608.27,609.87,610.85,611.44,612.26,613.62,615.40,617.00,618.45,619.71,620.63,621.35,621.68,621.46,620.69,620.32,619.48,618.80,618.88,620.58,623.54,626.89,630.56,634.76,638.90,643.15,647.52,651.92,655.80,659.56,663.08,666.27,668.90,670.67,672.14,673.53,674.84,675.90,676.95,677.88,678.59,679.00,679.04,678.98,678.90,678.83,678.75,678.71,678.47,678.03,678.02,678.26,678.77,679.67,681.13,681.91,682.87,683.73,684.09,684.25,684.32,684.63,685.11,685.30,686.22,687.96,690.09,691.79,691.63,690.37,689.02,688.05,687.04,686.44,686.28,686.52,687.04,687.33,687.85,689.09,691.32,693.11,694.58,695.93,697.18,698.16,698.92,699.32,699.48,699.66,700.20,701.13,702.26,703.45,704.64,705.71,706.49,706.83,706.52,706.90,707.83,709.01,710.30,711.96,713.34,714.46,715.40,716.26,716.82,717.68,718.88,720.16,721.35,722.42,723.21,723.74,724.55,725.62,726.75,727.78,728.62,730.06,731.77,733.59,735.41,737.07,738.63,740.00,741.17,742.26,743.35,744.20,744.72,744.81,744.95,745.14,745.62,746.62,748.04,749.38,750.84,752.45,753.94,755.55,756.84,757.85,758.76,759.77,760.89,761.90,762.82,764.07,765.35,766.72,768.15,769.54,770.88,772.34,774.12,776.49,779.49,781.25,782.52,783.74,785.01,786.32,787.57,788.65,789.42,790.06,790.83,791.58,792.27,793.21,794.13,795.09,796.14,797.34,798.52,799.87,801.30,802.76,804.15,805.40,805.96,805.79,805.49,805.00,804.34,803.81,803.80,803.96,803.71,803.20,802.53,801.83,801.02,800.22,799.58,799.44,799.95,800.90,801.98,802.97,803.72,803.97,804.07,804.13,804.20,804.23,804.56,804.97,805.11,805.24,805.33,805.43,805.45,805.03,805.21,805.43,805.58,805.98,806.35,806.58,806.37,805.75,806.22,807.57,809.06,810.37,811.45,812.52,813.51,814.46,815.45,816.54,817.49,817.99,817.94,817.78,817.63,817.38
587.08,589.33,591.24,592.86,594.37,595.59,596.25,596.13,596.58,597.66,599.36,601.57,604.43,607.30,609.83,611.70,612.97,613.71,614.40,615.38,616.98,618.68,620.38,621.89,622.82,623.69,624.33,624.48,624.04,623.93,623.01,621.98,621.35,621.77,624.09,627.61,631.80,636.34,640.57,644.51,648.33,652.12,655.90,659.86,663.80,667.50,670.48,672.49,674.09,675.48,676.64,677.37,678.36,679.34,680.13,680.60,681.03,681.19,681.15,681.08,681.00,680.94,680.64,680.13,680.06,680.24,680.50,681.17,682.87,683.89,685.01,686.13,686.96,687.52,687.58,687.61,687.69,687.44,687.77,689.00,690.88,692.67,692.23,690.66,689.16,688.27,687.54,687.28,687.38,687.79,688.43,688.44,688.28,688.91,690.95,692.51,694.14,695.92,697.73,699.13,700.19,700.82,701.14,701.39,701.90,702.89,704.12,705.40,706.63,707.66,708.21,708.21,707.80,707.76,708.47,709.69,711.22,712.96,714.61,715.97,717.01,717.87,718.40,719.14,720.16,721.27,722.42,723.60,724.38,724.63,725.21,725.89,726.87,728.05,729.15,730.59,732.25,734.00,735.76,737.48,739.15,740.66,741.98,743.21,744.31,745.39,746.29,746.72,746.95,746.78,746.78,747.37,748.46,749.45,750.71,752.36,754.25,756.29,757.66,758.60,759.51,760.61,761.84,763.01,764.13,765.43,766.70,768.01,769.40,770.91,772.51,774.19,776.09,778.31,780.47,781.89,783.13,784.43,785.76,787.13,788.41,789.54,790.40,791.08,791.93,792.74,793.42,794.15,795.10,796.08,797.11,798.25,799.44,800.89,802.50,804.13,805.75,807.18,807.87,807.69,807.09,806.61,806.04,805.52,805.30,805.11,804.55,803.83,803.10,802.40,801.69,800.96,800.36,800.20,800.50,801.37,802.47,803.54,804.54,804.94,805.10,805.18,805.27,805.22,805.55,806.13,806.61,806.88,807.03,807.00,806.71,806.13,806.43,806.74,806.94,807.42,807.85,808.17,808.00,807.25,807.33,808.71,810.22,811.41,812.41,813.40,814.41,815.44,816.52,817.66,818.56,819.05,819.06,818.86,818.60,818.20
588.04,590.39,592.39,594.11,595.65,597.01,597.94,597.86,597.58,598.06,599.59,601.99,605.05,608.14,610.95,613.21,614.88,615.93,616.68,617.41,618.70,620.45,622.32,623.94,624.79,625.64,626.66,627.48,627.78,628.07,627.38,626.25,624.97,623.96,625.14,628.47,633.07,638.03,642.72,646.77,650.16,653.13,656.70,660.64,664.80,668.88,672.23,674.83,676.67,678.00,678.83,679.08,679.91,680.85,681.58,682.08,682.99,683.49,683.59,683.55,683.48,683.33,682.99,682.54,682.56,682.74,682.81,683.15,684.71,685.86,686.86,688.01,689.41,690.44,690.54,690.29,689.93,689.52,689.80,690.69,692.18,693.84,692.78,690.89,689.32,688.52,688.17,688.19,688.50,689.07,689.79,689.63,688.84,688.78,690.46,691.81,693.40,695.32,697.45,699.35,700.75,701.71,702.38,702.97,703.67,704.66,705.87,707.19,708.41,709.45,709.84,709.60,709.16,708.83,709.35,710.62,712.39,714.00,715.79,717.42,718.68,719.69,720.53,721.30,722.05,722.80,723.81,724.99,725.75,725.87,726.30,726.48,727.04,728.09,729.37,730.95,732.64,734.35,736.03,737.68,739.36,741.01,742.58,744.03,745.23,746.38,747.51,748.47,748.86,748.64,748.51,748.96,749.78,750.42,751.39,752.88,754.91,757.04,758.33,759.17,760.22,761.50,762.84,764.15,765.43,766.74,768.06,769.29,770.53,772.10,773.70,775.25,777.11,779.35,780.74,781.83,783.01,784.37,785.80,787.22,788.52,789.63,790.50,791.41,792.48,793.56,794.45,794.98,795.89,796.87,797.83,798.87,800.06,801.65,803.41,805.19,807.00,808.64,809.45,809.25,808.39,807.94,807.39,806.78,806.33,805.82,805.18,804.49,803.78,803.09,802.45,801.79,801.19,800.94,801.01,801.79,802.90,804.02,805.22,805.90,806.21,806.30,806.41,806.25,806.41,807.02,807.96,808.47,808.72,808.50,807.76,807.21,807.63,808.04,808.31,808.84,809.38,809.76,809.60,808.77,808.68,810.21,811.68,812.58,813.49,814.36,815.38,816.50,817.64,818.81,819.70,820.19,820.24,819.96,819.50,818.90
589.37,591.39,593.26,595.15,596.86,598.39,599.60,600.04,599.39,599.01,599.69,602.04,605.04,608.20,611.28,614.08,616.25,617.87,619.00,619.77,620.85,622.62,624.51,626.04,626.75,627.63,628.77,630.02,631.22,632.19,632.13,631.21,629.58,627.51,626.56,628.89,633.51,638.82,644.25,648.87,652.51,655.37,658.67,662.31,666.33,670.44,674.02,677.19,679.52,681.08,681.81,681.85,682.41,682.92,683.18,683.53,684.48,685.34,685.89,686.04,686.00,685.72,685.40,685.27,685.59,685.81,685.72,685.73,686.84,687.92,688.71,689.65,691.10,692.38,692.72,692.52,692.06,691.58,692.00,692.72,693.79,695.13,693.43,691.38,689.92,689.31,689.13,689.14,689.33,689.88,690.94,690.51,689.42,688.89,689.82,690.91,692.68,694.75,696.91,699.15,700.64,701.82,702.85,703.82,704.83,705.93,707.10,708.30,709.40,710.69,711.30,711.14,710.71,710.54,711.03,712.20,713.98,715.65,717.35,719.03,720.62,722.07,723.32,724.35,725.06,725.27,725.66,726.64,727.31,727.23,727.59,727.84,728.12,728.53,729.25,730.55,732.25,734.14,736.05,737.80,739.50,741.17,742.79,744.41,745.85,747.17,748.43,749.61,750.34,750.23,750.01,750.37,751.48,752.43,753.33,754.37,755.84,757.87,759.07,759.96,761.42,762.89,764.40,765.61,766.52,767.82,769.21,770.34,771.44,773.13,774.67,776.26,778.02,779.83,780.92,781.93,783.00,784.16,785.46,786.68,787.87,788.96,789.88,790.91,792.03,793.19,794.28,795.13,796.13,797.18,798.19,799.17,800.37,801.96,803.76,805.58,807.32,808.94,809.79,809.71,809.01,808.45,807.85,807.27,806.84,806.62,806.06,805.36,804.67,803.97,803.34,802.71,802.15,801.86,801.67,802.21,803.21,804.42,805.75,806.78,807.33,807.44,807.47,807.25,807.19,807.57,808.57,809.45,809.96,809.69,808.67,808.22,808.72,809.26,809.66,810.20,811.17,811.70,811.39,810.19,809.50,810.72,812.27,813.50,814.65,815.56,816.50,817.51,818.60,819.88,821.02,821.67,821.64,821.29,820.60,819.72
590.84,592.63,594.43,596.34,598.16,599.98,601.74,602.96,602.76,601.99,601.46,602.43,604.84,607.80,610.94,614.10,617.09,619.46,621.19,622.38,623.48,625.13,626.81,628.19,628.95,629.98,631.23,632.71,634.37,635.86,636.49,636.18,634.88,632.61,629.92,630.40,633.80,638.99,644.86,650.18,654.44,657.60,660.85,664.27,668.09,672.11,675.87,679.50,682.43,684.46,685.30,685.12,685.30,685.33,685.07,685.08,685.85,686.90,687.83,688.31,688.40,688.06,687.71,687.74,688.44,688.74,688.57,688.39,689.01,689.95,690.57,691.34,692.75,694.09,694.70,694.70,694.19,693.55,694.01,694.70,695.51,696.20,694.29,692.32,690.99,690.45,690.11,690.04,690.24,690.86,691.99,691.55,690.23,689.24,689.53,690.25,692.06,694.19,696.36,698.60,700.22,701.55,702.78,703.95,705.12,706.29,707.48,708.64,709.72,711.20,712.29,712.66,712.31,712.26,712.78,713.93,715.73,717.40,718.99,720.64,722.41,724.22,725.90,727.18,727.89,727.85,727.87,728.48,728.89,728.69,728.85,729.31,729.52,729.51,729.87,731.02,732.72,734.73,736.85,738.78,740.46,742.02,743.53,744.97,746.41,747.79,749.13,750.45,751.61,751.62,751.29,751.53,752.93,754.29,755.38,756.29,757.35,758.93,760.08,761.17,762.81,764.55,766.17,767.27,767.86,768.80,770.11,771.23,772.34,774.10,775.67,777.26,778.84,780.24,781.21,782.18,783.18,784.25,785.44,786.50,787.55,788.63,789.75,790.76,791.82,792.93,794.03,795.02,796.04,797.10,798.15,799.16,800.38,802.01,803.81,805.59,807.27,808.66,809.51,809.70,809.32,808.81,808.23,807.64,807.20,807.16,806.83,806.27,805.58,804.89,804.25,803.66,803.16,802.85,802.52,802.74,803.55,804.87,806.23,807.50,808.31,808.58,808.49,808.23,808.01,808.16,809.06,810.25,811.08,810.89,809.77,809.63,810.32,811.07,811.69,812.35,813.29,813.59,812.90,811.25,810.09,811.03,812.58,814.05,815.43,816.63,817.67,818.63,819.64,820.82,822.01,822.86,823.06,822.66,821.73,820.67
592.39,594.12,595.88,597.67,599.59,601.80,604.33,606.39,607.25,606.60,604.79,603.35,604.72,607.21,610.13,613.46,617.49,620.63,623.08,624.96,626.37,627.84,629.24,630.46,631.45,632.75,634.13,635.62,637.26,639.00,640.29,640.85,640.45,638.74,635.14,633.30,634.31,638.74,644.68,650.76,655.86,659.61,663.01,666.38,670.00,673.88,677.81,681.79,685.34,687.99,689.15,688.80,688.46,687.94,687.18,686.72,687.16,688.21,689.42,690.32,690.64,690.32,689.90,689.90,690.99,691.39,691.28,691.03,691.22,691.95,692.45,693.12,694.42,695.70,696.61,696.84,696.33,695.48,695.80,696.56,697.20,697.05,695.35,693.64,692.46,691.87,691.12,690.91,691.23,691.99,692.95,692.77,691.34,689.94,689.74,690.04,691.67,693.79,695.93,697.93,699.71,701.15,702.39,703.60,704.77,705.98,707.21,708.42,709.60,711.17,712.84,714.07,713.91,713.94,714.47,715.65,717.53,719.14,720.65,722.23,724.00,726.00,728.04,729.50,730.26,730.31,730.27,730.42,730.49,730.30,730.15,730.82,731.11,730.94,731.29,732.45,734.12,736.14,738.42,740.58,742.23,743.64,744.91,745.94,747.11,748.38,749.74,751.15,752.74,752.85,752.40,752.51,754.11,755.84,757.30,758.43,759.31,760.19,761.34,762.70,764.27,766.29,767.94,769.01,769.48,769.79,770.86,772.01,773.25,775.01,776.71,778.26,779.60,780.68,781.61,782.53,783.54,784.64,785.79,786.79,787.70,788.77,790.14,791.08,791.99,792.94,793.89,794.83,795.77,796.78,797.85,798.93,800.17,801.84,803.64,805.33,806.93,808.02,808.84,809.39,809.40,809.09,808.58,808.00,807.49,807.48,807.45,807.14,806.48,805.79,805.16,804.62,804.19,803.87,803.51,803.41,803.94,805.33,806.67,808.04,809.12,809.67,809.49,809.19,808.91,808.88,809.56,810.92,812.13,812.26,811.34,811.62,812.56,813.53,814.39,815.20,815.68,815.33,814.04,811.97,810.70,811.46,812.85,814.30,815.82,817.48,818.78,819.80,820.77,821.68,822.70,823.74,824.45,824.04,822.96,821.84
593.87,595.53,597.22,598.94,601.16,603.79,606.59,608.93,610.27,609.94,607.92,605.38,605.90,607.55,609.84,613.11,617.61,621.07,623.83,626.18,628.24,630.11,631.78,633.26,634.64,636.11,637.60,638.92,640.00,641.43,642.94,644.01,644.26,643.23,640.98,638.14,636.52,638.69,644.53,651.22,656.99,661.21,664.71,668.14,671.91,675.98,680.04,684.22,688.10,691.19,692.87,692.75,691.75,690.35,688.96,688.36,688.34,689.28,690.77,692.09,692.63,692.34,691.95,692.06,693.02,693.60,693.71,693.54,693.49,693.94,694.30,694.88,696.10,697.50,698.52,698.84,698.35,697.42,697.61,698.18,698.51,697.96,696.43,695.04,694.06,693.45,692.54,691.99,692.13,692.88,693.88,694.28,693.22,691.75,691.06,691.13,692.49,694.28,696.20,698.33,700.10,701.55,702.81,704.00,705.16,706.37,707.60,708.85,710.11,711.68,713.36,714.82,715.45,715.66,715.97,716.94,718.96,720.65,722.20,723.77,725.44,727.18,728.95,730.42,731.48,732.00,732.05,732.08,732.20,732.32,732.11,732.60,732.74,732.52,733.02,734.31,735.77,737.52,739.88,742.19,744.22,745.85,747.06,748.08,748.84,749.71,750.82,752.24,753.85,754.09,753.62,753.52,755.25,757.10,758.70,759.96,760.81,761.55,762.60,763.93,765.51,767.38,769.12,770.44,771.17,771.31,771.99,772.93,774.16,775.93,777.68,779.18,780.36,781.24,782.07,782.94,783.94,785.09,786.28,787.38,788.41,789.45,790.57,791.45,792.28,793.15,794.10,795.07,796.00,796.96,797.95,798.94,799.99,801.62,803.45,805.09,806.49,807.62,808.45,808.98,809.14,809.01,808.77,808.38,807.86,807.81,807.85,807.75,807.38,806.75,806.09,805.56,805.17,804.87,804.57,804.25,804.41,805.51,806.93,808.38,809.68,810.56,810.44,810.13,809.89,809.86,810.29,811.43,813.08,814.39,814.92,815.06,815.80,816.62,817.32,817.89,817.89,816.61,814.56,812.65,812.43,813.15,813.92,814.67,816.06,817.76,819.32,820.67,821.90,822.84,823.76,824.74,825.56,825.50,824.67,823.64
595.55,596.85,598.49,600.42,602.92,605.74,608.53,610.82,612.42,612.42,610.54,607.61,607.70,608.99,610.85,613.50,617.57,621.04,624.00,626.70,629.32,631.74,633.83,635.69,637.50,639.23,640.80,641.99,642.69,643.68,645.21,646.65,647.54,647.36,646.37,643.56,640.47,640.08,644.76,651.36,657.54,662.31,666.06,669.83,673.87,678.07,682.14,686.39,690.58,694.17,696.38,696.70,695.55,693.77,691.98,691.05,690.29,690.78,692.19,693.71,694.56,694.41,694.09,694.19,695.01,695.70,696.02,696.00,695.78,695.93,696.15,696.66,697.77,699.07,700.04,700.38,699.99,699.19,699.26,699.62,699.74,699.04,697.62,696.49,695.69,695.03,694.08,693.24,693.11,693.71,694.75,695.59,695.07,693.86,692.86,692.57,693.79,695.49,697.25,699.11,700.65,702.05,703.35,704.56,705.69,706.86,708.08,709.35,710.69,712.24,713.88,715.46,716.71,717.17,717.43,718.20,719.97,721.50,722.98,724.50,726.05,727.56,729.15,730.64,731.95,732.93,733.41,733.62,733.88,734.21,734.12,734.42,734.37,734.09,734.64,736.19,737.65,739.26,741.55,743.95,746.31,748.11,749.26,750.29,750.82,751.38,752.23,753.62,755.15,755.40,754.89,754.57,756.17,758.06,759.76,761.13,762.13,762.91,763.91,765.17,766.66,768.34,770.01,771.47,772.52,772.92,773.40,774.11,775.13,776.63,778.32,779.92,781.20,782.06,782.85,783.64,784.49,785.45,786.69,787.88,789.02,790.06,790.95,791.81,792.62,793.46,794.38,795.36,796.32,797.25,798.19,799.14,800.17,801.69,803.37,804.89,806.15,807.33,808.13,808.52,808.76,808.77,808.71,808.52,808.14,808.11,808.16,808.20,808.11,807.65,807.01,806.50,806.14,805.85,805.64,805.19,805.00,805.66,807.06,808.49,809.86,810.96,811.25,811.26,811.22,811.26,811.53,812.32,813.86,815.69,817.29,817.83,818.53,819.18,819.64,819.74,819.20,817.31,815.16,814.09,814.89,815.67,815.95,816.00,816.91,818.22,819.65,821.11,822.53,823.66,824.69,825.71,826.59,826.95,826.51,825.61
597.53,598.10,599.73,602.14,604.81,607.50,610.04,612.01,613.75,614.10,612.62,609.93,610.03,611.62,613.46,614.96,617.57,620.65,623.71,626.63,629.56,632.55,635.16,637.44,639.71,641.84,643.50,644.66,645.33,645.92,647.27,648.94,650.51,651.32,650.93,649.12,646.25,643.54,645.72,651.27,657.48,662.90,667.08,671.50,675.87,680.03,684.02,688.18,692.75,696.90,699.60,700.50,699.88,698.44,696.62,695.09,693.34,692.98,693.83,695.25,696.44,696.59,696.35,696.32,697.02,697.72,698.22,698.39,698.08,697.93,698.01,698.45,699.40,700.27,701.02,701.35,701.17,700.70,700.70,700.90,700.94,700.32,698.93,698.00,697.34,696.60,695.67,694.63,694.20,694.56,695.56,696.59,696.69,696.05,695.02,694.21,695.43,697.35,699.10,700.12,701.23,702.50,703.87,705.18,706.24,707.31,708.48,709.80,711.20,712.77,714.43,716.09,717.59,718.40,718.89,719.51,720.59,721.68,722.94,724.30,725.69,727.10,728.74,730.29,731.72,733.05,734.31,735.01,735.45,735.82,736.01,736.21,736.00,735.61,736.01,737.86,739.67,741.42,743.51,745.94,748.42,750.27,751.32,752.31,752.88,753.32,753.98,755.30,756.69,756.83,756.21,755.68,756.82,758.70,760.49,761.98,763.28,764.22,765.26,766.45,767.76,769.29,770.71,772.07,773.38,774.46,775.07,775.60,776.21,777.11,778.60,780.44,782.10,783.20,784.03,784.76,785.26,785.75,786.98,788.17,789.35,790.41,791.27,792.13,792.98,793.84,794.72,795.64,796.61,797.56,798.50,799.52,800.75,802.09,803.43,804.72,805.95,807.12,807.80,808.02,808.30,808.40,808.39,808.33,808.28,808.35,808.42,808.52,808.61,808.47,807.90,807.43,807.12,806.85,806.71,806.22,805.74,805.85,807.09,808.36,809.57,810.72,811.77,812.50,812.88,813.08,813.37,813.76,814.50,815.79,817.60,819.22,820.20,820.82,821.04,820.50,819.36,817.42,816.02,816.45,817.89,818.82,818.94,818.54,818.58,819.08,819.94,821.10,822.55,823.97,825.36,826.59,827.57,828.32,828.33,827.62
599.55,599.72,600.81,603.11,605.72,608.30,610.66,612.65,614.68,615.94,615.67,613.24,612.55,614.04,616.38,618.07,619.33,621.13,623.57,626.52,629.39,632.72,635.84,638.69,641.50,643.95,645.94,647.36,648.09,648.59,649.60,651.17,653.01,654.23,654.39,653.51,651.75,649.59,649.43,652.91,658.16,663.83,668.50,673.23,677.69,681.82,685.75,689.96,694.77,699.15,702.02,703.39,703.00,701.89,700.50,698.90,697.04,696.06,696.12,697.16,698.33,698.67,698.53,698.35,698.77,699.38,699.94,700.28,700.19,699.93,699.94,700.17,700.60,701.25,701.91,702.30,702.30,701.97,702.00,702.19,702.19,701.55,700.36,699.62,698.98,698.14,697.09,695.77,695.17,695.49,696.40,697.43,698.02,697.97,697.15,696.28,696.91,698.38,700.10,701.24,702.19,703.32,704.62,705.83,706.83,707.81,708.90,710.18,711.73,713.34,715.00,716.69,718.31,719.50,720.40,721.24,722.18,723.22,724.33,725.46,726.59,727.75,728.79,730.05,731.49,733.03,734.59,735.85,736.76,737.29,737.62,737.81,737.59,737.18,737.38,738.63,740.47,742.70,745.25,747.73,750.10,751.96,753.23,754.26,754.95,755.35,755.86,757.03,758.15,758.26,757.63,756.94,757.65,759.32,761.09,762.69,764.14,765.36,766.49,767.63,768.84,770.20,771.52,772.85,774.19,775.49,776.41,777.11,777.72,778.41,779.36,780.85,782.58,784.21,785.34,786.16,786.65,786.97,787.53,788.24,789.35,790.53,791.39,792.32,793.32,794.31,795.22,796.02,796.81,797.64,798.55,799.54,800.76,802.03,803.29,804.52,805.71,806.74,807.34,807.55,807.81,807.99,808.12,808.21,808.31,808.47,808.63,808.80,808.93,808.98,808.68,808.37,808.13,807.99,807.75,807.24,806.62,806.31,807.04,808.05,809.05,810.04,811.22,812.32,813.22,814.03,814.82,815.27,815.82,816.66,817.84,819.02,820.34,821.38,821.74,820.77,819.52,817.96,817.06,817.73,819.19,820.33,820.67,820.34,820.29,820.55,820.96,821.71,823.10,824.55,825.96,827.23,828.33,829.22,829.78,829.17
601.66,601.63,602.14,603.83,606.21,608.72,611.05,613.24,615.58,617.58,618.40,616.60,615.14,616.24,618.79,620.89,621.59,622.41,623.99,626.45,629.12,632.56,636.05,639.42,642.70,645.59,648.15,650.11,651.17,651.76,652.44,653.71,655.51,657.00,657.83,657.92,657.35,656.03,654.45,656.06,660.00,665.30,670.32,675.28,679.85,683.98,687.86,692.06,696.83,701.20,704.16,706.00,705.92,705.07,703.92,702.38,700.74,699.50,698.96,699.46,700.45,700.86,700.73,700.32,700.37,700.82,701.43,701.98,702.18,701.94,701.89,701.88,701.79,702.19,702.78,703.24,703.40,703.21,703.31,703.50,703.48,702.84,701.84,701.11,700.41,699.50,698.33,696.78,696.08,696.41,697.33,698.28,699.14,699.53,699.09,698.38,698.45,699.28,700.69,702.01,703.00,704.13,705.38,706.49,707.45,708.37,709.40,710.66,712.28,713.91,715.59,717.29,718.99,720.50,721.82,722.96,723.97,725.04,726.09,727.07,727.97,728.83,729.46,730.49,731.87,733.32,734.98,736.60,737.84,738.46,738.94,739.29,739.16,738.77,738.91,739.58,741.16,743.54,746.49,749.08,751.35,753.33,754.94,756.16,756.99,757.40,757.77,758.65,759.46,759.52,758.94,758.19,758.68,760.18,761.88,763.50,765.02,766.43,767.62,768.71,769.84,771.07,772.36,773.69,775.03,776.43,777.54,778.44,779.16,779.76,780.31,781.40,783.05,785.08,786.61,787.60,788.19,788.43,788.46,788.68,789.58,790.75,791.67,792.69,793.82,794.91,795.86,796.58,797.23,797.97,798.78,799.63,800.69,801.87,803.10,804.32,805.48,806.33,806.84,807.10,807.38,807.69,807.99,808.22,808.34,808.56,808.80,809.02,809.19,809.33,809.30,809.24,809.21,809.18,808.83,808.28,807.62,807.05,807.27,807.96,808.70,809.45,810.46,811.69,812.97,814.26,815.52,816.26,816.95,817.63,818.30,819.02,820.48,821.85,822.40,821.23,820.09,818.97,818.32,818.69,819.95,821.21,821.87,821.89,821.89,822.05,822.17,822.58,823.76,825.16,826.53,827.83,829.09,830.24,830.99,830.24
603.91,603.94,604.00,604.51,606.35,608.83,611.35,613.94,616.54,618.75,620.07,619.60,617.77,618.08,620.12,622.43,623.97,624.78,625.44,626.53,628.90,632.12,635.71,639.40,642.97,646.53,650.01,652.94,654.80,655.65,656.07,656.86,658.26,659.98,661.69,662.92,663.22,662.10,660.72,661.32,663.70,667.69,672.73,677.90,682.69,686.96,690.73,694.78,699.06,703.04,706.18,708.53,708.98,708.26,706.85,705.36,704.17,703.24,702.56,702.35,702.99,703.28,702.98,702.21,701.78,702.01,702.70,703.54,704.03,703.96,703.87,703.64,703.19,703.15,703.67,704.19,704.48,704.47,704.64,704.83,704.80,704.25,703.30,702.34,701.44,700.53,699.31,697.68,696.93,697.30,698.38,699.24,699.99,700.54,700.68,700.30,700.14,700.31,700.92,702.08,703.35,704.72,706.05,707.13,708.09,709.02,710.08,711.34,712.84,714.48,716.17,717.88,719.64,721.37,723.03,724.50,725.69,726.79,727.91,728.91,729.69,730.21,731.07,732.19,733.35,734.33,735.84,737.41,738.57,739.16,739.87,740.61,740.72,740.40,740.74,741.28,742.20,743.94,746.90,749.67,752.02,754.24,756.33,757.94,758.91,759.40,759.66,760.03,760.48,760.45,759.95,759.36,759.99,761.47,763.08,764.58,766.06,767.47,768.63,769.66,770.71,771.92,773.21,774.55,775.96,777.44,778.45,779.42,780.32,780.87,781.41,782.26,783.68,785.75,787.72,788.97,789.69,789.98,789.98,789.92,790.39,791.26,792.32,793.45,794.60,795.69,796.65,797.42,798.12,798.82,799.49,800.04,800.71,801.72,802.91,804.13,805.28,805.94,806.36,806.69,807.13,807.67,808.15,808.43,808.43,808.63,808.90,809.16,809.37,809.53,809.66,810.00,810.38,810.39,809.95,809.38,808.74,808.19,808.03,808.35,808.80,809.27,809.87,810.93,812.21,813.59,815.00,816.22,817.37,818.38,819.20,820.04,821.31,822.60,823.27,822.27,821.41,820.62,819.90,819.57,820.48,821.67,822.67,823.26,823.25,823.32,823.41,823.67,824.46,825.72,827.09,828.47,829.93,831.68,831.91,830.62
606.33,606.37,606.27,606.08,606.93,608.62,610.90,613.60,616.44,618.95,620.78,621.38,620.00,619.92,621.40,623.75,625.89,627.22,628.04,628.84,630.63,633.10,635.85,638.86,642.41,646.57,650.89,654.89,657.88,659.09,659.47,660.19,661.63,663.61,665.85,667.77,668.91,668.74,667.93,667.93,669.06,671.71,676.18,680.98,685.80,690.33,694.00,697.69,701.24,704.66,707.91,710.80,711.58,711.09,709.99,709.05,708.19,707.44,706.74,706.06,705.75,705.68,705.28,704.35,703.63,703.55,704.14,705.09,705.80,705.92,705.79,705.44,704.84,704.32,704.60,705.12,705.55,705.73,705.91,706.11,706.09,705.46,704.38,703.33,702.37,701.43,700.28,698.82,697.90,697.94,699.20,700.13,700.93,701.59,701.91,701.71,701.53,701.48,701.73,702.62,703.69,704.92,706.20,707.44,708.62,709.73,710.86,712.12,713.61,715.20,716.78,718.36,720.10,721.91,723.78,725.59,727.17,728.45,729.51,730.35,730.96,731.53,732.77,734.15,735.32,736.05,736.98,738.27,739.34,739.90,740.56,741.52,742.17,742.43,742.68,743.17,743.50,744.51,747.18,749.95,752.36,754.65,756.89,758.75,759.77,760.34,760.70,760.98,761.32,761.16,760.64,760.12,760.54,761.84,763.40,765.02,766.72,768.33,769.76,770.95,771.89,772.87,774.13,775.52,776.96,778.43,779.41,780.43,781.44,782.01,782.53,783.21,784.43,786.43,788.60,789.94,790.75,791.19,791.23,791.21,791.53,792.18,793.14,794.27,795.43,796.52,797.48,798.26,799.00,799.72,800.33,800.73,801.25,801.96,802.84,803.89,805.03,805.59,806.01,806.51,807.10,807.75,808.34,808.71,808.73,808.83,808.99,809.20,809.43,809.68,810.14,810.78,811.37,811.45,810.95,810.30,809.70,809.26,809.13,809.30,809.60,809.99,810.50,811.18,812.06,813.18,814.59,815.92,817.17,818.31,819.33,820.39,821.58,822.88,823.82,823.43,822.75,822.02,821.27,820.71,821.19,822.18,823.25,824.12,824.49,824.62,824.67,824.78,825.21,826.39,827.79,829.34,831.12,833.09,833.13,831.55
608.75,608.86,608.76,608.28,608.21,608.90,610.61,613.11,616.04,618.82,621.14,622.66,622.03,621.91,622.92,625.08,627.56,629.50,630.90,631.96,633.38,635.23,637.00,638.94,642.04,646.45,651.31,656.13,660.21,661.98,662.71,663.66,665.25,667.35,669.84,672.17,674.00,674.90,674.86,674.65,674.94,676.41,680.00,684.14,688.95,693.80,697.30,700.54,703.41,706.32,709.62,712.91,714.08,713.96,713.30,712.94,712.34,711.69,710.97,710.01,708.88,708.29,707.62,706.54,705.59,705.14,705.53,706.55,707.45,707.81,707.68,707.22,706.50,705.61,705.58,706.02,706.57,706.91,707.14,707.36,707.36,706.72,705.49,704.30,703.26,702.32,701.22,699.98,698.90,698.54,699.79,700.79,701.70,702.49,702.96,702.94,702.82,702.70,702.78,703.41,704.21,705.19,706.34,707.64,709.01,710.33,711.60,712.94,714.52,716.09,717.52,718.94,720.60,722.36,724.31,726.35,728.32,729.86,730.94,731.66,732.17,732.98,734.55,736.17,737.43,737.98,738.36,739.26,740.16,740.69,741.24,742.27,743.38,744.27,744.60,745.06,745.00,745.37,747.35,749.99,752.32,754.56,756.78,758.76,759.87,760.61,761.20,761.66,762.07,761.85,761.33,760.91,761.11,762.17,763.61,765.25,767.07,768.86,770.62,772.17,773.28,774.11,775.24,776.53,777.89,779.37,780.43,781.51,782.54,783.17,783.71,784.31,785.31,786.97,789.17,790.51,791.43,792.09,792.36,792.51,792.79,793.28,794.09,795.15,796.27,797.35,798.30,799.10,799.89,800.63,801.25,801.64,802.07,802.50,803.06,803.86,804.82,805.33,805.83,806.47,807.15,807.84,808.50,808.98,809.09,809.11,809.13,809.25,809.51,809.91,810.70,811.59,812.30,812.47,811.91,811.26,810.72,810.43,810.40,810.59,810.88,811.25,811.75,812.10,812.56,813.30,814.45,815.59,816.79,817.97,819.12,820.33,821.55,822.92,824.17,824.50,824.04,823.33,822.57,821.94,822.07,822.81,823.80,824.81,825.59,825.88,825.95,825.95,826.11,827.12,828.48,830.19,832.27,834.37,834.62,833.18
611.06,611.43,611.52,611.48,611.04,610.78,611.36,613.09,615.69,618.56,621.34,623.54,623.89,624.27,625.13,626.58,628.88,631.31,633.57,635.55,637.39,639.40,640.56,641.21,642.87,646.67,651.21,656.11,660.91,663.75,665.70,667.39,669.07,670.89,673.16,675.44,677.55,679.29,680.27,680.62,680.88,681.70,684.00,687.15,691.92,697.21,700.35,703.12,705.61,708.28,711.45,714.79,716.69,717.24,716.91,716.80,716.32,715.68,714.92,713.97,712.84,711.50,710.05,708.61,707.48,706.52,706.67,707.76,708.88,709.57,709.49,708.88,707.95,707.03,706.67,706.86,707.44,707.88,708.29,708.59,708.67,708.24,706.99,705.48,704.19,703.27,702.09,700.94,699.86,699.23,699.90,700.89,701.93,702.95,703.81,704.11,704.09,704.00,704.03,704.48,705.20,706.02,706.87,707.82,709.14,710.56,712.11,713.86,715.71,717.32,718.65,719.88,721.38,722.86,724.60,726.60,728.74,730.61,732.09,732.98,733.52,734.81,736.45,738.17,739.53,739.93,740.15,740.60,741.12,741.60,742.09,742.90,744.03,745.30,746.33,746.80,746.88,746.86,747.31,749.58,751.53,753.45,755.51,757.33,758.77,759.88,760.85,761.94,762.68,762.66,762.33,762.12,762.33,763.17,764.21,765.37,766.87,768.60,770.63,772.88,775.04,776.04,776.82,777.58,778.54,780.19,781.57,782.69,783.61,784.35,785.07,785.81,786.42,787.11,789.07,790.34,791.39,792.44,793.36,793.79,794.12,794.57,795.30,796.12,797.10,798.13,799.09,799.94,800.78,801.57,802.29,802.89,803.26,803.60,803.96,804.37,804.77,805.29,805.92,806.59,807.22,807.91,808.60,809.17,809.45,809.49,809.41,809.44,809.77,810.44,811.41,812.42,813.24,813.49,812.94,812.46,812.13,811.91,811.89,812.35,812.87,813.30,813.71,814.10,814.42,814.71,814.99,815.45,816.43,817.54,818.59,819.71,821.11,822.68,824.22,825.26,825.17,824.60,823.86,823.23,823.26,823.71,824.49,825.49,826.43,827.03,827.24,827.26,827.38,827.88,828.99,830.74,833.06,835.30,836.60,836.25
613.29,614.03,614.45,614.88,614.75,614.49,614.67,615.67,617.39,619.58,622.03,624.33,625.60,626.42,627.21,628.31,630.13,632.45,634.99,637.55,639.92,642.18,643.57,644.18,644.81,647.23,651.16,656.00,661.02,664.46,667.29,669.86,672.17,674.13,676.41,679.31,682.37,684.78,685.99,686.47,686.81,687.48,689.06,691.98,696.12,700.48,703.25,705.81,708.22,710.89,714.13,717.40,719.59,720.66,720.88,720.98,720.56,719.86,718.98,717.88,716.60,714.96,713.15,711.28,709.49,708.17,707.94,708.70,709.86,710.72,710.79,710.23,709.25,708.39,707.73,707.68,708.25,708.75,709.25,709.65,709.77,709.21,707.68,706.45,705.50,704.61,703.40,702.23,701.11,700.32,700.52,701.21,702.21,703.30,704.30,705.03,705.26,705.25,705.24,705.47,706.13,706.91,707.68,708.52,709.80,711.46,713.26,715.09,716.90,718.56,720.12,721.65,723.18,724.62,726.00,727.49,729.24,730.89,732.92,734.33,734.90,735.67,737.39,739.22,740.65,741.24,741.55,741.93,742.36,742.78,743.21,743.77,744.72,746.03,747.35,748.20,748.66,748.72,748.57,749.64,751.17,752.90,754.73,756.44,758.13,759.60,760.91,762.21,763.15,763.51,763.51,763.38,763.57,764.33,765.21,766.09,767.22,768.64,770.66,773.20,775.94,777.69,778.54,779.05,779.65,781.01,782.40,783.63,784.70,785.65,786.50,787.30,787.81,788.06,789.08,790.17,791.28,792.44,793.57,794.42,795.14,795.82,796.55,797.29,798.14,799.04,799.93,800.82,801.71,802.53,803.29,803.99,804.45,804.82,805.15,805.45,805.69,805.99,806.42,806.96,807.61,808.23,808.88,809.51,810.02,810.22,810.20,810.28,810.67,811.43,812.33,813.26,814.09,814.48,814.15,813.81,813.56,813.44,813.69,814.30,814.89,815.36,815.72,816.10,816.33,816.39,816.36,816.60,817.19,817.99,818.90,819.88,821.13,822.66,824.28,825.58,826.14,825.84,825.13,824.52,824.56,824.77,825.28,826.11,827.09,827.87,828.31,828.53,828.68,828.82,829.76,831.49,833.85,836.22,838.13,838.75
615.41,616.55,617.36,618.24,618.66,618.78,618.86,619.24,620.01,621.33,623.21,625.41,627.23,628.34,629.16,630.22,631.63,633.59,635.97,638.69,641.57,644.17,646.18,647.37,647.52,648.54,651.64,656.11,661.02,664.84,668.44,671.89,675.00,677.42,680.04,683.66,687.59,690.49,691.75,692.28,692.73,693.41,694.59,697.39,700.70,703.81,706.28,708.67,711.02,713.71,717.04,720.34,722.66,724.15,724.96,725.29,724.93,724.12,723.07,721.80,720.35,718.61,716.60,714.32,711.89,710.21,709.52,709.75,710.73,711.68,711.91,711.45,710.46,709.63,708.77,708.55,709.08,709.65,710.24,710.65,710.64,709.81,708.18,707.44,706.94,706.08,704.90,703.68,702.53,701.66,701.49,701.82,702.63,703.64,704.64,705.75,706.30,706.47,706.43,706.48,707.07,707.83,708.62,709.52,710.80,712.69,714.69,716.50,718.23,719.93,721.78,723.70,725.36,726.84,727.85,728.79,730.11,731.42,733.78,735.68,736.40,736.44,737.94,739.73,741.24,742.18,742.78,743.25,743.69,744.07,744.46,744.80,745.47,746.57,747.99,749.28,750.21,750.59,750.29,750.16,751.25,752.78,754.36,755.94,757.79,759.54,761.08,762.37,763.41,764.17,764.57,764.61,764.80,765.54,766.33,767.05,767.85,768.99,770.97,773.62,776.62,779.09,780.17,780.59,780.93,781.88,783.19,784.52,785.78,786.89,787.87,788.71,789.23,789.30,789.41,790.24,791.35,792.51,793.67,794.88,795.98,796.94,797.68,798.38,799.14,799.95,800.79,801.72,802.64,803.49,804.27,805.03,805.62,806.07,806.44,806.76,806.97,807.03,807.18,807.53,808.12,808.69,809.33,810.05,810.80,811.23,811.33,811.50,811.96,812.70,813.48,814.29,815.06,815.52,815.41,815.20,815.00,814.97,815.58,816.30,816.93,817.42,817.75,818.08,818.23,818.19,818.05,818.20,818.46,818.95,819.71,820.57,821.57,822.88,824.39,825.74,826.93,826.98,826.39,825.84,825.92,825.98,826.19,826.75,827.71,828.58,829.27,829.78,830.03,829.97,830.78,832.41,834.68,837.12,839.37,840.75
617.28,618.71,619.99,621.20,622.17,622.70,622.70,622.76,623.07,623.92,625.45,627.57,628.77,629.73,630.87,632.50,634.18,635.59,637.04,638.98,642.11,645.28,648.12,650.33,651.40,652.07,653.93,657.11,661.40,665.53,669.90,674.09,677.87,681.27,685.10,688.96,692.56,695.49,697.28,698.13,698.63,699.21,700.36,702.41,704.95,707.60,709.91,711.97,714.00,716.40,719.58,723.42,725.93,727.69,728.98,729.64,729.38,728.42,727.14,725.81,724.31,722.55,720.39,717.84,715.41,713.22,711.91,711.54,711.88,712.76,713.04,712.60,711.55,710.53,709.81,709.62,710.03,710.79,711.62,711.64,710.94,709.89,709.08,708.76,708.37,707.53,706.43,705.27,704.14,703.25,703.00,703.15,703.52,704.10,704.98,706.10,707.10,707.62,707.65,707.69,708.13,708.80,709.67,710.85,712.29,714.16,716.20,718.17,720.00,721.73,723.62,725.65,727.52,728.96,729.79,730.69,732.22,733.46,735.11,736.94,738.34,738.19,738.47,739.66,741.32,742.69,743.88,744.55,744.98,745.37,745.75,746.08,746.37,746.89,748.24,749.69,751.07,751.92,751.82,751.68,752.27,753.37,754.73,756.03,757.79,759.58,761.14,762.17,763.18,764.12,764.96,765.63,766.00,766.65,767.38,768.06,768.78,770.05,772.22,774.90,777.64,780.00,781.26,781.88,782.24,782.96,784.22,785.53,786.74,787.84,788.89,789.83,790.41,790.50,790.68,791.20,792.10,793.25,794.42,795.65,796.71,797.58,798.23,798.93,799.72,800.63,801.63,802.62,803.51,804.39,805.25,806.01,806.74,807.27,807.72,808.09,808.23,808.25,808.32,808.46,808.66,809.23,810.08,811.07,812.03,812.79,812.99,813.18,813.68,814.38,815.14,815.92,816.57,816.75,816.73,816.59,816.40,816.40,817.37,818.25,818.97,819.50,819.81,819.98,820.08,820.02,819.73,819.69,820.02,820.54,821.19,822.01,822.82,823.65,824.62,825.89,827.22,827.81,827.70,827.20,827.33,827.43,827.41,827.53,828.43,829.30,830.14,830.94,831.54,831.60,832.30,833.65,835.61,838.02,840.13,841.74
619.13,620.79,622.35,623.83,625.21,626.14,626.34,626.30,626.41,626.93,628.00,629.71,630.83,631.92,633.27,635.02,636.97,638.14,639.01,640.21,642.83,646.13,649.54,652.62,654.79,655.95,657.30,659.38,662.55,666.53,671.25,676.12,680.84,685.17,689.47,693.47,696.95,699.61,701.62,702.86,703.64,704.26,705.38,706.94,708.93,711.18,713.32,715.14,717.12,719.70,723.17,726.94,729.43,731.31,732.79,733.59,733.52,732.73,731.51,730.09,728.59,726.90,724.75,722.02,719.16,716.49,714.80,714.10,713.92,714.17,714.24,713.85,712.91,712.01,711.34,711.04,711.24,712.02,712.61,712.24,711.20,710.24,710.22,710.26,709.99,709.19,708.04,706.83,705.77,705.01,704.77,704.65,704.78,705.14,705.73,706.52,707.59,708.44,708.84,708.95,709.31,710.05,711.11,712.44,713.95,715.71,717.64,719.67,721.59,723.41,725.31,727.28,729.12,730.37,731.10,731.99,733.62,735.03,736.52,738.20,739.66,739.73,739.54,740.23,741.66,743.19,744.63,745.59,746.22,746.66,747.05,747.35,747.49,747.67,748.49,749.85,751.45,752.81,753.43,753.42,753.79,754.57,755.71,757.02,758.49,759.91,761.17,762.16,763.16,764.17,765.18,766.15,766.79,767.42,768.06,768.72,769.42,770.91,773.28,776.06,778.66,780.52,781.87,782.84,783.51,784.14,785.29,786.52,787.66,788.75,789.80,790.81,791.49,791.67,791.90,792.32,793.02,794.05,795.24,796.46,797.45,798.21,798.85,799.56,800.38,801.33,802.40,803.43,804.37,805.29,806.18,806.95,807.72,808.40,808.96,809.37,809.54,809.57,809.61,809.70,809.86,810.38,811.23,812.26,813.30,814.28,814.65,814.96,815.53,816.13,816.84,817.40,817.74,817.81,817.85,817.84,817.77,817.83,818.97,820.01,820.82,821.37,821.67,821.84,821.93,821.90,821.73,821.66,821.95,822.36,822.84,823.60,824.34,825.03,825.71,826.55,827.71,828.48,828.69,828.46,828.67,828.86,828.79,828.65,829.22,830.04,830.97,831.92,832.80,833.25,834.06,835.24,836.82,838.91,840.89,842.69
620.87,622.77,624.52,626.23,627.91,629.22,629.78,629.82,629.90,630.22,630.90,632.10,633.40,634.71,636.10,637.77,639.88,641.02,641.59,642.18,643.95,646.96,650.60,654.35,657.61,659.74,661.10,662.37,664.25,667.65,672.39,677.85,683.56,688.71,693.18,697.25,700.70,703.06,705.15,706.78,707.95,708.78,709.85,711.13,712.74,714.64,716.62,718.34,720.49,723.47,727.37,730.71,733.09,734.99,736.50,737.32,737.43,736.96,735.97,734.46,732.95,731.32,729.23,726.41,723.01,719.95,717.94,716.92,716.36,715.81,715.52,715.16,714.44,713.82,713.15,712.67,712.62,713.27,713.34,712.59,711.48,710.82,711.40,711.79,711.69,710.99,709.69,708.36,707.38,706.85,706.68,706.27,706.28,706.56,706.84,707.13,707.98,709.02,709.90,710.27,710.66,711.53,712.79,714.18,715.70,717.31,719.07,721.04,723.04,724.99,726.88,728.70,730.32,731.35,732.03,732.95,734.58,736.24,737.81,739.28,740.49,741.04,740.91,741.29,742.33,743.80,745.25,746.47,747.36,747.91,748.33,748.61,748.73,748.73,748.90,750.04,751.70,753.48,754.95,755.22,755.56,756.14,757.04,758.43,759.55,760.44,761.28,762.34,763.35,764.36,765.39,766.44,767.34,767.96,768.53,769.16,769.92,771.63,774.09,776.87,779.36,780.73,782.12,783.46,784.52,785.20,786.31,787.45,788.54,789.59,790.61,791.68,792.48,792.81,793.07,793.47,794.06,794.88,796.06,797.29,798.19,798.88,799.53,800.30,801.12,802.06,803.12,804.20,805.22,806.19,807.08,807.87,808.66,809.51,810.24,810.66,810.88,810.95,811.00,811.14,811.48,811.94,812.67,813.59,814.60,815.70,816.26,816.77,817.41,817.89,818.47,818.73,818.73,818.81,818.91,819.05,819.14,819.33,820.48,821.66,822.57,823.13,823.43,823.67,823.77,823.81,823.85,823.88,824.11,824.39,824.67,825.26,826.02,826.75,827.32,827.61,828.42,829.12,829.55,829.72,830.00,830.32,830.31,830.02,830.15,830.86,831.80,832.83,833.88,834.80,835.80,836.88,838.10,839.80,841.71,843.68
622.28,624.45,626.51,628.40,630.20,631.75,632.81,633.14,633.43,633.89,634.63,635.73,636.88,637.92,639.11,640.86,642.85,644.10,644.65,644.89,646.19,648.20,651.32,655.24,659.19,662.38,664.25,665.38,666.48,668.55,673.04,678.75,684.92,690.70,695.80,699.88,703.12,705.68,708.10,709.98,711.49,712.70,713.80,714.97,716.41,718.12,720.06,721.92,724.51,727.84,731.60,734.57,736.84,738.74,740.25,741.07,741.13,740.76,739.95,738.52,736.83,735.01,732.88,730.18,726.86,723.61,720.96,719.13,718.32,717.63,717.02,716.49,716.06,715.65,715.03,714.39,714.07,714.50,713.92,712.86,711.86,711.59,712.28,712.98,713.29,712.86,711.37,709.82,708.93,708.70,708.64,708.12,707.95,708.14,708.46,708.38,708.69,709.40,710.50,711.80,712.45,713.35,714.58,715.94,717.45,719.01,720.61,722.32,724.39,726.41,728.30,729.95,731.12,732.15,732.94,733.92,735.55,737.19,738.44,739.57,740.73,741.99,742.38,742.81,743.59,744.77,746.11,747.25,748.21,748.98,749.54,749.88,750.00,749.94,749.98,750.91,752.46,754.26,755.93,756.77,757.36,757.91,758.56,759.53,760.53,761.19,761.75,762.77,763.78,764.78,765.84,766.93,767.81,768.34,768.84,769.49,770.51,772.28,774.39,776.63,778.81,780.41,781.98,783.36,784.47,785.53,786.93,788.19,789.24,790.22,791.22,792.34,793.31,793.85,794.21,794.61,795.13,795.86,796.88,798.03,798.91,799.61,800.36,801.18,802.02,802.90,803.85,804.92,805.98,807.00,807.95,808.84,809.72,810.80,811.71,812.11,812.27,812.42,812.55,812.73,813.30,813.83,814.43,815.16,816.07,817.05,817.83,818.54,819.22,819.58,819.77,819.80,819.77,819.91,820.14,820.43,820.73,821.12,822.14,823.32,824.30,824.92,825.19,825.43,825.59,825.69,825.77,825.93,826.46,826.85,826.88,827.00,827.76,828.54,829.07,829.30,829.62,830.03,830.59,831.25,831.55,831.97,832.04,831.70,831.60,831.97,832.76,833.81,834.93,835.98,836.93,837.89,839.04,840.71,842.68,844.74
623.14,625.59,627.97,630.16,632.15,633.96,635.45,636.30,636.90,637.52,638.30,639.35,640.42,641.28,642.37,644.27,646.27,647.49,647.92,647.94,648.90,650.37,652.79,656.15,660.23,664.38,667.13,668.73,669.67,670.97,674.13,679.10,685.42,691.73,697.31,701.64,705.01,707.84,710.37,712.45,714.26,715.89,717.39,718.80,720.31,722.02,723.93,725.77,728.58,732.13,735.85,738.63,740.88,742.68,743.99,744.64,744.61,744.17,743.34,741.93,740.23,738.37,736.26,733.72,730.54,727.27,724.34,721.97,720.53,719.25,718.29,717.63,717.25,716.94,716.44,715.87,715.41,715.27,714.32,713.12,712.28,712.51,713.32,714.22,714.95,715.08,713.77,712.20,710.98,710.26,709.93,709.48,709.42,709.68,709.98,709.62,709.67,710.16,711.17,712.82,713.88,714.99,716.28,717.61,719.08,720.61,722.14,723.74,725.66,727.67,729.45,730.87,731.84,732.90,733.79,734.81,736.28,737.69,738.74,739.69,740.79,742.18,743.04,743.77,744.58,745.60,746.76,747.81,748.78,749.68,750.44,751.05,751.32,751.34,751.44,752.14,753.59,755.32,756.81,757.88,758.71,759.47,760.15,760.75,761.56,762.09,762.48,763.23,764.23,765.26,766.33,767.41,768.30,768.77,769.24,769.98,771.36,773.21,775.06,776.94,778.92,780.49,781.67,782.61,783.49,784.83,786.51,788.07,789.38,790.48,791.40,792.53,793.59,794.35,795.02,795.64,796.25,796.92,797.75,798.78,799.66,800.43,801.24,802.16,803.07,803.98,804.88,805.75,806.78,807.82,808.85,809.94,811.01,812.26,813.29,813.74,813.86,814.01,814.13,814.38,815.15,815.75,816.26,816.82,817.63,818.52,819.40,820.16,820.71,821.03,821.16,821.15,821.18,821.51,821.89,822.28,822.64,823.08,824.00,825.09,826.06,826.74,826.98,827.19,827.38,827.54,827.66,827.85,828.58,829.11,829.04,828.80,829.43,830.06,830.42,830.59,830.73,830.99,831.60,832.62,833.16,833.69,833.80,833.46,833.20,833.33,833.91,834.82,835.98,837.09,838.03,839.01,840.22,841.82,843.83,845.90
623.44,626.15,628.85,631.44,633.75,635.84,637.70,639.18,640.19,641.02,641.87,642.88,643.94,644.73,645.80,647.91,650.07,651.17,651.48,651.42,652.09,653.36,655.03,657.35,661.09,665.95,669.74,672.27,673.68,674.83,676.04,679.47,685.44,691.97,697.76,702.47,706.34,709.50,712.05,714.28,716.37,718.42,720.63,722.54,724.37,726.25,728.23,729.97,732.76,736.32,740.06,742.84,745.03,746.59,747.51,747.89,747.78,747.24,746.27,744.82,743.26,741.49,739.47,737.09,734.10,730.95,728.03,725.44,723.16,721.00,719.59,718.72,718.12,717.77,717.44,717.05,716.53,715.68,714.57,713.37,712.74,713.52,714.52,715.55,716.64,717.46,716.67,715.22,713.43,711.69,710.73,710.40,710.65,711.11,711.36,710.78,710.83,711.22,711.94,713.41,714.89,716.34,717.76,719.10,720.50,722.00,723.56,725.16,726.78,728.73,730.35,731.50,732.49,733.54,734.50,735.51,736.71,737.77,738.71,739.67,740.69,741.77,742.97,744.10,745.14,746.15,747.12,748.10,749.07,750.00,750.97,751.94,752.53,752.76,753.07,753.62,754.96,756.53,757.63,758.63,759.67,760.76,761.72,762.10,762.68,763.13,763.42,763.76,764.69,765.75,766.84,767.89,768.81,769.27,769.79,770.71,772.42,774.35,776.05,777.70,779.51,780.73,781.16,781.39,781.92,783.40,785.29,787.21,788.98,790.38,791.22,792.29,793.41,794.38,795.45,796.45,797.28,797.95,798.64,799.56,800.47,801.35,802.24,803.27,804.28,805.27,806.17,806.71,807.64,808.66,809.78,811.20,812.52,813.87,814.95,815.48,815.61,815.68,815.74,816.01,816.94,817.66,818.12,818.56,819.28,820.11,821.00,821.67,822.03,822.34,822.66,822.79,822.92,823.50,824.03,824.48,824.81,825.16,826.01,826.95,827.83,828.51,828.74,828.91,829.11,829.34,829.56,829.76,830.55,831.14,831.06,830.60,830.97,831.32,831.43,831.54,831.73,831.96,832.58,833.81,834.76,835.40,835.56,835.25,834.89,834.90,835.22,835.88,837.02,838.16,839.19,840.31,841.66,843.16,845.13,847.13
622.78,625.80,628.81,631.90,634.62,637.07,639.34,641.28,642.73,644.14,645.53,646.55,647.53,648.20,649.26,651.59,653.91,655.32,656.00,656.19,656.57,657.03,658.00,659.75,662.84,667.44,671.80,675.43,678.12,679.87,680.40,682.16,686.03,691.40,696.61,701.56,706.20,710.27,713.16,715.54,717.85,720.32,723.17,725.74,728.20,730.64,733.04,735.17,737.64,740.59,743.97,746.97,748.60,749.50,750.00,750.21,750.11,749.74,749.01,747.71,746.15,744.41,742.51,740.36,737.79,734.75,731.86,729.27,726.87,724.48,722.23,720.32,719.03,718.57,718.21,717.77,717.10,715.99,714.75,713.62,713.23,714.39,715.76,717.03,718.24,719.18,718.97,717.76,715.86,713.67,711.92,711.13,711.52,712.32,712.68,711.94,711.83,712.18,712.87,714.01,715.43,716.94,718.43,719.86,721.34,722.83,724.34,725.88,727.52,729.36,730.84,731.89,732.80,733.73,734.63,735.52,736.45,737.35,738.20,739.10,740.14,741.29,742.49,743.69,744.85,745.94,746.88,747.83,748.77,749.72,750.72,751.80,752.75,753.56,754.35,755.10,756.23,757.43,758.36,759.26,760.38,761.59,762.72,763.38,763.97,764.42,764.64,764.63,765.28,766.30,767.39,768.40,769.33,769.89,770.74,772.06,773.69,775.47,776.89,778.10,779.26,779.98,780.17,780.22,780.59,782.09,784.00,786.02,788.01,789.77,790.71,791.81,793.01,794.13,795.24,796.39,797.48,798.46,799.30,800.34,801.50,802.63,803.64,804.67,805.68,806.68,807.55,807.92,808.56,809.47,810.76,812.66,814.24,815.53,816.57,817.22,817.35,817.31,817.26,817.46,818.39,819.45,820.06,820.45,821.08,821.85,822.67,823.34,823.76,824.03,824.27,824.53,824.89,825.50,826.10,826.63,827.00,827.27,828.00,828.85,829.57,830.04,830.22,830.34,830.55,830.96,831.65,832.18,832.81,833.09,832.71,832.00,832.16,832.39,832.48,832.61,832.74,832.90,833.51,834.85,836.09,836.91,837.25,837.08,836.56,836.56,836.70,837.08,838.02,839.15,840.43,841.86,843.42,844.95,846.61,848.31
621.73,624.86,628.27,631.80,634.87,637.68,640.35,642.74,644.66,646.56,648.42,649.81,650.94,651.75,652.98,655.44,657.72,659.36,660.42,660.94,661.16,661.18,661.65,662.85,665.20,669.08,673.44,677.77,681.66,684.53,685.51,686.54,688.70,692.45,696.48,701.08,705.99,710.58,713.88,716.58,719.22,722.09,725.34,728.51,731.58,734.51,737.10,739.36,741.50,743.94,746.90,749.46,750.53,751.01,751.28,751.43,751.35,751.13,750.69,749.77,748.59,747.17,745.49,743.47,741.17,738.38,735.77,733.44,731.04,728.42,725.60,722.91,720.79,719.56,718.94,718.34,717.46,716.25,714.92,713.93,713.79,715.14,716.75,718.23,719.47,720.26,720.22,719.17,717.33,715.01,712.85,711.92,712.43,713.46,713.94,713.05,712.92,713.33,714.02,714.75,716.00,717.47,718.97,720.35,721.72,723.18,724.68,726.22,727.87,729.54,730.88,731.84,732.69,733.55,734.39,735.25,736.13,737.05,737.92,738.86,739.91,741.04,742.08,743.16,744.28,745.39,746.35,747.29,748.26,749.27,750.37,751.51,752.68,753.81,754.88,755.83,756.87,757.91,758.83,759.75,760.94,762.25,763.52,764.52,765.22,765.71,765.92,765.69,765.91,766.79,767.91,768.99,769.99,770.74,771.77,773.12,774.48,775.87,776.97,777.88,778.66,779.03,779.14,779.27,779.73,781.15,783.08,785.09,787.06,788.92,790.07,791.25,792.50,793.73,794.93,796.23,797.51,798.67,799.71,800.89,802.19,803.51,804.70,805.85,806.98,808.07,808.98,809.35,809.71,810.36,811.58,813.76,815.67,817.18,818.29,818.92,819.12,819.00,818.85,818.97,819.87,821.06,821.86,822.39,822.98,823.66,824.40,825.07,825.57,825.81,825.95,826.26,826.80,827.50,828.09,828.61,828.98,829.20,829.72,830.38,830.92,831.30,831.52,831.66,832.02,832.68,833.64,834.45,835.03,835.04,834.34,833.39,833.43,833.63,833.75,833.91,834.03,834.06,834.52,835.84,837.25,838.27,838.79,838.72,838.14,838.18,838.28,838.46,839.07,840.08,841.44,842.96,844.55,846.16,847.74,849.23
620.41,623.43,627.31,631.13,634.50,637.63,640.71,643.52,645.92,648.18,650.40,652.56,654.09,655.36,656.96,659.40,661.46,663.18,664.54,665.41,665.67,665.77,665.98,666.59,668.21,671.05,674.89,679.36,684.12,688.40,690.77,692.25,693.59,695.64,698.13,701.80,706.27,710.79,714.47,717.63,720.72,723.93,727.29,730.88,734.44,737.66,740.06,742.04,743.85,745.95,748.44,749.86,750.57,751.01,751.33,751.52,751.49,751.36,751.15,750.82,750.39,749.62,748.30,746.33,744.11,741.69,739.63,737.79,735.45,732.61,729.61,726.57,723.58,721.00,719.83,718.89,717.71,716.53,715.18,714.38,714.47,715.74,717.39,719.03,720.26,720.76,720.41,719.37,717.63,715.43,713.34,712.81,713.49,714.58,715.15,714.13,714.11,714.71,715.43,715.73,716.68,718.04,719.47,720.65,721.72,723.09,724.64,726.24,727.80,729.29,730.47,731.34,732.19,733.04,733.89,734.80,735.85,736.90,737.94,738.98,740.01,740.96,741.76,742.61,743.58,744.66,745.63,746.62,747.67,748.84,750.10,751.27,752.42,753.56,754.64,755.70,756.81,757.93,758.99,760.05,761.37,762.77,764.16,765.47,766.37,766.97,767.23,766.93,766.65,767.26,768.36,769.58,770.71,771.69,772.66,773.65,774.63,775.46,776.25,777.05,777.79,778.08,778.28,778.65,779.40,780.66,782.58,784.47,786.20,787.89,789.29,790.61,791.90,793.18,794.60,796.10,797.46,798.66,799.90,801.20,802.51,803.86,805.27,806.68,808.06,809.34,810.39,810.95,811.11,811.38,812.25,814.37,816.64,818.63,819.99,820.53,820.89,820.78,820.58,820.66,821.50,822.55,823.54,824.35,824.95,825.52,826.19,826.85,827.38,827.61,827.66,827.96,828.57,829.41,829.95,830.38,830.69,830.87,831.14,831.49,831.89,832.32,832.67,832.94,833.60,834.55,835.49,836.47,837.12,837.00,835.99,834.86,834.88,835.11,835.27,835.48,835.63,835.44,835.61,836.77,838.25,839.47,840.12,840.11,839.59,839.70,839.85,839.94,840.14,840.99,842.21,843.54,844.96,846.65,848.39,849.83
619.19,622.00,626.15,630.14,633.69,637.08,640.44,643.43,646.29,649.23,652.20,654.88,656.88,658.65,660.49,662.63,664.83,666.78,668.38,669.55,670.31,670.60,670.75,671.08,672.13,674.36,677.68,681.80,686.51,690.81,694.00,696.44,698.43,700.38,702.60,705.57,709.19,713.19,716.87,720.15,723.37,726.66,729.81,733.12,736.64,739.88,741.81,743.07,744.20,745.52,747.10,748.27,749.14,749.93,750.67,751.30,751.39,751.34,751.26,751.11,750.90,750.50,749.81,748.63,746.63,744.31,742.44,740.98,739.22,737.04,734.08,730.69,727.29,724.32,722.02,720.03,718.30,717.06,716.16,715.62,715.41,715.79,717.53,719.40,720.79,721.29,720.52,719.07,717.16,715.04,713.30,713.58,714.72,715.95,716.51,715.29,715.36,716.17,717.03,717.16,717.51,718.47,719.78,720.91,721.89,723.06,724.47,726.07,727.57,728.91,730.01,730.93,731.78,732.63,733.48,734.38,735.38,736.45,737.43,738.30,739.13,740.00,740.88,741.90,743.06,744.27,745.39,746.50,747.63,748.85,750.06,751.16,752.25,753.36,754.44,755.52,756.62,757.72,758.81,759.94,761.47,763.12,764.71,766.18,767.43,768.23,768.56,768.37,768.06,768.14,768.65,769.54,770.58,771.53,772.45,773.37,774.24,775.04,775.70,776.30,776.92,777.54,778.19,778.87,779.62,780.64,782.01,783.58,785.24,786.87,788.38,789.81,791.16,792.50,794.09,795.68,797.22,798.72,800.27,801.74,803.08,804.35,805.65,807.01,808.50,809.99,811.34,812.32,812.57,812.67,813.15,814.66,816.84,818.80,820.37,821.55,822.61,822.93,822.93,823.01,823.72,824.70,825.58,826.25,826.76,827.42,828.08,828.69,829.16,829.24,829.25,829.52,830.07,830.79,831.33,831.76,832.08,832.28,832.51,832.81,833.14,833.51,833.87,834.38,835.29,836.37,837.33,838.44,839.02,838.71,837.46,836.26,836.50,836.82,836.92,837.13,837.18,836.81,836.72,837.60,839.12,840.31,840.98,841.09,840.76,840.71,840.80,840.94,841.22,842.10,843.22,844.41,845.68,847.17,848.78,850.13
618.73,621.38,625.39,629.25,632.86,636.42,640.01,643.27,646.55,650.09,653.74,656.94,659.39,661.58,663.63,665.62,668.03,670.25,672.10,673.54,674.77,675.40,675.65,675.82,676.45,678.39,681.46,685.22,689.41,693.38,696.95,700.11,702.84,705.16,707.38,709.88,712.85,716.39,719.86,723.09,726.28,729.45,732.32,735.29,738.13,740.49,741.83,742.58,743.18,743.86,744.73,745.74,746.69,747.70,748.79,749.82,750.17,750.33,750.43,750.45,750.47,750.39,750.22,749.75,748.38,746.54,744.91,743.58,742.20,740.60,738.05,734.81,731.24,727.92,724.72,721.85,719.52,718.06,717.53,717.30,716.94,716.46,717.96,719.82,721.27,721.75,720.74,718.99,716.81,714.69,713.66,714.67,716.12,717.38,717.87,716.52,716.57,717.51,718.61,718.69,718.67,719.18,720.11,721.09,722.04,723.08,724.33,725.82,727.21,728.41,729.51,730.49,731.36,732.21,733.07,733.95,734.92,736.00,736.97,737.81,738.60,739.55,740.55,741.73,743.04,744.32,745.57,746.75,747.94,749.17,750.38,751.44,752.46,753.50,754.54,755.55,756.58,757.64,758.74,759.94,761.54,763.28,765.00,766.63,768.22,769.35,769.95,769.98,769.71,769.43,769.43,769.92,770.77,771.60,772.40,773.17,773.88,774.67,775.31,775.87,776.50,777.40,778.40,779.32,780.14,781.03,781.99,783.24,784.70,786.17,787.59,789.00,790.40,791.83,793.54,795.29,797.09,798.91,800.65,802.23,803.66,804.98,806.24,807.51,808.91,810.44,812.01,813.36,813.92,814.09,814.28,815.09,816.75,818.42,820.04,821.69,823.37,824.45,825.08,825.50,826.12,826.97,827.65,828.14,828.53,829.18,829.87,830.47,830.85,830.77,830.72,830.92,831.38,832.02,832.61,833.06,833.39,833.64,833.88,834.17,834.47,834.76,835.07,835.65,836.59,837.69,838.75,839.99,840.48,839.99,838.67,837.70,838.14,838.55,838.62,838.76,838.66,838.15,837.81,838.32,839.76,840.93,841.70,842.01,841.83,841.65,841.64,841.85,842.33,843.26,844.30,845.40,846.58,847.84,849.23,850.46
619.49,622.10,625.41,628.74,632.25,635.88,639.57,643.31,646.97,650.85,654.92,658.70,661.50,663.98,666.30,668.47,671.09,673.58,675.71,677.41,678.91,680.03,680.54,680.65,681.11,683.11,686.35,689.88,693.16,696.72,700.17,703.45,706.56,709.39,711.65,714.01,716.79,720.10,723.16,726.22,729.21,732.00,734.58,737.25,738.56,738.82,739.49,740.15,740.57,741.00,741.64,742.33,743.06,744.00,745.20,746.44,747.23,747.78,748.18,748.46,748.88,749.13,749.20,749.08,748.88,748.20,747.03,745.56,744.15,742.67,741.01,738.67,735.21,731.34,727.81,724.55,721.68,719.77,719.30,719.44,719.27,718.25,718.96,720.47,721.74,722.06,721.17,719.47,716.98,714.71,714.87,716.32,717.74,718.80,719.16,717.86,717.68,718.61,719.98,720.20,720.28,720.37,720.59,721.18,722.10,723.14,724.26,725.48,726.68,727.85,728.96,730.00,730.92,731.79,732.65,733.55,734.57,735.69,736.82,737.89,738.95,740.18,741.25,742.44,743.74,744.98,746.22,747.40,748.60,749.85,751.20,752.29,753.27,754.21,755.15,755.98,756.88,757.86,758.97,760.29,761.72,763.25,764.93,766.74,768.58,770.19,771.36,771.76,771.52,771.21,771.06,771.22,771.78,772.47,773.05,773.47,773.82,774.45,775.15,775.92,776.80,777.78,778.83,779.87,780.89,781.88,782.83,783.82,784.88,786.02,787.10,788.30,789.65,791.21,793.03,795.05,797.17,799.23,800.95,802.54,804.15,805.75,807.20,808.43,809.51,810.80,812.41,813.97,815.10,815.60,815.68,815.88,816.53,817.67,819.07,820.65,822.69,824.81,826.62,827.89,828.51,829.18,829.67,829.99,830.27,830.75,831.47,832.11,832.40,832.23,832.07,832.15,832.50,833.19,833.86,834.35,834.71,835.00,835.24,835.53,835.80,836.04,836.29,836.58,837.23,838.22,839.49,840.85,841.29,840.74,839.55,839.22,839.77,840.21,840.32,840.31,840.01,839.43,838.90,838.89,840.13,841.34,842.34,842.97,842.85,842.64,842.56,842.76,843.47,844.43,845.44,846.51,847.66,848.77,849.90,850.93
621.35,623.98,626.91,629.96,633.21,636.59,640.09,643.80,647.55,651.67,656.07,660.01,663.01,665.72,668.39,671.19,674.16,676.87,679.32,681.47,683.26,684.34,684.80,685.01,685.83,688.08,691.16,694.37,697.32,700.39,703.52,706.66,709.72,712.59,715.12,717.67,720.40,723.41,726.32,729.14,731.84,734.27,736.08,736.78,736.65,736.22,736.32,736.60,736.88,737.16,737.50,738.13,738.81,739.93,741.52,743.08,744.03,744.68,745.14,745.41,745.70,746.10,746.39,746.48,746.61,746.78,746.68,746.31,745.79,744.41,742.86,741.00,738.39,734.91,730.82,727.23,724.50,722.35,721.67,721.50,720.90,719.27,719.55,720.78,722.05,722.65,721.75,720.28,717.61,715.16,716.45,718.11,719.28,719.95,720.04,719.02,718.50,719.08,720.47,721.07,721.45,721.54,721.55,721.80,722.34,723.06,723.99,725.16,726.36,727.52,728.66,729.78,730.87,731.87,732.81,733.77,734.79,735.86,736.93,737.99,739.07,740.35,741.78,743.16,744.45,745.68,746.88,748.08,749.31,750.62,752.03,753.26,754.30,755.23,756.10,756.85,757.65,758.52,759.48,760.66,762.01,763.48,765.12,766.94,768.52,770.20,771.85,773.00,773.14,773.00,772.89,772.97,773.39,774.00,774.48,774.75,774.96,775.33,775.72,776.26,777.13,778.15,779.10,780.07,781.11,782.16,783.21,784.26,785.30,786.30,787.26,788.33,789.52,790.95,792.80,794.81,796.86,798.88,800.75,802.56,804.38,806.12,807.64,809.07,810.47,811.88,813.37,814.97,816.32,817.01,817.16,817.19,817.39,818.02,819.02,820.50,822.64,824.96,827.01,828.65,829.90,830.98,831.60,831.89,832.08,832.51,833.10,833.66,834.01,833.85,833.63,833.50,833.66,834.35,835.01,835.57,836.02,836.36,836.60,836.86,837.07,837.24,837.51,837.75,838.15,838.82,839.90,841.39,842.23,841.98,840.84,840.53,841.05,841.58,841.83,841.66,841.21,840.55,839.95,839.82,840.71,841.86,842.91,843.64,843.78,843.62,843.47,843.68,844.60,845.59,846.60,847.65,848.74,849.75,850.67,851.58
622.49,625.13,627.99,630.98,634.11,637.39,640.85,644.47,648.22,652.51,657.13,661.08,664.26,667.23,670.35,673.80,677.15,680.13,682.91,685.48,687.51,688.71,689.29,689.79,691.09,693.25,695.90,698.73,701.53,704.25,707.06,709.96,712.87,715.64,718.40,721.13,723.85,726.60,729.34,731.89,734.01,735.47,736.14,735.13,734.01,733.28,732.84,732.68,732.80,732.94,733.05,733.64,734.28,735.42,737.16,739.07,740.47,741.32,741.79,742.02,742.10,742.54,743.03,743.38,743.72,744.46,745.25,745.94,746.32,745.46,744.17,742.70,740.89,738.12,733.86,729.99,727.19,725.05,723.94,723.08,721.78,719.80,719.88,720.94,722.28,723.21,722.37,721.09,718.33,715.87,718.05,719.67,720.55,720.88,720.67,719.93,719.17,719.39,720.63,721.58,722.28,722.58,722.62,722.65,722.82,723.21,723.89,724.89,726.01,727.18,728.36,729.54,730.75,731.88,732.93,733.98,735.08,736.20,737.26,738.29,739.37,740.66,742.28,743.80,745.13,746.37,747.55,748.77,750.05,751.41,752.85,754.22,755.37,756.30,757.14,757.86,758.62,759.44,760.30,761.25,762.38,763.76,765.42,767.23,768.63,770.31,772.25,773.98,774.67,774.80,774.77,774.83,775.15,775.70,776.11,776.28,776.41,776.47,776.50,776.75,777.56,778.53,779.38,780.25,781.27,782.36,783.51,784.65,785.73,786.67,787.60,788.57,789.63,790.93,792.78,794.76,796.78,798.79,800.69,802.59,804.44,806.16,807.67,809.24,810.93,812.59,814.21,816.00,817.47,818.32,818.62,818.65,818.65,818.91,819.56,820.82,822.80,825.01,827.00,828.74,830.49,831.99,832.98,833.55,833.88,834.32,834.77,835.25,835.63,835.52,835.27,834.95,834.87,835.54,836.17,836.79,837.32,837.69,837.94,838.14,838.28,838.43,838.77,839.05,839.31,839.68,840.44,841.98,843.21,843.33,842.34,841.95,842.28,842.86,843.27,842.99,842.47,841.80,841.26,841.12,841.59,842.52,843.48,844.25,844.66,844.59,844.41,844.58,845.53,846.55,847.60,848.68,849.75,850.67,851.48,852.29
621.28,623.88,627.17,630.43,633.89,637.62,641.58,645.25,649.00,653.31,657.96,661.88,665.26,668.67,672.32,676.24,679.92,683.30,686.45,689.24,691.42,693.39,694.74,695.83,697.54,698.72,700.52,702.90,705.62,708.33,710.91,713.56,716.30,719.02,721.73,724.44,727.12,729.73,732.10,734.39,735.30,734.37,733.39,732.22,731.13,730.15,729.18,728.64,728.48,728.47,728.55,729.01,729.46,730.11,731.32,733.60,736.20,737.68,738.24,738.50,738.55,738.90,739.50,740.27,741.14,741.99,742.86,743.73,744.50,745.12,744.91,743.94,742.33,740.42,737.00,732.91,729.20,727.52,725.68,723.58,721.40,719.65,719.85,720.97,722.40,723.52,723.01,721.64,718.98,716.89,719.46,720.56,721.24,721.47,720.99,720.35,719.71,719.74,720.61,721.65,722.66,723.33,723.67,723.73,723.77,723.98,724.30,724.75,725.51,726.64,727.86,729.07,730.25,731.45,732.57,733.75,735.16,736.68,737.91,739.04,740.23,741.58,742.87,744.27,745.72,747.02,748.25,749.48,750.80,752.24,753.64,755.08,756.33,757.34,758.17,758.89,759.72,760.69,761.71,762.33,762.88,763.99,765.80,767.64,769.41,771.19,772.98,774.68,776.13,776.62,776.65,776.68,776.87,777.39,777.71,777.76,777.81,777.58,777.31,777.40,778.17,778.92,779.74,780.63,781.61,782.74,783.89,784.99,786.00,786.99,787.92,788.86,789.91,791.24,793.06,795.18,797.50,799.73,801.24,802.79,804.29,805.73,807.09,808.50,810.05,811.99,814.42,816.84,818.44,819.45,820.00,820.13,820.14,820.40,820.89,821.67,823.07,824.99,826.78,828.30,829.83,831.46,833.14,834.63,835.60,836.13,836.55,836.96,837.27,837.21,836.99,836.51,836.15,836.78,837.40,838.01,838.57,838.99,839.24,839.32,839.41,839.63,840.12,840.50,840.86,841.15,841.46,842.86,844.15,844.63,844.13,843.74,843.60,844.06,844.68,844.38,843.98,843.49,843.13,843.04,843.07,843.43,844.07,844.87,845.48,845.56,845.42,845.41,845.99,847.05,848.23,849.43,850.57,851.46,852.25,853.07
620.02,622.45,625.86,629.36,633.31,637.55,641.82,645.65,649.49,653.77,658.33,662.33,665.96,669.70,673.75,678.13,681.96,685.50,688.81,691.81,694.41,696.87,698.81,700.38,702.00,703.26,704.86,706.98,709.61,712.19,714.72,717.25,719.82,722.45,725.11,727.57,729.90,732.07,733.15,733.62,733.14,731.62,730.06,728.66,727.25,725.82,724.60,724.01,723.82,723.91,724.27,724.89,725.48,726.28,727.52,729.53,732.20,733.87,734.55,734.76,734.83,735.19,735.86,736.79,737.90,739.04,740.30,741.56,742.57,743.61,744.12,744.05,743.28,741.68,739.21,735.66,731.64,729.32,727.33,724.65,721.67,719.58,719.78,720.98,722.50,723.74,723.54,722.25,720.02,718.35,720.03,720.94,721.62,721.95,721.64,721.16,720.69,720.57,720.96,721.80,722.82,723.70,724.34,724.65,724.69,724.88,725.13,725.40,725.83,726.50,727.40,728.44,729.47,730.39,731.52,732.94,734.65,736.41,738.01,739.43,740.73,742.11,743.44,744.86,746.31,747.62,748.90,750.23,751.61,753.04,754.46,755.89,757.24,758.41,759.23,760.07,761.07,762.19,763.30,763.94,764.37,765.02,766.08,767.48,769.22,771.04,772.91,774.94,776.85,777.89,778.36,778.52,778.59,779.08,779.27,779.05,778.83,778.42,778.14,778.27,778.97,779.70,780.43,781.18,782.03,783.13,784.29,785.34,786.30,787.27,788.24,789.17,790.23,791.59,793.34,795.50,797.73,799.72,801.13,802.52,804.12,805.72,807.04,808.39,809.65,811.72,814.73,817.26,819.04,820.34,821.22,821.51,821.68,821.99,822.40,822.94,823.81,825.06,826.51,828.05,829.58,831.41,833.35,835.20,836.71,837.61,838.20,838.65,838.96,838.96,838.63,837.99,837.50,838.00,838.69,839.32,839.86,840.28,840.53,840.62,840.82,841.25,841.85,842.31,842.64,842.80,842.83,843.71,844.91,845.75,845.88,845.51,845.18,845.39,845.93,846.02,845.72,845.25,844.95,844.96,844.90,844.91,845.14,845.63,846.27,846.46,846.38,846.27,846.52,847.48,848.59,849.73,850.88,851.99,852.96,853.85
618.90,621.21,624.73,628.45,632.92,637.62,642.03,645.96,649.90,654.11,658.50,662.59,666.48,670.54,674.93,679.62,683.53,687.17,690.60,693.76,696.79,699.64,702.08,704.06,705.60,707.27,709.03,711.11,713.64,716.06,718.51,720.94,723.35,725.83,728.26,730.30,732.02,733.33,732.97,731.55,729.91,728.34,726.57,724.90,723.12,721.34,720.01,719.45,719.31,719.53,720.17,720.99,721.84,722.98,724.45,726.06,728.39,730.03,730.80,730.94,731.01,731.43,732.13,733.14,734.39,735.82,737.45,739.10,740.39,741.66,742.73,743.51,743.70,742.48,740.87,738.13,734.37,731.27,729.13,726.06,722.45,719.88,719.80,721.00,722.59,723.94,724.11,722.90,721.11,719.75,720.29,721.06,721.79,722.28,722.36,722.12,721.84,721.62,721.61,722.11,722.97,723.94,724.84,725.43,725.59,725.80,726.07,726.32,726.54,726.78,727.28,728.05,728.86,729.45,730.56,732.17,734.10,736.04,737.98,739.71,741.15,742.58,744.02,745.49,746.91,748.23,749.53,750.91,752.31,753.71,755.17,756.65,758.15,759.52,760.40,761.38,762.54,763.78,764.93,765.72,766.19,766.46,766.72,767.53,768.92,770.63,772.63,775.04,777.31,778.89,779.84,780.18,780.16,780.61,780.69,780.25,779.73,779.17,778.92,779.10,779.74,780.51,781.19,781.82,782.53,783.54,784.67,785.69,786.62,787.55,788.53,789.50,790.59,791.97,793.64,795.72,797.68,799.34,800.76,802.20,804.04,805.92,807.35,808.70,809.83,811.92,815.14,817.46,819.28,820.81,822.00,822.62,823.18,823.60,823.99,824.40,824.86,825.48,826.54,828.00,829.61,831.59,833.63,835.65,837.55,838.84,839.71,840.31,840.68,840.74,840.20,839.44,838.91,839.33,840.15,840.76,841.21,841.60,841.85,842.03,842.41,843.04,843.71,844.23,844.51,844.53,844.39,844.65,845.67,846.79,847.46,847.22,846.85,846.78,847.09,847.65,847.50,847.06,846.78,846.90,846.83,846.59,846.38,846.44,847.06,847.33,847.31,847.17,847.15,847.92,848.86,849.86,851.00,852.36,853.55,854.56
618.26,620.78,624.68,628.62,633.49,638.46,642.71,646.41,650.33,654.39,658.52,662.62,666.76,671.21,675.86,680.43,684.38,688.14,691.72,695.02,698.17,701.40,704.18,706.49,708.55,710.60,712.94,715.46,717.99,720.14,722.26,724.48,726.80,728.99,730.64,731.94,732.58,731.97,730.64,728.75,726.84,725.09,723.20,721.19,719.28,717.60,716.39,715.77,715.60,715.82,716.47,717.24,718.34,719.81,721.50,723.04,724.96,726.31,726.96,727.04,727.08,727.50,728.27,729.34,730.74,732.24,733.90,735.69,737.54,739.57,741.05,742.13,742.91,742.88,741.75,739.92,737.47,734.37,731.50,728.00,724.24,721.29,720.15,721.04,722.67,724.17,724.82,723.66,721.94,720.55,720.40,720.92,721.57,722.24,722.89,723.16,723.08,722.91,722.79,722.83,723.35,724.20,725.16,725.98,726.45,726.67,726.89,727.26,727.71,727.99,728.26,728.59,729.03,729.56,730.58,732.10,734.10,736.09,738.13,740.01,741.68,743.25,744.69,746.13,747.58,748.93,750.14,751.36,752.62,753.99,755.51,757.26,759.06,760.70,761.90,762.98,764.19,765.45,766.58,767.49,768.00,768.33,768.58,768.79,769.28,770.50,772.48,775.12,777.72,779.58,780.77,781.28,781.27,781.64,781.75,781.37,780.67,779.94,779.52,779.55,780.21,781.08,781.81,782.49,783.19,783.98,785.01,786.01,786.94,787.87,788.81,789.83,790.98,792.35,794.02,795.68,797.24,798.72,800.27,802.17,804.25,806.35,808.26,809.76,811.27,813.32,815.79,817.35,818.78,820.18,821.57,822.96,824.47,825.19,825.56,826.01,826.42,826.90,827.51,828.43,830.10,832.06,834.11,836.18,838.16,839.64,840.92,841.89,842.41,842.48,841.71,840.83,840.39,841.05,842.08,842.57,842.76,842.98,843.21,843.65,844.25,844.91,845.54,846.14,846.39,846.36,846.18,845.92,846.70,847.73,848.44,848.77,848.53,848.19,848.18,848.96,849.18,848.94,848.73,848.84,848.72,848.28,847.68,847.29,847.85,848.19,848.25,848.14,848.07,848.44,849.07,849.92,851.07,852.44,853.83,855.08
618.80,621.55,625.53,629.68,634.46,639.14,643.04,646.40,650.35,654.47,658.56,662.68,667.07,671.73,676.45,680.91,684.79,688.54,692.14,695.60,699.02,702.63,705.91,708.77,711.37,713.89,716.39,718.81,721.13,723.59,725.81,727.68,729.23,730.65,731.34,731.66,731.31,729.74,727.94,725.89,723.84,721.88,719.85,717.71,715.68,713.94,712.76,712.06,711.85,712.12,712.84,713.58,714.76,716.33,718.18,720.00,721.54,722.55,723.03,723.07,723.08,723.52,724.37,725.62,727.16,728.74,730.44,732.32,734.46,736.77,738.79,740.49,741.78,742.46,742.02,740.93,739.23,736.51,733.41,729.91,726.35,723.38,721.96,722.40,723.63,724.89,725.57,724.33,722.55,720.76,719.33,720.19,721.04,721.78,722.76,723.51,723.96,724.09,723.97,723.87,724.07,724.63,725.44,726.34,727.05,727.45,727.74,728.10,728.59,729.04,729.40,729.67,729.92,730.58,731.51,732.81,734.63,736.60,738.55,740.42,742.17,743.83,745.38,746.85,748.26,749.60,750.85,752.07,753.35,754.65,755.79,757.52,759.33,761.00,762.52,764.07,765.56,766.97,768.23,769.13,769.62,769.98,770.30,770.39,770.61,771.81,773.86,776.28,778.62,780.42,781.71,782.40,782.35,782.65,782.78,782.47,781.72,781.03,780.53,780.34,780.70,781.53,782.36,783.12,783.83,784.51,785.37,786.30,787.22,788.15,789.07,790.13,791.36,792.83,794.56,795.89,797.06,798.27,799.74,801.74,803.98,806.26,808.45,810.25,811.76,813.48,815.44,816.85,818.12,819.38,820.78,822.49,824.38,825.70,826.68,827.51,828.00,828.41,828.84,829.58,831.26,833.16,835.25,837.36,839.24,840.70,842.07,843.28,844.11,844.23,843.63,842.91,842.53,843.10,844.15,844.66,844.81,844.87,844.79,845.21,845.89,846.67,847.36,848.04,848.36,848.27,847.82,847.18,847.67,848.55,849.35,850.16,849.93,849.46,849.40,850.34,850.47,850.25,850.09,850.19,850.21,849.82,849.08,848.38,848.65,848.99,849.14,849.12,849.05,849.24,849.80,850.62,851.68,852.93,854.30,855.66
619.80,622.76,626.59,630.77,635.11,639.18,642.64,645.68,649.88,654.27,658.46,662.64,667.24,672.00,676.72,681.13,684.92,688.52,692.08,695.66,699.48,703.48,707.26,710.72,713.80,716.78,719.23,721.28,723.30,726.23,728.62,730.02,730.56,731.03,730.76,730.08,728.91,726.98,725.00,722.89,720.73,718.59,716.46,714.29,712.14,710.21,708.94,708.17,707.99,708.36,709.22,710.00,711.25,712.89,714.86,716.95,718.15,718.79,719.07,719.04,719.01,719.42,720.36,721.87,723.67,725.41,727.21,729.17,731.36,733.71,736.23,738.57,740.38,741.57,741.88,741.42,740.17,738.00,734.91,731.58,728.40,725.81,724.57,724.53,725.06,725.74,726.05,724.74,722.95,720.84,718.25,719.27,720.32,721.14,722.29,723.42,724.43,724.97,725.01,725.02,724.98,725.22,725.77,726.62,727.46,728.11,728.55,728.89,729.37,730.02,730.62,731.05,731.27,732.08,732.93,733.97,735.50,737.30,739.09,740.86,742.61,744.31,746.00,747.55,748.98,750.35,751.69,753.01,754.36,755.59,756.28,757.71,759.29,760.87,762.71,764.79,766.62,768.21,769.62,770.52,771.02,771.47,771.89,772.09,772.47,773.83,775.88,777.83,779.67,781.29,782.65,783.53,783.41,783.64,783.80,783.59,782.88,782.30,781.77,781.36,781.31,781.96,782.83,783.69,784.45,785.10,785.79,786.60,787.50,788.40,789.32,790.48,791.87,793.53,795.36,796.50,797.38,798.26,799.42,801.22,803.42,805.78,808.10,810.13,811.54,812.95,814.60,816.15,817.39,818.58,819.92,821.71,823.67,825.59,827.33,828.68,829.39,829.90,830.44,831.27,832.90,834.69,836.74,838.80,840.55,841.94,843.26,844.59,845.73,845.98,845.77,845.34,844.99,845.29,846.30,846.89,847.06,846.93,846.46,846.69,847.38,848.25,849.05,849.83,850.22,850.10,849.35,848.49,848.69,849.38,850.27,851.43,851.21,850.76,850.81,851.79,851.59,851.27,851.14,851.26,851.47,851.26,850.56,849.67,849.61,849.88,850.10,850.18,850.14,850.30,850.87,851.67,852.59,853.67,854.92,856.28
620.39,623.46,626.83,630.35,633.77,637.03,640.06,643.01,648.18,653.32,657.72,662.12,666.72,671.53,676.39,680.99,684.66,688.02,691.35,694.96,699.44,703.75,707.83,711.63,714.94,718.22,720.54,722.24,723.97,726.89,728.87,729.64,729.50,729.21,728.29,726.95,725.39,723.68,721.77,719.43,717.06,714.89,712.92,710.68,708.32,706.09,704.41,703.64,703.75,704.43,705.51,706.61,708.21,710.19,712.27,713.91,714.81,715.14,715.13,714.96,714.79,715.02,716.00,717.91,720.35,722.56,724.67,726.70,728.65,730.92,733.48,736.09,738.47,740.38,741.26,741.29,740.48,738.70,735.73,732.42,729.67,728.38,727.61,727.17,726.73,726.13,725.46,724.27,722.94,721.40,719.31,718.77,719.45,720.62,721.77,722.93,724.02,724.89,725.52,725.98,726.01,726.11,726.40,726.88,727.72,728.49,729.15,729.73,730.37,731.09,731.90,732.65,733.11,733.78,734.57,735.49,736.62,737.95,739.54,741.23,742.94,744.65,746.35,748.06,749.77,751.41,752.92,754.32,755.67,756.89,757.59,758.30,759.29,760.74,762.81,765.05,767.02,768.68,770.00,771.09,772.02,772.79,773.35,773.67,774.57,775.99,777.59,778.89,780.33,781.99,783.59,784.67,784.52,784.63,784.81,784.79,784.20,783.70,783.18,782.68,782.33,782.48,783.23,784.13,784.99,785.72,786.38,787.08,787.84,788.62,789.52,791.03,792.89,794.89,796.90,798.24,799.09,799.61,800.06,801.11,802.73,804.75,806.95,808.70,810.33,812.01,813.77,815.42,816.72,818.00,819.43,821.18,823.10,825.07,827.01,828.76,829.99,831.19,832.46,833.79,835.16,836.74,838.34,840.02,841.85,843.33,844.67,845.99,847.16,847.69,847.94,847.79,847.46,847.52,848.46,849.03,849.11,848.71,848.10,848.05,848.52,849.36,850.29,851.14,851.53,851.39,850.74,850.04,849.93,850.40,851.39,852.52,852.58,852.50,852.75,853.36,852.71,852.21,852.10,852.30,852.53,852.54,852.08,851.32,851.17,851.28,851.40,851.48,851.55,851.79,852.30,852.91,853.63,854.63,855.75,856.97
620.25,622.89,625.83,628.74,631.53,634.39,637.53,641.09,646.65,652.08,656.71,661.26,665.88,670.65,675.51,680.22,683.86,687.13,690.56,694.54,699.42,703.81,707.90,711.73,715.13,718.53,720.92,722.65,724.25,726.31,727.51,727.64,726.91,726.13,724.88,723.28,721.55,719.88,718.04,715.63,713.20,711.11,709.21,706.96,704.47,702.04,700.26,699.57,699.95,700.91,702.13,703.54,705.39,707.46,709.43,710.63,711.24,711.38,711.24,710.97,710.75,710.94,711.84,713.71,716.32,719.23,721.96,724.33,726.26,728.46,730.94,733.61,736.38,738.95,740.42,740.91,740.43,738.85,735.97,732.78,730.26,729.45,728.86,728.16,727.26,726.17,725.11,724.02,722.92,721.67,720.06,718.81,719.23,720.43,721.44,722.48,723.56,724.58,725.50,726.29,726.70,726.97,727.19,727.42,728.05,728.86,729.73,730.63,731.44,732.32,733.21,734.03,734.67,735.31,736.07,736.95,737.94,739.00,740.33,741.81,743.38,744.99,746.69,748.48,750.31,752.16,753.88,755.44,756.92,758.25,759.15,759.56,760.19,761.35,763.20,765.39,767.49,769.22,770.40,771.48,772.56,773.52,774.29,774.91,775.95,777.22,778.46,779.49,780.88,782.65,784.48,785.81,785.70,785.68,785.86,785.98,785.51,785.02,784.51,784.00,783.54,783.32,783.76,784.54,785.45,786.28,787.01,787.69,788.36,789.08,790.15,791.91,794.03,796.22,798.35,799.72,800.52,800.90,801.06,801.61,802.72,804.28,806.12,807.70,809.41,811.20,812.98,814.66,816.11,817.57,819.13,820.87,822.64,824.48,826.31,828.08,829.67,831.35,833.12,834.86,836.38,837.75,839.09,840.72,842.89,844.59,846.07,847.43,848.61,849.33,849.76,849.87,849.78,849.73,850.20,850.63,850.71,850.25,849.70,849.57,849.88,850.59,851.49,852.35,852.74,852.60,851.95,851.30,851.04,851.42,852.50,853.59,854.07,854.31,854.51,854.67,853.79,853.29,853.26,853.52,853.79,853.93,853.86,853.62,853.39,853.05,852.91,852.95,853.05,853.30,853.75,854.27,854.86,855.68,856.68,857.80
619.56,621.48,623.94,626.39,628.92,631.85,635.52,639.99,645.36,650.62,655.47,660.11,664.76,669.44,674.21,678.94,682.63,686.00,689.77,694.28,699.35,703.66,707.59,711.28,714.68,718.05,720.61,722.58,724.07,724.84,725.13,724.63,723.47,722.38,721.04,719.42,717.64,715.87,714.06,711.71,709.38,707.37,705.45,703.14,700.53,698.03,696.43,695.88,696.51,697.69,698.99,700.61,702.61,704.63,706.31,707.17,707.51,707.56,707.40,707.09,706.90,707.14,707.92,709.48,711.92,715.42,718.90,721.87,724.10,726.29,728.66,731.30,734.30,737.35,739.40,740.36,740.13,738.60,735.87,732.84,730.40,729.45,728.83,727.97,726.98,725.97,724.95,723.94,722.87,721.71,720.47,719.21,719.48,720.48,721.29,722.15,723.16,724.18,725.17,726.14,727.03,727.64,727.99,728.15,728.47,729.24,730.26,731.37,732.37,733.41,734.31,735.07,735.86,736.60,737.38,738.28,739.36,740.31,741.38,742.59,743.95,745.43,747.11,748.85,750.66,752.64,754.56,756.34,758.02,759.54,760.69,761.20,761.69,762.49,763.86,765.80,767.95,769.77,770.79,771.75,772.81,773.86,774.86,775.81,776.76,777.76,778.78,779.82,781.45,783.38,785.38,786.95,786.89,786.78,786.93,787.14,786.76,786.26,785.77,785.30,784.82,784.37,784.43,784.96,785.85,786.76,787.62,788.36,789.04,789.92,791.33,793.20,795.30,797.46,799.58,800.88,801.65,802.08,802.26,802.56,803.27,804.34,805.71,807.24,808.92,810.66,812.38,814.11,815.71,817.38,819.11,820.83,822.41,824.06,825.69,827.26,829.03,830.94,832.93,834.96,836.85,838.06,839.31,841.10,843.69,845.69,847.42,848.90,850.06,850.90,851.36,851.72,851.97,851.88,851.75,851.95,852.08,851.74,851.40,851.31,851.50,852.01,852.78,853.60,853.94,853.75,853.06,852.37,852.06,852.45,853.58,854.67,855.60,856.06,856.09,855.78,854.81,854.42,854.55,854.93,855.25,855.41,855.80,856.28,855.94,855.00,854.54,854.53,854.62,854.81,855.19,855.69,856.24,856.83,857.71,858.73
618.63,619.97,621.70,623.99,627.10,630.86,635.24,639.98,644.37,648.94,653.80,658.54,663.24,667.84,672.47,677.13,681.13,684.91,688.99,693.69,698.87,703.12,706.94,710.55,713.92,717.09,719.68,721.55,722.47,722.60,722.36,721.57,720.29,719.04,717.63,716.02,714.24,712.36,710.42,708.34,706.20,704.09,701.99,699.18,696.30,693.86,692.58,692.36,693.18,694.46,695.80,697.37,699.50,701.50,702.95,703.63,703.77,703.73,703.64,703.51,703.37,703.63,704.42,705.86,708.09,711.03,714.81,718.89,722.05,724.47,726.99,729.75,732.70,735.61,738.08,739.54,739.61,738.10,735.77,732.96,730.51,729.44,728.65,727.72,726.72,725.71,724.70,723.70,722.70,721.71,720.73,719.74,719.82,720.56,721.38,722.23,723.10,724.00,724.95,725.86,726.86,727.74,728.40,728.83,729.11,729.70,730.45,731.27,732.30,733.33,734.33,735.30,736.33,737.30,738.24,739.30,740.53,741.50,742.46,743.59,744.92,746.28,747.77,749.29,750.92,752.88,754.86,756.83,758.68,760.27,761.51,762.49,763.20,763.82,764.79,766.09,767.97,769.80,770.89,771.89,772.98,774.13,775.25,776.21,777.14,778.11,779.14,780.34,782.32,784.47,786.54,788.07,788.01,787.81,787.92,788.16,787.92,787.48,787.00,786.51,785.94,785.37,785.20,785.47,786.19,787.11,788.06,788.91,789.97,791.81,793.79,795.40,796.95,798.70,800.36,801.64,802.61,803.25,803.42,803.66,804.16,804.99,806.20,807.70,809.22,810.86,812.68,814.57,816.17,817.96,819.86,821.42,822.92,824.67,826.46,828.09,829.74,831.46,833.34,835.37,837.31,838.58,839.80,841.50,844.09,846.50,848.63,850.33,851.49,852.35,853.02,853.63,854.06,853.97,853.76,853.68,853.68,853.72,853.75,853.63,853.62,853.89,854.54,855.23,855.33,854.91,854.22,853.52,853.18,853.53,854.64,855.77,856.82,857.42,857.46,856.86,855.76,855.36,855.69,856.55,857.01,856.99,857.58,858.61,858.13,856.77,856.18,856.24,856.27,856.29,856.59,857.06,857.61,858.20,858.87,859.68
617.80,618.80,620.08,622.34,625.92,630.23,634.77,639.26,642.76,646.87,651.88,656.77,661.55,666.11,670.61,675.24,679.64,683.87,688.26,693.03,698.08,702.30,706.08,709.61,712.86,715.81,718.19,719.77,720.25,720.04,719.42,718.41,717.10,715.77,714.33,712.73,710.94,708.98,706.98,705.01,702.85,700.37,697.74,694.83,692.27,690.38,689.54,689.52,690.34,691.50,692.70,694.10,696.11,697.94,699.23,699.92,700.03,699.97,699.91,699.86,699.70,699.96,700.80,702.38,704.75,707.60,711.43,715.88,719.82,722.73,725.50,728.37,731.32,734.12,736.69,738.52,739.01,737.43,735.34,732.84,730.56,729.35,728.45,727.51,726.54,725.59,724.61,723.65,722.71,721.81,721.02,720.29,720.20,720.65,721.48,722.33,723.14,724.02,725.00,726.00,726.92,727.76,728.52,729.17,729.68,730.26,730.84,731.42,732.27,733.17,734.16,735.27,736.44,737.56,738.64,739.83,741.22,742.36,743.48,744.67,745.94,747.26,748.61,750.04,751.61,753.45,755.34,757.26,759.09,760.67,761.96,763.22,764.22,764.99,765.90,766.84,768.31,769.89,771.03,772.12,773.28,774.47,775.60,776.54,777.44,778.39,779.47,780.96,783.23,785.60,787.71,789.12,789.07,788.84,788.91,789.17,789.07,788.67,788.16,787.59,786.98,786.41,786.17,786.23,786.64,787.46,788.45,789.70,791.49,794.19,796.52,797.86,798.87,800.08,801.33,802.51,803.57,804.37,804.63,804.85,805.26,805.91,806.86,808.16,809.66,811.42,813.44,815.38,816.98,818.72,820.53,822.08,823.62,825.49,827.43,829.17,830.73,832.30,834.02,835.91,837.79,839.19,840.62,842.42,844.84,847.29,849.55,851.40,852.75,853.84,854.74,855.56,856.13,856.01,855.80,855.40,855.26,855.73,856.17,856.05,855.82,855.82,856.38,856.78,856.68,856.18,855.48,854.76,854.25,854.50,855.68,856.83,857.93,858.65,858.77,857.95,856.76,856.27,856.68,857.86,858.59,858.56,859.08,860.09,859.76,858.34,857.75,857.90,857.99,857.85,858.05,858.46,858.98,859.59,860.16,860.87
617.20,618.08,619.20,621.47,625.27,629.63,633.76,637.60,640.50,644.48,649.78,654.87,659.78,664.34,668.76,673.37,678.19,682.86,687.53,692.31,697.02,701.22,705.00,708.45,711.50,714.20,716.20,717.37,717.56,717.23,716.33,715.16,713.86,712.54,711.08,709.47,707.67,705.66,703.59,701.52,699.09,696.12,692.91,690.38,688.67,687.67,687.27,687.34,687.98,688.87,689.81,690.96,692.57,694.07,695.22,696.04,696.27,696.27,696.20,696.10,695.90,696.10,697.06,699.06,701.94,705.26,708.98,713.08,717.49,721.08,724.13,727.09,730.12,732.91,735.31,737.35,738.35,736.67,734.63,732.50,730.55,729.20,728.28,727.37,726.46,725.59,724.66,723.80,722.92,722.08,721.40,720.88,720.63,720.81,721.57,722.40,723.24,724.19,725.31,726.54,727.30,727.90,728.52,729.26,730.15,730.87,731.46,731.97,732.49,733.16,734.03,735.10,736.30,737.46,738.61,739.89,741.39,742.83,744.30,745.67,746.90,748.22,749.54,751.02,752.61,754.26,755.97,757.65,759.27,760.79,762.11,763.42,764.69,765.91,767.04,767.98,769.02,770.14,771.29,772.49,773.71,774.87,775.93,776.86,777.73,778.64,779.79,781.63,784.08,786.63,788.78,790.06,790.05,789.85,789.91,790.16,790.17,789.79,789.20,788.56,787.98,787.49,787.30,787.20,787.25,787.86,788.88,790.75,793.45,796.66,799.08,800.27,800.91,801.57,802.56,803.58,804.59,805.44,805.88,806.10,806.48,807.01,807.63,808.61,810.16,812.17,814.43,816.35,818.05,819.60,821.12,822.76,824.41,826.34,828.35,830.20,831.78,833.30,834.88,836.57,838.33,839.96,841.83,843.91,846.08,848.16,850.22,852.14,853.82,855.31,856.43,857.42,858.12,857.98,857.76,857.07,856.78,857.60,858.46,858.38,857.97,857.74,858.17,858.19,857.97,857.54,856.83,856.06,855.27,855.37,856.66,857.86,858.96,859.76,859.97,859.01,857.77,857.21,857.56,858.83,859.94,860.11,860.34,860.86,860.91,859.73,859.22,859.43,859.72,859.46,859.57,859.92,860.37,860.96,861.57,862.27
617.30,618.08,619.18,621.13,624.56,628.37,631.73,635.03,638.07,642.26,647.70,653.06,658.14,662.82,667.31,671.87,676.72,681.53,686.36,691.17,695.68,699.71,703.39,706.77,709.69,712.12,713.88,714.79,714.63,714.13,713.07,711.85,710.64,709.43,707.82,706.08,704.25,702.17,699.65,696.99,694.29,691.68,689.51,687.73,686.38,685.50,685.17,685.29,685.91,686.76,687.62,688.54,689.55,690.53,691.37,692.00,692.41,692.55,692.49,692.35,692.13,692.20,693.51,696.50,700.02,703.67,707.45,711.42,715.72,719.66,722.99,726.08,729.14,731.87,734.25,736.38,737.59,736.17,734.27,732.25,730.42,729.16,728.25,727.35,726.45,725.59,724.72,723.94,723.25,722.64,722.10,721.66,721.29,721.25,721.80,722.49,723.31,724.33,725.57,726.81,727.88,728.63,729.14,729.62,730.38,731.19,732.00,732.74,733.23,733.77,734.31,734.99,736.08,737.22,738.42,739.71,741.16,742.67,744.21,745.78,747.32,748.64,750.00,751.43,752.90,754.40,756.02,757.66,759.25,760.75,762.08,763.40,764.74,766.10,767.43,768.65,769.79,770.86,771.88,772.96,774.16,775.28,776.25,777.18,778.09,779.00,780.21,782.23,784.56,787.12,789.30,790.51,790.70,790.70,790.81,791.01,790.95,790.57,790.05,789.51,789.00,788.58,788.38,788.21,788.13,788.53,789.78,791.93,794.69,797.57,799.73,801.21,802.24,802.97,803.82,804.79,805.72,806.52,807.10,807.38,807.63,808.08,808.84,809.65,810.83,812.62,814.98,817.17,819.22,820.91,822.33,823.71,825.19,827.02,828.97,830.82,832.53,834.16,835.80,837.46,839.15,841.39,843.70,845.93,847.95,849.44,851.13,852.92,854.66,856.30,857.71,858.87,859.63,859.63,859.36,858.64,858.21,858.73,859.82,860.18,859.95,859.49,859.51,859.43,859.24,858.84,858.12,857.28,856.38,856.31,857.43,858.79,859.94,860.67,860.72,859.64,858.44,858.04,858.51,859.83,861.12,861.49,861.71,862.00,862.00,860.93,860.48,860.78,861.28,861.07,861.12,861.44,861.93,862.46,863.05,863.73
617.81,618.38,619.28,620.97,623.94,627.12,629.77,632.63,636.11,640.66,646.12,651.62,656.78,661.51,666.00,670.50,675.27,680.09,684.95,689.80,694.12,698.00,701.50,704.69,707.51,709.80,711.36,712.05,711.67,711.02,709.88,708.68,707.53,706.29,704.56,702.63,700.58,698.23,695.43,692.74,690.29,688.23,686.84,685.52,684.33,683.42,683.10,683.26,683.90,684.74,685.55,686.25,686.90,687.56,688.22,688.81,689.45,689.72,689.68,689.56,689.42,689.67,691.43,695.06,698.74,702.42,706.18,710.10,714.22,718.36,721.93,725.18,728.29,731.04,733.33,735.41,736.76,735.76,734.00,732.06,730.31,729.15,728.25,727.36,726.50,725.73,725.01,724.36,723.81,723.35,722.89,722.48,722.05,721.85,722.18,722.73,723.44,724.45,725.71,726.95,728.25,729.19,729.80,730.29,730.96,731.71,732.53,733.35,733.97,734.51,734.88,735.24,736.05,737.02,738.16,739.44,740.85,742.36,743.96,745.70,747.46,748.92,750.32,751.71,753.11,754.53,756.08,757.63,759.18,760.69,762.02,763.35,764.70,766.09,767.53,768.91,770.16,771.29,772.33,773.39,774.59,775.68,776.62,777.56,778.49,779.53,780.91,783.01,785.19,787.57,789.60,790.77,791.26,791.50,791.72,791.91,791.77,791.38,790.94,790.49,790.03,789.62,789.35,789.13,788.99,789.30,790.76,792.93,795.38,797.63,799.61,801.37,802.83,803.92,804.98,805.94,806.80,807.56,808.25,808.65,808.84,809.17,810.03,810.82,811.72,813.31,815.67,817.86,819.96,821.88,823.56,824.98,826.30,827.80,829.46,831.23,833.02,834.78,836.52,838.27,840.09,842.82,845.53,847.87,849.66,850.75,852.09,853.69,855.45,857.13,858.65,859.85,860.64,860.87,860.61,860.01,859.59,859.84,860.83,861.57,861.58,861.01,860.76,860.64,860.46,860.11,859.41,858.39,857.45,857.36,858.46,859.91,861.10,861.63,861.35,860.14,859.05,858.89,859.50,860.68,862.00,862.58,862.88,863.08,863.03,862.07,861.73,862.12,862.81,862.71,862.74,863.02,863.51,863.99,864.55,865.18
618.70,618.94,619.45,621.02,623.57,626.17,628.32,630.89,635.01,639.97,645.33,650.75,655.80,660.43,664.83,669.21,673.88,678.55,683.35,688.17,692.35,696.16,699.39,702.21,704.93,707.23,708.62,709.11,708.73,707.95,706.86,705.72,704.55,703.08,701.27,699.08,696.58,693.82,691.13,689.23,687.67,686.17,684.78,683.46,682.29,681.40,681.09,681.29,681.94,682.73,683.44,683.96,684.61,685.28,685.98,686.85,687.73,688.09,688.10,688.11,688.19,689.05,691.29,694.90,698.06,701.43,705.06,708.90,712.95,717.15,720.93,724.35,727.56,730.50,732.56,734.44,735.88,735.40,733.79,731.94,730.28,729.15,728.27,727.43,726.67,726.07,725.61,725.13,724.65,724.19,723.73,723.27,722.86,722.61,722.71,723.14,723.70,724.54,725.70,726.92,728.22,729.31,730.26,731.20,731.96,732.53,733.07,733.73,734.56,735.26,735.71,735.99,736.35,736.96,737.91,739.12,740.51,742.00,743.74,745.57,747.40,749.11,750.57,751.96,753.37,754.83,756.25,757.67,759.14,760.64,761.97,763.33,764.69,766.03,767.42,768.75,770.01,771.25,772.51,773.73,774.96,776.05,777.01,778.00,778.95,780.23,781.92,783.99,786.08,788.07,789.72,790.85,791.71,792.25,792.66,792.91,792.69,792.34,791.94,791.52,791.07,790.61,790.24,789.94,789.83,790.18,791.78,793.76,795.63,797.13,799.04,800.90,802.65,804.31,805.96,806.97,807.76,808.54,809.29,809.90,810.11,810.31,811.07,812.00,812.89,814.40,816.63,818.37,820.13,822.27,824.60,826.57,827.85,828.79,829.89,831.49,833.31,835.14,836.97,838.87,841.08,844.04,847.02,849.48,850.93,851.95,853.06,854.48,856.21,857.82,859.21,860.29,861.11,861.66,861.51,861.13,860.92,861.13,861.65,862.53,862.77,862.30,862.00,861.82,861.62,861.30,860.67,859.37,858.42,858.54,859.88,861.28,862.48,862.68,861.89,860.59,859.67,859.85,860.56,861.37,862.56,863.30,863.75,864.00,864.00,863.18,862.99,863.51,864.30,864.39,864.45,864.67,865.07,865.54,866.07,866.63
619.74,619.97,620.67,622.16,624.30,626.59,628.87,631.79,635.99,640.85,645.97,650.95,655.20,659.51,663.88,668.10,672.48,677.02,681.66,686.30,690.65,694.50,697.50,699.92,702.32,704.47,705.62,705.99,705.75,705.04,703.98,702.83,701.53,699.63,697.51,695.15,692.75,690.52,688.53,686.98,685.59,684.20,682.82,681.56,680.63,680.04,679.80,680.02,680.45,680.90,681.28,681.70,682.37,683.20,684.13,685.05,686.02,686.55,686.72,686.91,687.69,688.94,691.10,694.25,697.21,700.40,703.93,707.71,711.68,715.95,719.89,723.55,727.01,730.23,732.53,734.29,735.39,735.11,733.69,731.96,730.38,729.28,728.54,727.90,727.32,726.80,726.36,725.94,725.50,725.04,724.58,724.11,723.67,723.31,723.20,723.63,724.16,724.81,725.62,726.60,727.81,728.85,729.74,730.71,731.83,732.88,733.80,734.57,735.20,735.85,736.46,736.97,737.26,737.60,738.07,738.86,740.18,741.83,743.64,745.51,747.39,749.20,750.70,752.14,753.57,755.00,756.43,757.86,759.31,760.74,762.06,763.40,764.75,766.11,767.45,768.77,770.03,771.29,772.60,773.85,775.08,776.24,777.30,778.35,779.44,780.86,782.58,784.45,786.31,788.08,789.61,790.81,791.76,792.67,793.40,793.78,793.56,793.27,792.95,792.57,792.11,791.68,791.39,791.18,791.14,791.56,793.28,795.32,797.24,798.82,800.00,801.38,802.96,804.72,806.55,807.78,808.66,809.41,810.22,811.03,811.39,811.68,812.41,813.30,814.13,815.35,817.04,818.60,820.40,822.70,825.30,827.66,829.29,830.15,830.93,832.19,833.94,835.79,837.55,839.33,841.50,844.49,847.59,850.12,851.43,852.60,853.89,855.33,856.84,858.21,859.50,860.58,861.52,862.34,862.47,862.42,862.43,862.62,862.94,863.47,863.70,863.54,863.27,863.03,862.79,862.36,861.37,859.97,859.26,859.61,861.01,862.47,863.55,863.46,862.38,861.19,860.80,861.28,861.93,862.29,863.19,864.06,864.63,864.87,864.97,864.33,864.24,864.84,865.70,865.89,866.10,866.33,866.60,867.09,867.63,868.12
621.10,621.49,622.39,623.80,625.57,627.66,630.23,633.52,637.59,642.13,646.87,651.27,654.84,658.74,662.91,666.98,671.12,675.56,680.04,684.47,688.90,692.81,695.67,697.79,699.88,701.72,702.59,702.85,702.78,702.20,701.13,699.93,698.51,696.26,693.92,691.60,689.50,687.89,686.45,685.06,683.66,682.29,681.11,680.06,679.39,679.05,678.89,679.12,679.38,679.56,679.71,679.99,680.58,681.43,682.46,683.39,684.36,685.06,685.55,686.09,687.38,688.81,690.75,693.44,696.33,699.39,702.83,706.58,710.48,714.79,718.91,722.83,726.57,730.06,732.50,734.12,734.92,734.76,733.51,731.93,730.46,729.44,728.85,728.38,727.92,727.46,727.01,726.62,726.19,725.73,725.28,724.82,724.37,723.95,723.74,724.17,724.71,725.21,725.73,726.47,727.47,728.37,729.19,730.16,731.54,732.97,734.24,735.23,735.86,736.50,737.19,737.85,738.26,738.52,738.63,738.96,739.98,741.71,743.56,745.46,747.38,749.23,750.79,752.27,753.74,755.16,756.63,758.09,759.52,760.89,762.21,763.53,764.87,766.22,767.52,768.79,770.02,771.27,772.56,773.82,775.09,776.34,777.52,778.64,779.88,781.38,783.04,784.71,786.37,788.00,789.50,790.77,791.80,792.98,793.99,794.57,794.43,794.20,793.92,793.58,793.18,792.85,792.66,792.55,792.57,793.02,794.81,796.87,798.84,800.55,801.27,802.24,803.61,805.28,807.07,808.49,809.55,810.36,811.19,812.07,812.63,813.08,813.80,814.60,815.38,816.32,817.51,818.99,820.91,823.24,825.83,828.38,830.26,831.29,832.04,833.07,834.72,836.45,838.06,839.64,841.62,844.33,847.33,849.88,851.26,852.62,854.21,855.81,857.25,858.50,859.74,860.86,861.89,862.93,863.39,863.62,863.80,864.00,864.23,864.47,864.68,864.76,864.54,864.24,863.93,863.35,862.14,860.79,860.34,860.84,862.21,863.70,864.51,864.14,862.94,861.90,862.09,862.86,863.41,863.39,864.00,864.90,865.52,865.75,865.92,865.45,865.54,866.22,867.07,867.30,867.56,867.81,868.07,868.65,869.27,869.79
623.00,623.71,624.57,625.84,627.36,629.36,632.14,635.52,639.34,643.41,647.53,651.28,654.69,658.12,661.76,665.74,669.84,674.22,678.59,682.81,687.02,690.99,693.87,695.88,697.76,699.08,699.62,699.80,699.83,699.44,698.29,696.99,695.51,693.19,690.92,688.93,687.29,686.01,684.58,683.18,681.77,680.50,679.85,679.28,678.81,678.48,678.36,678.60,678.86,679.08,679.26,679.34,679.64,680.21,681.00,681.92,682.80,683.70,684.68,685.85,687.11,688.42,690.14,692.52,695.46,698.43,701.80,705.54,709.45,713.71,718.05,722.27,726.25,729.93,732.16,733.55,734.31,734.29,733.14,731.72,730.45,729.61,729.09,728.66,728.24,727.79,727.39,727.00,726.57,726.13,725.72,725.27,724.85,724.51,724.37,724.76,725.29,725.80,726.29,726.86,727.44,728.16,729.06,730.14,731.50,732.80,734.06,735.32,736.49,737.34,737.91,738.40,739.13,739.61,739.73,739.73,740.08,741.61,743.47,745.40,747.33,749.22,750.83,752.37,753.88,755.34,756.86,758.31,759.71,761.08,762.40,763.70,765.02,766.32,767.56,768.69,769.85,771.04,772.29,773.59,774.99,776.37,777.65,778.88,780.22,781.70,783.27,784.83,786.39,787.95,789.44,790.79,792.00,793.23,794.39,795.26,795.36,795.13,794.83,794.54,794.30,794.17,794.07,793.99,794.00,794.44,796.13,798.04,799.81,801.34,802.40,803.43,804.65,806.14,807.61,809.10,810.44,811.49,812.23,813.02,813.75,814.44,815.14,815.86,816.62,817.42,818.38,819.84,821.79,823.96,826.25,828.61,830.42,831.82,832.97,834.06,835.57,837.01,838.35,839.72,841.41,843.40,845.92,848.43,850.21,851.70,853.61,855.55,857.27,858.71,860.03,861.17,862.23,863.39,864.17,864.56,864.80,865.08,865.32,865.60,865.87,865.99,865.77,865.48,865.02,864.32,863.28,862.22,861.95,862.48,863.72,865.11,865.40,864.76,863.62,862.79,863.46,864.49,865.02,864.74,865.10,865.86,866.43,866.66,866.85,866.54,866.88,867.73,868.44,868.62,868.68,868.91,869.45,870.24,871.11,871.83
623.79,624.85,625.93,627.20,628.64,630.62,633.42,636.47,639.78,643.34,646.94,650.11,653.30,656.60,660.18,664.26,668.46,672.81,677.13,681.30,685.32,689.27,692.13,694.07,695.81,696.73,697.14,697.36,697.44,697.02,695.69,694.16,692.56,690.54,688.57,686.79,685.23,683.88,682.60,681.45,680.42,679.60,679.11,678.68,678.27,677.96,677.88,678.06,678.29,678.52,678.73,678.82,679.14,679.64,680.30,681.14,681.99,683.00,684.22,685.64,687.01,688.28,689.81,691.96,694.83,697.73,700.98,704.62,708.61,712.98,717.45,721.74,725.66,729.52,731.52,732.77,733.63,733.72,732.71,731.37,730.21,729.63,729.25,728.86,728.43,728.01,727.62,727.20,726.78,726.36,725.94,725.62,725.34,725.13,725.07,725.26,725.81,726.44,727.01,727.55,728.03,728.58,729.30,730.33,731.49,732.65,733.87,735.18,736.45,737.55,738.47,739.24,739.96,740.57,740.73,740.72,740.98,741.90,743.46,745.30,747.26,749.17,750.79,752.31,753.80,755.24,756.76,758.26,759.70,761.06,762.26,763.39,764.56,765.79,766.98,768.11,769.23,770.39,771.63,772.90,774.38,775.91,777.42,778.89,780.30,781.75,783.25,784.71,786.17,787.67,789.16,790.60,791.89,793.16,794.42,795.55,796.23,796.13,795.86,795.64,795.58,795.75,795.74,795.65,795.56,795.66,797.03,798.74,800.40,801.85,803.16,804.38,805.64,806.99,808.30,809.73,811.16,812.44,813.30,814.09,814.81,815.50,816.21,817.01,817.83,818.61,819.47,820.90,822.85,824.98,827.13,829.19,830.88,832.29,833.53,834.70,836.06,837.33,838.56,839.90,841.60,843.43,845.65,847.91,849.71,851.43,853.50,855.50,857.16,858.57,859.89,861.13,862.33,863.62,864.71,865.27,865.59,865.89,866.16,866.50,866.82,867.04,866.89,866.64,866.28,865.73,864.89,864.00,863.93,864.52,865.59,866.60,866.41,865.55,864.46,863.81,864.94,866.13,866.62,866.20,866.22,866.82,867.32,867.52,867.72,867.57,868.15,869.19,869.93,870.00,869.99,870.23,870.90,871.96,873.01,873.94
