652.38,652.76,653.16,653.59,653.99,654.39,654.78,655.13,655.50,655.88,656.27,656.65,656.98,657.33,657.72,658.11,658.49,658.86,659.21,659.57,660.05,660.46,660.84,661.11,661.01,660.73,660.42,660.09,659.71,659.23,658.80,658.39,657.98,657.63,657.56,657.84,658.30,658.76,659.17,659.65,660.01,660.30,661.15,662.45,663.90,665.29,666.46,667.59,669.17,670.64,671.53,672.65,673.87,675.16,676.43,677.48,678.53,679.71,681.06,682.66,684.68,686.70,688.88,691.28,693.54,695.71,696.58,696.09,694.68,692.58,690.25,687.77,685.45,684.86,686.22,688.75,691.78,694.13,696.49,699.19,702.65,707.28,711.25,714.46,717.29,719.92,722.22,724.54,726.85,728.90,730.20,730.95,731.15,731.30,731.92,733.04,734.40,736.08,738.02,739.86,741.41,742.66,743.75,744.84,745.72,746.63,747.44,747.80,746.98,745.60,744.28,743.18,742.08,740.36,737.58,733.85,729.14,723.70,718.48,714.44,712.44,713.36,716.57,719.69,721.87,722.59,721.94,723.59,727.35,732.89,739.59,745.97,751.75,756.91,761.55,765.89,771.26,776.88,781.65,785.92,788.53,790.54,792.51,794.56,795.72,795.74,794.46,791.23,785.66,781.28,778.37,776.84,776.43,777.67,779.99,783.20,787.44,792.70,797.92,802.47,806.01,809.92,813.53,817.24,821.05,824.21,827.26,831.21,835.89,840.59,844.65,848.98,853.37,857.87,863.84,871.59,879.38,886.91,894.89,900.92,905.59,909.61,913.51,917.44,919.84,921.31,922.25,923.08,923.93,924.70,925.72,927.51,928.81,929.19,929.22,929.38,929.88,930.00,929.09,927.35,926.03,925.34,925.90,926.60,926.04,925.62,925.82,927.36,930.12,931.90,932.63,932.64,932.71,934.03,935.49,937.33,939.39,941.65,944.42,947.59,950.23,952.25,954.36,956.47,958.22,959.61,960.44,959.61,955.18,948.72,942.27,939.98,943.82,949.39,954.80,959.30,962.75,965.44,967.24,967.95,968.61,968.99,969.13,969.19,969.40,969.25,969.04,968.67,967.95,967.58,968.14,969.22,970.30,970.62,974.59,979.31
652.50,652.89,653.28,653.67,654.07,654.48,654.92,655.31,655.69,656.08,656.46,656.84,657.16,657.52,657.91,658.30,658.68,659.02,659.36,659.75,660.14,660.53,660.90,661.20,661.22,660.98,660.68,660.37,660.04,659.65,659.21,658.76,658.32,657.95,657.88,658.15,658.61,659.07,659.53,660.29,660.95,661.38,662.19,663.61,665.13,666.57,667.87,668.82,669.80,670.76,671.60,672.43,673.45,674.59,675.77,676.82,677.83,678.85,679.89,681.11,683.08,685.48,688.04,690.55,692.56,694.25,694.44,693.33,692.00,690.10,687.81,685.41,683.73,684.98,687.33,689.78,692.05,694.35,696.67,699.39,702.87,707.42,711.41,715.05,718.44,721.48,724.00,726.41,728.52,730.12,730.94,731.62,732.21,732.75,733.35,734.47,735.64,736.98,738.45,739.64,741.11,742.03,742.51,743.04,743.85,744.86,745.78,746.06,744.73,743.12,741.59,740.19,738.82,737.19,734.50,730.51,725.09,719.27,713.66,710.44,710.97,715.23,719.90,724.34,727.93,729.20,726.58,724.96,725.96,730.22,736.24,742.16,747.66,752.83,757.90,762.86,768.38,774.25,780.15,786.25,790.99,794.72,797.63,799.88,801.18,801.47,800.83,798.80,794.05,788.21,783.02,779.82,778.87,779.13,780.71,783.67,788.05,793.54,798.90,803.55,807.21,811.16,815.15,818.93,822.37,825.43,828.41,832.58,837.58,842.18,846.23,850.24,854.23,858.65,865.37,874.57,882.83,889.59,896.65,901.97,906.67,911.12,915.29,918.97,920.75,921.88,923.04,924.17,925.40,926.51,927.60,928.74,928.76,927.98,927.42,927.94,929.38,929.82,929.33,928.20,927.05,926.80,927.62,928.87,929.72,930.10,929.67,929.42,930.18,932.55,935.00,936.40,936.99,937.71,937.89,938.26,938.68,939.21,940.98,944.56,947.91,950.42,952.78,955.36,957.79,959.81,960.99,960.91,957.45,951.66,945.09,941.56,945.81,951.41,956.22,960.46,964.06,967.17,969.62,971.16,972.35,972.81,972.91,972.79,972.38,972.07,971.77,971.37,970.84,970.52,971.20,972.81,974.64,974.49,977.13,980.93
652.58,652.98,653.40,653.80,654.21,654.64,655.05,655.44,655.83,656.21,656.60,656.98,657.35,657.72,658.11,658.49,658.83,659.18,659.55,659.94,660.32,660.63,660.92,661.18,661.32,661.20,660.94,660.63,660.32,659.98,659.58,659.14,658.70,658.33,658.14,658.37,658.81,659.24,659.69,660.66,661.70,662.58,663.47,664.83,666.33,667.80,669.08,669.88,670.57,671.30,672.10,672.88,673.67,674.52,675.42,676.31,677.13,678.00,678.94,680.11,682.18,684.56,686.99,689.31,691.19,692.30,692.20,690.98,689.08,686.88,684.51,682.79,682.92,685.78,688.60,690.85,692.68,694.85,697.10,699.46,702.51,707.00,711.24,715.48,719.37,722.59,725.34,727.91,729.69,730.67,731.27,731.55,731.92,732.47,733.19,733.98,734.88,735.80,736.81,738.11,739.64,740.50,740.81,741.13,741.95,743.17,744.19,744.28,742.66,740.67,738.64,736.78,735.39,734.06,731.36,727.03,721.17,715.92,711.45,709.54,711.51,717.61,722.85,728.01,732.61,734.70,732.40,729.16,727.61,729.43,734.17,739.23,744.28,749.57,755.82,762.99,769.69,775.92,782.09,788.72,794.35,798.77,802.03,804.73,806.18,806.28,805.38,803.60,799.84,794.58,789.18,784.82,782.38,781.18,781.85,784.25,787.48,791.70,797.24,802.59,806.21,810.06,814.35,818.53,822.26,825.45,828.54,832.91,838.13,842.87,847.01,851.05,855.07,859.59,866.48,875.74,883.95,890.32,896.24,901.38,906.49,911.34,915.45,919.16,920.73,921.55,922.37,923.21,924.01,924.82,925.69,926.47,926.07,924.91,924.25,925.10,927.07,928.25,928.36,927.68,927.22,927.85,929.12,930.61,931.92,932.71,932.45,931.96,932.02,933.44,935.91,938.04,939.60,940.77,940.84,941.06,941.38,941.55,941.76,943.74,946.44,949.26,951.98,954.80,957.57,960.02,961.59,961.75,958.93,953.31,946.52,944.52,948.82,954.11,958.63,962.46,965.78,969.22,972.47,974.97,976.41,976.87,976.81,976.40,975.73,975.11,974.48,974.07,974.18,974.10,974.16,975.49,977.98,978.43,979.12,981.75
652.71,653.12,653.56,653.97,654.40,654.83,655.21,655.58,655.96,656.34,656.73,657.12,657.50,657.89,658.26,658.63,658.96,659.33,659.71,660.07,660.41,660.67,660.90,661.13,661.34,661.38,661.18,660.89,660.58,660.27,659.92,659.53,659.12,658.75,658.49,658.59,658.95,659.34,659.82,660.90,662.19,663.41,664.54,665.85,667.25,668.68,669.91,670.75,671.37,671.99,672.74,673.47,674.11,674.77,675.47,676.23,676.95,677.72,678.58,679.69,681.68,683.87,686.11,688.23,689.76,690.34,689.92,688.55,686.17,683.73,681.71,681.05,682.88,686.75,689.70,691.77,693.35,695.29,697.32,699.28,701.90,706.27,710.60,715.26,719.51,722.87,725.70,728.40,730.06,730.73,731.09,731.03,731.01,731.32,732.09,732.64,733.27,733.84,734.51,735.90,737.37,738.27,738.72,739.17,740.30,741.82,742.80,742.43,740.31,737.76,735.28,733.14,731.74,730.65,727.89,723.41,717.75,713.12,709.95,709.48,712.75,719.72,725.38,731.23,736.78,739.74,738.45,734.77,731.62,731.18,734.23,738.35,743.10,748.94,757.07,765.40,772.63,779.01,785.08,791.54,797.23,801.74,805.07,808.05,809.44,809.44,808.58,807.22,804.67,800.03,794.62,789.62,785.79,783.39,783.41,785.47,787.73,791.10,796.50,802.11,805.93,809.78,814.13,818.48,822.44,825.76,828.88,833.19,838.32,843.02,847.12,851.17,855.27,859.91,866.74,875.64,883.63,889.85,895.03,900.01,905.28,910.33,914.39,918.03,919.74,920.62,921.27,921.79,922.15,922.61,923.17,923.52,922.77,921.48,920.96,922.24,924.53,926.46,927.50,927.70,927.86,929.06,930.65,932.31,933.82,934.81,934.90,934.64,934.42,934.62,936.66,939.10,941.37,943.19,943.77,944.24,944.71,944.84,944.10,944.35,946.00,948.85,951.92,955.01,958.00,960.67,962.46,962.30,959.51,953.86,947.25,947.56,951.98,956.89,961.15,964.71,967.86,971.73,975.55,978.30,979.76,980.37,980.40,979.91,979.04,978.03,977.15,976.84,977.46,977.67,977.26,978.05,980.64,982.18,981.34,982.65
652.93,653.37,653.77,654.21,654.63,655.02,655.39,655.72,656.09,656.48,656.86,657.25,657.63,658.02,658.38,658.71,659.08,659.46,659.82,660.12,660.38,660.61,660.84,661.07,661.30,661.50,661.41,661.15,660.84,660.53,660.22,659.89,659.57,659.25,658.96,658.87,659.03,659.42,659.93,661.03,662.35,663.71,665.22,666.53,667.80,669.06,670.28,671.39,672.13,672.74,673.43,674.08,674.70,675.35,676.05,676.76,677.50,678.23,678.99,679.96,681.56,683.46,685.55,687.52,688.33,688.48,687.65,685.87,683.38,681.01,680.00,680.75,683.65,687.67,690.42,692.36,693.90,695.50,697.14,698.77,701.12,705.21,709.31,713.99,718.39,721.87,724.58,727.27,729.13,730.00,730.08,729.88,729.44,729.32,730.00,730.50,730.95,731.32,731.83,733.10,734.30,735.34,736.25,737.21,739.06,740.91,741.63,740.38,737.45,734.19,731.43,729.34,727.85,726.83,723.95,719.70,715.02,710.85,708.74,709.79,714.44,721.33,727.43,734.10,740.54,744.33,744.41,741.62,738.28,736.31,737.37,740.61,745.40,752.36,762.77,770.17,776.63,782.76,788.52,794.15,799.05,803.03,806.15,809.10,810.19,810.40,810.24,809.82,808.66,804.18,798.52,793.41,788.66,785.60,785.49,787.66,789.63,793.22,798.06,803.13,807.47,811.50,815.55,819.61,823.49,826.88,829.85,833.73,838.34,842.67,846.52,850.47,854.60,859.29,865.85,874.13,881.78,888.03,893.24,897.92,902.93,907.88,911.97,915.38,917.57,919.00,919.87,920.18,920.39,920.62,920.77,920.48,919.29,918.06,918.00,919.88,922.32,924.89,927.25,928.97,929.47,930.68,932.32,934.11,935.74,936.69,937.21,937.38,937.08,936.20,937.64,939.94,942.43,944.84,946.49,947.35,947.82,948.02,947.39,946.36,946.86,949.37,952.80,956.26,959.36,962.01,963.72,962.57,959.03,953.17,947.37,950.21,954.97,959.52,963.49,967.02,970.27,974.63,978.60,980.56,981.76,982.73,983.26,983.11,982.16,980.74,979.82,979.72,980.55,981.07,980.56,980.70,982.63,985.58,984.13,984.03
653.18,653.63,654.01,654.43,654.83,655.20,655.54,655.89,656.27,656.66,657.05,657.43,657.82,658.18,658.52,658.88,659.22,659.59,659.93,660.18,660.42,660.61,660.83,661.06,661.29,661.52,661.56,661.41,661.10,660.79,660.52,660.23,659.93,659.66,659.40,659.27,659.30,659.56,660.06,661.25,662.71,664.22,665.78,667.15,668.38,669.51,670.58,671.73,672.62,673.34,673.99,674.65,675.28,675.94,676.63,677.32,677.98,678.60,679.23,680.03,681.58,683.37,685.03,686.21,686.47,686.44,685.43,683.46,681.16,679.47,679.57,681.23,684.17,687.53,690.02,691.85,693.28,694.75,696.42,698.14,700.35,703.77,707.29,711.20,715.10,718.54,721.01,723.00,724.66,725.89,726.38,726.53,726.27,726.22,726.86,727.46,727.89,728.37,729.07,730.25,731.59,733.03,734.56,736.25,738.35,739.93,739.83,737.39,734.07,730.94,728.34,726.26,724.55,722.98,720.22,716.46,712.25,708.91,708.22,710.66,716.23,723.27,730.04,736.84,743.20,747.73,749.26,748.12,745.96,744.28,745.01,747.82,753.44,761.16,768.58,774.09,779.40,784.97,790.66,795.61,799.75,802.86,805.17,808.04,809.80,810.63,810.90,810.87,810.23,806.89,801.77,795.82,790.39,787.43,787.64,790.25,793.11,796.95,801.51,806.18,810.37,814.18,817.94,821.68,825.32,828.64,831.29,834.44,838.29,842.56,846.43,850.43,854.54,858.94,864.68,871.46,878.24,884.63,890.50,895.41,900.34,905.14,909.22,912.61,914.91,916.39,917.16,917.38,917.62,917.62,917.20,916.12,914.94,914.90,916.15,918.72,921.79,925.06,928.13,930.56,931.73,932.86,934.27,935.91,937.52,938.43,939.43,939.99,939.63,938.45,938.93,940.86,943.60,946.29,948.43,949.45,949.86,949.99,949.52,948.08,948.07,950.43,954.59,958.20,961.10,963.45,964.84,962.87,958.75,952.96,947.94,951.71,956.75,961.24,965.10,968.81,971.74,975.14,978.31,980.24,981.14,981.83,982.78,984.05,985.09,984.12,983.26,983.14,983.83,984.31,983.54,983.23,984.78,988.20,987.59,986.64
653.44,653.88,654.25,654.63,655.02,655.38,655.70,656.08,656.47,656.86,657.24,657.61,657.98,658.31,658.64,659.00,659.32,659.67,659.99,660.23,660.44,660.62,660.82,661.04,661.27,661.50,661.65,661.63,661.36,661.07,660.80,660.51,660.22,659.97,659.76,659.65,659.62,659.77,660.38,661.65,663.19,664.76,666.31,667.74,668.97,670.00,670.94,672.01,673.01,673.83,674.39,675.02,675.59,676.18,676.82,677.51,678.13,678.73,679.33,680.02,681.51,683.10,684.26,684.70,684.61,684.49,683.47,681.57,679.55,678.61,679.62,681.82,684.49,687.08,689.25,690.96,692.32,693.75,695.53,697.42,699.64,702.55,705.53,708.48,711.52,714.51,716.63,718.01,719.35,720.69,721.63,722.23,722.43,722.71,723.43,724.13,724.64,725.35,726.42,727.75,729.41,731.28,733.32,735.50,737.35,738.24,737.25,734.06,730.77,727.98,725.58,723.46,721.46,719.27,716.61,713.37,709.75,707.47,708.21,711.88,718.19,725.47,732.55,739.15,745.19,750.25,752.99,753.62,753.21,752.74,753.91,756.75,762.44,769.43,773.24,776.85,781.05,785.95,791.28,795.59,799.02,801.30,802.88,805.77,808.63,810.40,811.22,811.51,810.96,808.58,804.15,797.85,792.13,789.15,789.44,792.36,796.05,800.11,804.61,809.05,812.87,816.41,819.95,823.51,827.01,830.26,832.71,835.29,838.45,842.47,846.27,850.16,854.09,858.15,862.98,868.35,874.23,880.50,886.80,892.22,897.31,902.09,906.24,909.65,912.00,913.46,914.11,914.28,914.46,914.22,913.38,911.96,911.53,913.14,915.86,919.01,922.47,926.12,929.48,932.25,934.13,935.21,936.34,937.75,939.38,940.46,941.79,942.48,941.94,940.62,940.36,941.96,944.84,947.57,949.81,950.93,951.37,951.41,950.92,949.50,949.34,951.61,956.39,959.96,962.62,964.74,965.94,963.38,959.02,953.45,948.88,952.20,957.03,961.24,964.67,967.93,970.44,972.95,975.53,977.83,978.93,979.56,980.99,983.60,986.70,987.06,986.72,986.60,987.05,987.41,986.40,985.58,986.52,990.06,990.52,989.13
653.70,654.13,654.45,654.83,655.22,655.57,655.89,656.27,656.66,657.04,657.41,657.74,658.06,658.37,658.68,659.00,659.31,659.63,659.94,660.21,660.39,660.60,660.79,660.97,661.21,661.44,661.65,661.74,661.61,661.38,661.04,660.71,660.40,660.12,659.99,659.94,659.93,660.09,661.09,662.38,663.79,665.29,666.83,668.30,669.52,670.51,671.43,672.34,673.33,674.12,674.49,674.92,675.29,675.68,676.17,676.87,677.65,678.46,679.20,679.91,681.18,682.27,682.92,683.04,682.97,682.79,682.03,680.65,678.92,678.57,679.97,682.22,684.54,686.56,688.29,689.84,691.29,692.77,694.56,696.60,699.02,701.97,704.69,706.71,708.50,710.30,711.88,713.24,714.22,715.04,716.14,717.14,718.01,718.92,719.95,720.70,721.38,722.44,724.05,726.05,728.16,730.37,732.60,734.63,735.49,735.09,733.41,730.55,727.90,725.41,723.12,720.90,718.50,715.87,713.11,710.34,707.90,706.96,708.90,713.54,720.49,728.02,734.55,740.61,746.37,751.55,754.95,757.19,758.95,760.67,762.97,766.49,770.32,773.63,775.49,777.66,781.06,785.18,789.31,793.03,795.81,797.59,798.99,802.13,806.50,809.64,811.38,812.15,811.26,808.90,805.10,799.85,794.51,790.84,790.50,793.23,796.99,801.18,805.88,810.33,813.75,817.11,820.63,824.31,827.98,831.17,833.79,836.31,839.03,842.27,845.70,849.02,852.46,856.26,860.31,864.99,870.16,875.74,881.61,887.82,893.44,898.47,902.93,906.35,908.83,910.40,911.03,911.14,910.99,910.53,909.75,908.97,910.65,914.24,918.24,921.70,924.79,928.14,931.25,933.98,936.46,937.63,938.50,939.68,941.48,943.18,944.49,944.80,943.83,942.29,941.90,943.40,946.15,948.64,950.38,951.62,952.34,952.31,951.45,950.44,950.58,952.78,957.68,960.96,963.45,965.65,967.05,964.37,960.35,955.23,950.39,951.25,954.86,958.13,960.31,961.76,963.87,966.42,969.32,972.41,974.75,976.24,978.27,981.47,985.59,988.67,989.78,989.81,990.03,990.29,989.18,987.64,987.29,990.74,991.96,990.68
653.94,654.33,654.65,655.02,655.38,655.69,655.95,656.32,656.67,657.02,657.35,657.63,657.93,658.24,658.55,658.86,659.16,659.50,659.83,660.12,660.32,660.51,660.71,660.91,661.14,661.33,661.55,661.70,661.66,661.41,661.05,660.72,660.47,660.28,660.21,660.23,660.27,660.50,661.53,662.86,664.31,665.84,667.32,668.85,670.01,670.86,671.71,672.52,673.15,673.56,673.79,674.15,674.48,674.83,675.29,676.02,676.85,677.70,678.50,679.24,680.24,680.95,681.32,681.37,681.29,681.06,680.46,679.41,678.07,678.24,679.75,681.82,683.81,685.54,687.13,688.67,690.21,691.76,693.84,695.79,697.96,700.93,702.94,704.35,705.44,706.35,707.38,708.55,709.38,710.01,711.09,712.17,713.30,714.57,716.05,717.61,719.45,721.38,723.37,725.69,727.89,730.03,731.90,732.98,733.17,732.12,730.18,727.63,725.22,722.86,720.50,718.09,715.49,712.81,710.15,707.84,706.55,707.50,710.67,715.89,722.83,729.79,736.06,741.85,747.27,752.17,756.02,759.46,762.66,765.64,768.67,772.07,775.25,777.73,779.01,780.51,782.38,784.29,786.13,789.27,791.64,793.73,796.30,800.54,805.45,809.18,811.53,812.67,812.09,810.28,807.27,802.84,797.61,793.91,792.51,793.54,796.71,800.26,804.37,808.46,811.92,815.22,819.54,823.77,827.33,830.44,832.95,835.39,837.95,840.71,843.85,847.02,850.34,853.95,857.83,862.12,866.71,871.58,876.77,882.33,888.04,893.65,898.75,902.82,905.28,906.69,907.29,907.35,907.20,907.08,907.30,908.64,911.92,916.40,921.05,925.03,927.93,930.68,933.38,936.04,938.60,940.09,941.26,942.51,944.07,945.71,947.13,947.51,946.47,944.72,943.65,944.97,947.80,949.65,950.99,952.22,953.18,953.42,952.66,951.86,952.44,954.94,958.93,961.58,963.85,966.10,967.84,966.49,962.88,958.08,953.71,953.67,955.35,956.82,958.05,960.04,961.23,962.25,964.26,967.99,971.63,974.39,977.24,980.72,984.94,988.85,991.09,992.03,992.42,992.77,991.61,989.87,988.99,991.44,993.62,993.22
654.09,654.43,654.72,655.07,655.38,655.63,655.84,656.23,656.56,656.88,657.17,657.42,657.72,658.02,658.34,658.64,658.97,659.34,659.69,660.00,660.23,660.41,660.61,660.82,661.03,661.21,661.42,661.60,661.63,661.35,661.00,660.71,660.53,660.46,660.44,660.48,660.59,660.89,661.85,663.20,664.72,666.27,667.69,669.26,670.39,671.11,671.83,672.50,672.72,672.74,672.84,673.18,673.51,673.86,674.34,675.10,675.94,676.79,677.62,678.38,679.08,679.47,679.66,679.70,679.59,679.35,678.86,678.07,677.13,677.77,679.31,681.13,682.87,684.46,686.04,687.64,689.22,690.69,692.74,694.38,696.19,699.10,700.53,701.63,702.35,702.63,703.19,704.07,704.78,705.40,706.48,707.62,708.97,710.60,712.66,715.41,718.48,721.13,723.25,725.47,727.35,729.17,730.57,730.75,730.38,728.99,727.00,724.71,722.30,719.90,717.46,714.96,712.39,709.89,707.50,705.85,706.02,708.75,712.87,718.33,724.90,731.22,737.25,742.87,748.00,752.52,756.63,760.87,765.04,768.93,772.67,776.08,779.32,782.05,783.39,784.60,785.12,784.98,784.68,786.60,788.19,790.57,794.55,799.85,804.81,808.66,811.36,812.80,813.02,812.00,809.80,806.15,801.14,797.51,795.08,794.25,796.33,798.83,801.99,805.55,809.12,812.43,817.57,822.37,825.82,828.84,831.17,833.50,835.96,838.44,841.32,844.41,847.73,851.39,855.36,859.42,863.55,867.81,872.40,877.04,882.45,888.30,893.93,898.69,901.17,902.46,903.14,903.57,903.96,904.62,906.10,909.40,913.70,918.56,923.42,927.68,930.42,932.66,935.12,937.86,940.44,942.37,944.03,945.49,946.76,948.04,949.38,949.86,948.97,947.25,945.30,946.34,949.36,950.63,951.69,952.87,953.97,954.56,954.06,953.42,954.36,957.12,960.18,962.28,964.36,966.61,968.61,968.91,965.88,961.49,957.76,957.53,957.59,957.47,958.12,961.23,961.73,960.82,961.30,965.24,969.99,973.79,977.25,980.81,984.77,988.71,991.66,993.53,994.36,995.00,994.01,992.32,991.13,992.33,995.15,995.84
653.96,654.21,654.40,654.65,654.86,655.08,655.40,655.89,656.24,656.55,656.86,657.15,657.46,657.77,658.08,658.39,658.76,659.14,659.52,659.86,660.10,660.32,660.51,660.68,660.86,661.06,661.29,661.49,661.56,661.29,660.97,660.78,660.73,660.65,660.64,660.65,660.77,661.19,662.07,663.40,664.85,666.29,667.75,669.34,670.49,671.19,671.69,671.95,671.98,671.92,671.93,672.22,672.53,672.91,673.43,674.20,675.03,675.88,676.71,677.42,677.82,678.00,678.11,678.11,677.82,677.70,677.34,676.68,676.15,677.23,678.69,680.27,681.98,683.71,685.40,687.07,688.58,689.47,690.24,691.14,692.65,695.25,696.98,698.37,699.21,699.41,699.72,700.19,700.72,701.45,702.82,704.21,706.07,708.33,711.18,715.65,719.14,721.63,723.28,724.33,724.96,726.10,727.30,727.49,726.56,725.14,723.41,721.25,718.44,715.71,713.26,711.07,709.05,707.10,705.25,704.91,707.56,711.12,715.36,720.36,726.16,732.31,737.93,743.36,748.45,752.72,756.63,760.85,765.29,769.88,774.69,779.27,783.57,787.18,789.12,790.51,791.00,790.71,789.71,788.44,787.90,789.79,794.51,799.92,804.29,807.68,810.21,811.92,813.79,813.75,812.25,809.53,805.34,801.40,798.41,796.74,796.80,797.71,799.62,802.43,806.03,809.42,814.63,819.60,823.24,826.10,828.34,830.49,832.75,835.30,837.97,840.75,844.14,848.45,852.70,856.78,860.71,864.66,869.03,873.43,877.79,882.50,887.92,892.91,895.69,897.26,898.46,900.47,902.70,905.01,907.58,910.92,915.02,919.63,924.05,927.61,930.11,932.45,935.30,938.58,941.54,944.11,946.28,948.05,949.31,949.94,950.53,950.74,950.32,949.44,946.42,946.99,950.32,951.55,952.64,953.71,954.76,955.56,955.36,954.94,955.87,958.43,961.49,963.62,965.66,967.72,969.62,971.11,969.19,965.56,962.31,962.59,962.63,962.48,963.36,967.11,968.13,965.52,963.68,966.61,971.87,975.58,978.81,982.20,985.71,988.99,991.64,993.77,995.55,996.84,996.62,995.32,993.70,993.74,996.03,997.76
653.52,653.74,653.90,654.12,654.32,654.61,655.07,655.60,655.97,656.27,656.58,656.89,657.17,657.46,657.80,658.17,658.53,658.90,659.26,659.56,659.83,660.13,660.35,660.51,660.71,660.93,661.14,661.33,661.46,661.25,661.07,660.96,660.93,660.89,660.85,660.84,660.94,661.35,662.09,663.37,664.80,666.21,667.67,669.17,670.24,670.80,671.04,671.11,671.10,671.05,671.05,671.27,671.56,671.95,672.48,673.28,674.13,674.97,675.72,676.17,676.37,676.50,676.61,676.63,676.28,676.03,675.68,675.42,675.95,677.30,678.64,680.04,681.71,683.45,685.16,686.66,687.75,688.15,688.39,688.93,690.05,691.89,693.47,694.92,696.09,696.74,696.88,696.98,697.44,698.39,699.82,701.35,703.36,705.77,708.61,712.44,716.03,718.92,720.91,722.00,722.28,722.78,723.29,722.91,721.70,720.15,718.35,716.23,713.75,711.51,709.49,707.62,705.97,704.56,704.32,705.73,709.16,712.97,717.22,722.00,727.34,732.91,738.10,743.45,748.74,753.33,757.62,762.02,766.46,770.95,775.82,781.10,786.33,790.85,793.54,795.36,796.27,796.20,794.74,791.85,789.37,789.98,794.40,799.77,803.57,806.49,808.83,810.67,813.16,814.58,814.38,812.25,809.00,805.53,802.42,800.01,798.77,798.49,799.71,802.14,805.32,807.96,811.42,815.48,819.62,822.78,824.91,827.02,829.50,832.48,835.61,838.78,842.47,846.92,851.19,855.18,858.87,862.43,866.34,870.36,874.40,878.76,883.86,889.37,894.34,897.68,899.36,901.59,903.82,906.11,908.51,911.21,914.46,918.25,921.99,925.31,928.54,931.72,935.13,938.67,941.82,944.69,947.21,949.15,950.17,950.63,951.12,951.47,951.46,950.87,948.67,948.08,949.34,951.02,952.15,953.31,954.64,955.96,956.57,956.56,957.48,959.76,962.58,964.91,966.84,968.74,970.98,973.07,971.60,968.62,966.25,966.97,967.74,968.20,969.24,972.35,972.46,968.40,965.44,968.39,974.31,978.62,982.13,985.36,988.20,990.59,992.50,994.29,996.36,998.08,998.73,998.01,996.14,995.17,996.75,999.14
652.94,653.15,653.31,653.54,653.80,654.21,654.80,655.34,655.69,656.00,656.31,656.61,656.87,657.14,657.49,657.89,658.21,658.56,658.87,659.13,659.45,659.85,660.14,660.34,660.57,660.80,660.99,661.18,661.34,661.23,661.18,661.13,661.08,661.06,661.00,660.96,661.04,661.36,661.90,663.11,664.54,665.92,667.18,668.47,669.38,669.82,669.84,669.85,669.90,669.99,670.11,670.30,670.58,670.97,671.53,672.37,673.21,674.04,674.64,674.74,674.82,674.97,675.14,675.20,674.85,674.42,674.07,674.31,676.11,677.77,679.00,680.23,681.81,683.45,685.01,686.14,686.66,686.72,686.80,687.22,688.00,689.09,690.40,691.82,693.22,694.25,694.19,694.06,694.60,695.78,697.25,698.83,700.78,703.06,705.58,708.07,711.49,714.68,717.03,718.46,718.73,718.72,718.43,717.49,716.25,714.65,712.80,710.77,708.88,707.35,705.88,704.47,703.43,702.89,704.43,707.34,710.82,714.63,718.82,723.42,728.37,733.22,737.99,743.30,748.85,753.92,758.70,763.43,767.95,772.22,776.86,782.53,788.38,793.63,797.16,799.57,801.04,801.23,799.33,795.59,791.55,790.76,794.42,799.73,803.05,805.55,807.72,809.66,812.25,814.96,816.10,814.60,812.24,809.53,806.64,803.89,802.04,800.95,801.50,803.43,806.23,808.19,809.74,812.51,816.72,819.82,821.75,823.95,826.85,830.40,834.14,837.93,842.01,846.48,850.65,854.54,858.12,861.53,865.08,868.58,872.44,876.64,881.29,887.22,894.16,899.15,901.20,903.03,904.55,906.26,908.23,910.41,912.99,916.07,919.38,922.88,927.19,931.38,935.31,938.89,941.99,944.83,947.37,949.27,950.05,950.62,951.30,952.01,952.43,951.99,951.11,949.46,948.31,950.12,951.06,952.39,954.15,956.08,957.64,958.12,959.11,961.13,963.67,966.18,968.06,969.97,972.79,975.05,973.81,971.45,970.02,971.00,972.58,973.82,975.06,977.06,975.90,970.51,966.88,970.41,977.04,982.20,986.05,988.89,990.90,992.55,993.81,995.12,997.04,999.04,1000.47,1000.40,998.54,996.75,997.46,1000.09
652.36,652.57,652.73,652.95,653.38,653.96,654.59,655.03,655.37,655.68,655.99,656.29,656.59,656.85,657.12,657.40,657.66,657.92,658.18,658.44,658.87,659.45,659.90,660.21,660.44,660.67,660.89,661.09,661.23,661.21,661.11,661.04,661.01,660.96,660.88,660.82,660.82,660.98,661.28,662.39,663.82,665.04,665.38,666.08,666.84,667.39,667.45,667.46,667.76,668.28,668.88,669.23,669.54,669.98,670.62,671.45,672.25,672.98,673.38,673.16,673.21,673.42,673.66,673.78,673.48,673.05,672.82,673.50,676.29,678.71,680.00,680.95,682.28,683.63,684.59,684.98,684.93,685.04,685.12,685.62,686.48,687.53,688.90,690.32,691.33,691.58,691.04,691.17,692.02,693.44,695.16,696.75,698.37,700.28,702.66,705.06,707.79,710.02,711.42,712.31,712.49,712.21,711.70,711.02,710.23,709.14,707.79,706.26,704.69,703.30,702.17,701.65,702.50,704.06,706.27,709.10,712.62,716.44,720.48,724.69,729.00,733.21,737.61,742.85,748.54,753.80,758.56,763.83,769.11,774.00,778.93,784.62,790.27,795.47,799.87,803.16,805.05,805.05,802.36,798.07,793.61,792.17,795.09,800.38,803.52,805.84,807.98,810.14,812.53,815.10,816.81,816.69,814.80,812.66,810.57,808.77,807.73,806.60,805.57,806.01,809.27,812.19,814.11,816.06,818.15,819.12,820.54,823.08,826.55,830.48,834.39,838.40,842.87,847.80,851.93,855.82,859.85,864.04,868.05,870.68,873.69,877.17,881.04,886.53,891.65,895.44,897.60,898.89,899.98,901.79,904.40,907.63,911.13,914.95,919.06,923.55,928.61,933.30,937.34,940.60,943.03,945.21,946.87,948.10,949.04,949.97,950.94,952.06,953.12,953.21,952.41,951.21,950.18,950.15,950.15,951.52,953.73,956.14,958.36,959.34,960.54,962.55,965.07,967.47,969.63,972.17,975.65,977.48,976.72,975.13,974.11,974.84,976.33,978.03,979.72,980.93,979.45,972.75,968.27,972.68,979.95,985.71,989.34,991.00,991.83,993.70,995.39,996.68,997.87,999.86,1001.67,1002.20,1000.92,998.90,998.37,1000.28
651.79,651.99,652.19,652.52,653.08,653.75,654.38,654.77,655.09,655.39,655.67,655.87,656.05,656.30,656.58,656.81,657.04,657.27,657.50,657.78,658.27,658.95,659.61,660.12,660.35,660.58,660.79,660.98,661.11,661.12,661.02,660.93,660.86,660.76,660.70,660.63,660.59,660.61,660.71,661.57,662.55,663.13,663.05,663.25,663.84,664.55,664.82,665.35,666.01,666.75,667.50,668.03,668.41,668.91,669.64,670.54,671.33,671.85,671.96,671.61,671.62,671.89,672.18,672.32,672.06,671.62,671.70,672.97,676.21,678.79,680.10,680.88,681.79,682.71,683.27,683.34,683.11,683.33,683.49,684.03,684.95,686.13,687.48,688.76,689.47,689.30,688.66,688.98,689.97,691.39,693.10,694.67,696.21,697.98,700.23,702.55,704.92,706.69,707.63,708.00,707.77,707.29,706.71,706.08,705.47,704.60,703.47,702.16,701.01,700.38,700.12,700.57,702.68,705.69,708.61,711.69,715.43,719.44,723.51,727.31,730.78,734.38,738.44,743.73,749.49,754.26,758.50,763.71,769.28,774.68,780.15,786.34,792.10,797.28,802.40,806.26,808.12,807.67,804.37,799.40,794.54,793.12,796.28,801.26,804.62,807.23,809.51,811.50,813.66,816.07,817.96,818.55,817.77,815.81,814.01,812.89,812.48,811.60,810.13,809.58,811.73,815.12,817.92,820.31,822.28,823.32,824.43,826.13,828.42,831.22,834.88,839.02,843.76,849.10,853.88,857.88,862.01,866.39,870.27,872.80,875.52,878.59,881.81,885.51,888.52,890.82,892.39,893.36,894.43,897.95,903.26,907.94,911.82,915.67,919.94,924.85,929.87,934.66,938.63,941.48,943.09,944.54,945.86,947.16,948.60,949.89,951.04,952.30,953.60,954.23,953.67,952.84,952.07,951.46,951.32,952.77,954.90,956.88,959.15,960.80,962.48,964.49,966.82,969.21,971.96,975.10,978.31,979.78,979.44,978.54,977.96,978.45,979.65,981.25,982.87,983.63,981.48,974.28,969.68,974.26,980.80,985.56,988.71,990.57,991.76,993.76,996.00,997.87,998.98,1000.94,1002.89,1003.73,1002.86,1001.17,1000.29,1001.35
651.24,651.44,651.72,652.21,652.85,653.53,654.16,654.50,654.82,655.11,655.31,655.32,655.33,655.56,655.89,656.14,656.38,656.61,656.85,657.15,657.70,658.46,659.31,660.04,660.28,660.51,660.69,660.85,660.98,661.00,660.93,660.81,660.67,660.54,660.50,660.44,660.34,660.20,659.96,660.34,660.61,660.42,660.30,660.15,660.70,661.69,662.36,663.58,664.57,665.35,666.05,666.72,667.20,667.76,668.52,669.43,670.22,670.52,670.35,669.93,669.98,670.29,670.63,670.78,670.54,670.11,670.63,672.50,675.63,677.81,679.06,679.76,680.22,680.77,681.19,681.29,681.21,681.57,681.86,682.44,683.40,684.75,686.00,687.07,687.58,687.31,686.85,687.28,688.25,689.56,691.07,692.60,694.19,695.99,698.11,700.33,702.56,704.23,705.05,704.97,704.23,703.55,702.96,702.21,701.51,700.68,699.76,698.92,698.44,698.90,699.80,701.26,704.09,707.97,711.55,715.03,718.93,723.16,727.27,730.63,733.30,736.41,740.30,745.62,751.25,755.30,758.95,763.77,769.25,774.94,780.94,787.72,793.71,798.95,804.65,808.76,810.29,809.28,805.51,799.90,794.87,793.94,797.86,802.36,806.08,809.26,811.79,813.38,815.29,817.57,819.41,820.30,820.80,818.86,817.08,816.39,816.42,816.00,814.97,813.95,814.13,817.18,820.78,824.27,827.50,830.39,831.46,831.81,832.08,832.91,835.75,839.75,844.61,850.28,856.07,860.13,863.99,868.01,871.40,874.23,877.02,879.86,882.48,883.93,885.09,886.11,887.02,888.10,889.65,895.49,903.94,909.96,913.82,917.29,921.37,926.30,930.77,935.35,939.06,941.43,942.41,943.39,944.82,946.63,948.59,950.11,951.32,952.53,953.85,954.92,954.85,954.36,953.83,953.48,953.68,955.36,957.21,958.35,960.28,962.54,964.71,966.72,968.83,971.31,974.67,978.14,980.51,981.66,981.77,981.55,981.48,981.84,982.71,983.89,985.13,985.62,982.62,975.54,971.30,975.50,980.85,984.10,986.77,989.48,991.77,993.75,996.31,998.82,1000.27,1002.21,1004.18,1005.20,1004.75,1003.70,1003.11,1003.35
650.69,650.95,651.37,651.98,652.62,653.26,653.85,654.19,654.50,654.67,654.68,654.58,654.52,654.70,655.03,655.37,655.66,655.90,656.16,656.53,657.22,658.14,659.10,659.88,660.20,660.40,660.56,660.72,660.86,660.91,660.83,660.69,660.54,660.44,660.33,660.21,660.00,659.47,658.16,657.43,657.04,656.81,656.89,656.90,657.93,659.74,661.19,662.34,663.20,663.92,664.62,665.31,665.94,666.46,666.95,667.52,668.17,668.45,668.26,667.66,667.88,668.37,668.80,668.96,668.62,668.41,669.39,671.43,673.53,674.47,675.38,676.17,676.63,677.42,678.10,678.64,679.09,679.54,680.11,680.88,681.89,683.20,684.36,685.32,685.76,685.51,685.23,685.70,686.65,687.85,689.09,690.50,692.12,693.99,696.13,698.26,700.31,701.80,702.41,702.08,701.17,700.25,699.43,698.62,697.61,696.76,697.00,698.59,699.62,700.80,702.70,705.28,708.29,712.39,716.15,719.45,722.67,726.72,730.33,733.29,735.84,738.97,743.40,748.29,753.03,757.15,761.25,765.99,771.13,776.52,782.38,788.73,794.44,799.77,805.99,809.83,810.87,809.41,805.32,799.65,795.61,795.66,799.87,803.86,807.63,811.23,814.11,815.38,817.00,818.90,820.73,822.18,822.87,821.25,819.80,819.44,819.86,820.18,820.01,819.30,818.34,819.04,822.03,825.96,830.61,836.79,838.49,838.55,838.13,837.44,837.91,840.79,845.43,851.30,857.62,861.32,864.24,867.25,870.38,873.14,875.80,878.28,880.20,881.02,881.65,882.75,884.61,887.15,890.49,896.75,904.61,910.41,914.29,917.94,922.20,927.15,931.01,935.04,937.94,939.61,941.33,943.11,945.07,947.05,948.75,949.95,950.86,951.99,953.48,954.78,955.61,955.85,955.62,955.23,955.61,957.87,960.20,961.21,962.71,964.71,966.82,968.90,971.12,973.82,976.96,979.80,981.37,982.13,982.99,983.77,984.28,984.82,985.55,986.54,987.54,987.59,984.06,977.69,973.87,977.13,983.21,987.31,990.21,992.57,994.70,996.45,998.24,999.98,1001.50,1003.49,1005.58,1007.10,1007.60,1007.23,1007.17,1006.91
650.12,650.53,651.09,651.74,652.39,653.02,653.56,653.87,654.04,654.06,653.92,653.78,653.68,653.83,654.14,654.52,654.86,655.16,655.50,656.00,656.81,657.79,658.77,659.59,660.07,660.28,660.44,660.59,660.73,660.81,660.73,660.59,660.45,660.34,660.19,659.74,658.85,657.36,655.28,653.93,653.24,653.13,653.46,654.09,655.69,657.95,659.79,660.96,661.79,662.51,663.27,664.01,664.56,664.82,664.91,665.26,665.63,665.77,665.63,665.35,665.72,666.29,666.79,666.99,666.62,666.83,668.10,669.93,671.07,671.30,671.82,672.49,673.06,674.04,675.04,676.00,676.87,677.55,678.40,679.38,680.47,681.64,682.62,683.50,683.95,683.83,683.73,684.25,685.05,686.00,687.13,688.48,689.98,691.61,693.39,695.28,697.21,698.58,699.11,698.94,698.04,697.07,696.20,695.40,695.32,696.03,697.79,700.42,702.00,703.48,705.89,709.32,713.17,717.20,720.82,723.90,726.55,729.64,732.66,735.42,738.06,741.21,745.41,749.79,754.19,758.80,763.48,768.31,773.28,778.50,784.33,790.07,795.36,800.71,807.20,810.67,811.36,809.62,805.26,799.30,796.52,797.58,801.77,805.50,809.32,813.23,816.43,817.65,819.13,820.97,822.92,824.60,825.20,823.90,822.59,822.20,823.06,823.88,824.48,824.47,823.45,822.60,823.98,827.39,833.06,840.95,844.33,845.34,845.12,843.91,843.02,844.38,847.43,851.72,856.81,860.07,862.60,865.14,868.20,870.88,873.36,875.58,877.30,878.08,879.20,881.04,883.79,887.29,891.69,897.52,904.03,909.48,913.63,917.57,922.19,927.54,931.28,934.76,937.33,939.08,941.15,943.06,944.93,946.71,948.22,949.40,950.42,951.55,952.89,954.22,955.68,956.69,957.09,956.95,957.35,959.51,961.97,963.52,965.17,966.98,968.89,970.95,973.29,975.66,977.94,979.82,980.85,981.43,982.61,983.76,984.55,985.45,986.64,987.99,989.17,989.20,985.76,979.95,976.14,978.39,985.17,989.99,993.34,995.80,997.69,999.19,1000.48,1001.72,1003.20,1005.07,1007.03,1008.71,1009.79,1010.16,1010.66,1010.48
649.56,650.23,650.90,651.52,652.18,652.80,653.27,653.50,653.45,653.29,653.09,652.93,652.84,652.96,653.23,653.62,654.00,654.39,654.89,655.58,656.48,657.43,658.38,659.27,659.93,660.17,660.32,660.48,660.62,660.69,660.64,660.52,660.37,660.22,660.03,658.96,656.95,654.17,651.72,650.25,649.58,649.60,650.23,651.74,653.86,656.15,657.99,659.32,660.28,661.13,662.00,662.81,663.09,662.91,662.61,662.80,662.80,662.69,662.68,663.07,663.62,664.16,664.64,664.93,664.69,665.46,666.80,668.14,668.69,668.87,669.11,669.59,670.41,671.48,672.73,673.95,675.05,675.97,677.00,678.11,679.23,680.22,680.99,681.80,682.35,682.45,682.60,683.20,683.79,684.39,685.47,686.69,687.86,688.96,690.11,691.60,693.37,694.65,695.21,695.51,694.77,694.01,693.37,693.02,695.03,698.38,701.63,703.88,705.14,706.59,709.21,713.21,718.23,722.01,725.23,728.05,730.29,732.00,734.40,737.13,740.00,743.14,746.45,750.32,754.84,760.07,765.28,770.32,775.34,780.63,786.68,791.84,796.67,801.95,808.38,811.46,811.91,810.04,805.40,798.99,797.51,799.48,803.43,807.08,811.03,815.18,818.67,820.13,821.67,823.75,825.88,827.43,827.81,826.80,825.44,824.73,825.98,827.10,828.33,829.21,828.97,827.55,826.79,828.97,835.00,842.86,848.43,851.29,852.05,851.44,850.42,850.23,850.82,852.24,854.70,857.33,859.80,862.26,865.23,867.86,870.17,872.29,874.27,875.59,877.90,880.80,884.07,887.85,892.33,897.19,902.22,907.28,911.84,916.13,921.13,927.07,931.20,934.41,937.24,939.76,941.75,943.17,944.45,945.77,947.16,948.55,949.92,951.11,952.10,953.35,955.16,956.92,958.18,958.54,958.94,960.45,962.70,965.18,967.43,969.18,970.85,972.69,974.89,976.41,977.50,978.34,979.07,979.70,980.82,981.86,982.63,984.00,986.12,988.25,990.00,990.50,987.72,982.30,978.07,979.10,986.10,991.26,995.17,998.26,1000.06,1001.36,1002.48,1003.63,1004.97,1006.50,1008.11,1009.61,1010.90,1011.98,1012.94,1013.31
649.09,650.23,650.87,651.45,652.00,652.49,652.81,652.83,652.67,652.48,652.29,652.10,652.04,652.11,652.33,652.71,653.10,653.66,654.40,655.30,656.31,657.38,658.45,659.40,659.93,660.15,660.30,660.46,660.58,660.58,660.51,660.42,660.30,660.13,659.68,657.76,654.76,651.60,649.25,647.74,646.93,646.93,647.83,649.76,651.97,654.08,655.77,657.16,658.48,659.76,660.88,661.62,661.65,661.33,660.87,660.54,660.25,660.15,660.34,660.99,661.84,662.34,662.65,662.98,663.56,664.63,665.66,666.60,667.65,668.53,669.37,670.46,671.97,673.31,674.35,675.29,676.13,676.62,677.20,677.87,678.66,679.67,680.41,681.21,681.93,682.49,683.21,684.18,684.88,685.27,685.67,685.95,686.27,686.80,687.64,688.66,689.86,690.76,691.25,691.58,691.41,691.13,691.56,694.02,698.35,702.30,705.36,707.37,708.74,710.55,713.78,718.18,722.52,726.21,728.86,730.87,732.63,734.15,736.07,738.66,741.95,745.43,748.45,751.77,755.74,760.63,765.99,771.26,776.62,782.46,789.19,794.18,798.80,803.81,809.25,812.23,812.50,810.20,805.15,799.00,798.33,800.72,804.43,807.97,812.04,816.47,820.39,822.52,824.63,826.87,828.82,830.00,830.14,829.38,828.16,827.26,828.17,829.85,831.63,832.95,833.12,831.65,830.20,831.28,835.98,842.63,848.34,852.32,854.96,856.75,856.66,856.36,856.30,856.60,857.32,858.12,859.06,860.37,862.46,864.89,867.26,869.57,872.07,875.16,878.43,881.45,884.29,887.71,891.19,895.15,899.49,903.85,908.33,912.94,917.95,923.41,928.31,932.69,936.56,939.74,941.79,943.44,944.90,946.10,946.81,947.42,948.51,949.66,950.77,952.33,954.43,956.72,958.64,959.39,960.27,961.88,964.09,966.65,968.93,970.80,972.23,973.20,973.78,974.35,975.00,975.68,976.34,977.09,978.55,979.77,980.55,982.39,985.03,987.77,990.24,991.75,989.97,985.13,980.18,978.74,984.44,989.65,994.13,997.87,1000.06,1001.37,1002.40,1003.44,1004.55,1005.38,1006.48,1007.86,1009.42,1010.73,1011.72,1012.53
649.02,650.29,650.89,651.36,651.76,652.07,652.21,652.06,651.86,651.67,651.48,651.29,651.24,651.27,651.44,651.83,652.35,653.12,654.08,655.19,656.31,657.46,658.62,659.59,659.98,660.16,660.30,660.44,660.52,660.48,660.41,660.32,660.22,660.01,659.02,656.49,652.96,649.40,646.77,645.24,644.82,645.53,646.77,648.40,650.24,652.06,653.56,654.99,656.51,658.01,659.27,659.98,659.90,659.50,658.97,658.41,658.36,658.58,658.96,659.51,660.37,660.87,661.59,662.83,664.03,665.25,666.06,666.75,668.13,669.65,671.15,672.82,674.73,676.18,676.93,677.49,677.95,678.07,678.22,678.48,678.97,679.82,680.47,681.29,682.16,683.06,684.19,685.42,686.34,686.84,686.94,686.72,686.58,686.70,687.20,687.75,688.39,688.97,689.50,690.16,690.90,691.85,693.73,697.73,702.77,706.77,709.87,712.30,714.05,715.98,718.88,722.59,726.20,729.34,731.52,733.16,734.66,736.14,737.75,740.33,744.02,747.82,750.93,754.05,757.58,761.93,767.07,772.16,777.68,784.15,791.33,796.49,801.02,805.55,809.99,813.00,813.02,810.25,804.98,799.15,798.99,801.68,805.32,808.65,812.40,816.67,820.74,823.45,826.10,828.44,830.31,831.48,832.03,831.80,830.94,830.05,830.63,832.49,834.56,836.30,837.12,836.11,834.62,834.61,837.11,841.75,847.11,851.73,855.51,858.70,859.82,860.23,860.51,860.78,860.75,860.53,860.54,861.04,862.40,864.39,866.25,868.09,870.60,874.85,878.80,881.88,884.24,887.11,889.66,892.85,896.68,900.72,905.14,910.30,915.75,921.28,927.23,932.99,937.46,940.32,941.93,943.28,944.48,945.56,946.46,947.41,948.64,949.89,951.06,952.35,954.25,956.74,959.15,960.33,961.70,963.51,965.64,967.89,969.78,971.21,972.04,972.22,971.92,972.19,972.98,973.97,974.91,975.98,977.43,978.59,979.48,981.69,984.59,987.65,990.61,992.82,991.85,988.12,983.25,979.65,982.49,987.09,991.79,995.86,998.47,999.91,1001.13,1002.31,1003.18,1003.45,1004.07,1005.16,1006.63,1008.05,1009.10,1010.29
649.40,650.34,650.89,651.20,651.41,651.50,651.44,651.23,651.05,650.85,650.64,650.48,650.39,650.41,650.58,651.00,651.83,652.84,653.99,655.25,656.47,657.65,658.82,659.76,660.05,660.17,660.30,660.39,660.41,660.40,660.34,660.24,660.09,659.79,658.00,655.23,651.70,647.54,644.08,642.68,643.39,645.74,647.35,647.95,648.94,650.40,651.67,653.06,654.47,655.83,657.00,657.78,657.78,657.42,656.97,656.72,657.47,658.29,658.84,659.07,659.58,660.19,661.98,665.00,666.39,667.54,668.34,669.00,670.29,672.16,674.15,676.12,677.95,679.24,679.69,679.90,680.04,680.00,679.92,679.99,680.26,680.75,681.24,682.04,682.98,683.98,685.25,686.55,687.75,688.71,689.17,689.27,689.27,689.31,689.47,689.57,689.82,690.23,690.93,692.33,694.20,697.03,700.47,703.97,707.77,711.52,715.25,718.77,721.20,722.89,724.30,726.11,729.24,731.21,733.14,735.04,736.62,738.01,739.57,742.27,746.25,750.18,753.74,757.10,760.52,764.38,768.91,773.37,778.75,785.73,792.98,798.57,803.07,806.96,810.63,813.78,813.48,810.26,805.10,799.48,799.51,802.39,806.19,809.28,812.28,815.88,819.65,822.67,825.61,827.98,829.89,831.52,833.19,833.89,833.72,833.22,833.65,835.14,837.19,839.43,841.27,841.20,840.20,839.17,838.96,840.97,845.64,850.22,853.94,856.83,859.17,860.86,862.28,863.47,863.76,863.90,864.08,864.51,865.56,866.96,867.65,868.21,870.00,874.25,878.47,881.67,883.81,886.09,888.14,890.81,894.30,898.55,903.04,909.00,915.54,922.00,928.96,935.83,940.13,941.57,942.11,942.53,943.01,944.05,946.26,948.89,950.87,952.42,953.53,953.88,954.92,957.12,959.76,961.42,963.15,965.04,966.96,968.67,969.81,970.19,970.11,969.85,969.95,970.80,972.24,973.90,975.41,977.00,977.97,978.69,979.75,982.14,985.05,988.14,991.20,993.64,993.25,991.14,987.39,982.54,981.10,984.18,988.50,992.49,995.40,997.04,998.72,1000.31,1001.06,1001.19,1001.57,1002.31,1003.42,1004.87,1006.04,1007.49
649.63,650.22,650.50,650.66,650.76,650.77,650.66,650.45,650.20,649.94,649.68,649.49,649.35,649.40,649.75,650.51,651.54,652.70,653.97,655.27,656.51,657.75,658.98,659.92,660.08,660.17,660.25,660.29,660.29,660.28,660.26,660.17,659.86,658.91,656.78,654.11,650.62,645.84,641.83,641.86,644.37,647.74,649.29,649.70,650.15,650.91,651.79,652.71,653.42,654.00,654.57,655.24,655.82,656.40,657.03,657.81,658.85,659.79,660.71,661.85,662.72,663.81,665.71,668.18,669.12,669.88,670.63,671.52,672.97,674.95,676.98,678.71,679.88,680.74,681.06,681.37,681.76,681.82,681.75,681.87,682.26,682.85,683.29,683.74,684.22,684.87,686.13,687.48,688.95,690.47,691.85,692.87,693.54,694.22,695.09,695.31,695.52,695.85,696.50,697.86,699.76,702.49,705.74,708.97,712.27,715.66,719.23,722.94,726.26,728.19,729.21,730.04,731.63,732.67,734.44,736.58,738.43,740.05,742.07,744.90,748.52,752.21,755.83,759.53,763.37,767.36,771.60,775.89,780.96,787.41,794.67,799.98,804.12,807.71,811.28,814.57,814.14,810.87,806.07,800.46,800.05,802.69,806.74,810.36,813.70,817.04,820.18,822.68,825.31,827.07,828.46,830.02,831.92,834.05,835.73,836.69,837.12,838.10,840.28,843.18,845.86,846.59,846.13,845.06,844.05,844.68,846.67,849.07,851.52,853.92,856.11,858.14,860.11,861.92,863.10,864.21,865.33,866.51,868.00,869.63,870.24,870.17,870.58,873.50,877.10,880.35,882.96,885.44,887.63,890.93,895.20,899.60,904.05,910.62,918.16,925.13,930.11,936.07,939.80,940.51,940.36,941.67,943.60,945.90,948.63,951.12,953.12,954.89,956.38,956.92,956.88,957.70,959.43,961.43,962.97,964.45,965.91,967.23,968.31,968.71,968.92,969.35,970.50,972.11,973.85,975.53,977.05,978.72,979.69,980.07,980.46,982.51,985.34,988.44,991.49,993.97,994.98,993.65,990.68,986.76,983.16,983.22,985.77,989.47,992.09,993.56,994.97,996.65,998.59,1000.05,1001.83,1003.98,1006.20,1007.49,1008.30,1009.45
649.52,649.89,650.00,650.09,650.10,650.03,649.86,649.58,649.28,648.97,648.68,648.43,648.24,648.45,649.09,650.17,651.39,652.66,653.97,655.27,656.53,657.81,659.08,660.02,660.09,660.14,660.15,660.15,660.15,660.15,660.15,659.97,659.35,657.79,655.50,652.97,649.43,644.08,640.45,641.82,645.44,649.13,650.78,651.64,652.07,652.37,652.97,653.53,653.74,653.78,653.97,654.52,655.50,656.73,658.14,659.66,660.91,661.94,663.16,665.04,666.40,667.88,669.52,671.06,671.64,672.13,672.88,673.97,675.46,677.44,679.25,680.59,681.27,681.84,682.14,682.62,683.31,683.60,683.61,683.82,684.33,685.08,685.66,685.87,685.89,686.03,686.99,688.20,689.80,691.82,694.13,696.13,697.69,699.20,700.76,701.29,701.59,701.94,702.53,703.85,705.87,708.54,711.52,714.38,717.23,720.11,723.20,726.60,730.02,732.14,733.28,733.88,734.43,734.77,735.94,737.77,739.87,741.78,744.18,746.98,750.13,753.61,757.19,761.17,765.47,769.79,774.03,778.61,783.69,789.53,796.40,801.26,805.05,808.45,811.89,815.24,814.89,811.87,807.62,802.22,800.79,802.55,806.48,810.41,814.22,817.74,820.66,822.55,824.57,825.84,827.01,828.65,830.43,833.88,837.43,840.09,841.18,842.14,844.29,847.32,850.29,851.49,851.48,850.66,849.54,849.40,849.55,850.20,851.40,853.18,854.99,856.93,858.89,860.71,862.32,863.87,865.38,866.97,868.93,870.96,872.08,872.42,872.64,874.49,877.32,880.34,883.21,885.87,888.68,892.78,897.66,901.97,906.40,913.70,921.85,928.32,931.21,935.50,938.43,939.18,939.42,941.74,944.88,948.17,951.17,953.32,955.28,957.18,958.83,959.55,958.96,958.71,959.37,961.03,962.34,963.58,964.78,965.91,967.01,967.60,968.21,969.24,971.20,973.52,975.68,977.51,979.01,980.64,981.84,982.33,982.38,983.70,985.70,988.48,991.56,994.02,996.24,995.92,993.91,990.94,986.53,984.26,984.58,986.94,989.19,990.95,993.13,995.74,998.40,1000.93,1003.78,1006.89,1009.79,1011.06,1011.83,1012.99
648.87,649.27,649.47,649.57,649.55,649.37,649.01,648.59,648.25,647.93,647.63,647.33,647.11,647.66,648.75,650.00,651.39,652.68,653.96,655.27,656.57,657.83,659.06,660.00,660.07,660.03,660.01,660.00,660.00,660.00,659.99,659.51,658.35,656.48,654.18,651.70,647.95,642.16,640.38,642.42,645.68,648.69,650.88,652.97,654.15,654.61,655.17,655.78,656.05,656.26,656.68,657.17,658.00,659.03,660.25,661.76,663.25,664.48,665.78,667.64,669.45,670.94,672.13,673.01,673.63,674.18,675.03,676.15,677.36,679.23,680.58,681.50,682.24,682.87,683.29,683.88,684.68,685.33,685.46,685.73,686.28,687.07,688.01,688.36,688.15,687.67,687.89,688.68,690.20,692.50,695.53,698.34,700.97,703.31,705.12,706.07,706.58,707.04,707.78,709.31,712.03,715.42,718.68,720.92,723.14,725.33,727.71,730.29,732.41,734.42,736.08,737.33,738.11,738.13,737.91,738.50,740.74,742.91,745.28,747.76,750.54,754.03,757.52,761.64,766.27,771.03,775.61,781.07,786.77,792.31,798.11,802.53,806.19,809.44,812.44,815.69,815.70,813.32,809.83,805.13,802.01,801.95,805.00,808.51,812.52,816.75,820.30,821.78,823.00,824.27,826.03,828.28,829.73,834.04,839.00,843.30,846.07,847.86,849.69,851.88,854.27,855.45,855.67,855.22,854.40,854.10,854.68,855.21,855.71,856.77,858.40,859.89,861.08,861.99,863.00,863.76,864.45,865.47,867.63,869.88,872.09,874.34,876.66,878.49,880.65,883.05,885.54,888.13,892.07,896.79,901.50,905.34,909.89,918.13,926.23,930.60,932.48,934.57,936.55,938.36,940.65,943.41,946.50,949.78,952.91,955.17,957.29,959.12,960.38,960.85,960.66,960.36,960.18,960.40,961.71,963.18,964.55,965.76,966.74,967.40,968.06,969.11,971.22,974.08,976.94,979.38,981.09,982.63,984.28,985.57,986.19,986.36,986.34,988.18,991.40,993.81,996.55,997.92,997.34,994.49,990.90,988.04,985.99,985.28,987.22,990.07,995.07,1000.12,1002.21,1004.73,1007.39,1009.97,1012.24,1013.84,1015.29,1017.23
648.19,648.66,648.98,649.06,648.97,648.69,648.21,647.72,647.27,646.89,646.59,646.30,646.30,647.13,648.47,649.86,651.18,652.40,653.66,655.01,656.33,657.58,658.79,659.72,659.85,659.74,659.57,659.42,659.32,659.31,659.08,658.23,656.69,654.84,652.85,649.90,645.64,640.50,639.70,641.91,644.95,647.77,650.17,652.59,654.67,656.25,657.18,657.92,658.64,659.34,659.95,660.50,660.93,661.63,662.73,664.03,665.50,666.88,668.27,669.93,671.65,673.11,674.20,674.91,675.54,676.19,677.06,678.01,678.79,680.08,681.20,682.16,683.07,683.82,684.42,685.11,685.94,686.69,687.14,687.56,688.10,688.80,689.62,690.04,689.86,689.28,689.52,690.28,691.84,694.19,697.12,700.26,703.55,706.54,708.66,709.87,711.05,712.25,713.64,715.70,717.96,720.64,723.42,725.72,727.80,729.93,732.13,734.23,735.84,737.23,738.53,739.76,740.75,740.53,739.91,739.99,741.63,743.54,745.79,748.13,750.64,753.94,757.23,761.33,766.21,771.38,775.92,781.56,787.71,793.63,798.92,803.32,807.15,810.50,813.31,816.30,816.73,815.00,812.00,808.59,805.58,804.10,804.65,806.61,809.85,813.76,817.44,819.73,821.70,824.36,827.38,830.30,832.82,837.42,842.44,846.87,849.98,852.26,854.22,856.21,858.34,859.78,860.25,860.02,859.36,859.03,859.83,860.65,861.40,862.65,864.63,866.15,867.04,867.35,867.61,867.49,867.27,867.28,867.99,868.94,870.79,873.48,876.76,879.67,882.71,885.55,888.30,892.09,896.43,900.61,904.40,908.10,914.28,922.52,929.36,932.21,933.63,934.95,936.47,938.36,940.80,943.75,946.82,950.02,953.40,956.44,958.90,960.53,961.25,961.56,961.61,961.38,961.06,961.22,963.26,965.13,966.54,967.58,968.25,968.62,969.01,969.92,972.38,975.52,978.38,980.82,982.90,984.63,986.40,988.03,989.21,989.52,988.83,989.33,991.33,994.16,997.18,999.27,999.86,998.51,996.40,992.88,989.32,986.84,986.85,989.18,994.43,999.91,1002.07,1004.35,1006.91,1009.39,1011.56,1013.44,1015.79,1018.40
647.51,648.03,648.46,648.54,648.36,647.98,647.44,646.91,646.38,645.93,645.58,645.30,645.57,646.61,648.07,649.53,650.80,652.02,653.30,654.66,655.97,657.23,658.41,659.29,659.40,659.22,658.95,658.69,658.49,658.41,657.93,656.76,655.00,653.25,651.45,647.78,642.94,638.96,639.19,641.49,644.31,647.02,649.52,652.09,654.89,657.52,659.11,660.40,661.87,663.10,663.68,664.03,664.00,664.40,665.40,666.49,667.80,669.24,670.70,672.07,673.54,674.72,675.59,676.19,676.78,677.55,678.45,679.28,679.72,680.49,681.49,682.56,683.62,684.53,685.33,686.15,687.05,687.88,688.62,689.18,689.67,690.24,690.86,691.33,691.34,690.96,691.42,692.34,693.94,696.10,698.50,701.51,705.03,708.31,710.60,712.00,713.74,715.63,717.67,720.24,722.09,724.08,726.43,729.02,731.35,733.78,736.07,737.94,739.25,740.04,740.88,741.93,743.00,742.65,742.00,741.93,743.05,744.58,746.46,748.49,750.78,753.85,756.94,761.03,766.07,771.49,775.93,781.48,787.79,794.13,799.33,803.83,807.87,811.41,814.27,817.09,817.97,816.95,814.47,812.22,809.73,807.34,805.61,805.71,807.50,810.50,813.98,817.18,820.32,824.65,829.06,832.71,836.44,841.15,845.88,850.06,853.16,855.86,858.12,860.23,862.42,864.21,864.88,864.82,864.39,864.31,865.22,866.34,867.57,869.25,871.47,873.05,873.84,873.86,873.58,872.88,872.08,871.33,870.59,869.92,870.56,872.52,875.76,879.81,883.93,887.66,891.25,896.23,900.50,903.93,907.03,911.08,918.37,925.92,931.16,932.75,933.81,935.24,936.96,938.89,941.04,944.00,947.04,950.20,953.82,957.58,960.31,961.74,961.94,962.05,962.13,962.09,962.02,962.44,965.06,967.35,968.93,969.86,970.35,970.52,970.74,971.57,974.10,977.21,979.82,982.11,984.54,986.54,988.40,990.23,991.86,992.66,991.86,991.35,992.09,994.82,997.96,1000.39,1001.87,1002.16,1001.26,997.59,993.32,989.75,987.88,988.83,992.81,997.54,1000.09,1002.36,1004.89,1007.41,1009.70,1011.89,1015.02,1018.31
646.84,647.32,647.81,648.00,647.71,647.20,646.67,646.18,645.66,645.14,644.65,644.30,644.80,645.92,647.29,648.62,650.13,651.58,652.96,654.27,655.52,656.82,657.97,658.70,658.54,658.32,658.08,657.86,657.68,657.42,656.70,655.42,653.72,652.03,649.92,645.22,639.87,637.52,639.52,642.11,644.63,647.11,649.60,652.53,655.46,658.25,660.99,663.86,666.51,668.17,668.16,667.52,667.09,667.34,668.25,669.26,670.27,671.64,673.04,674.04,675.29,675.55,675.60,675.93,676.37,677.22,678.26,679.22,679.71,680.44,681.42,682.50,683.58,684.63,685.65,686.70,687.81,688.88,689.70,690.28,690.72,691.11,691.70,692.25,692.60,692.83,693.54,694.77,696.29,697.85,699.17,701.25,704.13,706.98,709.03,710.53,712.19,714.19,716.58,719.29,721.73,724.17,726.77,729.75,733.00,736.15,738.89,740.90,741.86,742.44,743.21,744.21,745.07,744.80,744.30,744.46,745.87,747.08,747.95,749.19,751.21,754.08,757.13,761.31,766.38,771.60,776.10,781.33,787.27,793.60,799.33,803.96,808.10,811.92,815.23,818.21,819.61,819.40,817.73,815.89,813.64,811.31,809.12,807.36,806.68,808.01,810.85,814.32,818.51,824.25,829.91,834.36,838.65,843.40,847.96,851.97,855.19,858.33,861.02,863.62,866.43,868.65,869.39,869.48,869.55,870.28,871.17,872.35,873.93,876.00,877.81,879.18,880.05,880.33,880.13,879.70,879.26,878.74,877.70,875.75,874.05,873.37,874.83,879.33,883.93,888.90,894.45,899.60,903.13,906.11,909.63,915.10,921.05,926.78,930.49,931.06,931.52,934.35,937.56,940.22,942.32,944.98,947.94,951.22,954.97,958.75,961.52,962.85,962.72,962.39,962.14,962.45,963.10,963.61,965.86,968.49,970.68,971.94,972.64,973.09,973.68,974.68,976.41,978.87,981.15,983.37,985.93,988.21,990.30,992.30,994.14,995.37,994.89,994.58,994.90,995.85,998.86,1001.36,1003.24,1004.46,1003.68,1001.19,997.64,993.81,991.34,989.90,990.58,992.96,996.27,999.29,1001.93,1004.49,1007.11,1009.74,1013.16,1017.20
646.18,646.67,647.21,647.42,647.01,646.36,645.80,645.33,644.81,644.26,643.73,643.33,643.95,645.08,646.50,648.16,649.92,651.38,652.72,654.03,655.30,656.61,657.43,657.67,657.40,657.17,656.94,656.73,656.56,656.29,655.63,654.40,652.73,650.97,647.50,642.51,638.16,637.44,640.01,642.69,645.15,647.59,650.27,653.63,656.86,659.88,663.11,666.57,668.92,670.07,670.06,669.54,669.30,669.66,670.57,671.53,672.11,672.59,673.03,673.46,674.24,674.30,674.31,674.69,675.26,676.21,677.41,678.65,679.59,680.38,681.33,682.39,683.47,684.55,685.63,686.75,687.91,689.05,689.95,690.58,691.01,691.40,691.86,692.36,692.80,693.24,694.10,695.15,696.33,697.52,698.56,699.95,701.91,704.05,705.99,707.74,709.50,711.51,713.92,716.75,719.56,722.35,725.21,728.36,731.88,735.54,738.93,741.64,743.38,744.53,745.55,746.49,747.17,746.97,746.69,747.09,748.60,749.97,750.70,751.60,753.17,755.59,758.35,762.06,766.64,771.72,776.20,780.95,786.25,792.27,798.93,803.83,808.02,811.93,815.49,818.68,820.67,821.37,820.69,819.27,817.44,815.29,812.88,810.46,808.58,808.21,809.35,811.98,816.62,822.27,827.61,832.02,836.57,841.45,846.58,851.41,854.79,858.36,861.40,864.25,867.35,870.08,871.96,873.10,873.86,875.33,876.38,877.63,879.19,880.95,882.93,884.50,885.56,886.03,885.86,885.37,884.82,884.18,883.09,881.11,878.64,876.38,875.67,879.08,883.77,889.88,896.95,901.82,905.19,908.67,912.73,917.34,921.59,925.52,928.60,930.50,932.63,936.21,939.52,941.98,944.07,946.51,949.33,952.60,956.38,959.94,962.67,963.74,962.93,961.86,961.50,962.15,963.39,964.46,966.41,968.54,970.44,971.90,973.21,974.55,975.93,977.40,979.13,980.92,982.64,984.61,987.22,989.70,992.08,994.35,996.41,998.01,998.09,997.98,998.03,998.18,999.99,1002.04,1004.08,1005.90,1006.50,1004.72,1001.53,998.04,996.36,995.35,994.63,994.33,994.97,996.76,999.36,1002.28,1005.35,1008.59,1012.34,1016.64
645.56,646.07,646.64,646.87,646.36,645.59,644.98,644.44,643.89,643.34,642.80,642.36,643.05,644.27,645.91,648.03,649.94,651.35,652.61,653.90,655.20,656.40,656.78,656.48,656.14,655.87,655.64,655.44,655.28,655.11,654.63,653.53,651.78,649.50,644.61,639.75,636.89,637.83,640.55,643.23,645.72,648.23,651.16,654.89,658.43,661.65,665.00,668.40,670.04,670.61,670.81,670.80,670.91,671.37,672.13,672.83,672.86,672.26,671.63,671.66,672.10,672.33,672.61,673.17,673.94,674.96,676.28,677.80,679.22,680.24,681.22,682.26,683.34,684.42,685.50,686.59,687.70,688.77,689.69,690.37,690.87,691.29,691.58,691.94,692.33,692.80,693.75,694.56,695.42,696.43,697.55,698.54,699.78,701.27,702.99,704.83,706.59,708.57,710.90,713.68,716.71,719.77,722.87,726.14,729.70,733.67,737.64,741.20,743.92,745.94,747.49,748.63,749.26,749.14,749.12,749.75,751.29,752.93,753.88,754.69,755.83,757.68,760.09,763.23,767.14,771.84,776.13,780.38,785.05,790.74,798.24,803.40,807.61,811.53,815.20,818.59,821.15,822.80,823.28,822.32,820.92,819.03,816.62,814.07,811.62,809.93,809.33,810.58,814.85,819.65,824.09,828.17,833.20,838.71,844.70,850.29,853.52,857.33,860.66,863.69,866.88,870.02,873.24,875.76,877.47,879.50,880.74,882.08,883.61,885.05,887.38,889.36,890.81,891.63,891.54,890.98,890.14,889.07,887.75,885.96,883.14,879.74,877.16,879.04,883.79,890.85,898.97,903.54,907.02,911.07,915.41,918.70,921.64,924.32,927.23,930.73,934.69,938.40,941.23,943.29,945.46,947.94,950.80,954.13,957.87,960.99,963.46,964.12,962.58,960.81,960.58,961.59,963.24,964.74,966.27,967.74,969.22,970.89,972.89,975.16,977.35,979.41,981.51,983.09,984.44,986.06,988.47,991.03,993.65,996.17,998.45,1000.29,1001.00,1001.24,1001.25,1001.08,1001.70,1003.16,1005.06,1007.06,1008.99,1007.96,1005.23,1002.25,1001.40,1001.66,1000.63,998.31,995.82,995.74,997.63,1000.55,1004.09,1007.94,1011.99,1016.32
645.03,645.62,646.19,646.40,645.93,645.15,644.42,643.65,642.97,642.37,641.82,641.34,642.11,643.78,646.01,648.46,650.25,651.56,652.75,653.96,655.24,655.93,655.85,655.26,654.74,654.36,654.12,653.93,653.79,653.93,653.68,652.75,650.66,646.50,641.14,636.94,635.51,638.17,641.03,643.72,646.26,648.87,652.07,655.96,659.60,662.85,665.90,668.15,669.55,670.36,670.79,671.28,671.61,671.77,671.74,671.45,670.71,669.38,668.33,668.78,669.64,670.42,671.13,671.86,672.69,673.72,675.05,676.61,678.20,679.80,681.06,682.13,683.21,684.29,685.38,686.35,687.19,687.99,688.70,689.46,690.15,690.46,690.56,690.70,690.88,691.23,692.18,693.13,694.15,695.33,696.70,698.04,699.51,700.88,701.92,703.07,704.35,706.19,708.58,710.76,713.71,716.89,720.18,723.70,727.21,731.06,735.22,739.38,742.52,745.44,748.10,750.23,751.28,751.31,751.55,752.39,753.92,755.69,757.01,758.06,759.02,760.20,762.38,765.29,768.56,771.86,775.57,779.44,783.84,789.45,797.01,802.28,806.48,810.32,813.95,817.42,820.34,822.93,825.00,824.58,823.51,821.98,819.97,817.66,815.32,813.54,812.30,811.67,813.52,816.73,820.19,824.01,830.62,838.35,845.26,850.21,852.23,855.68,859.22,862.49,865.50,868.54,872.46,876.45,879.78,881.80,883.10,884.63,886.48,888.45,891.04,893.62,895.99,897.79,898.02,897.81,896.62,894.44,892.02,889.68,886.00,881.70,878.65,879.41,884.60,892.18,900.20,904.90,908.77,912.50,916.10,919.32,922.61,925.86,929.04,932.21,935.82,938.37,940.48,942.59,945.10,948.38,951.99,955.73,959.30,961.55,963.08,963.01,961.04,959.10,959.49,960.91,962.50,963.51,964.07,965.36,967.14,969.11,971.63,974.24,976.85,979.49,982.34,985.26,987.08,988.22,989.68,991.99,994.61,997.30,999.77,1001.45,1002.79,1003.84,1004.45,1004.37,1005.09,1006.08,1007.12,1008.27,1009.91,1010.24,1008.81,1006.20,1004.69,1005.66,1005.69,1003.98,1000.85,999.05,998.25,999.57,1003.48,1007.76,1011.95,1016.11
644.59,645.21,645.77,645.93,645.48,644.75,643.97,643.13,642.37,641.67,640.99,640.41,641.16,643.22,646.02,648.83,650.55,651.79,652.92,654.03,655.10,655.26,654.80,654.08,653.47,652.94,652.62,652.47,652.50,652.83,652.81,652.13,649.96,644.63,639.30,635.64,634.93,638.27,641.19,643.82,646.38,649.14,652.59,656.75,660.23,662.73,664.46,665.85,667.31,668.74,669.95,670.81,671.12,670.97,670.32,668.98,667.35,665.68,664.92,666.16,667.29,668.07,668.98,670.24,671.36,672.47,673.72,675.16,676.95,679.04,680.67,681.90,682.87,683.68,684.41,685.02,685.54,686.23,686.83,687.56,688.21,688.45,688.91,689.57,690.20,690.80,691.86,692.96,694.18,695.56,697.13,698.72,700.63,702.39,703.52,704.44,705.26,706.23,707.46,708.93,711.17,714.10,717.56,721.40,725.07,728.81,732.86,737.12,740.50,743.75,746.87,749.58,751.34,752.31,753.26,754.47,756.05,757.84,759.33,760.51,761.46,762.41,764.14,766.54,769.22,771.87,775.46,779.29,783.47,788.47,794.85,800.21,804.71,808.68,812.53,816.05,819.47,822.95,826.11,826.91,826.37,825.09,823.24,821.03,819.31,817.94,816.75,815.84,816.54,819.32,822.94,827.00,832.89,841.63,848.50,852.15,853.84,856.01,858.36,860.93,863.96,867.09,871.22,875.78,879.95,882.36,884.20,886.13,888.26,890.56,893.24,896.11,898.65,900.35,900.88,900.70,899.65,897.66,894.90,892.10,888.24,883.95,880.85,881.51,886.68,893.71,900.70,905.44,909.51,912.99,916.06,919.12,922.56,926.26,929.69,932.46,935.03,936.83,938.45,940.34,943.13,947.88,952.39,956.37,959.85,961.61,962.21,961.53,959.47,957.08,957.85,959.50,960.87,961.38,961.50,963.11,965.77,968.78,971.50,974.18,976.87,979.73,983.13,986.83,989.21,990.54,991.72,993.78,996.17,998.57,1000.72,1002.31,1003.86,1005.30,1006.48,1007.17,1008.03,1008.80,1009.50,1010.24,1011.38,1012.18,1011.41,1009.12,1007.39,1008.39,1009.62,1009.63,1007.48,1005.23,1002.50,1001.25,1003.03,1007.51,1012.16,1016.67
644.27,644.88,645.38,645.46,645.04,644.36,643.58,642.76,641.99,641.21,640.39,639.69,640.26,642.56,645.84,648.99,650.74,651.94,653.02,654.03,654.77,654.46,653.75,652.98,652.33,651.64,651.06,650.84,651.15,651.62,651.79,651.38,649.32,643.48,638.42,635.14,634.65,638.09,641.01,643.58,646.24,649.29,652.86,657.14,660.11,661.38,661.48,662.29,664.00,666.17,668.25,669.40,669.61,669.28,668.32,666.18,663.75,662.10,661.95,663.86,665.16,665.80,666.78,668.48,669.86,671.07,672.21,673.51,675.48,677.88,679.88,681.33,682.21,682.67,682.97,683.14,683.35,683.96,684.53,685.27,686.00,686.46,687.56,688.94,690.17,691.11,692.29,693.52,694.91,696.47,698.13,699.87,702.29,704.73,706.39,707.47,708.01,708.02,707.84,708.54,709.67,711.93,715.22,719.15,722.87,726.53,730.46,734.63,738.12,741.40,744.60,747.61,750.11,752.21,753.87,755.33,756.86,758.67,760.50,761.93,762.92,763.93,765.23,767.10,769.33,771.77,775.45,779.33,783.29,787.54,792.44,797.83,802.65,806.85,811.03,814.62,818.54,822.76,826.75,828.97,829.11,828.11,826.37,824.31,823.45,822.74,822.00,821.58,822.07,825.00,829.19,833.69,838.39,847.00,853.12,855.49,857.23,858.06,858.86,860.32,862.98,865.81,869.87,874.54,879.05,882.00,884.52,886.89,889.29,891.88,894.64,897.56,899.88,901.00,901.77,901.46,900.71,899.42,896.77,893.73,890.26,886.63,883.77,884.35,888.98,894.82,900.28,904.83,909.31,912.82,915.57,918.46,921.89,925.84,929.40,931.79,933.22,934.68,936.25,938.15,941.21,947.18,952.31,956.31,959.67,961.18,960.95,959.74,957.69,954.89,955.79,957.48,958.67,959.04,959.29,961.45,965.03,969.08,971.90,974.61,977.30,980.18,983.83,987.77,990.57,992.36,993.72,995.65,997.84,999.84,1001.45,1002.96,1004.44,1005.92,1007.39,1008.83,1009.77,1010.58,1011.35,1012.09,1012.86,1013.79,1013.38,1011.46,1009.84,1010.46,1012.67,1014.71,1014.38,1012.41,1008.29,1004.39,1003.18,1007.19,1012.18,1017.50
644.27,644.83,645.03,645.01,644.62,643.98,643.21,642.47,641.79,641.12,640.41,639.68,639.60,641.70,645.16,648.49,650.55,651.80,652.83,653.71,654.00,653.52,652.85,652.15,651.41,650.62,649.25,648.44,649.08,649.75,650.01,649.76,648.01,642.60,637.97,634.64,633.88,637.18,640.06,642.81,645.99,649.68,653.01,656.41,658.03,657.88,657.17,657.83,660.02,662.62,664.66,666.12,666.43,666.40,665.95,664.09,661.66,660.56,660.88,662.25,663.67,664.88,665.93,666.89,667.86,669.07,670.24,671.53,673.50,675.82,677.97,679.66,680.65,681.10,681.29,681.33,681.38,681.75,682.30,683.58,685.31,687.02,688.78,690.06,691.01,691.89,693.00,694.26,695.71,697.27,698.72,700.45,703.32,706.46,708.83,710.69,711.53,711.88,711.92,711.64,711.53,712.12,713.75,716.78,719.66,723.36,727.67,732.11,735.47,738.71,741.91,745.00,747.78,750.13,751.52,752.35,753.32,755.44,758.70,761.08,762.11,763.41,764.77,766.69,768.96,771.28,774.78,778.43,782.14,786.19,791.02,796.10,800.83,805.17,809.49,813.42,817.48,821.96,826.67,829.78,830.76,830.37,829.07,827.70,827.63,827.67,827.48,827.35,828.48,831.44,835.33,839.99,846.66,853.24,857.82,860.25,861.72,862.80,863.66,864.28,864.61,865.12,868.84,873.70,878.26,881.56,884.23,886.76,889.46,892.61,895.81,898.59,900.59,901.61,902.48,902.07,901.18,899.87,897.51,894.88,892.52,890.30,888.06,886.56,889.44,893.73,897.67,901.20,907.35,911.91,914.65,917.56,920.96,924.66,927.94,930.13,931.38,933.13,935.86,939.34,942.80,947.63,951.93,955.50,958.39,959.70,959.03,957.33,955.05,952.62,953.16,954.55,956.03,957.70,959.14,961.85,965.25,968.63,971.92,975.13,978.12,981.00,984.16,987.42,989.92,991.85,993.75,996.06,998.61,1000.70,1002.08,1003.35,1004.52,1005.48,1006.23,1006.90,1007.63,1008.98,1010.50,1011.75,1013.09,1014.74,1014.95,1013.54,1012.38,1012.36,1014.51,1017.58,1019.22,1017.84,1012.83,1007.81,1005.48,1006.81,1011.01,1017.78
644.26,644.54,644.52,644.45,644.18,643.70,643.04,642.38,641.75,641.16,640.56,639.81,638.95,640.71,644.20,647.61,650.10,651.47,652.46,653.26,653.33,652.75,652.04,651.25,650.09,648.18,646.24,645.34,646.09,646.85,647.21,647.13,645.92,642.03,637.98,634.53,633.17,635.64,638.48,641.84,645.79,649.90,652.55,654.45,654.81,653.88,652.82,653.01,655.15,657.98,660.36,662.23,662.89,663.23,663.36,662.42,660.32,659.71,660.47,661.72,663.57,665.42,666.83,667.63,668.17,668.87,669.54,670.37,671.86,673.80,675.79,677.46,678.49,679.08,679.31,679.61,680.21,681.16,682.06,683.55,685.60,687.86,689.78,691.00,691.88,692.72,693.73,695.01,696.39,697.76,699.03,700.87,704.05,707.64,710.61,713.12,714.79,716.09,716.84,716.19,715.29,714.75,714.93,716.27,717.65,720.42,724.26,728.67,732.48,735.79,739.06,742.28,745.06,747.19,748.32,748.91,749.65,751.52,754.51,757.29,759.44,761.65,763.13,765.03,767.43,770.08,773.37,776.69,780.25,784.44,789.77,794.74,799.37,803.76,808.01,812.16,816.37,820.91,825.81,829.63,831.40,832.03,831.84,831.04,831.31,831.66,831.91,832.57,834.57,838.01,842.05,846.63,853.08,857.93,861.52,864.11,865.82,867.27,868.38,868.79,868.03,866.62,868.85,872.94,877.45,881.03,883.78,886.50,889.50,892.90,896.33,899.10,901.06,902.21,903.19,902.77,901.78,900.46,898.53,896.39,895.05,894.15,892.93,890.90,891.95,894.15,896.36,899.05,905.07,910.02,913.32,916.41,919.89,923.08,925.78,927.85,929.37,931.80,935.37,939.60,943.19,947.13,950.75,953.80,955.95,956.73,955.84,954.08,952.12,951.00,952.45,954.61,956.95,959.80,962.63,965.39,967.98,970.36,972.97,975.60,978.34,981.06,983.33,985.60,987.65,989.64,991.85,994.28,996.99,999.36,1001.02,1002.23,1003.23,1003.92,1004.64,1006.14,1007.52,1009.00,1010.36,1011.50,1013.15,1015.28,1016.38,1016.11,1015.59,1015.53,1016.85,1019.35,1022.10,1022.16,1018.28,1013.44,1009.79,1008.54,1010.70,1017.17
644.11,644.00,643.88,643.80,643.70,643.46,642.99,642.39,641.77,641.22,640.69,639.88,638.31,639.73,643.17,646.61,649.55,651.06,651.99,652.69,652.67,652.07,651.11,649.82,647.89,644.45,642.20,641.51,642.24,643.09,643.61,643.73,643.20,641.35,638.06,634.59,632.52,633.65,636.57,640.74,645.36,649.48,651.17,651.42,650.76,649.71,648.97,648.76,650.46,653.17,655.89,658.08,659.20,659.96,660.63,660.89,659.33,659.18,660.38,661.99,664.41,666.80,668.72,669.86,670.14,670.18,670.14,670.24,671.00,672.38,673.93,675.31,676.34,677.15,677.60,678.46,680.04,682.10,683.57,685.00,686.70,688.75,690.41,691.62,692.61,693.49,694.45,695.70,696.92,698.02,699.16,701.21,704.57,708.38,711.77,714.75,717.48,719.98,721.75,721.49,720.41,719.33,718.48,717.89,717.54,718.68,721.22,725.02,729.32,732.78,736.15,739.48,742.06,743.72,744.67,745.38,746.26,747.57,749.20,751.86,755.56,758.86,760.58,762.48,765.07,768.29,771.40,774.52,778.03,782.51,788.49,793.47,798.04,802.46,806.58,810.83,815.18,819.67,824.31,828.61,831.04,832.81,834.13,834.01,834.47,834.94,835.58,837.27,840.21,844.26,848.64,852.95,857.54,861.20,864.34,867.09,869.32,871.11,872.48,873.17,872.49,869.75,869.67,872.22,876.63,880.46,883.33,886.29,889.57,893.00,896.48,899.29,901.37,902.75,903.91,903.57,902.57,901.31,899.88,898.25,897.70,897.84,897.75,896.57,896.22,896.34,896.92,898.88,903.20,907.73,911.72,915.13,918.83,921.43,923.47,925.49,927.38,930.43,934.32,938.48,942.06,945.52,948.69,951.22,952.49,952.62,951.76,950.50,949.54,950.36,953.53,957.09,960.53,964.26,968.24,970.72,972.33,973.81,975.25,976.79,978.95,981.38,982.64,983.87,985.38,987.19,989.23,991.27,993.73,996.27,998.49,999.87,1000.94,1001.85,1003.33,1006.72,1009.17,1010.46,1011.12,1011.79,1013.46,1015.76,1017.71,1018.87,1019.13,1019.48,1019.67,1020.68,1023.72,1025.58,1024.23,1020.58,1015.77,1012.44,1012.02,1016.54
643.38,643.22,643.17,643.14,643.05,642.91,642.69,642.20,641.57,641.00,640.43,639.42,637.72,639.17,642.76,646.35,649.42,650.85,651.56,651.91,651.63,651.08,649.09,645.93,642.70,639.57,637.29,636.38,637.20,638.62,639.54,640.04,639.99,638.90,636.79,634.02,631.70,631.68,635.19,639.53,643.48,646.31,647.31,647.10,646.20,645.77,647.58,648.68,650.01,651.46,652.74,654.17,655.57,656.85,657.95,658.72,657.89,658.35,660.12,662.34,664.91,667.41,669.44,670.76,671.60,672.27,672.41,672.27,672.73,673.53,674.42,675.33,676.29,677.40,678.52,680.07,682.20,684.63,686.54,687.85,688.80,689.70,690.83,691.93,693.00,694.04,695.03,696.05,697.10,698.17,699.31,701.53,704.92,708.65,712.04,715.34,718.45,721.60,724.59,726.31,726.30,725.44,724.33,723.34,722.44,722.14,722.52,723.85,726.49,730.06,733.54,736.51,738.74,739.96,740.92,741.95,743.23,744.69,746.40,748.71,751.69,754.79,757.21,759.77,762.74,766.10,769.44,772.90,776.62,780.96,786.60,791.42,796.06,800.72,805.14,809.39,813.70,818.05,822.34,826.27,828.84,831.11,833.44,835.25,836.97,838.25,839.41,841.38,844.98,848.58,852.23,856.13,859.98,863.45,866.65,869.49,871.58,873.47,875.12,876.28,876.16,873.06,870.77,871.62,875.84,879.91,883.23,886.54,890.01,893.57,897.20,899.82,901.67,903.09,904.47,904.45,903.67,902.55,901.46,900.34,899.97,900.18,900.56,900.63,900.92,901.19,901.42,902.24,904.32,907.01,910.17,914.09,918.22,920.82,922.76,924.73,926.11,928.31,931.28,934.91,938.92,942.23,945.10,947.19,947.84,947.92,947.87,948.27,949.62,952.23,956.23,960.22,963.95,967.79,971.25,973.75,975.69,977.56,979.83,982.05,984.24,986.20,987.33,988.14,988.84,989.45,989.86,990.00,990.90,992.56,994.78,996.71,998.64,1001.20,1004.56,1008.50,1010.70,1011.98,1012.92,1013.89,1015.28,1017.21,1019.05,1020.54,1021.70,1022.44,1022.63,1023.24,1025.62,1027.98,1028.64,1027.07,1023.32,1019.49,1018.00,1019.22
642.61,642.41,642.39,642.39,642.31,642.21,642.06,641.67,641.10,640.34,639.32,637.98,637.33,639.34,642.93,646.38,649.35,650.63,651.07,651.05,650.32,648.16,644.88,641.04,637.45,634.67,632.49,631.34,631.84,633.43,634.64,635.49,635.89,635.45,634.37,632.51,630.67,630.37,633.31,637.18,640.26,641.90,643.00,643.99,644.76,645.97,648.88,650.69,651.90,652.62,652.88,653.44,654.39,655.37,656.20,656.85,656.92,657.98,659.97,662.35,664.86,667.31,669.25,670.47,671.52,672.89,673.83,674.33,674.87,675.37,675.96,676.65,677.52,678.73,680.27,682.30,684.78,687.25,689.05,690.04,690.44,690.63,691.39,692.41,693.52,694.63,695.56,696.38,697.30,698.33,699.46,701.89,705.22,708.75,712.08,715.53,718.89,722.64,726.63,729.54,730.62,730.43,729.78,729.40,728.57,727.56,726.65,726.24,727.04,729.32,731.87,734.26,736.45,737.94,739.35,740.94,742.78,744.56,746.12,747.66,749.43,751.76,754.40,757.47,760.85,764.34,768.01,771.82,775.65,779.65,784.55,788.97,793.33,797.80,802.32,806.76,811.32,815.82,819.95,823.62,826.34,829.05,832.10,835.06,837.65,839.85,842.03,844.90,848.50,851.52,854.56,858.15,861.76,865.25,868.50,871.32,873.38,875.35,877.23,878.76,879.06,875.97,872.75,872.31,875.50,879.59,883.23,886.78,890.33,893.75,897.25,899.76,901.53,902.91,904.43,905.16,904.97,904.11,903.23,902.38,901.91,902.01,902.82,903.72,904.59,905.33,905.87,906.24,907.05,908.46,910.67,914.15,918.12,921.11,923.53,925.65,926.84,928.29,930.19,932.83,936.67,939.83,942.90,945.43,946.53,947.27,948.37,950.15,952.72,955.58,958.78,962.17,965.73,969.49,972.89,975.76,978.29,980.77,983.84,986.46,988.52,990.04,991.16,991.97,992.67,993.16,993.20,992.93,993.15,994.18,995.97,997.55,999.25,1001.80,1005.05,1008.26,1010.62,1012.22,1013.64,1015.28,1016.94,1018.68,1020.29,1021.66,1022.75,1023.61,1024.28,1025.25,1027.19,1029.26,1031.18,1031.58,1029.57,1026.11,1023.68,1022.33
641.88,641.63,641.56,641.56,641.55,641.44,641.14,640.75,640.21,639.06,637.32,635.88,637.29,640.21,643.54,646.55,649.24,650.30,650.43,649.92,648.47,643.35,638.82,635.63,632.67,630.00,627.99,626.79,626.73,628.00,629.24,630.29,631.06,631.32,631.01,630.20,629.50,629.78,631.04,634.04,636.51,637.65,639.72,643.11,646.89,650.35,652.59,654.27,655.53,656.25,656.25,656.10,655.96,655.83,655.72,655.72,656.63,658.15,660.00,662.00,664.25,666.54,668.27,669.18,670.04,671.92,674.04,675.86,676.89,677.45,678.17,678.97,679.74,680.83,682.46,684.68,687.28,689.50,690.70,691.25,691.43,691.54,692.15,693.13,694.23,695.30,696.05,696.76,697.59,698.52,699.64,702.30,705.48,708.75,712.02,715.47,719.02,723.32,728.00,731.05,733.03,733.86,734.31,735.26,734.93,734.00,732.92,731.92,731.16,730.95,731.67,733.36,735.80,738.16,740.37,742.68,745.20,747.26,748.30,748.82,749.32,750.58,752.77,755.82,759.38,763.09,767.16,771.19,774.98,778.53,782.38,786.19,789.89,793.66,797.92,802.66,807.81,812.84,817.15,820.87,823.88,827.00,830.46,833.57,836.44,839.50,843.16,847.68,850.75,853.27,856.02,859.42,863.13,866.73,869.90,872.59,874.86,876.93,878.99,880.76,881.26,878.52,875.70,874.44,875.68,879.51,883.24,886.92,890.41,893.37,896.46,898.98,900.86,902.20,903.81,905.55,906.29,905.89,905.16,904.33,903.61,903.55,904.74,905.97,907.07,908.27,909.55,910.32,911.01,912.01,913.45,915.55,918.72,922.34,925.67,928.09,929.55,930.70,931.71,933.15,936.24,939.26,942.96,946.65,949.18,951.13,953.47,956.03,958.45,960.08,961.17,963.11,966.04,969.54,973.45,976.97,980.15,983.23,986.62,988.96,990.54,991.65,992.72,993.80,995.28,996.89,998.13,999.25,1000.05,1001.00,1002.16,1002.62,1003.01,1003.74,1004.80,1006.24,1009.12,1011.26,1013.17,1015.68,1018.14,1019.88,1021.21,1022.08,1022.14,1022.99,1024.48,1026.39,1028.36,1029.61,1032.01,1033.96,1033.98,1031.70,1028.48,1025.60
641.20,640.85,640.78,640.81,640.86,640.77,640.34,639.38,638.09,636.37,634.96,635.98,638.35,640.98,643.62,646.31,648.78,649.58,649.01,647.16,644.13,639.21,634.87,631.47,628.36,625.86,624.12,623.68,624.87,625.75,626.23,626.70,627.29,627.93,628.24,628.50,628.84,629.43,630.40,634.03,637.95,641.11,644.90,647.85,650.74,653.63,656.00,657.80,658.92,659.45,659.43,659.31,658.84,658.21,657.56,656.99,657.07,658.34,660.19,661.81,663.54,665.42,667.02,668.16,669.37,671.34,673.61,675.85,677.62,678.83,679.89,680.84,681.69,682.83,684.31,686.25,688.48,690.23,691.22,691.86,692.28,692.47,692.93,693.84,694.89,695.84,696.52,697.20,697.94,698.76,699.90,702.71,705.76,708.84,712.06,715.38,718.94,723.34,728.25,731.70,734.27,736.18,737.75,739.09,739.23,738.73,737.97,737.04,735.89,735.28,735.63,736.96,739.11,741.24,743.59,746.23,749.00,750.91,751.98,752.53,752.84,753.50,754.54,755.74,757.79,761.94,766.39,770.46,774.05,777.17,780.21,783.27,786.35,789.40,792.50,796.97,802.65,808.61,813.87,818.34,821.91,825.10,828.22,831.60,834.64,838.12,842.74,848.92,852.26,854.89,857.58,860.63,864.29,867.93,871.07,873.68,876.04,878.35,880.72,882.66,883.24,881.74,879.36,877.17,876.47,879.56,883.09,886.68,889.97,892.41,895.04,897.61,899.79,901.43,903.18,905.07,906.54,907.30,907.07,906.38,905.49,905.14,906.13,907.66,909.28,910.91,912.52,914.00,915.02,916.04,917.18,918.56,921.13,924.82,928.32,930.65,932.30,933.82,935.32,937.21,940.33,943.62,947.31,950.93,953.82,956.36,958.78,961.07,963.06,964.46,965.33,966.53,968.26,970.55,973.93,977.72,981.39,984.55,987.13,988.31,988.82,989.20,990.00,991.01,992.60,994.72,997.28,999.94,1002.07,1004.01,1005.82,1006.95,1007.38,1007.59,1007.75,1008.02,1009.57,1011.34,1013.49,1016.25,1018.75,1020.05,1020.47,1020.28,1020.09,1021.83,1024.32,1026.93,1029.21,1030.65,1032.87,1035.12,1036.56,1036.62,1034.47,1030.65
640.51,639.96,639.78,639.82,639.67,639.32,638.66,637.27,635.51,634.18,634.22,637.04,639.59,641.71,643.78,646.12,647.84,647.98,646.81,644.25,640.10,635.65,631.27,627.28,624.32,622.50,622.18,623.42,625.84,626.47,626.37,626.31,626.58,627.18,627.70,628.55,629.57,630.59,632.42,636.52,641.28,645.71,649.83,652.05,653.98,656.17,658.58,660.56,661.75,662.33,662.49,662.60,662.12,661.29,660.27,659.14,658.14,658.68,660.19,661.61,663.04,664.63,666.16,667.53,669.02,671.08,673.37,675.70,677.94,679.74,681.18,682.41,683.52,684.73,686.06,687.65,689.37,690.62,691.49,692.27,692.94,693.31,693.68,694.54,695.51,696.32,696.97,697.64,698.32,699.10,700.33,703.14,706.10,709.03,712.14,715.36,718.84,723.16,728.04,731.77,734.77,737.49,739.89,741.51,742.26,742.14,741.66,741.00,740.05,739.62,740.26,741.85,743.74,745.38,747.44,749.94,752.63,754.54,755.84,756.69,757.17,757.57,757.73,757.44,757.84,760.93,765.16,769.11,772.48,775.25,777.77,780.25,782.94,785.80,788.73,793.03,798.74,805.18,811.66,817.73,822.08,825.28,827.88,830.99,834.16,837.80,842.74,849.72,853.39,856.29,859.07,861.98,865.49,868.99,872.08,874.74,877.25,879.81,882.48,884.69,885.59,885.30,883.70,881.08,878.64,879.93,883.03,886.61,889.91,892.29,894.72,896.88,898.85,900.71,902.62,904.51,906.45,908.12,908.69,908.32,907.40,906.74,907.26,908.78,910.86,913.03,915.13,917.22,918.96,920.41,921.55,922.40,924.34,927.53,930.66,932.82,934.70,936.64,938.84,941.45,944.70,948.22,951.83,955.25,958.21,960.94,963.29,965.30,966.95,968.31,969.40,970.36,971.40,973.03,975.66,979.12,982.46,984.83,986.20,986.45,986.20,985.94,986.35,987.12,988.78,991.35,994.81,998.57,1001.90,1004.90,1007.55,1009.54,1010.39,1010.66,1010.63,1010.50,1011.12,1012.54,1014.48,1016.63,1018.29,1018.93,1018.75,1018.36,1019.23,1021.63,1024.46,1027.21,1029.56,1031.36,1033.34,1035.50,1037.65,1039.35,1038.90,1035.77
639.79,638.89,638.45,638.40,637.70,636.68,635.67,634.26,632.77,633.29,635.94,638.80,640.71,642.38,644.20,646.06,646.31,645.27,643.75,641.57,637.27,632.70,627.60,622.87,620.70,620.40,623.06,626.87,629.88,630.56,630.39,630.13,630.06,630.18,630.38,631.12,632.27,633.96,637.79,641.66,645.62,649.45,651.67,653.61,655.65,657.80,659.90,662.07,663.71,664.80,665.39,665.84,665.62,664.87,663.64,661.98,660.06,659.38,659.95,661.38,662.89,664.45,665.97,667.42,668.92,671.20,673.59,675.87,678.13,680.24,682.04,683.69,685.27,686.48,687.75,689.03,690.18,690.99,691.77,692.58,693.37,694.02,694.41,695.21,696.06,696.73,697.40,698.05,698.71,699.55,700.99,703.65,706.52,709.38,712.31,715.45,718.80,722.86,727.48,731.25,734.49,737.58,740.38,742.41,743.98,744.14,743.77,743.49,743.19,743.17,744.62,747.16,749.00,750.13,751.53,753.38,755.65,757.87,759.49,760.72,761.62,762.07,762.04,761.37,760.46,760.40,763.47,767.01,770.14,772.67,775.03,777.27,780.01,783.52,787.91,792.38,797.40,803.51,811.26,819.74,825.12,828.42,830.53,832.66,835.90,839.45,843.88,850.29,854.16,857.34,860.41,863.53,866.74,869.93,872.97,875.84,878.59,881.40,884.32,886.92,888.60,889.27,888.87,886.54,882.68,880.83,883.21,886.89,890.51,893.51,896.16,897.36,898.38,900.23,902.23,904.23,906.24,908.24,909.87,910.10,909.32,908.38,908.25,909.29,911.62,914.46,917.34,919.83,922.66,924.99,926.46,926.92,928.13,930.19,932.42,934.40,936.52,938.79,941.55,944.79,948.07,951.63,955.25,958.65,961.53,964.10,966.51,968.52,970.03,971.33,972.76,973.98,975.25,977.30,979.12,981.43,983.27,983.75,983.74,983.72,983.33,982.71,982.73,983.18,985.06,988.08,991.75,995.95,1000.05,1003.86,1007.17,1009.67,1011.10,1011.88,1012.31,1012.71,1013.51,1014.83,1016.03,1016.53,1016.44,1016.23,1016.14,1016.96,1020.39,1022.77,1024.94,1027.10,1029.15,1031.27,1033.14,1035.02,1037.03,1038.99,1040.51,1040.22
638.92,637.67,636.86,636.29,635.25,634.03,632.88,631.68,632.17,634.31,637.42,639.85,641.41,642.93,644.39,645.26,644.95,643.52,641.49,638.72,634.20,628.98,624.04,620.40,619.86,621.70,625.66,629.88,632.71,633.64,633.69,633.65,633.79,634.01,634.28,635.02,636.22,638.17,642.34,645.09,647.34,649.63,651.05,652.98,655.14,657.34,659.53,661.80,664.10,666.22,667.93,669.01,669.03,668.52,667.61,666.02,663.75,661.68,660.63,661.47,662.91,664.61,666.20,667.55,669.02,671.39,674.05,676.71,679.30,681.53,683.53,685.37,686.96,688.09,689.09,690.00,690.82,691.52,692.29,693.05,693.81,694.51,695.11,695.80,696.49,697.12,697.76,698.38,699.05,700.02,701.93,704.59,707.38,710.12,712.85,715.77,718.80,722.50,726.82,730.67,733.97,737.09,739.97,742.34,744.70,746.00,746.47,746.36,746.23,746.59,748.31,750.88,752.50,753.66,755.10,756.93,759.12,761.19,763.00,764.57,765.81,766.49,766.70,766.19,765.02,763.76,764.82,766.87,769.09,771.25,773.61,776.43,780.40,785.37,790.35,794.63,799.15,804.69,811.99,820.03,826.57,831.01,833.51,835.84,838.96,842.29,846.06,850.76,854.54,858.00,861.25,864.31,867.43,870.66,873.88,877.01,879.90,882.98,886.08,889.15,892.03,894.18,894.24,891.75,887.09,883.37,883.76,886.67,890.55,894.01,897.36,899.21,900.35,901.55,903.12,904.98,906.91,908.88,910.81,912.02,911.64,910.59,910.19,910.58,912.72,915.62,918.70,921.64,925.03,927.86,929.81,930.78,931.47,932.92,934.60,936.03,937.83,940.49,943.67,947.09,950.46,954.18,957.69,960.83,963.54,966.24,968.68,970.61,972.01,973.51,975.18,976.70,978.13,979.73,980.77,981.43,981.30,980.29,980.34,980.38,979.82,979.33,980.99,981.84,983.47,986.15,989.91,994.64,999.39,1003.34,1006.16,1008.53,1010.24,1011.31,1011.95,1012.51,1013.16,1013.95,1014.50,1014.43,1014.02,1013.58,1014.04,1015.91,1019.06,1020.95,1022.75,1024.78,1027.05,1029.83,1031.92,1033.59,1035.22,1037.44,1039.82,1041.39
637.91,636.42,635.27,634.19,632.97,631.66,630.53,630.24,632.48,635.60,638.58,640.55,641.89,643.17,644.11,644.07,643.52,641.88,639.29,635.64,630.83,625.27,621.05,619.17,620.78,624.45,628.74,632.60,635.24,636.49,637.04,637.53,638.12,638.72,639.51,640.48,641.70,643.58,647.05,648.71,649.62,650.58,651.55,653.27,655.15,657.00,658.91,661.18,664.03,667.08,669.81,671.70,672.23,672.15,671.60,670.20,667.88,664.97,662.62,662.34,663.20,664.90,666.63,668.04,669.54,671.97,674.84,677.83,680.65,682.98,685.16,687.09,688.53,689.48,690.20,690.84,691.45,692.13,692.88,693.61,694.31,695.01,695.75,696.35,696.91,697.50,698.10,698.71,699.45,700.65,703.04,705.76,708.41,710.98,713.53,716.24,718.94,722.29,726.31,730.04,733.29,736.36,739.28,742.03,745.07,747.52,748.95,749.22,749.17,749.90,751.73,754.07,755.53,756.88,758.56,760.58,762.74,764.54,766.49,768.42,770.06,770.99,771.42,771.04,769.88,768.19,767.64,768.40,769.84,771.66,773.91,776.72,781.21,786.98,792.12,796.44,800.86,806.01,812.44,819.47,826.61,831.97,835.11,838.10,841.47,844.95,848.34,851.58,855.13,858.69,861.97,864.87,867.90,871.25,874.72,878.12,881.25,884.55,887.87,891.37,895.14,898.17,898.46,895.91,890.93,886.03,884.51,886.56,890.56,894.17,897.94,900.54,902.14,903.12,904.48,906.18,907.99,909.84,911.78,913.68,913.97,913.33,912.93,913.02,914.45,916.77,919.69,922.82,926.27,929.28,931.66,933.37,934.18,935.50,936.89,937.92,939.32,942.18,945.58,949.05,952.47,956.23,959.57,962.41,964.91,967.58,969.87,971.66,973.04,974.71,976.48,978.01,979.22,980.02,980.14,979.27,977.64,975.97,976.61,977.55,977.78,978.09,981.20,982.79,984.24,986.26,989.36,993.76,998.62,1002.38,1004.46,1006.48,1008.36,1009.65,1010.42,1010.96,1011.42,1011.76,1011.90,1011.73,1011.36,1011.22,1012.25,1014.47,1016.56,1018.07,1019.78,1021.95,1024.71,1027.80,1029.82,1031.37,1033.07,1035.59,1038.26,1040.73
636.71,635.19,633.80,632.51,631.24,629.91,629.07,630.96,633.53,636.40,639.16,640.89,642.11,642.81,642.96,642.45,641.84,639.96,636.73,632.16,626.94,622.02,619.21,619.47,623.94,628.39,631.85,634.90,637.81,639.39,640.93,642.34,643.57,644.81,646.83,648.42,649.66,651.00,652.56,653.67,654.46,655.10,655.79,656.72,657.50,658.06,658.74,660.82,663.89,667.28,670.51,673.39,675.06,675.67,675.30,674.02,671.96,669.46,666.88,664.72,663.99,665.31,667.30,669.15,670.86,673.29,676.16,679.15,681.86,684.33,686.70,688.67,689.85,690.47,691.03,691.59,692.16,692.79,693.48,694.22,694.96,695.65,696.30,696.87,697.38,697.88,698.43,699.04,700.02,701.66,704.36,707.18,709.59,711.87,714.35,716.86,719.33,722.43,726.13,729.36,732.43,735.45,738.50,741.68,745.22,748.35,750.66,751.81,752.01,753.04,754.91,757.06,758.50,760.10,762.11,764.35,766.46,767.94,770.04,772.40,774.55,775.72,776.04,775.49,774.28,772.73,771.92,772.43,773.69,775.32,777.14,778.29,781.14,785.85,790.75,795.72,800.78,806.04,811.69,818.02,824.54,829.83,833.61,837.58,842.10,846.49,850.28,853.14,856.39,859.66,862.68,865.39,868.28,871.66,875.32,879.07,882.65,886.13,889.73,893.54,897.32,899.71,900.10,897.99,893.34,888.04,885.50,886.96,890.79,894.04,897.39,900.05,902.24,904.20,906.10,907.76,909.42,911.14,912.90,914.69,916.07,916.80,916.82,917.40,917.35,918.12,920.39,923.14,925.88,928.59,931.21,933.64,935.80,937.68,939.18,940.29,941.52,944.10,947.36,950.85,954.19,957.70,960.76,963.34,965.56,967.77,969.53,971.12,972.68,974.31,975.89,976.81,977.05,976.78,975.70,973.81,971.97,971.26,972.83,976.20,979.17,981.44,984.51,987.11,988.81,989.89,990.90,993.08,997.00,1000.20,1001.64,1003.28,1005.18,1006.64,1007.51,1007.88,1008.27,1008.53,1008.73,1008.85,1008.49,1009.45,1010.81,1012.02,1012.95,1014.59,1016.62,1019.23,1022.71,1025.21,1026.41,1028.02,1030.85,1033.73,1036.08,1037.98
635.45,633.96,632.53,631.07,629.28,628.43,629.66,632.07,634.50,636.87,639.01,640.42,641.39,641.83,641.78,641.15,639.82,636.92,632.86,627.98,623.12,619.54,618.41,620.71,627.59,631.61,634.34,637.33,641.16,643.91,646.19,648.02,649.45,650.74,652.26,653.49,654.60,655.94,657.19,658.24,659.18,660.06,660.70,661.44,661.77,661.77,661.97,662.75,664.51,667.08,670.44,674.34,677.18,678.47,678.30,677.41,675.33,672.84,670.17,667.44,665.45,666.20,668.21,670.45,672.54,674.98,677.65,680.37,682.90,685.32,687.59,689.40,690.46,691.23,691.82,692.36,692.91,693.50,694.13,694.86,695.60,696.25,696.84,697.41,697.95,698.42,698.92,699.67,701.34,703.86,706.56,708.98,710.96,712.84,714.95,717.21,719.60,722.41,725.58,728.49,731.41,734.37,737.37,740.52,744.35,748.27,751.59,753.81,755.12,756.47,758.28,760.38,762.22,764.10,766.29,768.59,770.64,771.90,774.08,776.59,778.81,779.93,780.24,779.71,778.70,777.71,777.04,777.38,778.44,779.94,781.38,782.19,783.65,786.07,789.20,793.97,799.31,804.68,810.09,816.52,822.79,828.19,832.59,836.86,841.68,846.68,851.14,854.26,857.56,860.83,863.87,866.57,869.25,872.45,876.02,879.81,883.58,887.27,890.92,894.60,898.13,900.33,900.74,898.94,894.71,889.26,886.21,887.25,890.80,893.89,897.54,900.27,902.47,904.58,906.62,908.40,910.18,912.01,913.75,915.52,917.25,918.67,919.53,920.59,920.57,920.89,922.34,924.54,927.02,929.58,932.08,934.43,936.52,938.68,940.88,942.93,944.49,946.75,949.42,952.36,955.57,958.55,961.02,963.16,965.28,967.37,968.90,970.30,971.83,973.26,973.92,973.86,973.31,972.44,971.20,970.32,970.10,970.95,973.21,976.96,980.65,983.86,987.17,989.99,991.95,993.14,993.76,994.80,996.65,998.26,999.22,1000.52,1002.07,1003.36,1004.28,1004.93,1005.52,1006.11,1006.55,1006.70,1006.63,1007.45,1008.41,1009.23,1010.13,1011.47,1013.21,1015.73,1019.35,1021.32,1022.36,1024.53,1028.40,1031.08,1032.91,1034.92
634.29,632.82,631.34,629.47,627.53,627.59,630.71,633.02,635.10,636.94,638.48,639.54,640.28,640.55,640.39,639.59,637.40,633.39,628.61,623.78,619.78,617.85,618.87,623.24,630.95,634.29,636.67,640.05,644.94,648.74,651.50,653.56,655.07,656.21,656.91,657.56,658.47,659.89,661.29,662.52,663.77,665.01,665.72,666.45,666.65,666.42,666.28,665.74,665.83,667.20,670.51,675.32,678.86,680.56,680.61,680.10,678.15,675.64,672.92,670.05,667.21,667.30,669.10,671.65,674.14,676.63,679.05,681.44,683.75,686.00,688.01,689.59,690.63,691.64,692.35,692.95,693.55,694.15,694.79,695.49,696.20,696.82,697.38,697.97,698.52,699.01,699.58,700.72,703.15,706.39,708.88,710.78,712.36,713.88,715.59,717.53,719.82,722.33,725.00,727.66,730.43,733.33,736.30,739.43,743.62,748.25,752.42,755.59,758.04,759.82,761.69,763.82,766.01,768.21,770.61,773.02,775.05,776.17,778.27,780.70,782.81,783.86,784.25,783.89,783.18,782.69,782.29,782.55,783.45,784.85,786.09,786.95,787.39,787.71,789.00,792.99,797.96,803.12,808.44,815.03,821.21,826.75,831.64,836.00,840.84,846.19,851.27,854.81,858.28,861.72,864.98,867.90,870.56,873.56,876.88,880.47,884.23,888.00,891.52,894.92,898.18,900.46,901.07,899.63,895.86,890.62,887.38,887.68,890.38,893.33,897.37,900.27,902.46,904.53,906.64,908.60,910.55,912.50,914.28,916.18,918.07,919.86,921.46,922.97,923.61,924.11,924.99,926.57,928.76,931.13,933.46,935.61,937.40,939.73,942.60,945.64,947.58,949.62,951.67,953.88,956.76,959.11,960.97,962.72,964.75,966.77,968.14,969.35,970.64,971.73,971.33,970.33,969.24,968.40,967.86,968.56,970.19,972.40,974.92,978.10,981.67,985.42,989.10,992.03,994.38,996.14,997.05,997.63,997.85,998.14,998.82,999.87,1000.96,1001.95,1002.86,1003.79,1004.58,1005.45,1006.03,1006.03,1006.23,1006.76,1007.32,1007.87,1008.70,1009.40,1010.45,1012.44,1015.73,1017.35,1018.73,1021.45,1025.57,1027.80,1029.81,1032.35
633.45,631.88,630.17,627.13,626.66,628.37,631.19,633.11,634.66,636.17,637.50,638.23,638.83,638.91,638.38,636.92,634.03,629.43,624.45,620.20,617.89,617.82,622.16,628.86,632.96,635.94,639.12,643.56,649.33,652.91,655.64,657.84,659.49,660.41,660.93,661.30,661.92,663.16,664.59,666.30,668.03,669.51,670.41,671.10,671.50,671.45,670.68,669.70,668.55,668.73,671.81,677.10,679.84,681.11,681.50,681.04,679.94,677.79,674.97,672.02,669.26,668.51,669.66,672.37,675.23,677.79,680.07,682.15,684.16,686.06,687.62,688.94,690.11,691.18,692.09,692.94,693.79,694.63,695.40,696.09,696.73,697.34,697.94,698.52,699.06,699.65,700.58,702.74,705.71,708.78,710.70,712.26,713.69,715.11,716.57,718.10,720.01,722.24,724.70,727.16,729.69,732.57,735.76,739.34,744.33,749.33,753.73,757.27,760.18,762.72,765.04,767.22,769.33,771.88,774.76,777.57,779.76,780.85,782.45,784.37,786.24,787.42,788.07,788.16,787.82,787.29,787.13,787.48,788.34,789.72,791.21,792.10,792.40,792.45,793.13,795.30,798.37,802.30,807.48,813.71,819.81,825.43,830.43,834.92,839.63,844.93,850.14,854.02,857.70,861.55,865.43,869.11,872.36,875.29,878.14,881.11,884.47,887.88,891.00,894.06,897.30,900.01,901.41,900.60,897.32,893.17,890.19,888.66,888.82,891.50,895.50,898.91,901.64,903.89,906.16,908.30,910.36,912.30,914.09,916.47,918.62,920.46,922.17,924.04,925.77,927.33,928.62,929.47,930.87,932.83,935.12,937.44,939.60,942.05,945.00,948.24,950.34,952.49,954.22,955.66,957.76,959.34,960.90,962.58,964.35,966.13,967.32,968.19,968.88,969.36,968.20,966.63,965.64,966.35,968.11,970.30,972.70,975.06,976.69,978.38,981.19,985.21,989.38,992.81,995.96,998.67,1000.40,1001.56,1002.55,1003.44,1004.27,1005.26,1005.86,1006.51,1007.31,1008.06,1008.78,1009.43,1009.64,1009.21,1009.33,1010.38,1011.16,1011.21,1010.81,1010.14,1009.88,1010.56,1012.59,1014.42,1017.07,1019.73,1021.77,1023.35,1027.88,1031.56
632.73,630.92,628.57,625.13,625.71,628.42,631.01,632.70,634.03,635.26,636.32,636.80,637.10,636.86,636.02,634.28,630.99,625.84,621.04,617.99,617.03,618.78,624.51,631.63,634.89,637.90,642.59,648.16,653.37,656.80,659.65,661.90,663.44,664.21,664.52,664.66,665.07,666.27,667.91,669.96,671.87,673.32,674.42,675.17,675.58,675.45,674.32,673.29,672.17,672.27,674.90,678.95,680.87,681.84,682.29,681.74,680.82,679.03,676.51,673.55,670.72,669.54,670.11,672.40,675.53,678.46,680.63,682.10,683.35,684.72,686.01,687.50,689.32,690.60,691.58,692.49,693.41,694.34,695.22,696.05,696.84,697.63,698.39,699.05,699.83,700.90,702.23,704.77,707.70,710.34,712.00,713.49,714.93,716.34,717.74,719.16,720.95,723.01,725.27,727.58,730.22,733.34,736.96,741.27,746.88,751.65,755.77,759.51,762.91,765.71,768.34,770.86,773.11,775.79,778.77,781.70,784.10,785.42,786.75,788.17,789.66,791.16,792.13,792.70,792.95,792.90,792.86,793.08,793.55,794.41,796.01,797.37,798.00,798.12,798.50,799.53,800.89,803.18,807.26,812.42,817.87,823.24,828.39,833.32,838.55,844.27,849.85,854.15,858.07,861.83,865.67,869.65,873.35,876.71,879.55,882.03,884.72,887.44,890.02,892.78,896.01,898.94,901.15,901.56,899.75,896.96,894.62,892.84,891.62,891.39,893.56,896.76,900.02,902.79,905.12,907.09,909.00,910.91,912.81,915.53,918.31,920.77,922.73,924.79,926.90,928.80,930.28,931.24,932.58,934.36,936.40,938.55,940.92,943.76,946.82,949.54,950.74,951.74,953.15,955.14,957.57,959.26,960.71,962.11,963.42,964.56,965.41,965.92,966.07,966.02,964.85,964.37,965.04,966.88,969.61,972.56,975.42,977.87,979.29,980.49,982.59,985.87,989.66,993.23,996.75,1000.15,1003.09,1005.07,1006.47,1007.51,1008.31,1009.15,1009.63,1010.19,1010.92,1011.74,1012.45,1013.12,1013.47,1013.42,1013.97,1015.31,1016.24,1016.25,1015.45,1013.99,1012.53,1011.64,1012.10,1013.85,1016.36,1018.36,1019.44,1021.20,1025.45,1028.70
631.79,629.68,626.53,623.42,624.81,628.03,630.46,632.02,633.23,634.24,634.99,635.29,635.25,634.67,633.57,631.63,627.92,622.58,618.30,616.55,616.94,620.50,626.61,633.18,636.86,640.53,646.64,652.92,657.20,660.56,663.61,665.94,667.40,668.13,668.32,668.30,668.54,669.67,671.49,673.66,675.51,676.78,678.02,678.84,679.20,678.90,677.55,676.72,676.16,676.54,678.45,680.63,681.85,682.66,683.06,682.34,681.31,679.84,677.78,674.98,672.43,671.18,671.14,672.47,675.29,678.36,680.33,681.23,681.84,682.76,683.99,685.82,688.28,689.84,690.91,691.85,692.76,693.71,694.69,695.69,696.68,697.66,698.59,699.37,700.46,702.10,703.86,706.53,709.17,711.36,712.98,714.55,716.05,717.50,718.93,720.45,722.25,724.21,726.30,728.56,731.55,735.09,739.20,744.24,750.06,754.39,758.15,762.09,765.92,768.86,771.73,774.63,777.07,779.91,782.84,785.64,788.02,789.52,790.71,791.78,792.98,794.78,796.13,797.25,798.22,798.85,799.00,799.00,798.99,799.27,800.84,802.64,803.68,803.96,804.14,804.39,804.39,805.03,807.52,811.41,816.09,821.21,826.60,832.04,837.81,844.12,850.25,854.87,858.90,862.33,865.82,869.79,873.71,877.54,880.56,882.77,884.83,886.88,889.02,891.54,894.66,897.64,900.46,902.21,902.26,900.85,899.28,897.96,896.18,893.02,892.69,894.76,897.98,901.37,903.68,905.37,907.09,909.01,911.12,914.14,917.60,920.77,922.99,925.11,927.17,928.98,930.42,931.76,933.36,935.11,936.93,938.83,941.27,944.45,947.55,949.58,949.62,949.69,951.11,953.88,956.69,958.61,960.01,961.12,961.99,962.52,963.01,963.13,962.81,962.62,962.15,963.30,965.87,968.50,971.68,975.02,978.16,980.67,982.20,983.41,984.97,987.24,990.41,993.93,997.57,1001.37,1005.30,1007.99,1009.53,1010.49,1011.14,1011.73,1012.20,1012.70,1013.34,1014.18,1014.86,1015.55,1016.16,1016.70,1017.83,1019.51,1020.74,1021.07,1020.45,1018.68,1016.42,1014.29,1013.23,1014.41,1016.29,1017.72,1018.58,1020.47,1023.18,1025.47
629.90,627.37,623.65,622.26,624.17,627.20,629.57,631.07,632.15,632.93,633.46,633.72,633.42,632.63,631.29,628.88,624.22,619.90,616.81,615.78,618.04,623.43,629.43,634.82,639.11,645.15,651.25,656.63,660.86,664.31,667.57,670.25,672.13,673.10,673.55,673.58,673.63,674.39,675.93,677.62,679.06,680.14,681.20,682.02,682.38,681.98,680.46,680.13,680.16,680.33,680.74,681.58,682.57,683.49,683.89,682.91,681.78,680.54,678.90,676.73,675.99,675.34,674.53,673.84,674.29,676.14,677.59,678.47,679.64,680.71,682.41,684.55,686.78,688.57,690.07,691.24,692.13,693.11,694.12,695.12,696.12,697.12,698.05,698.94,700.19,702.08,704.38,707.19,709.68,711.74,713.61,715.30,716.88,718.40,719.95,721.74,723.72,725.66,727.63,730.10,733.80,737.97,742.55,747.81,752.63,756.63,760.62,764.98,769.02,772.39,775.53,778.45,780.96,784.36,787.29,789.49,790.93,792.10,793.28,794.51,795.88,797.63,799.54,801.43,803.15,804.44,805.21,805.07,804.76,804.99,806.26,807.75,808.68,808.94,808.81,808.57,808.09,807.75,808.43,811.41,815.79,821.13,827.11,832.75,838.10,844.87,851.85,856.24,859.92,862.95,866.00,869.47,873.02,876.72,879.87,882.33,884.40,886.41,888.59,891.02,893.74,896.47,899.15,901.69,903.47,903.02,902.24,901.38,900.22,898.20,895.87,894.56,895.68,899.51,901.74,903.27,904.99,907.16,909.69,913.08,916.79,920.13,922.41,924.29,925.89,927.11,928.05,929.52,931.35,933.28,935.22,937.15,939.37,942.35,945.27,947.01,946.60,948.68,951.38,953.62,955.13,956.35,957.61,958.76,959.52,960.25,960.55,960.18,959.54,960.49,962.12,964.40,967.14,970.09,973.84,977.46,980.66,983.24,984.96,986.39,987.93,989.92,992.86,996.27,999.76,1003.30,1006.82,1009.41,1010.69,1011.39,1011.83,1011.93,1012.22,1012.52,1012.79,1013.05,1013.44,1013.89,1014.35,1014.94,1016.41,1018.90,1021.09,1022.39,1022.73,1021.51,1019.76,1017.89,1016.17,1015.42,1017.02,1019.23,1020.78,1021.30,1022.29,1024.20
627.20,624.40,621.38,621.09,623.06,625.76,628.10,629.74,630.84,631.52,631.86,631.90,631.42,630.34,628.56,625.66,621.25,617.68,615.84,616.49,620.18,626.40,632.18,637.16,642.59,649.31,655.09,659.91,664.12,668.26,672.36,675.20,676.55,677.28,677.70,677.75,677.76,678.23,679.26,680.61,681.88,682.96,684.04,685.01,685.38,684.95,683.63,683.13,683.10,683.06,682.82,682.87,683.43,684.23,684.70,683.61,682.44,681.34,680.17,678.99,679.12,678.76,677.77,676.54,676.37,677.39,678.40,679.22,680.33,681.26,682.92,684.93,686.81,688.66,690.27,691.48,692.35,693.28,694.20,695.08,695.93,696.78,697.62,698.41,699.46,701.09,703.48,706.52,709.25,711.47,713.50,715.38,717.25,719.09,720.87,722.73,724.76,726.75,728.87,731.99,736.11,740.59,745.29,750.24,754.66,758.76,762.96,767.44,771.61,775.39,778.63,781.31,783.54,786.46,788.88,790.56,791.51,792.59,794.02,795.61,797.28,799.10,801.49,804.03,806.46,808.43,809.70,809.76,809.77,810.58,811.95,813.54,814.59,814.94,814.86,814.36,813.40,812.30,811.67,812.87,816.20,821.15,827.21,832.90,838.38,845.31,852.43,856.87,860.33,862.86,865.25,868.09,871.62,875.44,878.92,881.78,883.93,885.99,888.31,890.84,893.38,895.91,898.47,901.34,904.03,904.61,904.49,903.96,903.06,901.62,899.41,897.10,896.27,897.81,899.31,901.26,903.55,906.11,908.92,912.30,915.81,918.95,921.22,922.81,923.85,924.49,925.11,926.84,929.02,931.24,933.32,935.22,937.49,940.46,943.10,944.36,944.26,947.27,950.37,952.18,952.90,953.58,954.49,955.32,955.70,956.20,956.45,957.02,958.37,960.69,963.38,966.14,968.97,972.10,975.89,979.51,982.81,985.64,987.64,989.09,990.68,992.74,995.49,998.28,1001.16,1004.12,1007.01,1009.39,1010.52,1010.98,1011.06,1010.71,1010.55,1010.49,1010.47,1010.50,1010.70,1011.07,1011.59,1012.54,1014.52,1017.48,1020.26,1022.39,1023.82,1023.87,1022.85,1021.28,1019.61,1017.77,1018.19,1019.81,1021.57,1022.48,1023.07,1024.21
