618.21,619.43,622.18,627.49,632.25,636.38,640.53,645.61,649.56,652.80,655.72,658.63,660.81,662.48,663.99,665.59,667.34,669.32,671.59,674.18,676.88,679.64,682.44,685.25,687.98,690.27,692.32,694.24,696.09,698.00,699.67,701.36,703.11,704.66,706.21,707.76,709.08,709.69,709.29,708.99,709.20,710.15,711.82,713.43,714.61,715.34,715.72,715.83,716.25,717.00,718.00,719.09,720.91,723.23,725.78,728.17,731.38,734.98,738.45,741.22,743.28,743.70,742.99,741.68,740.86,742.41,744.57,746.29,746.77,747.63,749.38,751.78,754.53,757.22,759.92,762.66,765.43,768.24,771.16,774.77,778.52,781.41,783.87,786.29,788.79,791.39,793.96,796.48,798.90,801.01,802.44,804.18,806.16,808.22,810.29,812.51,816.20,820.98,826.11,829.99,832.44,833.92,834.76,835.10,835.15,834.45,833.00,830.80,828.30,826.30,824.53,822.80,820.99,819.23,817.63,816.60,816.78,818.32,820.23,822.09,823.73,825.09,826.28,827.64,829.17,830.80,833.03,835.51,840.88,850.87,862.06,867.83,870.17,870.77,871.16,871.55,871.89,872.15,872.33,872.51,872.35,872.06,871.88,872.09,872.31,872.58,872.87,873.21,873.72,874.80,876.15,877.50,878.83,879.75,880.31,880.65,881.03,881.38,881.46,881.35,881.16,881.00,880.86,880.71,880.50,880.22,879.54,877.61,874.76,872.13,870.67,869.79,868.98,868.06,867.52,867.88,868.28,868.92,871.25,874.91,877.52,878.62,878.27,877.50,876.43,875.33,874.12,872.32,870.36,869.59,869.91,870.50,871.36,872.81,874.30,875.37,876.39,877.12,877.62,878.06,878.76,879.44,879.75,879.79,879.87,880.86,883.23,886.07,888.73,890.63,892.61,894.67,896.69,898.49,900.34,902.53,904.83,906.92,908.69,911.13,914.26,917.88,921.55,925.07,928.39,931.50,934.37,937.28,940.59,942.94,943.33,942.15,942.39,943.56,945.08,946.46,947.85,949.26,950.87,952.84,954.86,956.57,958.18,960.09,963.00,966.07,969.21,972.46,975.85,979.01,981.45,983.23,984.67,986.83,988.91,989.95
618.92,621.04,625.43,630.09,634.27,638.37,642.93,648.15,651.11,653.21,655.20,657.28,659.15,660.77,662.25,663.79,665.57,668.02,670.73,673.47,676.17,678.92,681.65,684.29,686.69,688.72,690.63,692.46,694.27,696.17,697.90,699.51,701.04,702.59,704.13,705.60,706.76,706.93,704.82,704.07,704.76,706.57,708.67,710.29,711.32,711.92,712.36,712.63,713.20,714.09,715.25,716.40,718.71,721.65,724.82,727.75,730.93,734.40,737.87,740.85,742.53,742.38,741.26,739.88,739.23,741.13,743.33,744.72,744.93,746.63,749.04,751.72,754.45,757.13,759.82,762.42,764.94,767.51,769.88,773.01,776.50,779.42,781.90,784.26,786.69,789.26,791.87,794.32,796.45,798.20,799.59,801.07,802.68,804.44,806.44,808.79,812.26,817.00,822.36,825.97,827.99,829.00,829.43,829.47,829.31,828.69,827.72,826.43,824.76,823.07,821.36,819.52,817.41,816.09,814.89,814.18,814.63,816.08,817.79,819.44,820.88,821.98,822.98,824.24,825.77,827.52,829.83,832.58,836.01,841.85,854.42,864.21,869.24,870.48,870.89,871.28,871.62,871.90,872.11,872.21,871.90,871.50,871.20,871.18,871.39,871.64,871.92,872.35,873.32,874.60,875.89,877.07,878.42,879.53,880.22,880.59,880.98,881.35,881.37,881.13,880.86,880.68,880.57,880.49,880.36,880.05,878.69,876.28,873.43,871.24,870.57,870.02,869.17,867.95,866.77,866.72,867.66,869.45,871.97,874.50,875.56,875.53,875.15,874.70,873.89,872.88,871.72,870.36,869.46,869.26,869.60,870.22,870.95,871.99,873.08,873.98,874.73,875.27,875.81,876.46,877.19,877.82,878.41,879.09,880.13,881.89,884.05,886.26,888.37,890.34,892.07,893.90,895.93,898.08,900.00,902.16,904.42,906.57,908.67,911.26,914.40,917.97,921.60,925.25,928.72,931.88,934.63,937.34,940.57,942.04,940.73,939.14,939.54,941.79,945.09,948.10,949.93,950.81,951.81,953.80,956.29,958.21,959.56,960.89,963.61,966.60,969.61,972.63,975.62,978.19,980.34,982.28,984.26,986.76,988.64,988.98
620.38,623.46,627.65,631.63,635.36,639.12,643.12,647.37,649.72,651.43,653.17,655.10,657.01,658.73,660.33,662.03,664.25,667.16,670.16,672.94,675.52,678.09,680.60,683.02,685.20,687.09,688.88,690.64,692.38,694.13,695.84,697.45,698.98,700.55,702.07,703.56,704.43,703.66,701.28,700.64,701.49,703.36,705.50,707.05,707.97,708.52,709.16,709.75,710.43,711.46,713.04,714.75,717.47,720.45,723.23,725.59,728.37,731.84,735.77,739.52,741.24,740.91,739.29,737.42,738.11,740.21,741.93,742.76,743.03,745.24,748.09,751.10,754.21,757.31,760.02,762.05,763.57,765.39,767.74,770.86,774.25,777.08,779.65,782.06,784.54,787.16,789.74,792.11,794.20,795.91,797.02,798.20,799.47,800.90,802.72,805.24,808.47,812.71,817.63,821.60,823.58,824.61,825.11,825.12,824.97,824.40,823.53,822.34,820.78,818.96,816.96,814.88,812.95,812.13,811.68,811.61,812.22,813.74,815.52,816.98,817.88,818.45,819.48,820.78,822.25,823.95,826.54,829.70,832.97,837.01,844.94,857.48,866.42,869.90,870.55,870.97,871.33,871.65,871.83,871.77,871.46,871.04,870.53,869.94,870.25,870.66,871.14,872.07,873.31,874.69,876.05,877.29,878.65,879.67,880.29,880.63,880.97,881.31,881.25,880.93,880.63,880.38,880.26,880.20,879.95,878.82,876.89,875.38,874.38,873.58,873.34,872.41,870.72,868.48,866.80,866.56,867.60,869.61,871.83,872.82,872.78,872.31,871.93,871.59,871.04,870.42,869.78,869.12,868.73,868.83,869.32,870.02,871.58,873.38,875.10,876.43,876.95,877.31,877.69,878.13,878.58,878.95,879.35,879.84,880.56,881.77,883.60,885.60,887.55,889.41,890.90,892.74,894.97,897.28,899.43,901.59,903.75,905.87,907.99,910.49,913.50,916.96,920.38,923.97,927.67,931.22,934.27,937.30,940.37,941.08,938.84,937.85,939.73,942.86,946.31,949.37,951.30,952.74,954.28,956.31,958.58,960.18,961.46,962.83,964.90,967.34,969.73,971.98,974.11,976.31,978.58,980.91,983.39,986.06,987.36,986.99
621.79,625.56,629.26,632.68,636.03,639.32,642.47,645.50,647.41,649.04,650.80,652.74,654.73,656.60,658.41,660.44,663.13,666.31,669.45,672.24,674.71,677.09,679.39,681.59,683.59,685.34,687.00,688.66,690.37,692.03,693.72,695.35,696.91,698.58,700.17,701.68,702.32,700.89,698.43,697.89,698.73,700.43,702.38,703.86,704.85,705.58,706.41,707.18,708.02,709.27,711.21,713.23,715.86,718.47,720.72,722.60,725.25,729.05,733.52,737.60,739.04,738.42,736.66,735.07,736.97,739.05,740.24,740.67,741.25,743.93,747.05,750.12,753.13,756.41,758.91,760.41,761.23,762.59,764.95,768.18,771.63,774.50,777.15,779.67,782.23,784.86,787.30,789.72,791.96,793.73,794.56,795.45,796.44,797.66,799.36,801.94,804.99,808.63,812.74,816.43,818.38,819.67,820.56,820.82,820.67,820.12,819.24,818.00,816.33,814.31,812.21,810.22,808.60,808.15,808.40,808.99,809.90,811.60,813.45,814.59,814.78,814.75,815.81,817.29,818.84,820.44,822.95,826.20,829.78,833.46,837.38,849.27,860.83,868.17,870.06,870.67,871.04,871.36,871.51,871.33,871.02,870.54,869.82,869.02,869.58,870.21,870.88,872.20,873.56,874.99,876.38,877.67,878.93,879.79,880.30,880.59,880.89,881.19,881.13,880.81,880.49,880.16,879.88,879.74,879.50,878.24,876.52,875.99,876.40,876.61,876.59,875.09,872.37,869.09,867.01,866.35,867.18,869.13,870.89,870.70,869.96,869.25,868.82,868.56,868.35,868.24,868.26,868.30,868.27,868.59,869.18,869.95,872.25,874.95,877.43,879.20,879.74,880.02,880.26,880.50,880.73,881.00,881.29,881.57,881.88,882.47,883.71,885.25,886.87,888.46,889.94,891.81,894.03,896.33,898.63,900.78,902.88,904.98,907.10,909.59,912.56,915.92,919.23,922.83,926.79,930.68,933.97,937.22,939.87,939.85,937.05,936.66,939.56,943.07,946.28,949.13,951.20,953.17,955.19,957.21,959.06,960.32,961.63,963.21,964.93,967.00,968.91,970.59,972.24,974.55,977.25,980.08,982.89,985.39,985.74,984.63
622.75,626.63,630.21,633.30,636.30,639.03,641.22,643.07,644.73,646.51,648.48,650.47,652.42,654.42,656.60,659.17,662.14,665.25,668.29,671.11,673.54,675.83,677.97,679.98,681.82,683.39,684.85,686.41,688.17,689.93,691.64,693.26,694.88,696.68,698.52,700.02,700.58,699.27,696.46,695.72,696.40,697.82,699.39,700.87,702.25,703.49,704.47,705.07,706.15,707.79,709.81,711.48,713.06,714.79,716.73,718.90,722.14,726.77,731.67,734.96,735.34,734.04,732.93,733.25,735.57,737.23,738.06,738.52,739.74,742.93,746.13,748.67,750.53,753.26,755.13,756.37,757.45,759.14,761.34,764.64,768.42,771.59,774.29,776.98,779.64,782.13,784.28,787.01,789.59,791.48,792.20,792.81,793.64,794.85,796.64,799.02,802.01,805.14,808.00,809.99,811.70,813.48,815.10,815.93,815.68,815.06,814.19,812.96,811.14,809.02,807.38,806.19,804.87,804.57,805.20,806.38,807.88,809.90,811.67,812.24,811.55,810.96,811.93,813.76,815.72,817.15,818.80,821.51,825.48,830.42,834.38,839.83,850.82,864.15,869.18,870.35,870.72,871.01,871.13,870.94,870.60,869.91,869.02,868.89,869.93,870.79,871.54,872.84,874.15,875.52,876.85,878.03,878.98,879.68,880.13,880.38,880.63,880.93,881.02,880.86,880.49,880.12,879.44,879.03,879.14,879.41,879.30,879.25,879.33,879.37,879.36,877.22,873.59,869.56,867.24,865.59,865.81,867.63,868.83,868.34,867.41,866.56,866.03,865.95,866.20,866.70,867.37,868.00,868.33,868.78,869.38,870.15,872.56,875.80,878.78,880.70,881.71,882.18,882.47,882.70,882.97,883.52,884.07,884.51,884.83,885.30,885.54,885.94,886.74,887.81,889.69,891.56,893.32,895.31,897.50,899.63,901.74,903.90,906.13,908.89,912.02,915.36,918.78,922.67,926.84,930.82,934.03,937.04,938.86,938.09,935.08,934.89,937.28,940.29,943.27,946.19,948.59,950.54,952.37,954.23,955.67,956.85,958.30,960.17,962.30,964.61,966.55,968.28,970.40,973.62,977.11,980.46,983.30,985.00,983.90,982.02
623.91,627.79,630.98,633.66,636.20,638.31,639.68,640.85,642.33,644.20,646.36,648.48,650.44,652.59,655.02,657.79,660.70,663.75,666.83,669.73,672.04,674.19,676.18,678.02,679.68,681.11,682.56,684.14,685.92,687.70,689.44,691.15,692.83,694.53,695.89,696.96,697.31,696.18,693.87,693.03,693.56,695.15,697.07,698.95,700.48,701.61,702.43,703.08,704.63,706.49,707.98,709.16,709.94,711.30,713.68,717.10,721.12,725.78,730.14,732.52,731.84,730.54,730.42,732.02,733.79,734.93,735.78,736.88,739.17,742.54,745.00,746.70,748.16,749.76,751.30,752.93,754.70,756.51,758.70,761.69,765.14,768.41,771.10,773.79,776.41,778.86,781.23,784.15,786.90,788.88,789.40,789.68,790.47,791.89,793.88,796.13,799.04,801.95,804.35,805.79,806.68,807.75,808.99,809.86,809.18,808.18,807.10,805.89,804.68,803.42,802.55,801.99,801.31,801.49,802.66,804.36,806.17,808.15,809.51,809.85,809.22,808.59,809.12,810.68,812.61,814.02,815.31,817.70,821.40,826.31,831.20,835.40,842.92,853.80,864.02,867.52,869.32,870.49,870.61,870.60,870.39,869.56,868.37,868.47,870.07,871.42,872.39,873.52,874.46,875.38,876.30,877.23,878.00,878.69,879.27,879.79,880.28,880.66,880.92,880.93,880.55,880.24,879.79,879.56,879.70,880.04,880.11,880.08,880.04,880.00,880.00,878.08,874.80,871.04,868.29,865.85,865.10,865.99,866.77,866.29,865.33,864.85,865.64,866.48,867.27,868.02,868.79,869.87,870.47,870.96,871.44,872.03,873.89,876.29,878.52,880.21,881.92,883.45,884.45,884.91,885.23,885.91,886.72,887.39,887.72,887.92,887.89,887.92,888.22,888.88,890.88,893.05,894.84,895.90,897.12,898.89,901.00,903.28,905.71,908.47,911.53,914.81,918.12,921.77,925.79,929.71,932.88,935.36,936.00,934.60,932.19,933.25,936.21,938.85,940.96,943.49,945.97,947.96,949.70,951.56,954.04,956.55,958.73,960.62,962.68,964.98,966.99,968.97,971.56,974.98,978.27,981.32,983.60,983.49,981.45,979.01
625.26,629.03,631.74,633.87,635.84,637.36,638.17,639.06,640.46,642.37,644.63,646.86,648.86,651.12,653.71,656.58,659.40,662.37,665.40,668.29,670.44,672.37,674.18,675.89,677.40,678.78,680.26,681.90,683.70,685.49,687.23,688.95,690.63,692.06,692.84,693.38,693.49,692.58,690.98,690.26,690.87,692.83,695.21,697.42,698.88,699.67,700.36,701.38,703.29,705.13,706.04,706.66,706.92,708.26,711.32,715.90,720.54,724.91,728.42,729.89,728.43,727.59,728.40,730.64,731.74,732.52,733.68,735.64,738.84,742.03,743.57,744.47,745.72,746.35,747.80,749.90,752.30,754.24,756.50,759.16,762.14,765.26,767.88,770.51,773.10,775.63,778.44,781.59,784.27,786.01,786.33,786.25,786.91,788.45,790.75,793.13,795.99,798.71,800.87,802.10,802.28,802.51,803.11,803.82,802.91,801.74,800.57,799.51,798.96,798.55,798.34,798.25,798.19,798.94,800.57,802.57,804.51,806.30,807.25,807.47,807.09,806.57,806.64,807.81,809.55,810.96,812.08,814.32,817.64,822.06,827.46,832.18,836.61,843.14,855.74,861.25,865.02,867.66,868.26,868.82,869.01,868.21,866.92,867.70,869.93,871.72,872.82,873.70,874.27,874.76,875.32,876.01,876.71,877.40,878.17,879.04,879.97,880.45,880.82,880.95,880.65,880.42,880.31,880.30,880.35,880.35,880.18,880.00,879.87,879.77,879.69,878.17,875.54,872.31,869.40,866.43,864.64,864.29,864.70,864.35,863.76,864.04,866.20,868.01,869.42,870.49,871.45,873.01,873.86,874.39,874.80,875.25,876.37,877.51,878.64,879.97,882.10,884.56,886.26,886.98,887.44,888.24,889.24,890.13,890.59,890.83,890.84,890.81,890.89,891.32,893.25,895.44,897.03,897.18,897.44,898.94,901.16,903.57,906.06,908.56,911.36,914.46,917.56,920.71,924.38,928.18,931.22,932.94,932.39,930.84,929.90,932.45,936.18,938.78,940.34,942.44,944.85,946.82,948.54,950.60,954.23,957.81,960.60,962.62,964.64,966.75,968.68,970.79,973.71,977.02,979.77,982.08,983.40,981.69,978.79,975.68
626.96,630.45,632.57,633.89,635.01,636.05,637.06,638.32,639.85,641.68,643.80,646.08,648.12,650.37,652.96,655.94,658.85,661.66,664.39,666.91,668.84,670.32,671.88,673.54,675.02,676.52,678.05,679.73,681.62,683.46,685.06,686.58,687.99,688.95,689.38,689.54,689.41,688.79,687.71,687.76,689.12,691.58,694.07,696.07,697.06,697.43,698.33,700.38,702.18,703.46,704.12,704.10,704.42,706.36,710.14,714.79,719.44,723.30,725.90,726.49,725.17,725.41,726.74,728.37,729.21,730.21,732.21,735.15,738.38,740.67,741.49,741.95,742.89,743.50,745.29,747.59,749.99,752.35,754.77,757.36,759.98,762.43,764.91,767.42,770.04,772.96,776.47,779.98,782.04,782.68,782.82,782.47,782.54,783.75,786.61,789.80,792.64,795.07,796.96,798.04,798.19,798.22,798.45,798.91,798.59,798.07,797.46,796.84,796.46,796.08,795.92,795.98,796.19,797.49,799.18,800.96,802.73,804.24,805.03,805.17,804.79,804.38,804.19,805.06,806.62,807.98,809.05,811.41,814.63,818.32,822.29,828.06,833.00,837.03,842.17,847.31,853.29,858.38,860.71,862.85,864.06,863.76,863.02,866.12,869.18,870.99,871.83,872.43,872.87,873.36,873.96,874.65,875.34,876.05,876.93,878.18,879.83,880.45,880.72,880.85,880.82,880.67,880.57,880.53,880.50,880.26,879.84,879.41,879.06,878.84,878.49,877.14,874.92,872.16,869.99,867.05,864.31,862.56,862.59,862.46,863.27,865.01,867.42,869.75,871.85,873.78,875.69,877.93,879.05,879.73,880.30,880.84,881.20,881.12,881.25,882.22,883.69,885.95,887.72,888.68,889.46,890.45,891.47,892.47,893.47,894.75,895.09,895.24,895.65,896.25,897.78,898.91,899.27,899.04,899.16,900.93,903.52,906.07,908.17,909.95,912.06,914.68,917.47,919.79,922.94,926.50,929.18,929.69,928.22,927.83,930.16,934.03,938.13,941.46,943.94,945.93,948.07,949.77,951.59,954.25,958.07,960.85,963.38,966.04,968.57,970.22,971.53,973.25,976.13,979.09,981.11,982.15,981.97,980.08,976.03,971.82
627.10,630.39,632.06,633.11,633.98,635.08,636.59,638.13,639.73,641.64,643.92,646.36,648.66,651.04,653.56,656.17,658.75,661.24,663.61,665.73,667.32,668.60,669.93,671.36,672.73,674.22,675.83,677.60,679.53,681.32,682.62,683.76,684.77,685.32,685.55,685.55,685.37,685.13,685.35,686.84,689.10,691.54,693.13,694.14,694.59,695.03,696.65,699.02,700.72,701.77,702.20,701.73,702.36,704.75,708.78,713.24,717.55,720.88,722.87,723.06,722.44,723.11,724.36,725.60,726.80,728.59,731.17,734.32,737.35,738.95,739.41,739.66,740.36,741.00,742.85,745.22,747.73,750.32,752.99,755.62,758.05,760.14,762.44,764.94,767.68,770.73,774.11,777.07,778.58,778.71,778.29,777.80,778.12,779.50,782.14,785.30,788.26,790.73,792.52,793.50,793.97,794.41,794.97,795.59,795.57,795.26,794.80,794.27,793.94,793.60,793.49,793.69,794.27,795.72,797.43,799.19,800.85,802.08,802.75,802.88,802.57,802.26,802.01,802.55,803.74,805.09,806.14,808.71,811.96,815.12,818.08,822.78,828.06,832.83,835.85,839.62,844.00,847.91,850.51,853.86,855.84,856.55,857.01,860.03,862.97,865.26,867.38,870.02,871.30,872.02,872.63,873.29,873.99,874.65,875.87,877.73,879.72,880.34,880.58,880.75,880.82,880.73,880.64,880.57,880.45,880.13,879.40,878.59,877.92,877.57,877.13,876.12,874.41,872.07,870.08,867.16,864.06,861.68,861.40,861.82,863.32,865.48,867.79,869.99,871.98,873.89,875.86,878.04,879.20,880.22,881.47,883.02,884.13,884.16,884.12,884.85,886.05,887.77,889.28,890.41,891.45,892.58,893.67,894.74,895.95,897.49,898.21,898.65,899.17,899.78,900.90,901.65,901.86,901.74,902.00,903.82,906.35,908.71,910.49,912.18,913.92,915.80,918.00,919.93,922.40,924.81,925.86,925.34,925.08,926.82,930.96,934.87,938.58,942.13,945.38,948.03,950.33,952.31,954.43,957.15,960.47,963.01,965.49,968.15,970.55,972.27,973.53,974.97,977.34,979.82,981.07,981.25,980.27,977.80,973.63,969.32
626.27,629.43,630.92,631.97,632.86,634.17,636.16,637.89,639.64,641.73,644.19,646.77,649.37,651.91,654.31,656.48,658.64,660.79,662.80,664.53,665.82,666.99,668.12,669.25,670.49,671.92,673.60,675.49,677.57,679.36,680.31,680.99,681.55,681.76,681.82,681.76,681.71,682.06,683.76,686.61,689.49,691.52,691.97,691.90,692.01,692.86,695.20,697.60,699.19,700.07,700.27,699.56,700.55,703.27,707.28,711.49,715.33,718.13,719.66,719.78,719.90,720.70,721.80,723.06,724.87,727.48,730.41,733.42,736.10,737.10,737.35,737.52,738.04,738.77,740.55,742.84,745.39,748.23,751.23,753.93,756.23,758.15,760.34,762.96,765.81,768.76,771.59,773.65,774.61,774.51,773.61,773.20,774.08,775.81,778.03,780.65,783.55,786.06,787.79,788.72,789.55,790.59,791.76,792.78,793.00,792.74,792.20,791.61,791.38,791.12,791.09,791.45,792.36,793.81,795.54,797.31,798.85,799.86,800.44,800.64,800.49,800.30,800.08,800.34,801.14,802.36,803.33,806.00,809.24,812.04,814.28,817.38,822.64,828.84,832.28,834.79,836.70,838.38,840.41,844.16,846.54,848.29,850.04,852.16,854.57,857.17,860.45,864.98,867.28,868.85,870.36,871.85,872.61,873.31,874.90,877.35,879.54,880.18,880.43,880.64,880.76,880.71,880.62,880.50,880.31,879.92,878.93,877.78,876.79,876.23,875.72,875.05,873.87,871.96,869.95,867.04,863.83,861.18,860.65,861.88,864.04,866.42,868.49,870.25,871.87,873.51,875.23,876.91,878.02,879.33,881.20,883.79,885.97,886.69,886.90,887.50,888.59,889.74,890.92,892.16,893.41,894.52,895.53,896.54,897.68,899.07,900.09,900.83,901.43,902.05,902.89,903.61,904.09,904.31,904.80,906.53,908.77,910.72,912.09,913.65,915.00,916.17,917.83,919.74,921.63,922.69,921.97,921.24,923.10,927.05,932.11,935.74,938.87,942.21,945.74,948.94,951.35,953.65,956.07,958.69,961.38,963.93,966.55,969.15,971.29,973.06,974.23,975.36,977.27,979.55,980.22,979.74,978.25,975.29,971.41,967.41
624.22,627.33,629.43,630.69,631.66,632.99,634.98,636.76,639.01,641.36,643.67,646.10,648.97,651.49,653.72,655.87,657.92,659.88,661.59,662.97,664.26,665.35,666.29,667.19,668.25,669.70,671.39,673.49,676.06,678.19,678.91,679.07,679.09,679.13,678.96,678.88,679.33,680.90,683.62,686.65,688.92,689.85,689.76,689.33,689.97,691.74,694.03,696.46,697.85,698.39,698.33,697.79,699.04,701.78,705.59,709.65,713.03,715.28,716.56,717.10,717.31,718.08,719.64,721.99,724.47,727.24,730.07,732.74,734.83,735.24,735.30,735.50,736.06,737.06,738.68,740.51,742.72,746.14,749.65,752.36,754.43,756.41,758.86,761.80,764.66,767.07,769.08,770.20,770.56,770.32,769.81,770.07,771.47,773.52,775.65,777.15,779.17,781.15,782.72,783.76,784.60,786.00,787.85,789.52,790.21,789.98,789.23,788.44,788.67,788.64,788.81,789.38,790.40,791.90,793.63,795.27,796.56,797.53,798.15,798.57,798.81,798.82,798.67,798.88,799.42,800.05,800.69,802.95,805.88,808.58,810.61,813.22,817.41,822.94,828.33,831.41,833.05,833.86,834.36,836.18,838.02,840.18,842.61,844.34,846.08,847.70,849.57,852.27,854.88,859.19,864.77,870.12,871.21,872.19,874.04,876.63,879.08,880.00,880.37,880.57,880.70,880.64,880.52,880.38,880.13,879.52,878.48,877.28,876.13,875.16,874.37,873.80,873.03,871.67,869.75,866.81,863.55,860.80,860.21,862.67,866.40,869.79,871.54,872.67,874.16,875.84,877.35,878.17,879.16,880.33,881.90,884.27,886.65,888.12,888.98,889.65,890.70,891.62,892.66,893.95,895.34,895.88,896.32,896.80,897.33,898.18,899.17,900.11,900.96,901.86,902.86,903.75,904.51,905.22,905.84,907.39,909.14,910.25,910.79,911.21,911.74,912.61,914.30,916.91,918.75,919.06,917.93,919.57,923.76,928.81,933.71,937.75,940.63,943.01,945.27,947.58,949.38,951.34,953.70,956.50,959.05,961.71,964.80,968.05,970.35,971.30,971.56,972.16,974.35,977.56,978.37,977.48,975.50,972.87,969.40,965.66
621.98,624.83,626.82,628.30,629.69,631.36,633.44,635.42,637.73,640.04,642.46,645.59,648.87,651.54,653.78,655.96,658.01,659.78,661.26,662.50,663.74,664.92,666.02,667.09,668.14,669.27,670.51,672.40,675.12,677.01,677.43,677.33,677.16,677.08,676.87,677.20,678.37,680.64,683.54,685.42,686.50,686.98,687.14,687.81,689.29,691.35,693.40,695.51,696.45,696.61,696.51,696.49,697.96,700.38,703.56,707.40,710.55,712.52,713.69,714.61,715.77,717.28,719.29,721.83,724.40,727.05,729.52,731.67,733.22,733.33,733.28,733.45,734.05,735.29,736.92,738.60,740.52,743.53,747.19,750.27,752.72,754.90,757.46,760.43,763.19,765.30,766.93,767.56,767.65,767.50,767.40,768.22,769.66,771.29,772.74,773.68,775.39,777.34,779.08,780.34,781.02,782.13,783.67,785.16,785.92,785.90,785.54,785.30,785.98,786.19,786.49,787.06,787.94,789.67,791.47,793.04,794.23,795.19,795.87,796.42,796.83,797.03,797.21,797.38,797.57,797.84,798.31,800.01,802.32,804.66,806.76,809.49,813.57,819.02,824.86,828.00,829.42,829.77,829.38,829.39,829.99,831.77,834.59,836.84,838.66,840.14,841.69,843.94,846.43,850.50,855.68,861.04,864.40,868.40,871.96,874.97,878.18,879.72,880.28,880.47,880.59,880.54,880.40,880.25,879.95,879.12,878.05,876.90,875.71,874.50,873.35,872.57,871.88,870.90,869.12,866.24,862.99,860.27,859.86,862.53,866.35,869.90,872.19,874.21,876.27,878.07,879.30,879.74,880.52,881.51,882.86,885.05,887.35,889.07,890.24,891.07,892.09,892.77,893.38,894.03,894.70,894.92,895.17,895.53,895.93,896.42,897.23,898.19,899.20,900.15,901.13,902.05,902.85,903.38,903.77,904.94,906.34,907.28,907.54,907.50,907.61,908.25,909.93,912.33,913.89,914.65,915.64,919.72,924.84,929.71,933.81,937.35,939.41,941.32,943.37,945.15,946.49,948.69,951.44,954.16,956.47,959.24,962.33,965.27,967.09,967.80,968.58,970.09,972.86,975.68,976.19,975.11,973.03,970.52,967.26,964.43
620.56,622.97,624.57,626.16,627.98,630.00,632.20,634.43,636.56,638.71,641.38,645.46,649.22,652.15,654.55,656.75,658.74,660.27,661.59,662.81,663.99,665.32,666.72,668.09,669.23,669.96,670.66,672.11,674.54,675.78,675.88,675.69,675.52,675.37,675.22,676.14,678.07,680.62,683.04,683.32,683.23,683.83,684.75,687.05,689.36,691.31,693.06,694.59,694.97,694.80,694.79,695.46,697.10,699.08,701.45,704.92,707.92,709.88,711.17,712.57,715.00,717.52,719.87,722.07,724.42,726.80,728.82,730.38,731.41,731.40,731.27,731.41,732.07,733.57,735.28,736.98,738.68,740.82,744.30,747.81,750.86,753.26,755.90,758.81,761.45,763.48,764.96,765.35,765.40,765.46,765.77,766.98,768.17,769.06,769.67,770.44,772.21,774.33,776.38,777.87,778.45,779.01,779.77,780.62,781.19,781.42,781.69,782.28,783.32,783.76,784.10,784.53,785.16,787.06,788.95,790.53,791.80,792.85,793.62,794.22,794.69,795.15,795.69,795.77,795.58,795.63,796.04,797.25,798.91,800.80,803.05,806.26,810.88,816.54,821.75,824.53,825.69,825.81,825.00,823.69,822.99,824.10,827.16,830.25,832.41,834.08,835.82,838.23,840.33,842.79,845.57,849.12,855.11,862.61,868.22,871.94,876.45,879.06,880.08,880.34,880.47,880.42,880.29,880.12,879.77,878.75,877.68,876.59,875.43,874.07,872.55,871.41,870.54,869.68,868.04,865.34,862.22,859.70,859.80,862.44,865.62,868.66,871.56,874.93,877.82,879.83,880.83,881.31,881.94,882.75,883.96,886.03,888.06,889.69,890.95,891.90,892.77,893.17,893.20,892.94,892.58,892.62,892.94,893.45,893.98,894.20,894.76,895.63,896.66,897.46,898.25,899.09,899.76,899.74,899.70,900.31,901.37,902.50,902.93,902.97,903.08,903.65,905.25,906.93,908.36,910.38,914.54,920.55,925.69,929.75,932.83,935.27,936.30,937.97,940.28,941.86,943.10,945.87,949.13,951.63,953.59,956.38,959.22,961.49,962.62,963.68,965.82,968.88,972.13,973.89,973.92,972.80,970.76,968.17,965.00,963.49
623.01,624.78,626.66,627.97,629.33,630.96,633.00,635.36,637.39,639.65,642.55,646.47,650.51,653.90,656.63,658.79,660.17,661.33,662.49,663.72,664.89,666.24,667.67,669.02,670.04,671.01,671.94,673.02,674.22,674.46,674.32,674.10,673.90,673.75,673.59,674.90,677.25,679.57,680.74,680.61,680.81,682.19,684.28,686.90,689.25,691.15,692.66,693.29,693.30,693.10,693.18,694.41,696.16,697.94,699.85,702.52,705.06,707.38,709.65,712.13,714.95,717.66,720.05,722.05,724.07,726.25,727.99,729.12,729.57,729.45,729.33,729.50,730.34,732.25,734.00,735.62,737.21,738.99,741.84,745.09,748.14,750.57,753.49,756.64,759.52,761.69,762.80,763.08,763.21,763.49,764.19,765.34,766.24,766.89,767.50,768.25,770.06,772.14,774.10,775.77,776.76,777.29,777.63,778.00,778.33,778.53,778.93,779.73,780.70,781.30,781.62,781.82,782.33,783.70,785.45,787.26,788.95,790.46,791.38,792.05,792.70,793.59,794.13,793.94,793.40,793.28,793.74,794.97,796.55,798.28,800.37,804.39,809.67,815.15,819.00,821.10,821.93,821.86,820.98,819.98,819.33,820.52,823.76,826.93,828.51,829.52,830.56,831.98,833.54,836.12,839.39,843.32,848.57,854.76,860.25,865.40,872.26,877.05,879.39,880.23,880.39,880.35,880.21,880.01,879.58,878.54,877.46,876.38,875.18,873.62,871.89,870.44,869.08,867.64,866.04,863.80,861.20,859.36,860.87,865.01,868.22,870.17,871.71,874.52,877.72,880.12,881.33,882.40,883.29,884.08,885.16,887.09,888.69,890.07,891.22,891.99,892.17,892.06,891.70,891.08,890.36,890.26,890.81,891.59,892.04,891.82,892.20,892.90,893.60,894.03,894.40,894.98,895.46,895.06,894.53,894.30,894.70,895.88,896.93,897.53,898.33,899.53,900.84,902.06,904.53,908.53,914.15,920.12,924.77,928.38,930.98,932.16,932.61,933.79,935.62,937.21,939.34,942.54,945.80,948.10,949.65,952.07,954.83,957.25,958.43,960.90,964.42,968.09,970.75,972.01,972.02,970.90,968.63,965.73,962.54,962.54
626.16,627.61,629.49,630.72,631.90,633.34,635.21,637.40,639.91,642.67,645.63,648.77,652.43,655.84,658.59,660.32,661.38,662.37,663.46,664.65,665.78,666.88,668.01,669.10,669.95,670.95,671.87,672.63,673.08,672.92,672.73,672.53,672.32,672.20,672.16,673.79,676.34,678.25,678.65,678.69,679.40,681.24,683.61,686.21,688.61,690.59,691.75,691.87,691.65,691.54,691.98,693.47,695.21,696.91,698.64,700.78,703.25,705.92,708.76,711.77,714.76,717.66,720.15,722.06,723.75,725.57,726.90,727.58,727.62,727.41,727.25,727.59,728.89,731.00,732.74,734.32,735.88,737.59,739.94,742.72,745.50,747.94,750.80,753.86,756.59,758.57,759.77,760.45,761.09,761.83,762.62,763.63,764.26,764.72,765.37,766.31,768.24,770.39,772.37,774.08,775.13,775.51,775.56,775.70,775.91,776.17,776.67,777.52,778.32,778.92,779.19,779.29,779.64,780.50,781.90,783.62,785.46,787.22,788.59,789.89,791.23,792.40,792.71,792.25,791.48,791.03,791.50,792.81,794.49,796.39,798.96,803.39,808.62,813.51,816.38,817.77,818.25,818.06,817.28,816.56,816.75,818.37,821.34,824.22,825.41,826.27,827.25,828.31,829.49,831.57,834.64,838.71,843.19,848.64,854.16,859.72,866.12,873.09,877.83,880.13,880.30,880.28,880.17,879.91,879.37,878.35,877.29,876.21,874.93,873.19,871.40,869.94,868.49,866.76,864.89,862.78,860.34,858.88,861.67,866.70,870.14,871.88,872.92,874.60,877.14,879.46,881.04,882.39,883.57,884.68,885.94,887.65,888.98,890.15,891.05,891.44,891.24,890.61,889.71,888.67,887.74,887.65,888.44,889.41,889.69,889.09,889.25,889.75,890.13,890.18,890.33,890.76,891.11,890.57,889.86,889.44,889.64,890.71,891.98,892.91,894.13,895.75,897.29,898.73,902.09,907.15,913.02,918.42,922.52,925.56,927.50,928.04,928.27,929.17,930.89,933.29,936.13,939.29,942.19,944.28,945.82,948.27,951.26,954.29,956.66,960.00,963.78,967.08,968.78,969.70,969.66,968.48,966.04,963.09,960.76,962.68
629.42,630.81,632.46,633.86,635.21,636.74,638.55,640.59,643.79,647.06,649.80,651.91,654.76,657.77,660.19,661.27,662.29,663.25,664.26,665.34,666.34,667.01,667.65,668.35,669.04,669.81,670.46,670.92,671.13,671.02,670.90,670.72,670.55,670.66,670.99,672.91,675.42,676.78,676.94,677.46,678.71,680.65,682.56,684.98,687.48,689.57,690.41,690.38,690.12,690.23,691.20,692.79,694.46,696.17,697.94,699.83,702.49,705.40,708.38,711.41,714.45,717.51,720.11,721.97,723.36,724.74,725.56,725.75,725.54,725.25,725.08,725.64,727.51,729.65,731.43,733.03,734.65,736.49,738.52,740.80,743.20,745.64,748.11,750.76,752.97,754.45,756.00,757.43,758.92,760.26,760.95,761.75,762.18,762.53,763.23,764.47,766.61,768.94,771.07,772.73,773.48,773.59,773.45,773.52,773.72,774.11,774.72,775.52,776.15,776.58,776.82,776.93,777.13,777.58,778.50,779.83,781.57,783.51,785.54,787.81,790.11,791.44,791.38,790.68,789.73,788.89,789.36,790.77,792.62,794.90,798.38,802.78,807.38,811.43,813.70,814.49,814.62,814.40,813.87,813.37,814.76,816.96,819.38,821.80,822.91,824.08,825.51,826.81,827.80,828.94,831.14,834.90,838.93,844.36,850.13,855.37,859.53,868.17,875.76,880.06,880.19,880.21,880.14,879.83,879.16,878.17,877.14,876.04,874.71,872.88,871.19,869.94,868.67,866.89,864.56,862.28,859.65,858.21,862.07,867.35,871.08,873.37,874.85,875.43,876.72,878.49,880.31,881.57,883.03,884.64,886.30,887.78,889.00,889.95,890.44,890.28,889.86,888.73,887.25,885.77,884.78,884.83,885.81,886.87,886.94,886.07,885.98,886.23,886.39,886.29,886.50,886.93,887.27,886.98,886.52,886.52,886.96,887.75,888.70,889.58,890.79,892.49,894.62,896.86,900.79,905.91,911.09,915.67,919.19,921.57,922.72,923.12,923.37,924.23,926.22,929.90,933.22,936.02,938.34,940.24,942.18,945.13,948.65,952.52,956.67,960.29,963.43,965.62,966.24,966.98,966.82,965.54,963.10,960.34,959.80,963.82
631.87,633.19,634.96,636.73,638.53,640.50,642.88,646.02,648.51,650.58,652.41,654.30,656.96,659.25,660.90,661.91,662.91,663.63,664.23,664.81,665.34,665.71,666.23,666.87,667.41,667.98,668.21,668.35,668.51,668.10,667.81,667.51,667.49,668.76,670.35,672.60,674.66,675.29,675.44,676.34,677.84,679.63,681.19,683.48,685.81,687.78,688.89,688.97,689.07,689.72,691.20,693.03,694.91,696.74,698.51,700.35,702.78,705.54,708.45,711.50,714.40,717.06,719.30,721.01,722.31,723.69,724.05,723.53,723.20,722.93,722.91,723.57,725.34,727.60,729.87,731.83,733.53,735.39,737.50,739.75,742.06,744.35,746.40,748.42,749.92,750.76,751.96,753.95,756.06,757.81,758.64,759.11,759.51,760.09,761.10,762.64,765.00,767.53,769.83,771.50,771.98,771.90,771.65,771.51,771.60,772.07,772.74,773.43,773.91,774.20,774.45,774.69,774.82,775.10,775.63,776.59,778.32,781.01,783.65,786.27,788.70,790.16,790.00,788.98,787.66,786.71,787.62,789.12,791.00,793.50,797.06,800.87,804.88,808.54,810.38,810.97,811.02,810.85,810.71,811.04,812.81,815.10,817.46,819.73,821.22,822.61,824.04,825.41,826.64,827.98,830.00,833.15,837.08,841.71,847.15,852.99,858.35,866.20,874.48,880.04,880.13,880.19,880.11,879.78,879.12,878.09,876.99,875.86,874.62,873.21,871.86,870.67,869.14,866.90,864.50,862.14,859.10,857.28,861.85,867.30,871.17,873.88,876.24,877.67,878.59,879.37,880.16,881.09,882.62,884.38,886.16,887.72,888.90,889.35,889.09,888.14,886.89,885.30,883.70,882.38,881.74,881.87,882.85,883.86,883.85,883.04,882.64,882.53,882.72,883.77,884.67,885.29,885.90,886.99,887.99,888.87,889.54,889.78,889.45,889.38,889.79,890.86,893.02,896.38,900.35,904.46,908.37,912.12,914.97,916.90,917.81,917.88,918.02,919.13,921.53,925.38,929.38,932.04,933.93,935.90,938.68,942.66,947.00,951.36,955.73,959.46,961.85,962.85,962.73,963.74,963.63,962.41,960.26,957.90,960.22,965.63
633.62,635.04,636.98,639.04,641.08,643.24,645.87,649.39,651.37,652.79,654.29,656.17,658.54,660.16,661.17,661.99,662.75,663.20,663.52,663.81,664.00,664.19,664.64,665.21,665.50,665.87,665.80,665.65,665.63,665.10,664.59,664.67,665.73,668.08,670.21,672.14,673.55,674.03,674.76,676.13,677.77,679.36,680.62,682.51,684.40,686.06,687.38,687.77,688.47,689.65,691.28,693.27,695.34,697.33,699.23,701.18,703.45,705.96,708.63,711.40,713.96,716.14,718.07,719.76,721.24,722.41,722.29,721.25,720.67,720.42,720.57,721.31,722.95,725.31,727.96,730.35,732.36,734.31,736.45,738.73,740.99,743.00,744.73,746.35,747.54,748.23,749.22,751.07,753.11,754.82,755.57,755.80,756.35,757.34,758.79,760.60,763.14,765.85,768.28,769.97,770.37,770.24,769.97,769.77,769.81,770.25,770.83,771.34,771.65,771.83,772.11,772.43,772.56,772.67,772.87,773.65,775.74,779.21,782.11,784.50,786.42,787.67,787.55,786.62,785.40,784.67,785.87,787.48,789.43,792.05,795.55,799.15,802.77,805.82,806.99,807.42,807.50,807.60,808.11,809.29,811.27,813.56,815.94,818.20,820.06,821.56,822.85,824.13,825.62,827.34,829.37,831.99,835.75,839.67,844.89,851.49,858.49,865.43,873.54,879.63,880.03,880.15,880.07,879.74,879.05,877.97,876.82,875.66,874.49,873.29,872.12,870.92,869.16,866.60,864.14,861.68,858.57,856.81,861.74,867.25,871.25,874.26,877.17,879.30,880.21,880.50,880.64,881.30,882.68,884.36,886.08,887.56,888.22,888.06,887.25,885.82,884.01,881.88,880.03,878.69,877.92,878.01,879.11,880.25,880.25,879.61,879.94,880.83,882.22,884.74,886.12,886.75,887.45,889.40,891.64,893.33,894.25,894.13,893.08,891.97,891.32,891.42,892.55,895.48,898.75,901.80,904.46,907.26,909.69,911.58,912.68,912.86,913.02,914.18,916.69,920.74,925.04,927.88,929.88,932.09,935.52,940.08,944.90,949.55,953.78,957.20,959.02,959.43,959.06,960.27,960.29,959.21,957.65,957.20,961.34,967.20
634.43,636.09,638.13,640.33,642.33,644.37,646.79,649.66,651.63,653.38,655.24,657.17,659.08,660.24,660.88,661.38,661.70,661.96,662.23,662.48,662.59,662.67,663.04,663.45,663.40,663.56,663.32,662.89,662.52,662.09,661.50,662.59,665.54,668.59,670.33,671.33,672.11,673.17,675.01,676.92,678.66,680.10,681.14,682.38,683.60,684.80,686.07,686.92,688.35,689.94,691.34,693.31,695.49,697.65,699.76,701.91,704.13,706.40,708.69,710.92,712.95,714.74,716.51,718.39,720.26,720.89,720.27,718.93,717.93,717.67,717.98,718.85,720.46,722.93,725.75,728.55,731.10,733.18,735.29,737.58,739.78,741.47,742.99,744.51,745.82,746.82,747.87,748.92,750.23,751.49,751.85,752.01,752.84,754.31,756.28,758.30,761.02,763.88,766.40,768.05,768.60,768.59,768.40,768.33,768.38,768.69,769.05,769.29,769.40,769.54,769.81,770.15,770.32,770.25,770.19,771.01,773.76,777.80,780.55,782.25,783.20,783.86,783.89,783.47,782.91,782.75,784.08,785.87,788.00,790.67,794.10,797.92,801.24,803.40,803.70,803.93,804.20,804.82,806.19,808.09,810.19,812.44,814.82,817.16,819.25,820.77,821.88,822.95,824.64,826.70,828.82,831.12,834.59,838.10,843.28,850.57,859.08,865.47,872.75,878.62,879.75,880.02,880.01,879.65,878.87,877.74,876.58,875.42,874.23,872.98,871.80,870.48,868.58,865.91,863.34,860.68,857.99,857.05,861.97,867.29,871.36,874.56,877.57,879.87,881.00,881.48,881.70,882.28,883.31,884.66,886.11,887.22,886.86,886.10,885.05,883.51,881.50,878.80,876.49,874.82,873.43,873.38,874.74,876.27,876.57,876.41,878.60,881.89,885.51,889.39,890.93,891.42,891.98,893.90,896.79,899.05,900.21,900.01,899.04,897.10,895.40,894.32,893.48,894.27,896.12,898.16,899.69,901.44,903.65,905.80,907.41,908.27,908.76,909.83,912.24,916.86,921.03,924.23,926.79,929.27,932.84,937.29,942.07,946.76,950.68,953.38,954.88,955.42,955.42,956.64,956.89,956.17,955.59,958.43,962.98,968.32
632.79,634.15,635.89,638.17,640.17,642.10,644.30,646.84,649.29,651.38,653.05,654.57,656.60,658.11,659.07,659.75,660.34,660.70,660.93,661.08,661.11,661.14,661.29,661.44,661.27,661.00,660.39,659.60,658.83,658.26,658.75,660.94,664.34,666.93,668.52,669.99,671.59,673.37,675.52,677.60,679.58,681.38,682.63,683.79,684.78,685.59,686.32,687.31,688.81,690.34,691.58,693.29,695.42,697.51,699.40,701.20,703.13,705.28,707.53,709.64,711.43,713.16,715.11,717.34,719.30,719.30,717.95,716.08,714.84,714.49,714.96,716.12,718.06,720.88,723.88,726.83,729.53,731.61,733.80,736.29,738.72,740.52,742.00,743.35,744.23,744.63,745.52,746.47,747.64,748.75,749.04,749.50,750.40,751.80,753.76,756.06,759.16,762.23,764.70,766.15,766.87,767.02,766.92,766.94,766.97,767.21,767.47,767.57,767.54,767.60,767.83,768.10,768.13,767.97,767.85,768.60,771.15,774.76,777.49,779.12,779.75,780.08,780.12,779.99,779.99,780.70,782.51,784.84,787.45,790.39,793.76,796.85,799.20,800.61,800.80,800.94,801.78,803.21,805.02,807.07,809.07,811.15,813.36,815.56,817.55,819.19,820.51,821.65,823.32,825.44,827.73,830.23,833.56,837.00,842.05,849.49,859.18,865.24,871.13,876.18,878.45,879.37,879.61,879.25,878.31,877.16,875.97,874.82,873.71,872.63,871.52,869.93,867.75,864.96,862.21,858.84,857.20,858.51,863.10,867.41,870.85,873.83,876.81,879.57,880.97,881.78,882.48,883.26,884.24,885.14,885.81,885.97,885.32,884.30,883.12,881.61,879.06,876.09,873.47,871.53,870.43,870.57,871.93,874.13,876.75,879.11,882.67,886.68,890.57,894.00,896.02,897.04,897.67,898.83,901.02,903.11,904.35,904.23,903.28,901.86,900.29,898.70,897.23,896.65,896.89,897.48,897.98,898.67,899.87,901.27,902.76,904.53,906.48,908.81,912.47,918.92,922.95,925.63,927.63,929.25,931.23,934.94,939.04,942.87,946.15,948.32,949.71,950.79,951.99,953.02,953.98,954.88,956.26,959.87,964.46,969.17
629.80,631.19,632.86,634.98,636.86,638.64,640.56,642.64,645.28,647.64,649.43,650.87,653.04,654.84,656.11,657.00,657.83,658.31,658.55,658.60,658.60,658.58,658.48,658.29,658.01,657.42,656.54,655.51,654.61,654.62,656.51,659.53,662.80,664.87,666.67,668.89,671.31,673.56,675.81,677.99,680.21,682.40,684.09,685.49,686.48,687.04,687.29,688.05,689.36,690.72,691.86,693.28,695.17,697.04,698.68,700.13,701.74,703.75,705.97,708.06,709.81,711.72,713.95,716.39,718.19,717.43,715.45,713.24,711.86,711.43,712.18,713.88,716.46,719.66,722.60,725.42,728.03,730.11,732.40,735.03,737.60,739.51,741.04,742.15,742.59,742.43,742.96,743.94,745.14,746.25,746.78,747.55,748.50,749.69,751.41,753.87,757.25,760.51,763.01,764.33,765.20,765.50,765.49,765.55,765.59,765.75,765.90,765.93,765.73,765.75,765.91,766.05,765.92,765.71,765.58,766.19,768.32,771.33,774.00,775.67,776.22,776.35,776.41,776.59,777.27,779.05,781.43,784.21,787.19,790.23,793.12,795.37,797.01,798.02,798.33,798.84,800.29,802.25,804.21,806.17,807.97,809.79,811.71,813.66,815.45,817.12,818.66,820.03,821.79,824.01,826.52,829.31,832.55,836.09,840.98,848.23,858.57,864.54,869.24,873.29,876.12,877.61,878.36,878.37,877.58,876.42,875.19,874.03,872.98,872.05,871.00,868.80,866.09,863.40,860.50,856.97,856.64,859.92,863.78,867.09,869.98,872.76,875.74,878.60,880.35,881.54,882.55,883.57,884.63,885.12,885.01,884.45,883.78,882.67,881.29,879.52,876.60,873.46,870.88,869.35,869.35,870.14,871.68,874.34,878.69,883.05,887.55,891.85,895.56,898.27,900.50,901.99,902.92,903.77,905.35,907.01,908.13,908.18,907.38,906.56,905.32,903.56,901.72,900.33,899.42,898.83,898.49,898.39,898.78,899.62,901.01,903.16,906.16,909.95,915.05,922.26,926.25,928.50,929.97,931.01,931.75,934.21,937.20,940.13,942.96,945.05,946.36,947.55,949.33,950.64,952.40,954.57,957.22,960.71,965.09,969.25
625.48,627.56,629.62,631.25,632.82,634.41,635.96,637.31,639.48,642.00,644.50,646.57,648.74,650.47,651.76,652.77,653.52,654.07,654.33,654.31,654.29,654.22,653.85,653.29,652.85,652.17,651.31,650.35,649.83,651.67,654.99,658.33,661.06,662.97,665.49,668.35,671.10,673.36,675.66,677.95,680.34,682.81,685.13,687.03,688.24,688.79,688.87,689.00,689.89,691.10,692.20,693.39,694.80,696.30,697.75,699.07,700.37,702.17,704.30,706.39,708.30,710.63,713.17,715.55,716.83,715.22,712.85,710.68,709.19,708.78,710.00,712.52,716.05,719.57,722.10,724.39,726.73,728.87,731.27,733.86,736.31,738.17,739.86,740.67,740.79,740.47,740.44,741.43,742.73,743.99,745.08,746.05,747.04,748.07,749.37,751.82,755.22,758.62,761.31,762.63,763.64,764.07,764.11,764.14,764.25,764.27,764.28,764.26,763.89,763.91,763.96,763.88,763.67,763.44,763.31,763.73,765.31,767.81,770.33,772.01,772.61,772.67,772.83,773.51,775.12,778.09,781.02,784.05,787.08,789.85,791.61,793.23,794.75,795.93,796.48,798.01,799.95,801.91,803.69,805.37,806.88,808.34,809.85,811.49,812.98,814.52,816.17,817.93,820.05,822.51,825.28,828.33,831.53,835.32,840.04,846.71,856.87,863.09,867.14,870.17,872.57,874.33,875.92,876.84,876.69,875.53,874.29,873.10,872.01,871.08,869.93,866.62,863.15,860.90,858.01,855.42,856.56,860.84,863.49,866.13,868.76,871.52,874.48,876.85,879.04,880.63,881.56,882.81,884.02,884.21,883.55,882.84,882.29,881.22,879.50,877.03,874.13,870.88,868.90,868.93,870.96,872.99,875.00,877.74,882.17,886.98,891.86,896.26,899.70,901.95,903.83,905.48,906.98,908.46,910.01,911.19,911.97,912.27,911.87,911.25,910.25,908.66,906.41,904.86,903.58,902.43,901.54,901.09,901.28,902.17,903.73,905.39,908.35,913.32,919.63,925.55,929.70,931.96,933.37,934.61,935.35,936.14,937.61,939.93,942.71,945.38,946.57,946.93,947.91,950.25,952.70,955.11,957.59,960.41,964.23,967.98
620.59,622.66,624.69,626.47,628.22,629.80,631.04,632.07,633.52,635.70,638.41,640.91,643.31,645.21,646.67,647.75,648.36,648.56,648.39,647.96,647.65,647.29,646.65,645.93,645.64,645.41,644.95,644.93,646.40,650.25,653.58,656.55,659.35,661.96,664.81,667.77,670.57,672.90,675.25,677.62,680.07,682.66,685.25,687.60,689.22,690.16,690.65,690.66,691.33,692.41,693.46,694.38,695.43,696.54,697.66,698.73,699.82,701.69,704.11,706.55,708.55,710.79,713.18,715.19,715.49,713.77,711.35,708.92,707.17,707.43,709.23,711.99,715.31,718.40,720.54,722.54,724.86,727.63,730.23,732.47,734.50,736.49,738.31,738.80,738.56,738.19,738.64,739.81,741.16,742.46,743.52,744.22,745.12,746.36,748.20,751.19,754.38,757.33,759.75,761.28,762.25,762.64,762.70,762.71,762.80,762.73,762.61,762.49,762.11,761.98,761.86,761.68,761.46,761.26,761.12,761.28,762.22,764.20,766.55,768.20,768.77,768.83,769.70,771.41,773.95,777.37,780.55,783.60,786.51,789.07,790.56,791.81,793.11,794.43,795.65,797.41,799.29,801.07,802.65,804.08,805.45,806.68,807.83,809.18,810.50,811.96,813.67,815.79,818.19,820.85,823.77,826.96,830.27,834.39,839.13,845.01,853.19,860.06,864.25,866.99,869.61,871.87,873.82,875.34,875.94,874.78,873.47,872.22,870.92,869.18,866.32,862.68,859.65,857.84,855.27,854.93,857.37,861.38,863.68,866.00,868.23,870.35,872.39,874.58,876.93,878.95,880.48,881.99,883.18,883.18,882.32,881.55,880.87,879.42,877.31,874.69,871.93,868.98,868.63,871.33,874.88,877.37,879.58,882.33,886.53,891.70,896.16,899.58,901.96,903.96,906.08,908.06,909.81,911.31,912.81,914.39,915.74,916.43,916.23,915.52,914.52,913.12,911.03,909.50,907.88,906.30,905.28,904.85,905.00,905.88,907.48,909.04,911.38,915.80,921.90,928.01,932.71,935.20,936.65,938.11,939.68,940.82,942.39,944.77,947.70,950.72,951.01,949.36,948.06,950.01,952.14,954.31,956.60,958.47,960.78,963.12
615.76,617.73,619.74,621.69,623.54,625.10,626.21,627.16,628.24,630.09,632.69,635.28,637.86,639.92,641.43,642.38,642.80,642.71,642.26,641.56,641.00,640.31,639.38,638.63,638.86,639.22,639.47,640.64,643.89,648.96,652.31,655.27,658.45,661.61,664.50,667.35,670.07,672.47,674.84,677.16,679.56,682.11,684.71,687.17,689.00,690.31,691.41,691.88,692.65,693.69,694.78,695.60,696.42,697.26,698.12,699.01,700.12,702.12,704.75,707.42,709.40,711.43,713.33,714.50,713.92,712.30,709.93,707.24,705.31,706.42,708.82,711.60,714.35,716.85,718.63,720.50,722.95,726.20,728.92,730.90,732.67,734.83,736.53,736.71,736.25,736.05,737.08,738.40,739.79,741.07,741.88,742.26,743.21,744.87,747.35,750.72,753.58,755.99,758.06,759.75,760.71,761.12,761.22,761.19,761.21,761.03,760.85,760.75,760.40,760.13,759.89,759.66,759.45,759.28,759.15,759.17,759.67,761.09,762.99,764.48,765.29,765.90,767.60,770.12,773.25,776.84,780.15,783.12,785.78,788.00,789.43,790.58,791.83,793.30,795.07,796.80,798.46,800.00,801.35,802.52,803.71,804.76,805.70,806.87,808.16,809.65,811.46,813.84,816.45,819.23,822.24,825.52,828.94,833.31,838.17,843.57,850.12,857.28,861.90,864.98,868.09,870.51,872.43,874.13,875.16,874.07,872.70,871.25,869.51,866.83,862.64,859.07,856.55,854.90,852.77,854.67,858.21,861.71,863.85,865.98,867.74,869.13,870.42,872.62,875.15,877.63,879.79,881.39,882.27,882.05,881.12,880.29,879.39,877.59,875.23,872.63,869.84,867.82,869.47,874.57,879.13,881.94,884.36,887.26,891.31,896.20,899.76,902.11,903.64,905.48,907.73,909.85,911.63,912.97,914.45,916.38,918.28,919.57,919.80,919.21,918.35,917.30,915.77,914.54,912.93,911.22,910.03,909.34,909.41,910.46,912.39,913.81,915.34,918.59,923.75,930.29,935.61,938.65,940.54,942.36,944.66,946.47,948.55,951.19,954.06,957.13,956.55,952.99,949.17,950.12,951.64,953.42,955.46,956.63,957.65,958.67
611.45,613.53,615.78,617.55,619.06,620.44,621.77,623.02,624.63,626.51,628.55,630.55,633.09,635.10,636.30,636.66,636.88,636.89,636.72,636.35,635.80,634.78,633.55,632.93,634.28,635.25,636.76,639.14,642.64,647.11,651.35,655.53,659.42,662.18,664.70,667.26,669.82,672.25,674.54,676.61,678.72,680.97,683.25,685.08,686.51,687.86,689.66,691.63,693.09,694.33,695.63,696.74,697.60,698.41,699.30,700.33,701.86,703.94,706.36,708.78,710.55,712.38,713.28,712.71,711.82,710.31,707.98,705.22,703.41,705.45,708.37,711.02,713.10,715.08,716.60,718.55,721.28,724.41,726.93,729.04,731.13,733.41,734.48,734.33,734.05,734.41,735.61,736.93,738.32,739.52,739.94,740.22,741.63,743.93,746.72,749.72,752.13,754.16,755.97,757.58,758.72,759.38,759.62,759.49,759.31,759.00,758.91,759.11,758.83,758.53,758.27,758.05,757.88,757.73,757.65,757.83,758.42,759.20,759.98,761.07,762.75,765.17,767.56,770.08,773.00,776.65,780.00,782.74,784.91,786.53,787.78,789.38,791.02,792.64,794.40,796.01,797.42,798.67,799.77,800.65,801.50,802.39,803.38,804.67,806.18,807.91,809.92,812.35,815.05,817.83,820.83,824.15,827.59,832.00,837.09,842.87,849.67,856.10,861.29,865.70,869.52,871.16,872.45,873.60,874.21,873.36,872.01,870.10,867.50,864.02,860.38,857.30,854.75,852.65,850.95,854.31,858.55,861.73,863.68,865.69,866.88,867.75,869.22,871.70,874.64,877.57,880.03,881.33,881.36,880.74,879.84,878.86,877.77,875.90,873.64,871.14,867.79,867.95,871.85,878.03,882.67,885.93,888.81,892.18,896.52,899.68,901.73,903.44,905.16,906.94,908.65,910.35,911.87,913.00,914.57,916.15,918.00,920.24,921.64,921.79,921.54,921.22,920.80,920.44,919.64,918.37,916.73,914.90,914.63,916.33,919.31,920.24,920.95,922.60,926.09,932.64,938.55,942.75,945.83,948.35,950.64,952.66,955.18,958.13,960.32,962.88,961.94,957.50,951.55,950.95,951.80,953.18,954.87,956.04,956.88,957.45
607.59,609.58,611.81,613.69,615.09,616.30,617.62,619.32,621.36,623.48,625.51,627.25,628.87,630.22,631.12,631.34,631.50,631.61,631.60,631.40,630.84,629.59,629.78,631.39,633.28,634.84,636.80,639.58,643.45,647.93,652.04,656.24,660.18,662.60,664.89,667.17,669.40,671.48,673.50,675.40,677.33,679.33,681.10,682.30,683.59,685.22,687.29,689.82,691.53,692.78,694.01,695.01,696.21,697.60,699.19,700.97,702.90,705.16,707.55,709.64,711.07,711.93,711.75,710.32,708.54,706.73,704.48,702.35,702.11,704.67,707.66,710.18,711.89,713.50,715.34,717.79,720.78,723.50,725.87,728.06,730.16,731.97,732.33,732.05,732.00,732.71,733.94,735.28,736.69,737.75,737.74,739.28,741.49,743.92,746.39,748.63,750.40,751.97,753.46,754.83,755.91,756.55,756.81,756.72,756.57,756.39,756.62,757.30,757.32,757.06,756.75,756.47,756.28,756.12,756.16,756.53,757.26,757.83,758.34,759.44,761.54,764.62,767.46,770.11,772.93,776.35,779.46,781.83,783.48,784.54,785.69,787.83,790.04,791.95,793.56,794.96,796.12,797.13,798.02,798.74,799.47,800.37,801.59,803.20,804.94,806.78,808.74,810.94,813.63,816.55,819.68,823.21,827.29,831.99,837.09,842.94,850.37,857.10,862.54,866.94,870.25,871.65,872.43,872.96,873.15,872.68,871.50,869.39,866.37,862.54,859.13,856.18,853.50,851.25,850.29,854.45,858.89,861.74,863.37,864.68,865.83,867.09,868.89,871.48,874.69,877.78,880.05,880.58,880.09,879.25,878.31,877.29,876.14,874.39,872.31,869.90,866.33,868.41,873.84,880.40,885.29,889.05,892.30,895.63,899.25,901.41,902.89,904.09,905.14,906.22,907.60,908.78,909.81,911.11,912.36,913.35,914.74,917.07,919.44,921.17,922.40,923.28,924.04,924.74,925.12,924.99,923.94,921.53,920.46,921.44,924.02,925.13,926.79,928.04,930.05,935.85,941.46,946.10,949.76,952.42,954.71,957.24,960.10,963.13,965.75,967.72,966.22,961.68,956.09,954.71,954.22,954.53,955.97,957.87,958.78,959.22
603.87,605.62,607.61,609.51,610.89,612.08,613.47,615.57,617.94,620.33,622.51,624.06,624.73,625.38,625.95,626.11,626.24,626.38,626.44,626.33,625.84,624.91,626.88,630.81,633.21,635.56,637.85,640.88,645.27,649.77,653.40,657.10,660.71,662.81,664.89,666.89,668.74,670.40,672.13,673.91,675.76,677.54,678.75,679.42,680.54,682.27,684.45,687.10,688.95,690.25,691.36,692.24,693.87,695.96,698.36,700.93,703.26,705.76,708.16,709.86,710.74,710.40,709.19,707.23,704.72,702.56,700.67,699.68,701.20,703.98,706.84,709.16,710.62,711.99,714.34,717.38,720.58,722.89,725.12,727.24,729.10,730.30,730.21,729.92,730.10,731.01,732.22,733.62,734.98,735.79,735.58,738.64,741.58,743.93,745.92,747.43,748.69,749.89,751.06,752.09,752.95,753.46,753.66,753.65,753.59,753.69,754.36,755.56,755.83,755.63,755.29,754.95,754.68,754.50,754.66,755.21,756.07,756.51,757.13,758.41,760.66,763.95,767.25,770.15,772.88,775.93,778.54,780.45,781.66,782.34,783.54,786.11,788.81,791.07,792.55,793.74,794.67,795.48,796.21,796.84,797.58,798.64,800.15,802.04,803.95,805.82,807.67,809.64,812.22,815.28,818.67,822.54,827.40,832.55,837.80,843.69,851.49,858.56,864.01,868.01,870.59,871.79,872.17,872.19,872.06,871.91,870.98,868.78,865.47,861.50,858.27,855.38,852.62,850.36,850.07,854.47,858.86,861.49,862.76,863.54,864.90,866.76,868.88,871.41,874.66,877.77,879.78,879.53,878.74,877.78,876.74,875.60,874.50,872.98,871.03,868.57,865.50,869.27,875.70,882.27,887.38,891.45,894.88,897.95,900.63,902.05,903.16,903.87,904.15,904.52,905.50,906.09,906.59,908.06,908.97,909.52,910.50,912.65,915.45,918.57,921.32,923.46,925.20,926.83,928.52,929.90,930.04,927.89,926.38,926.52,928.39,930.18,933.14,934.28,934.83,939.32,944.51,949.26,953.11,955.80,958.11,961.04,964.08,967.08,970.19,971.86,970.11,965.93,961.38,959.56,957.86,956.91,957.66,960.06,961.49,962.27
600.15,601.35,602.67,604.05,605.45,607.02,608.96,611.22,613.73,616.26,618.49,619.73,620.28,620.62,620.80,620.74,620.76,620.80,620.76,620.62,620.46,621.45,624.61,628.97,632.45,636.18,639.21,642.92,648.14,652.07,655.10,657.96,660.64,662.51,664.26,665.94,667.51,668.92,670.49,672.26,674.12,675.75,676.46,676.97,677.50,678.49,680.76,683.07,685.15,686.83,687.98,689.14,691.18,693.73,696.55,699.44,702.20,704.97,707.35,708.50,708.38,706.93,704.84,702.51,700.34,698.16,697.47,698.53,700.97,703.46,705.87,707.84,709.11,710.54,713.38,716.83,720.13,722.27,724.38,726.00,727.12,727.87,728.26,728.23,728.47,729.38,730.55,732.13,733.20,733.53,733.83,737.78,740.95,743.04,744.66,746.03,747.33,748.51,749.44,749.94,750.34,750.60,750.74,750.74,750.72,751.32,752.60,754.20,754.42,754.21,753.89,753.54,753.15,752.90,753.13,753.82,754.72,754.85,755.87,757.43,759.53,762.68,766.68,770.07,772.78,775.17,776.80,778.19,779.23,780.02,781.67,784.20,787.02,789.60,791.16,792.24,793.06,793.76,794.41,795.03,796.02,797.45,799.27,801.13,802.95,804.75,806.59,808.61,810.85,814.00,817.84,822.36,827.70,833.58,839.58,845.82,852.71,859.17,864.27,868.03,870.34,871.00,871.13,871.11,871.01,870.85,870.27,868.01,864.38,860.50,857.57,854.92,852.32,850.16,850.01,853.61,857.63,860.41,861.31,862.69,864.61,866.80,868.99,871.15,873.88,876.77,878.87,878.26,877.46,876.54,875.35,873.71,872.78,871.69,869.61,866.64,866.10,871.06,877.57,883.71,888.74,892.48,895.54,898.21,900.30,901.05,901.38,901.53,901.62,902.00,902.13,902.01,902.12,903.28,904.28,905.09,906.27,908.18,909.92,913.02,916.51,919.60,921.59,923.55,926.56,929.90,932.08,932.30,931.95,932.25,933.98,937.31,940.89,941.55,940.58,942.76,948.05,952.53,956.01,958.96,961.34,963.98,966.83,969.72,972.41,974.69,973.95,970.75,966.83,964.88,963.01,960.95,959.45,960.85,963.98,966.25
597.08,597.99,598.43,599.37,600.49,601.92,603.84,605.94,608.32,610.77,613.01,614.50,615.31,615.76,615.87,615.52,615.18,615.40,616.29,617.75,619.20,621.09,624.07,627.69,631.15,636.47,640.96,645.28,649.96,653.04,655.55,657.90,660.08,661.76,663.34,664.84,666.29,667.69,669.18,670.84,672.39,673.54,674.05,674.54,675.06,676.01,678.17,679.94,681.76,683.91,686.38,688.34,690.75,693.53,696.44,699.05,701.47,703.48,704.87,705.14,704.17,702.46,700.36,698.13,696.16,694.37,695.01,697.84,700.77,702.86,704.63,706.15,707.49,709.52,712.46,715.84,719.10,721.27,723.03,724.15,724.81,725.32,725.94,726.33,726.93,728.02,729.24,730.66,731.30,731.39,732.47,736.56,739.81,741.92,743.38,744.74,746.06,747.29,748.26,748.59,748.78,748.90,748.96,749.00,749.27,750.19,751.58,752.98,753.03,752.83,752.53,752.13,751.72,751.39,751.76,752.51,753.22,753.84,755.23,756.91,758.82,761.60,765.77,769.32,771.88,773.66,774.86,775.97,776.99,777.98,779.75,782.29,785.01,787.51,789.28,790.44,791.28,791.96,792.59,793.45,794.67,796.25,798.08,799.81,801.63,803.56,805.56,807.63,809.60,812.80,817.11,822.49,828.77,835.13,841.23,847.14,853.21,859.03,863.52,866.79,868.88,869.40,869.56,869.63,869.64,869.42,868.46,866.13,862.85,859.65,857.11,854.67,852.15,850.01,849.99,852.73,856.24,859.31,860.96,862.96,865.21,867.50,869.63,871.50,873.86,876.37,878.19,877.44,876.39,875.00,873.24,871.33,870.49,869.13,866.96,864.92,866.92,872.57,878.76,884.36,889.27,892.50,895.15,897.52,899.19,899.10,898.92,898.83,898.70,898.41,898.93,899.67,900.62,902.27,904.29,906.10,907.86,909.67,910.90,913.08,915.50,917.62,919.08,920.85,923.91,927.71,931.08,933.28,935.27,937.22,939.47,943.05,946.38,947.14,946.30,947.46,951.95,955.91,959.05,961.83,964.53,967.01,969.53,972.20,974.95,977.37,977.44,975.46,972.50,970.81,968.78,966.19,963.50,962.63,965.12,968.21
594.30,595.11,594.81,595.23,595.91,596.99,598.68,600.54,602.63,604.82,606.93,608.68,609.78,610.60,610.97,610.59,610.33,611.18,613.45,616.96,620.08,622.25,624.55,627.18,630.38,636.98,642.79,647.44,651.05,653.33,655.40,657.40,659.26,660.79,662.27,663.68,665.08,666.54,667.98,669.42,670.53,671.14,671.63,672.32,673.31,674.76,676.82,678.15,679.63,682.24,686.26,688.98,691.57,694.23,696.78,698.74,700.49,701.42,701.58,700.97,699.42,697.81,696.05,694.06,692.26,691.28,693.20,697.23,700.36,702.02,703.17,704.33,705.96,708.77,711.66,714.71,717.74,719.88,721.23,721.94,722.35,722.88,723.70,724.52,725.51,726.75,728.03,729.19,729.51,729.61,731.48,735.23,738.42,740.67,742.13,743.51,744.84,746.15,747.24,747.58,747.70,747.74,747.76,747.91,748.58,749.69,750.92,751.83,751.71,751.43,750.99,750.47,750.22,750.01,750.49,751.21,751.78,753.21,754.93,756.65,758.42,760.76,764.68,768.07,770.40,771.77,772.85,773.86,774.90,776.13,777.94,780.43,782.91,785.14,787.06,788.38,789.32,790.05,790.74,791.92,793.36,795.00,796.76,798.45,800.37,802.47,804.64,806.72,808.53,811.83,816.67,823.00,830.19,836.80,842.61,847.86,853.16,858.27,862.05,864.73,866.55,867.13,867.39,867.63,867.80,867.62,866.27,863.99,861.31,858.91,856.68,854.41,851.96,849.76,849.76,851.91,855.04,858.40,861.14,863.77,866.27,868.57,870.52,872.16,874.21,876.30,877.66,876.82,875.47,873.57,871.25,869.01,867.76,865.86,864.00,863.84,867.90,873.84,879.57,884.59,889.25,891.99,894.28,896.37,897.64,896.76,896.17,895.89,895.65,895.22,896.88,899.02,901.13,903.47,906.62,909.50,911.94,913.82,915.00,916.10,917.02,917.76,918.53,919.95,922.42,925.64,929.11,932.36,936.60,940.56,943.66,947.00,949.95,951.33,951.59,952.57,955.85,959.15,961.98,964.48,967.42,969.80,972.08,974.57,977.45,979.71,980.39,979.63,977.85,976.55,974.51,971.79,968.56,965.37,965.85,968.76
591.50,592.46,592.28,591.80,591.87,592.76,594.51,596.36,598.07,599.72,601.21,602.19,603.06,604.44,605.79,606.54,608.54,611.16,614.71,618.91,621.64,623.73,625.87,628.53,632.53,638.88,644.14,648.16,651.22,653.35,655.21,656.88,658.40,659.78,661.18,662.51,663.85,665.29,666.56,667.56,668.31,668.81,669.38,670.87,673.15,675.83,678.16,679.78,681.61,684.50,688.59,690.93,693.15,694.74,695.67,696.83,697.89,698.33,698.15,697.35,695.85,694.29,692.55,690.60,689.02,689.82,692.56,696.21,699.02,700.37,701.35,702.70,705.00,708.26,711.21,713.86,716.13,717.66,718.79,719.35,719.88,721.16,722.50,723.49,724.37,725.34,726.51,727.71,728.35,728.99,731.24,734.13,736.90,739.25,740.97,742.35,743.67,744.98,746.08,746.42,746.54,746.57,746.69,747.18,748.29,749.41,750.30,750.76,750.57,749.81,748.73,747.87,748.28,748.88,749.36,749.84,750.77,752.83,754.76,756.55,758.37,760.54,763.47,766.11,768.20,769.80,770.99,772.03,773.11,774.48,776.58,778.78,780.90,782.84,784.45,785.83,786.91,787.82,788.74,790.13,791.82,793.60,795.51,797.66,799.92,802.04,804.05,806.04,807.97,811.63,817.19,824.48,831.60,837.92,843.22,847.78,852.33,856.43,859.57,861.80,863.09,863.68,863.98,864.27,864.63,865.03,864.62,862.95,860.51,858.24,856.00,853.80,851.43,849.16,848.69,851.39,854.91,858.26,861.30,864.63,867.58,869.90,871.45,872.86,874.67,876.37,877.25,876.16,874.74,873.16,871.11,867.91,864.40,862.21,862.16,864.88,869.07,874.77,880.20,884.72,888.56,891.19,893.38,895.11,895.73,894.64,893.48,892.63,892.77,895.53,898.88,901.66,903.91,906.33,909.25,912.22,914.99,917.39,919.27,920.18,921.20,922.50,923.41,924.84,926.49,927.95,928.87,930.23,934.26,938.96,943.02,946.66,950.26,953.14,955.27,956.99,959.18,961.63,964.20,966.77,969.22,971.48,973.99,976.72,979.14,980.99,981.84,981.90,981.45,980.52,979.03,976.65,973.32,970.06,967.45,967.65
588.05,588.60,587.87,586.60,586.67,587.92,589.99,592.15,593.90,595.35,596.63,597.97,599.72,601.84,603.99,605.99,608.84,611.66,615.09,619.01,621.53,624.25,626.99,630.09,634.56,639.98,644.51,648.15,651.01,652.96,654.59,656.04,657.37,658.58,659.96,661.24,662.47,663.78,664.91,665.61,666.11,666.73,668.13,670.49,673.58,676.92,679.76,681.83,683.94,686.62,689.83,691.42,692.77,693.47,693.56,694.04,694.57,694.72,694.42,693.63,692.38,690.91,689.34,687.85,687.15,689.28,692.39,695.37,697.23,698.26,699.33,701.02,703.80,707.29,710.17,712.38,713.98,715.16,716.20,717.14,718.35,720.20,721.63,722.59,723.36,724.16,725.18,726.33,727.41,728.68,730.88,733.24,735.69,738.00,739.91,741.43,742.82,744.09,745.06,745.31,745.39,745.47,745.77,746.59,747.79,748.73,749.26,749.35,749.14,748.24,747.06,746.26,746.90,747.83,748.43,749.06,750.19,751.74,752.86,754.45,756.79,759.10,761.64,763.89,765.84,767.57,768.90,770.11,771.32,772.79,775.13,777.21,778.98,780.50,781.89,783.30,784.69,786.07,787.54,789.12,790.96,793.18,795.75,798.17,800.50,802.61,804.56,806.49,808.36,812.31,818.23,825.54,832.24,838.05,842.89,846.99,850.92,854.22,856.76,858.57,859.51,859.95,860.24,860.64,861.36,862.45,862.95,861.83,859.57,857.28,855.09,852.92,850.21,847.48,848.56,851.66,855.09,858.33,861.59,865.29,868.38,870.60,871.86,873.06,874.65,876.06,876.59,875.39,873.98,872.58,870.50,866.33,861.85,860.09,861.42,865.65,870.09,875.45,880.29,884.15,887.44,890.16,892.47,893.96,893.85,892.62,890.82,890.25,892.27,897.09,900.52,902.88,904.87,907.31,910.07,913.05,916.10,919.02,921.31,922.84,924.57,926.53,927.93,929.32,930.67,931.58,931.65,931.99,934.37,937.59,941.06,945.26,949.71,953.56,956.67,959.15,961.01,962.77,964.58,966.47,968.47,970.68,973.33,976.32,978.93,980.92,982.21,983.15,983.95,983.44,982.20,980.24,977.52,974.59,970.75,968.82
583.96,583.78,582.21,580.57,581.02,582.84,585.26,587.90,590.08,591.79,593.45,596.03,599.19,601.97,604.63,607.65,610.20,612.29,614.82,617.97,620.56,624.23,627.88,631.54,636.01,640.20,644.04,647.52,650.40,652.21,653.62,654.92,656.15,657.24,658.63,659.86,660.96,662.10,663.11,663.62,664.01,664.90,667.49,670.62,674.03,677.55,680.87,683.33,685.58,687.77,689.68,690.42,690.75,690.81,690.69,690.68,690.82,690.80,690.50,689.83,688.87,687.56,686.27,685.49,686.10,689.15,692.28,694.41,695.08,695.91,697.28,699.37,702.37,705.83,708.49,710.28,711.43,712.64,713.76,715.37,717.44,719.57,720.90,721.74,722.43,723.18,724.11,725.29,726.82,728.63,730.49,732.61,734.83,737.01,739.02,740.73,742.23,743.40,744.10,744.22,744.24,744.43,744.97,746.02,747.06,747.67,747.85,747.66,747.47,746.70,745.85,745.39,745.95,746.83,747.67,748.62,749.75,750.16,750.15,751.50,754.45,757.03,759.61,761.77,763.63,765.41,766.87,768.31,769.73,771.29,773.69,775.67,777.11,778.26,779.69,781.22,783.02,785.06,787.21,789.04,791.00,793.71,797.05,799.55,801.79,803.87,805.83,807.73,809.60,813.80,819.75,826.56,832.54,837.69,842.08,845.83,849.11,851.77,853.77,855.16,855.85,856.03,856.25,856.76,857.76,859.41,860.62,860.06,858.13,855.96,853.88,851.69,848.48,845.28,848.97,852.40,855.53,858.67,861.88,865.62,868.63,870.66,871.75,872.82,874.25,875.45,875.76,874.54,873.16,871.70,869.23,864.16,859.86,859.09,861.42,866.12,870.88,875.75,879.85,883.05,886.07,889.02,891.54,892.85,892.00,890.53,888.33,888.74,893.24,898.72,901.13,902.51,904.02,906.42,909.10,912.09,915.36,918.74,921.34,923.91,926.51,929.02,931.12,932.63,934.24,935.66,936.28,936.45,936.71,937.47,939.43,943.81,948.71,952.87,956.28,959.33,961.33,962.58,963.44,964.30,966.09,968.35,971.05,974.15,977.33,979.89,981.86,983.64,985.46,985.62,984.58,983.06,981.23,978.73,975.10,971.89
578.91,578.40,577.02,576.42,577.15,578.74,580.93,583.78,586.89,590.07,593.50,597.57,600.75,603.42,606.02,608.77,610.66,612.70,615.23,618.23,621.15,624.81,628.58,632.27,635.85,639.19,642.55,645.90,648.98,650.98,652.34,653.48,654.56,655.79,657.21,658.38,659.38,660.40,661.23,661.67,662.24,663.59,666.66,669.91,673.15,676.32,679.30,681.58,683.64,685.52,686.92,687.36,687.40,687.29,687.15,687.03,687.00,686.90,686.61,685.97,685.20,684.15,683.16,682.88,684.62,688.43,691.12,692.12,692.45,693.64,695.67,698.13,700.77,703.67,705.70,707.26,708.76,710.69,712.36,714.33,716.46,718.29,719.93,720.87,721.50,722.29,723.63,725.57,727.47,729.12,730.61,732.57,734.64,736.72,738.74,740.43,741.90,742.79,743.03,743.07,743.12,743.47,744.19,745.22,745.93,746.12,746.02,745.80,745.58,745.16,744.72,744.53,745.05,745.95,747.04,748.05,748.67,748.63,749.27,750.97,753.54,755.98,758.63,760.85,762.65,764.34,765.95,767.53,769.15,770.87,772.73,774.11,775.26,776.63,778.98,781.08,783.42,785.97,788.55,790.96,793.14,795.67,798.60,801.09,803.40,805.43,807.26,809.18,812.10,816.42,822.26,829.10,833.75,838.16,841.99,845.00,847.20,849.12,850.62,851.58,851.86,851.92,851.95,852.15,852.69,853.77,855.28,855.60,854.84,853.76,851.97,849.53,846.38,844.06,848.62,852.80,856.57,859.83,861.77,865.04,867.83,869.74,870.80,872.09,873.58,874.73,874.95,873.61,872.24,870.13,866.57,861.00,857.93,858.48,861.67,866.55,870.98,874.96,878.46,881.60,884.85,888.10,890.53,891.47,890.13,887.70,886.55,888.45,893.42,897.37,898.98,899.84,900.95,903.11,905.52,908.51,911.84,915.35,919.01,922.07,924.77,927.40,930.30,932.90,935.82,938.60,940.29,940.98,941.05,941.41,942.60,944.56,947.46,950.83,954.26,957.11,959.15,960.24,960.80,961.51,963.78,966.46,969.10,971.78,974.98,978.33,981.07,983.34,985.47,987.20,987.20,986.12,984.38,982.04,979.14,976.21
574.03,573.40,573.53,574.60,576.16,578.06,580.38,583.28,586.87,590.75,594.88,599.22,602.08,604.51,606.90,609.19,610.76,613.06,615.84,618.87,621.99,625.38,628.85,632.20,635.07,637.84,640.62,643.57,646.65,648.97,650.55,651.79,652.94,654.29,655.54,656.30,656.86,657.67,658.42,659.02,660.16,662.36,665.47,668.54,671.53,674.42,677.12,679.20,680.95,682.39,683.30,683.53,683.45,683.31,683.17,683.03,682.93,682.84,682.64,682.17,681.55,680.93,680.42,680.48,682.33,685.94,688.40,689.38,690.27,692.00,694.46,697.01,699.18,701.25,702.66,704.21,706.36,709.19,711.28,713.28,715.18,716.72,718.32,719.38,720.36,721.77,724.01,726.64,728.66,730.01,731.29,733.04,734.96,736.91,738.76,740.20,741.30,741.84,741.85,741.93,742.12,742.61,743.38,744.31,744.76,744.73,744.51,744.27,744.01,743.78,743.62,743.67,744.27,745.30,746.47,747.34,747.52,747.56,748.98,751.03,753.30,755.56,758.03,760.12,761.82,763.31,764.81,766.42,768.15,769.88,771.31,772.41,773.82,775.87,778.68,781.19,783.75,786.40,789.10,791.76,794.62,797.49,800.20,802.66,805.00,807.05,809.00,811.36,814.83,819.67,825.43,831.25,834.81,838.14,841.08,843.38,844.93,846.29,847.36,848.00,848.09,848.08,848.22,848.53,849.00,849.62,850.88,851.38,851.17,850.75,849.30,846.94,844.46,843.69,848.86,853.41,857.38,860.58,861.95,864.49,866.89,868.74,869.95,871.43,872.98,874.09,874.21,872.80,871.30,867.96,863.05,858.35,856.64,858.08,861.60,866.35,870.45,873.76,877.17,880.75,883.88,887.12,889.18,889.57,887.73,884.57,884.67,887.71,892.35,894.92,895.99,896.53,897.18,898.63,900.67,903.40,906.62,910.37,914.89,918.65,921.87,924.86,927.96,931.24,934.87,938.40,941.07,942.79,943.97,945.24,946.63,947.27,948.45,950.57,953.25,955.60,957.60,958.92,959.85,960.90,963.28,965.72,967.97,970.30,973.41,977.13,980.26,982.84,985.35,988.09,988.90,988.44,987.15,985.14,982.78,980.33
569.85,569.56,572.09,575.00,577.75,580.44,583.21,586.09,589.56,593.25,596.94,600.41,602.84,605.03,607.13,608.99,610.66,613.35,616.45,619.54,622.64,625.65,628.56,631.33,633.87,636.33,638.46,640.77,643.60,646.19,648.18,649.79,651.22,652.74,653.67,653.74,653.57,654.02,654.84,655.90,657.98,661.22,664.05,666.74,669.45,672.17,674.67,676.58,677.88,678.71,679.05,679.08,678.95,678.82,678.72,678.58,678.50,678.50,678.51,678.41,678.00,677.95,678.11,678.47,679.57,682.18,684.66,686.70,688.79,691.12,693.61,695.89,697.56,698.72,699.71,701.45,704.30,707.89,710.21,712.03,713.64,715.02,716.38,717.70,719.39,721.84,725.16,728.22,730.16,731.21,732.40,733.88,735.56,737.27,738.77,739.80,740.26,740.41,740.48,740.76,741.22,741.83,742.56,743.27,743.55,743.52,743.35,743.11,742.81,742.57,742.54,742.83,743.65,744.85,745.92,746.46,746.36,746.95,748.92,751.22,753.37,755.48,757.57,759.37,760.87,762.11,763.26,764.83,766.56,768.21,769.55,770.78,772.93,775.88,778.52,781.15,783.63,786.08,788.65,791.25,795.18,798.93,801.80,804.25,806.60,808.77,811.11,814.22,817.59,823.13,828.69,832.49,835.24,837.26,839.04,840.69,842.11,843.23,843.98,844.42,844.56,844.58,845.12,845.94,846.77,847.24,847.77,847.76,847.38,847.07,845.96,844.03,842.71,843.90,849.57,854.12,857.85,860.83,862.39,864.10,866.04,867.90,869.37,870.95,872.54,873.57,873.53,872.14,870.35,865.49,859.28,856.44,855.86,857.64,861.03,865.38,869.23,872.33,876.19,880.56,883.18,886.11,887.55,887.19,884.87,881.27,882.58,886.29,890.07,891.71,892.46,892.82,893.04,893.46,895.03,897.28,900.24,904.28,909.23,913.83,918.00,921.64,924.58,928.02,931.63,935.22,938.60,941.62,944.66,947.63,950.07,950.97,951.40,952.27,953.71,955.42,957.35,959.22,960.96,962.64,964.73,966.31,967.92,969.99,972.91,976.49,979.56,982.31,985.31,988.31,989.59,989.85,989.40,987.95,985.97,984.09
568.39,570.52,573.88,577.18,579.85,582.35,585.09,587.94,591.04,594.36,597.74,600.75,602.95,605.05,607.03,608.64,610.56,613.40,616.38,619.10,621.78,624.51,627.12,629.66,632.34,634.74,636.72,638.64,640.75,642.87,644.93,646.83,648.76,651.20,651.99,651.78,651.18,650.81,651.79,654.07,657.16,660.55,663.11,665.55,667.99,670.31,672.23,673.52,674.09,674.16,673.91,673.67,673.38,673.19,673.12,673.06,673.02,673.30,673.84,674.44,674.73,675.36,676.29,677.42,678.64,680.66,683.22,686.05,688.88,691.26,692.92,694.26,695.55,696.61,697.94,699.98,702.76,705.71,707.83,710.01,712.17,713.92,716.20,718.53,720.88,723.45,726.74,729.36,731.09,732.20,733.32,734.42,735.45,736.42,737.39,738.23,738.28,738.17,738.35,739.19,740.25,741.11,741.65,741.83,742.07,742.25,742.25,742.05,741.76,741.50,741.62,742.22,743.29,744.52,745.13,745.18,745.17,746.38,748.24,750.27,752.36,754.48,756.55,758.11,759.27,760.35,761.44,762.93,764.62,766.41,768.59,770.48,773.01,775.94,777.88,780.16,782.62,785.16,787.79,790.61,795.43,800.02,803.35,806.09,808.49,810.99,813.87,817.28,820.09,824.74,829.15,831.56,833.12,834.24,835.18,836.24,837.90,839.48,840.31,840.66,840.95,841.48,842.41,843.47,844.43,844.98,844.75,844.24,843.72,843.26,842.40,840.91,840.57,843.28,849.18,853.87,857.74,860.81,862.39,863.84,865.71,867.72,869.41,870.95,872.37,873.15,872.90,871.56,869.37,864.33,858.25,855.59,854.32,856.02,859.35,863.13,866.84,871.02,875.88,880.58,882.93,885.52,886.08,884.82,882.29,878.20,880.21,884.15,886.96,887.83,888.34,888.71,888.95,889.13,890.05,891.94,894.66,898.26,902.56,907.38,912.02,916.34,920.50,924.01,927.49,931.02,934.41,937.69,941.05,944.48,947.84,950.73,953.09,954.91,956.32,957.61,959.76,961.89,963.89,965.84,967.81,968.95,970.09,971.73,974.15,976.76,979.42,982.23,985.25,987.91,989.42,990.07,989.99,989.37,988.58,987.61
569.15,572.67,576.26,579.32,581.72,584.00,586.55,589.31,592.14,595.18,598.28,600.96,603.01,605.00,606.84,608.36,610.32,613.02,615.71,618.04,620.32,622.77,625.18,627.69,630.63,633.12,635.07,636.72,638.31,640.00,641.78,643.53,645.50,648.23,648.85,648.47,647.76,647.51,649.78,653.16,656.81,660.16,662.40,664.58,666.75,668.66,669.78,670.40,670.29,669.82,669.30,669.03,668.79,668.67,668.71,668.82,668.99,669.65,670.71,671.96,673.09,674.41,675.96,677.61,678.96,680.56,682.95,685.99,688.95,690.62,691.50,692.37,693.71,695.08,696.77,698.77,700.94,702.83,704.45,707.50,711.04,713.36,716.28,719.15,721.75,724.20,727.19,729.49,731.11,732.25,733.21,734.08,734.65,735.10,735.62,736.30,736.03,735.66,735.84,737.09,738.61,739.64,740.03,739.82,740.21,740.73,741.00,740.78,740.34,740.29,740.79,741.78,742.99,743.88,744.06,743.93,744.18,745.76,747.47,749.26,751.21,753.32,755.06,756.21,757.07,758.19,759.63,761.44,763.40,765.51,768.36,770.59,772.83,775.21,777.37,779.76,782.28,784.84,787.51,790.79,796.22,801.30,804.91,807.95,810.46,813.21,816.34,819.68,822.14,825.54,828.51,829.87,830.55,831.09,831.44,831.97,833.62,835.45,836.34,836.59,836.87,837.74,839.30,840.98,842.33,842.85,842.17,841.06,840.04,839.60,839.84,839.67,840.54,843.93,849.12,853.27,856.81,859.82,861.72,863.38,865.43,867.62,869.50,870.94,872.17,872.77,872.40,871.20,869.07,864.59,859.13,855.92,853.24,854.16,857.15,860.83,865.20,870.53,876.06,880.70,882.74,884.59,884.40,882.60,879.77,875.28,877.45,881.27,883.30,883.50,883.66,884.10,884.56,884.66,885.42,887.21,889.73,892.81,896.39,900.96,905.46,909.76,914.59,918.52,922.38,926.15,929.52,933.03,936.58,940.44,944.89,949.86,953.80,956.71,958.73,960.16,962.43,964.64,966.69,968.64,970.45,971.50,972.50,973.89,975.81,977.52,979.64,982.18,984.89,987.29,988.91,989.81,990.03,990.01,990.00,989.70
572.11,575.21,578.58,580.93,583.12,585.35,587.67,590.22,593.01,595.93,598.78,601.17,603.12,604.88,606.54,608.11,609.84,612.09,614.37,616.40,618.41,620.57,622.88,625.49,628.75,631.48,633.41,634.93,636.38,637.91,639.05,640.12,641.48,643.44,643.83,643.34,642.97,644.22,649.08,653.16,656.74,660.00,661.90,663.77,665.64,667.11,667.31,667.31,666.74,666.02,665.61,665.65,665.78,665.99,666.29,666.71,667.33,668.42,669.89,671.63,673.59,675.58,677.46,679.13,680.47,681.79,683.72,686.19,688.47,688.66,689.14,690.37,692.28,694.22,696.06,697.57,698.66,699.46,700.42,704.76,710.35,713.34,716.23,718.84,721.17,723.37,726.00,728.35,730.01,731.05,731.82,732.65,733.16,733.44,733.69,734.19,733.66,733.02,733.04,734.37,736.08,737.14,737.39,737.13,737.83,738.85,739.39,739.03,738.27,738.78,740.01,741.49,742.64,742.80,742.71,742.82,743.49,745.08,746.78,748.47,750.21,752.15,753.08,753.61,754.28,755.69,757.95,760.57,763.15,765.64,768.60,770.66,772.00,773.59,777.31,780.47,783.13,785.55,788.21,792.18,797.82,802.88,806.52,809.75,812.40,815.18,818.15,821.02,823.48,825.56,827.03,827.72,828.08,828.35,828.37,828.47,829.68,831.29,832.07,832.20,832.27,833.14,835.59,838.40,840.54,840.79,840.01,838.29,836.53,836.57,838.96,841.11,843.40,846.52,849.89,852.65,855.26,857.90,860.44,862.74,865.10,867.45,869.50,870.80,871.87,872.37,872.05,871.09,869.57,866.21,861.63,857.38,852.87,852.28,854.60,858.85,864.81,871.03,876.65,880.87,882.49,883.11,882.44,880.50,877.10,872.37,874.08,877.37,878.92,878.60,878.34,878.85,879.65,879.74,881.03,883.08,885.49,888.14,891.22,895.10,898.78,902.25,906.62,911.38,916.21,920.62,924.15,928.15,932.12,936.71,942.45,949.08,953.45,957.02,960.16,962.37,964.63,966.82,968.80,970.48,971.97,973.22,974.47,975.83,977.32,978.47,980.06,982.04,984.16,986.51,988.15,989.19,989.70,989.93,989.94,989.82
574.51,577.38,580.20,582.18,584.19,586.29,588.40,590.75,593.50,596.35,599.02,601.09,602.72,604.12,605.53,607.21,608.87,610.71,612.56,614.38,616.40,618.46,620.64,623.16,626.45,629.60,631.76,633.37,634.81,636.10,637.05,637.79,638.50,639.39,639.49,639.48,640.30,643.29,649.00,653.14,656.53,659.64,661.56,663.20,664.34,664.84,664.53,664.32,663.76,662.93,662.18,662.40,663.08,664.09,665.33,666.53,667.78,669.17,670.73,672.57,674.76,676.93,678.80,680.26,681.56,683.09,684.77,686.26,686.76,686.29,687.45,689.60,691.69,693.54,694.98,695.98,696.81,698.29,700.15,704.69,710.08,713.06,715.79,718.13,720.13,721.94,724.28,726.41,728.14,729.46,730.40,731.16,731.59,731.76,731.81,732.02,731.27,730.53,730.50,731.75,733.32,734.09,734.10,733.99,734.95,736.26,736.54,735.25,734.34,736.49,739.07,740.90,741.61,741.61,741.51,741.81,742.95,744.62,746.37,748.04,749.55,750.77,750.95,751.03,751.76,753.95,756.82,759.66,762.01,763.76,765.75,767.80,770.25,773.73,778.99,782.39,785.10,787.50,790.07,794.66,799.73,804.33,808.06,811.04,813.56,816.07,818.66,821.22,822.94,824.10,824.90,825.48,826.05,826.26,826.16,826.06,826.71,827.79,828.29,828.38,828.58,829.48,832.25,835.64,838.31,838.12,836.57,835.46,835.74,838.30,841.35,844.04,846.64,849.41,851.99,854.39,856.78,859.07,860.94,862.99,865.23,867.49,869.45,870.59,871.51,871.87,871.48,870.64,868.71,865.61,861.68,857.25,851.71,850.40,852.70,857.66,863.96,870.66,876.55,880.60,881.54,881.64,880.65,877.88,872.60,868.09,869.05,871.34,872.37,872.21,872.20,872.60,873.24,873.94,876.24,878.83,881.39,883.99,886.97,890.44,893.85,897.17,901.00,905.46,910.16,914.76,919.09,923.91,928.67,934.08,940.63,947.68,952.29,955.96,959.25,962.12,965.07,967.89,970.14,971.40,972.29,973.02,973.76,974.64,975.75,977.00,979.00,981.39,983.58,985.94,987.25,988.15,989.04,989.52,989.21,988.30
576.15,578.75,581.01,582.77,584.64,586.61,588.60,590.80,593.44,596.19,598.75,600.68,602.07,603.14,604.35,606.06,607.55,608.97,610.52,612.35,614.41,616.44,618.48,620.82,623.94,627.33,629.88,631.77,633.24,634.32,635.17,635.70,635.92,635.99,635.88,636.73,639.01,643.30,648.99,652.94,656.08,658.94,660.92,662.30,662.77,662.47,661.87,661.49,661.00,660.30,659.64,660.24,661.43,663.08,665.04,666.86,668.65,670.31,671.95,673.80,676.01,678.17,679.92,681.20,682.45,683.94,685.08,685.47,684.62,683.78,685.64,688.67,691.07,692.60,693.74,694.76,696.02,698.34,701.06,705.37,709.99,712.81,715.27,717.37,719.06,720.49,722.42,724.26,725.98,727.50,728.60,729.33,729.72,729.83,729.74,729.65,728.79,728.13,728.26,729.38,730.64,731.10,730.95,730.98,732.28,733.75,733.74,731.78,730.80,733.65,736.86,738.91,739.43,739.67,740.01,740.77,742.20,743.84,745.59,747.20,748.44,748.98,748.77,748.87,749.89,752.43,755.40,758.13,760.18,761.53,763.33,766.01,769.81,774.84,780.84,784.34,787.16,789.72,792.35,797.10,801.55,805.63,809.23,811.80,814.14,816.40,818.65,820.74,821.64,822.15,822.65,823.33,824.19,824.35,824.21,824.04,824.06,824.49,824.64,824.79,825.60,827.43,830.38,833.82,836.51,835.65,833.40,833.17,835.65,840.43,843.87,846.78,849.46,851.93,854.12,856.42,858.69,860.66,861.96,863.62,865.60,867.62,869.31,870.34,871.11,871.36,870.90,869.97,867.24,863.91,860.30,855.85,849.73,848.45,851.28,856.90,863.35,870.05,875.63,879.10,879.39,879.02,877.60,874.13,867.82,863.50,863.58,864.88,865.59,865.80,866.49,867.41,868.48,870.02,873.23,876.48,879.53,882.60,885.91,889.31,892.59,895.65,898.59,902.07,905.83,909.90,914.63,920.16,925.55,931.39,938.01,944.66,949.67,953.69,957.20,960.52,964.05,967.46,970.03,971.17,971.63,971.88,972.07,972.55,974.07,976.21,978.75,981.27,983.28,985.05,985.72,986.37,987.58,988.70,987.89,986.00
576.56,578.74,580.64,582.26,584.04,585.96,587.98,590.09,592.51,595.06,597.58,599.81,601.14,602.07,603.16,604.75,605.78,606.78,608.29,610.43,612.53,614.55,616.45,618.48,621.19,624.43,627.52,629.98,631.49,632.45,633.15,633.54,633.60,633.50,633.38,635.48,639.33,643.91,648.78,652.35,655.20,657.66,659.63,660.65,660.75,660.23,659.57,658.93,658.47,658.28,658.66,660.06,661.62,663.40,665.38,667.30,669.30,671.24,673.09,674.97,677.05,679.06,680.70,681.88,683.09,683.92,683.90,683.17,682.25,681.28,683.29,686.85,689.94,691.12,692.43,694.44,697.07,699.67,702.51,706.24,710.08,712.70,714.75,716.64,718.18,719.27,720.51,722.07,723.63,725.03,726.09,726.89,727.31,727.40,727.23,726.92,726.12,725.87,726.50,727.44,728.22,728.48,728.35,728.42,730.23,731.67,731.58,729.83,728.86,730.18,732.43,734.53,735.49,736.42,737.92,739.60,740.99,742.37,744.03,745.44,746.30,746.59,746.67,747.56,749.18,751.08,753.30,755.55,757.60,759.69,763.18,767.57,772.18,776.98,782.15,785.76,788.88,791.84,794.86,798.97,803.02,806.69,809.73,811.78,813.97,816.21,818.23,819.52,819.73,819.95,820.50,821.40,822.40,822.49,822.40,822.24,821.59,821.28,821.06,821.48,823.63,828.00,831.12,833.82,835.70,833.80,831.31,831.90,835.67,841.15,845.12,848.48,851.32,853.53,855.69,857.88,859.91,861.67,863.10,864.54,866.19,867.80,869.04,870.00,870.67,870.85,870.34,868.96,865.16,861.13,857.27,852.70,846.53,846.37,850.47,856.63,863.38,869.32,873.48,875.44,875.25,874.14,872.02,868.51,863.25,858.94,858.11,858.74,859.56,860.24,862.20,864.82,867.59,870.15,873.86,877.82,881.90,886.18,890.44,894.28,897.39,899.66,901.16,902.95,904.81,907.24,911.30,917.07,922.63,928.07,933.59,938.96,944.65,949.74,953.99,957.49,961.09,964.65,967.53,969.10,969.60,969.78,969.72,970.26,973.60,977.72,980.58,982.27,983.38,983.44,983.12,983.38,984.86,987.27,985.83,983.10
575.53,577.54,579.41,581.11,582.95,584.93,587.00,589.12,591.29,593.60,595.99,598.21,599.86,600.91,601.75,602.76,603.36,604.21,605.74,608.05,610.46,612.33,613.91,615.59,618.05,621.29,624.27,626.72,628.54,629.99,630.76,631.06,631.04,631.03,631.69,634.56,638.87,643.36,647.73,651.14,653.85,655.97,657.58,657.96,657.79,657.46,657.10,656.49,656.57,657.25,658.43,660.07,661.83,663.69,665.57,667.33,669.32,671.25,673.10,674.98,677.00,679.02,680.64,681.72,682.76,683.19,682.86,681.96,680.88,679.94,681.50,684.56,687.70,689.85,692.34,695.29,698.49,701.33,704.08,707.14,710.12,712.32,714.15,715.84,717.19,718.12,719.05,720.20,721.40,722.57,723.61,724.40,724.76,724.77,724.53,724.23,723.67,723.68,724.50,725.43,726.01,726.17,726.16,726.54,728.43,729.73,729.56,727.96,727.16,727.97,729.80,731.95,733.49,734.99,736.80,738.48,739.60,740.96,742.24,743.21,743.98,745.22,746.63,748.20,749.93,751.93,754.28,756.51,758.80,761.48,765.10,769.51,773.89,778.13,782.58,786.37,789.87,793.24,796.60,800.25,803.79,807.13,810.03,811.92,813.88,815.90,817.53,817.99,817.89,818.07,818.76,819.90,820.75,820.95,820.79,820.30,819.32,818.42,818.78,820.58,824.05,828.79,831.70,833.39,833.88,832.04,828.94,830.44,835.94,841.69,846.06,849.38,851.98,853.99,856.03,858.17,860.26,862.09,863.33,864.49,865.88,867.31,868.47,869.47,870.07,870.03,869.01,866.54,862.05,857.10,852.06,846.77,842.11,844.16,850.28,857.47,863.33,867.98,870.49,870.72,869.38,867.41,865.01,861.72,857.15,854.15,854.80,856.70,858.62,860.79,863.61,866.76,870.06,873.49,877.52,881.76,886.15,890.75,895.50,898.91,901.39,903.23,904.69,906.12,907.60,909.35,911.78,915.00,919.30,924.30,929.57,934.38,939.49,944.52,949.25,953.51,957.58,961.30,964.01,965.04,965.25,965.76,967.19,969.98,974.48,978.48,980.63,981.38,981.51,981.07,980.38,980.83,983.24,986.59,985.81,983.18
574.21,576.17,578.11,579.90,581.81,583.85,585.97,588.06,589.97,592.00,594.21,596.34,598.23,599.37,600.00,600.47,600.76,601.55,603.08,605.41,608.04,609.75,611.06,612.48,614.65,617.72,620.39,622.70,624.83,626.70,627.59,628.14,628.64,629.20,630.74,634.03,638.34,642.65,646.73,649.93,652.38,654.14,655.18,654.87,654.50,654.46,654.66,654.50,655.29,656.71,658.34,659.96,661.75,663.57,665.32,666.99,668.94,670.84,672.67,674.54,676.49,678.51,680.15,681.20,682.07,682.25,681.88,681.02,679.71,679.21,680.51,683.00,686.07,689.26,692.85,696.45,699.83,702.69,705.26,707.77,710.12,711.95,713.58,714.91,715.98,716.82,717.60,718.45,719.34,720.26,721.26,722.00,722.27,722.22,721.95,721.68,721.30,721.50,722.42,723.40,723.87,723.99,724.10,724.74,726.61,727.75,727.52,726.04,725.48,726.37,728.19,730.43,732.37,734.19,735.99,737.44,738.32,739.52,740.49,741.32,742.45,744.79,747.44,749.56,751.38,753.60,756.20,758.51,760.91,763.79,767.02,770.94,774.83,778.55,782.49,786.56,790.46,794.19,797.78,801.13,804.26,807.36,810.20,812.00,813.76,815.43,816.53,816.32,816.09,816.33,817.20,818.56,819.22,819.40,819.05,818.20,817.09,816.11,817.34,820.52,824.95,829.39,831.87,832.63,831.85,829.96,826.93,829.61,836.59,842.28,846.77,849.90,852.20,854.07,856.01,858.11,860.22,862.04,863.00,863.96,865.20,866.55,867.75,868.67,868.94,868.51,866.97,863.42,858.24,852.39,846.28,840.62,838.11,842.49,850.39,858.25,862.77,865.66,866.31,864.73,862.18,859.65,857.34,854.79,851.78,850.94,853.42,856.75,859.81,863.36,866.78,870.14,873.66,877.72,882.01,886.40,890.89,895.47,900.12,902.98,904.96,906.64,908.44,910.00,911.59,913.09,914.19,915.05,917.62,921.48,926.07,930.36,934.71,939.37,944.33,949.31,954.02,957.80,960.12,960.58,960.92,962.45,965.75,970.59,975.27,978.26,979.25,978.98,978.33,977.93,977.96,979.34,982.53,986.16,986.23,984.07
573.23,575.29,577.31,579.07,580.90,582.93,585.13,587.01,588.63,590.34,592.26,594.31,595.90,596.91,597.49,597.84,598.20,598.98,600.36,602.39,604.78,606.40,607.77,609.18,610.86,613.14,615.49,617.81,619.98,621.58,622.56,624.28,626.89,629.11,631.15,634.31,638.28,642.43,646.57,649.18,651.00,652.29,652.44,651.58,651.05,651.32,652.47,653.73,655.19,656.68,658.06,659.38,660.83,662.34,663.98,665.96,668.01,670.03,671.95,673.80,675.63,677.46,679.13,680.44,681.19,681.30,680.93,679.95,678.25,679.26,681.29,683.88,687.06,690.40,693.97,697.49,700.63,702.98,705.28,707.68,710.00,711.83,713.11,713.69,714.23,715.07,715.85,716.79,717.64,718.41,719.27,719.89,720.10,720.07,719.90,719.51,719.02,719.26,720.36,721.37,721.73,721.88,722.07,722.67,724.48,725.54,725.27,723.88,723.63,725.40,727.92,730.37,732.07,733.68,735.24,736.58,737.47,737.97,739.00,740.73,743.21,746.11,748.91,751.34,753.52,755.73,758.25,760.45,762.47,764.58,767.20,770.60,774.16,777.77,781.71,786.28,790.55,794.47,798.10,801.40,804.49,807.49,810.17,811.78,813.50,814.60,814.92,814.53,814.28,814.68,815.78,817.30,817.92,817.59,816.78,815.76,814.85,815.01,817.16,820.81,825.26,829.31,831.04,831.27,830.05,826.87,826.14,830.68,838.05,843.15,847.13,850.00,852.18,854.02,856.05,858.10,859.85,861.14,861.83,862.91,864.22,865.61,866.83,867.31,866.54,865.34,863.59,859.56,853.33,846.80,840.72,836.09,836.27,842.42,850.83,857.95,860.85,861.19,859.47,856.18,852.68,850.55,849.03,848.43,849.64,852.28,855.65,859.21,862.79,866.52,870.13,873.80,877.63,881.77,886.32,890.88,895.44,899.82,903.08,905.73,908.01,910.05,912.08,913.99,915.80,917.45,918.83,920.11,920.80,921.73,923.64,927.02,931.08,935.48,940.17,945.25,950.77,954.32,956.04,956.65,958.53,962.63,967.51,972.01,974.70,975.95,975.38,973.97,973.13,973.32,976.54,980.42,983.42,985.78,986.18,984.74
572.81,574.81,576.84,578.47,580.15,581.98,583.77,584.87,586.09,587.78,589.91,592.01,593.31,594.16,594.75,595.30,596.75,598.14,599.59,601.33,603.60,605.10,606.26,607.34,608.52,610.25,612.33,614.74,617.39,619.59,622.93,626.72,630.37,633.21,635.29,637.52,640.23,643.58,647.23,648.53,648.95,649.33,649.08,648.10,648.39,649.92,651.46,653.04,654.68,656.18,657.41,658.58,659.78,661.16,662.85,664.88,666.89,668.86,670.76,672.57,674.32,675.98,677.49,678.69,679.36,679.38,678.69,677.95,678.64,680.09,682.05,684.49,687.52,690.78,694.36,697.84,700.87,702.97,705.09,707.27,709.38,711.08,711.82,712.09,712.54,713.43,714.31,715.26,716.10,716.87,717.69,718.38,718.73,718.74,718.36,717.55,716.63,716.62,717.67,718.69,719.02,719.18,719.55,720.65,722.74,723.60,723.08,721.75,721.88,724.00,726.98,729.91,731.67,733.26,734.50,735.46,736.22,737.02,738.27,740.37,743.46,746.91,749.84,752.37,754.69,756.94,759.25,761.39,763.38,765.37,767.62,770.51,773.81,777.41,781.37,786.19,790.62,794.56,798.13,801.31,804.33,807.29,809.94,811.53,812.85,813.43,813.35,812.89,812.50,813.06,814.41,816.01,816.13,815.50,814.57,813.54,812.74,813.76,816.52,820.28,824.28,827.62,828.53,827.81,825.77,822.88,825.40,831.94,839.33,843.35,846.73,849.46,851.73,853.67,855.50,857.11,858.46,859.60,860.68,862.04,863.49,864.95,866.15,865.97,864.72,863.19,860.96,855.70,849.11,842.40,836.33,832.43,834.16,841.86,850.35,855.18,855.69,854.37,851.96,848.87,845.89,844.13,844.43,846.63,850.44,854.07,857.74,861.53,865.48,869.47,873.41,877.22,881.05,885.28,889.97,894.70,899.10,902.81,905.70,908.43,910.99,913.37,915.61,917.86,919.88,921.65,923.29,925.10,925.47,925.51,926.36,929.11,931.75,934.36,937.40,941.79,946.96,950.34,952.49,954.56,957.98,962.68,967.42,971.20,972.75,973.08,971.74,969.97,969.85,972.20,976.79,980.93,983.22,984.84,985.62,985.22
572.71,574.56,576.40,577.82,579.31,580.81,582.04,582.35,583.13,584.78,587.12,589.26,590.56,591.78,593.01,594.35,596.86,598.95,600.58,602.05,604.01,605.33,606.25,607.02,607.93,609.38,611.31,613.88,617.13,620.18,625.93,631.45,635.47,638.27,640.13,641.39,642.83,645.23,647.66,647.40,646.35,645.73,645.33,644.75,646.15,648.96,650.79,652.35,653.98,655.49,656.68,657.77,658.81,660.11,661.78,663.77,665.71,667.59,669.37,671.05,672.68,674.14,675.37,676.30,676.88,677.04,676.46,676.46,679.66,681.15,682.80,684.99,687.70,690.63,694.08,697.63,700.78,702.66,704.62,706.57,708.44,709.91,710.18,710.40,710.96,711.92,712.90,713.84,714.69,715.49,716.34,717.13,717.67,717.69,716.94,715.67,714.31,713.91,714.66,715.57,715.81,716.13,716.97,718.77,721.15,721.77,720.99,719.75,720.23,722.50,725.85,729.29,731.24,732.74,733.64,734.25,735.00,736.38,737.90,740.23,743.68,747.68,750.56,753.03,755.41,757.69,759.78,761.85,763.93,766.00,768.05,770.58,773.71,777.35,781.34,786.25,790.69,794.56,797.99,801.07,804.00,806.84,809.39,811.09,811.95,812.11,811.81,811.30,810.80,811.59,813.23,814.80,814.28,813.40,812.41,811.38,810.64,812.36,815.51,819.12,822.42,824.82,824.90,823.32,820.88,819.82,825.35,833.17,840.06,843.19,846.11,848.79,851.14,853.01,854.48,855.60,856.72,858.05,859.73,861.32,862.85,864.38,865.55,864.76,863.32,861.70,858.97,852.18,845.34,838.66,832.72,829.52,832.22,840.76,848.67,850.83,849.26,847.00,844.68,842.45,840.58,839.79,842.32,847.11,852.27,855.98,859.76,863.80,868.07,872.43,876.66,880.49,884.22,888.58,893.37,898.10,902.17,905.23,908.23,911.16,913.98,916.63,919.13,921.67,923.88,925.88,927.95,930.29,931.06,931.17,931.67,933.69,934.71,935.28,936.33,939.40,943.53,946.78,949.73,953.36,957.86,962.37,966.54,969.64,970.07,969.64,967.88,966.41,968.03,972.54,977.39,980.84,982.32,983.53,984.59,985.20
573.02,574.59,575.67,576.76,577.93,579.00,579.72,579.93,580.25,581.40,583.33,585.28,587.67,591.05,595.04,598.83,601.01,603.21,605.12,606.37,607.20,608.13,609.09,610.13,611.52,613.27,615.43,618.27,621.97,625.58,630.83,635.75,639.26,641.08,642.55,643.70,645.05,646.81,646.30,644.57,642.73,641.41,641.09,642.09,644.33,647.25,649.80,651.59,653.24,654.79,656.13,657.24,658.31,659.39,660.70,662.67,664.56,666.35,667.95,669.25,670.49,671.55,672.40,673.02,673.45,674.51,675.99,677.90,680.48,681.96,683.58,685.50,687.61,689.61,692.46,696.31,700.24,701.68,703.41,705.30,707.01,708.08,708.44,708.92,709.69,710.72,711.67,712.55,713.43,714.32,715.17,716.06,716.66,716.53,715.29,713.77,712.39,711.50,711.31,711.77,711.62,712.64,714.80,717.31,719.60,719.97,719.16,718.18,718.83,721.33,724.93,728.63,730.76,731.76,732.36,733.11,734.40,736.01,737.79,740.53,744.53,749.04,751.33,753.44,755.81,758.07,759.98,762.00,764.08,766.16,768.25,770.85,774.04,777.75,781.85,786.54,790.76,794.41,797.64,800.73,803.53,805.93,807.99,809.99,810.66,810.71,810.38,809.67,809.25,810.59,812.63,813.97,812.84,811.55,810.33,809.17,808.43,810.65,813.79,816.88,819.25,820.28,819.64,818.02,817.11,821.22,827.70,834.02,839.22,842.69,845.70,848.52,850.66,851.72,852.57,853.54,855.14,857.32,859.41,860.93,862.30,863.73,864.88,863.94,862.59,861.12,858.13,849.84,842.25,835.60,830.28,828.05,831.27,838.43,844.03,844.26,842.76,840.88,839.04,837.48,836.83,839.12,843.91,849.44,853.87,857.77,861.75,866.05,870.76,875.66,879.86,883.56,887.27,891.86,896.73,900.87,904.38,907.54,910.81,914.05,917.05,919.84,922.75,925.46,927.86,930.37,933.47,936.36,937.92,938.70,939.16,939.77,939.90,939.66,939.39,939.94,942.13,945.36,948.99,952.76,956.81,961.06,965.36,968.33,966.68,965.00,962.92,963.02,968.77,973.33,976.99,979.39,980.46,981.65,982.67,983.76
572.39,573.38,574.11,574.99,575.88,576.61,577.10,577.72,578.61,580.30,582.82,585.76,590.75,596.30,601.14,604.06,605.62,607.61,609.45,610.67,611.39,612.37,613.46,614.82,616.96,620.11,623.16,625.99,628.74,631.72,635.47,638.90,641.45,643.02,644.38,645.12,645.53,645.74,644.05,641.92,640.00,638.88,639.58,641.34,643.78,646.60,649.32,651.11,652.61,654.11,655.61,656.76,657.82,658.83,659.94,661.62,663.39,665.01,666.37,667.40,668.41,669.27,670.18,671.26,672.38,674.23,676.62,679.11,681.01,682.50,684.15,685.88,687.48,688.88,691.23,695.07,699.44,701.10,702.67,704.39,705.99,707.09,707.95,708.84,709.78,710.68,711.36,712.05,712.79,713.55,714.18,714.85,715.46,715.47,714.29,712.72,711.33,709.90,708.75,708.93,708.74,710.20,712.93,715.55,717.64,717.82,717.10,716.71,718.38,720.95,723.90,726.82,729.00,730.45,731.90,733.53,735.37,737.28,739.19,742.29,746.65,750.28,752.13,753.99,756.15,758.26,760.09,762.08,764.19,766.35,768.56,771.59,775.10,778.89,782.78,786.95,790.75,794.10,797.07,799.86,802.24,804.24,805.93,807.46,807.98,808.06,807.96,807.88,808.89,810.24,811.39,811.68,810.21,808.71,807.31,806.30,806.65,808.96,811.75,814.23,815.77,815.92,814.92,814.91,817.50,823.63,829.79,834.69,838.38,841.30,844.31,847.01,848.90,849.73,850.56,852.04,854.25,856.93,859.28,860.74,861.98,863.20,864.02,863.21,862.01,859.95,855.71,847.27,839.98,833.74,828.84,826.89,829.68,834.91,838.55,838.10,836.74,835.12,834.42,835.08,837.11,841.47,846.90,852.15,856.20,860.13,864.03,868.56,873.84,878.74,882.69,886.41,890.38,895.05,899.52,903.23,906.63,910.15,913.71,917.13,920.32,923.33,926.44,929.60,932.63,935.60,938.50,941.00,942.66,943.66,944.13,944.39,944.34,943.95,943.27,942.53,942.84,945.51,949.25,952.88,956.55,960.68,964.43,966.21,963.29,961.40,959.89,961.03,967.83,972.19,975.00,976.80,978.01,980.05,981.51,982.95
570.87,571.30,572.00,572.79,573.44,574.00,574.71,576.25,578.28,581.05,584.63,589.21,597.21,604.29,608.58,609.24,610.22,611.77,613.34,614.63,615.86,617.24,618.72,620.68,624.04,628.44,632.12,634.56,635.81,637.56,639.54,641.30,642.77,644.26,645.41,645.53,644.77,643.29,641.35,639.41,638.04,637.91,639.83,641.75,643.98,646.55,649.13,650.81,652.13,653.53,655.08,656.28,657.32,658.31,659.35,660.60,662.15,663.54,664.65,665.54,666.56,667.46,668.70,670.56,672.66,675.08,677.63,679.95,681.42,682.95,684.65,686.27,687.56,688.76,690.82,694.44,698.86,700.93,702.40,703.92,705.49,706.88,708.34,709.59,710.59,711.31,711.72,712.06,712.44,712.86,713.20,713.56,714.18,714.46,713.69,712.20,710.83,708.89,706.80,706.69,706.74,708.45,711.23,713.59,715.44,715.50,714.97,715.30,718.15,720.59,722.66,724.67,727.03,729.39,732.09,734.82,737.17,739.42,741.43,744.68,748.93,751.13,752.69,754.40,756.34,758.34,760.17,762.20,764.38,766.65,769.06,772.72,776.64,780.36,783.83,787.35,790.60,793.57,796.22,798.56,800.40,802.01,803.38,804.14,804.56,804.85,805.25,806.29,808.95,809.88,809.55,808.56,806.90,805.29,803.87,803.26,804.96,807.14,809.38,811.24,812.16,811.98,811.33,813.74,820.10,826.31,831.40,835.03,837.52,839.53,842.39,844.82,846.59,847.76,849.01,851.24,853.97,856.81,859.21,860.60,861.74,862.68,863.07,862.49,861.47,858.39,852.40,844.92,838.54,832.80,827.99,825.79,827.58,830.79,832.91,832.52,831.63,830.65,831.58,834.94,839.93,845.35,850.45,854.99,858.93,862.79,866.61,871.38,877.10,881.61,885.26,889.11,893.44,898.06,901.94,905.39,908.99,913.06,916.83,920.33,923.67,926.93,930.21,933.85,937.55,940.79,942.98,944.79,946.26,947.26,947.75,948.23,948.26,948.01,947.41,946.14,944.78,946.54,949.97,953.45,956.98,961.10,963.73,963.56,960.13,958.54,958.13,960.03,965.92,969.92,972.19,973.82,975.69,978.89,980.91,982.49
567.88,568.49,569.53,570.44,570.85,571.71,573.98,577.46,580.67,584.15,588.46,594.49,603.79,609.80,612.36,613.09,614.01,615.01,616.16,617.57,619.34,621.69,624.36,628.13,634.22,636.77,638.27,639.33,640.02,640.91,641.99,643.12,644.05,644.32,644.18,643.66,642.78,641.28,638.67,636.96,637.18,639.32,641.01,642.62,644.39,646.47,648.96,650.69,652.00,653.25,654.59,655.76,656.76,657.68,658.61,659.63,660.75,661.82,662.79,663.73,665.23,666.81,668.52,670.53,672.88,675.35,677.83,680.13,681.93,683.66,685.41,687.10,688.66,690.52,692.69,696.01,699.90,701.54,702.90,704.46,706.22,707.98,709.46,710.52,711.38,712.12,712.73,712.40,711.85,711.51,711.83,712.28,712.98,713.49,713.21,711.98,710.70,708.45,705.58,704.70,705.23,707.05,709.48,711.60,713.23,713.22,713.02,713.98,716.61,718.52,720.84,723.88,727.24,730.08,733.02,736.06,738.95,741.42,743.74,746.28,748.90,750.75,752.11,753.80,755.94,758.31,760.31,762.58,764.95,767.32,770.06,774.49,778.50,781.54,784.40,787.42,790.10,792.49,794.73,796.69,798.17,799.35,800.25,800.76,801.32,802.25,803.71,805.91,808.03,807.92,806.74,805.37,803.50,801.75,800.88,801.16,802.63,804.69,806.41,807.69,808.60,809.15,811.15,815.62,822.34,828.18,831.80,834.31,836.35,838.28,840.50,842.77,845.08,847.45,849.61,852.03,854.64,857.14,859.01,860.30,861.28,861.99,862.18,861.64,860.78,856.73,849.25,844.10,838.84,832.99,827.42,824.37,824.90,826.80,828.16,828.25,829.18,831.02,834.06,838.50,844.20,848.95,853.43,857.73,861.64,865.42,869.80,874.86,880.13,884.01,887.57,891.66,896.17,900.49,904.16,907.69,911.73,916.48,920.26,923.53,926.86,930.41,934.07,937.79,941.20,944.12,946.37,948.45,950.18,951.34,951.90,952.35,952.05,951.68,951.08,949.44,947.23,947.83,950.54,954.34,958.41,962.57,963.39,960.58,957.87,956.22,957.03,959.94,964.13,967.40,969.49,971.81,975.17,978.97,980.77,981.91
564.25,565.07,566.50,567.92,569.32,571.55,575.36,579.86,583.78,587.74,592.46,599.09,607.88,613.05,615.20,616.49,617.71,618.66,619.62,620.83,622.71,625.49,629.31,634.15,639.45,640.67,641.05,641.41,641.75,642.05,642.50,643.02,643.38,643.04,642.39,641.43,640.14,638.34,635.60,635.72,637.80,640.63,642.18,643.64,645.19,646.94,649.01,650.61,651.87,652.95,653.92,654.86,655.77,656.66,657.55,658.46,659.22,660.11,661.22,662.71,664.63,666.65,668.64,670.63,672.99,675.36,677.69,679.93,681.96,683.89,685.83,687.75,689.72,692.15,694.71,697.72,700.76,702.20,703.52,705.09,706.91,708.80,710.17,711.03,711.69,712.33,712.91,712.41,711.50,710.66,710.45,711.02,711.81,712.47,712.61,711.67,710.27,707.68,704.32,702.78,703.63,705.51,707.61,709.38,710.72,711.01,711.73,713.84,716.39,718.29,720.87,724.39,728.21,731.10,733.92,736.78,739.48,741.68,743.67,745.57,747.42,749.19,750.56,752.34,754.69,757.54,760.09,762.67,765.33,768.17,771.76,776.49,780.20,782.63,785.01,787.32,789.27,791.08,792.97,794.56,795.82,796.80,797.61,798.50,799.55,801.02,803.08,805.69,806.66,805.61,803.89,802.33,800.57,799.50,799.48,800.37,801.71,804.27,805.89,806.80,807.85,809.34,812.74,817.50,823.09,828.22,830.89,832.80,834.74,837.01,839.33,841.86,844.72,847.82,850.31,852.59,854.88,857.07,858.69,859.88,860.72,861.20,861.24,860.83,858.20,853.22,846.92,843.14,838.29,832.36,826.49,823.01,823.00,824.52,826.17,827.53,829.91,833.21,837.63,842.96,848.23,852.16,856.04,859.99,863.70,867.38,872.07,877.21,882.11,885.84,889.69,894.10,898.72,902.67,906.24,910.33,914.93,919.65,923.24,926.49,929.95,933.72,937.59,941.28,944.50,947.41,950.23,952.89,954.65,955.64,955.97,956.03,955.50,955.05,954.39,952.38,949.86,949.92,952.25,956.14,960.19,962.67,961.88,958.38,956.06,954.82,956.48,959.86,963.01,965.93,968.32,971.06,974.60,978.07,979.82,980.96
560.73,561.82,563.74,566.01,569.20,573.36,578.36,582.99,587.16,591.32,596.11,602.62,609.75,614.54,617.41,619.51,621.37,622.74,623.68,624.50,626.07,628.72,633.33,638.33,640.30,640.92,641.21,641.41,641.48,641.36,641.32,641.21,640.97,640.54,639.97,638.71,636.84,634.60,632.51,635.36,639.14,641.43,642.98,644.42,645.92,647.46,648.93,650.36,651.57,652.48,653.07,653.66,654.44,655.33,656.24,657.11,657.61,658.39,659.86,662.29,664.53,666.75,668.83,670.79,673.00,675.18,677.34,679.46,681.54,683.69,685.91,688.18,690.56,693.38,696.39,699.11,701.27,702.74,704.07,705.53,707.18,708.94,710.20,710.94,711.46,711.91,712.31,712.04,711.32,710.25,709.14,709.73,710.64,711.44,711.85,711.14,709.39,706.45,702.85,700.87,701.87,703.75,705.62,707.09,708.28,709.33,711.42,714.92,717.57,719.85,722.49,725.69,729.20,731.77,734.24,736.70,738.90,740.59,742.01,743.63,745.58,747.43,748.94,750.80,753.24,756.37,759.59,762.58,765.64,769.24,773.93,778.46,781.59,783.49,785.44,786.95,788.16,789.46,791.10,792.39,793.66,794.75,795.81,797.49,799.17,801.01,803.13,805.33,804.96,803.18,801.15,799.51,798.36,798.68,799.68,800.96,802.50,805.83,807.58,808.27,809.47,811.79,815.21,818.93,822.72,826.90,829.15,830.98,833.11,835.92,838.84,841.88,845.11,848.40,850.76,852.73,854.69,856.65,858.21,859.20,859.81,860.05,859.84,859.38,854.16,848.68,845.17,841.77,836.69,830.74,825.08,821.75,821.92,823.90,826.60,829.61,832.88,836.55,841.68,847.68,851.86,855.10,858.50,862.03,865.36,868.89,873.53,878.49,883.15,887.13,891.57,896.38,901.04,904.69,908.36,913.25,918.33,922.49,925.81,929.22,932.92,936.86,940.78,944.44,947.70,950.92,954.43,957.48,958.99,959.54,959.49,959.02,958.41,958.01,957.31,955.11,952.68,952.66,954.83,958.51,961.88,961.61,959.55,956.85,954.54,954.01,956.18,959.64,962.46,965.33,968.18,970.97,973.67,976.21,978.07,979.61
