473.34,475.51,477.63,479.29,480.51,481.62,482.89,484.59,486.34,487.93,489.49,491.61,494.69,497.72,500.17,501.70,503.16,504.56,505.69,506.52,507.42,507.85,507.97,507.92,507.83,507.71,507.37,506.86,506.32,506.35,505.68,505.35,505.75,506.50,507.24,508.03,508.90,509.92,510.99,512.28,513.69,515.16,516.64,517.98,519.08,519.97,520.67,521.21,521.32,521.01,520.34,519.67,519.30,519.38,519.88,520.63,521.72,522.91,524.11,525.23,526.30,527.19,527.99,528.89,530.29,532.79,535.93,539.38,542.88,546.64,550.29,553.86,557.56,561.78,566.68,571.28,575.34,579.36,583.31,587.18,591.05,594.97,598.69,601.35,602.19,601.01,599.75,598.02,595.93,593.58,591.13,589.10,588.34,588.38,588.91,590.62,592.84,595.43,598.22,600.79,605.75,611.09,616.33,621.98,629.10,635.11,641.41,648.57,653.94,659.05,665.34,672.98,681.23,687.95,693.35,698.20,703.22,708.95,714.34,719.83,725.67,731.68,737.38,742.05,746.37,751.59,757.06,761.58,765.74,770.16,775.24,779.81,784.25,788.74,793.20,797.73,801.80,805.46,809.09,814.04,819.51,824.80,830.33,838.04,846.08,852.14,856.57,860.70,864.16,867.42,871.02,875.21,879.38,883.00,885.28,886.38,887.28,887.06,885.70,883.44,880.07,874.70,869.23,863.49,857.84,854.34,852.91,852.07,851.01,849.20,847.49,845.25,842.71,840.24,838.38,836.78,834.82,832.21,828.72,824.70,819.83,814.61,809.70,805.34,802.13,799.28,796.31,793.37,795.45,799.27,803.42,807.91,814.96,821.74,827.13,830.35,831.33,830.92,829.97,828.77,827.44,826.60,825.95,825.45,825.32,826.36,826.41,825.91,825.15,823.95,822.96,822.24,821.74,821.43,821.36,821.38,821.64,822.08,821.44,820.77,820.38,820.27,820.29,820.34,820.44,820.61,820.83,821.01,821.21,821.55,822.05,822.52,823.04,823.53,823.89,823.99,824.12,824.19,824.27,824.37,824.42,824.54,824.70,825.03,826.04,827.38,828.61,829.52,830.10,830.77,831.49,831.88,831.81,831.75,832.45,833.42
473.37,475.84,478.21,480.11,481.39,482.42,483.54,485.01,486.52,487.85,489.12,490.95,493.76,496.59,499.11,501.10,502.58,503.66,504.11,504.00,504.20,504.18,503.79,503.30,503.24,503.16,503.00,502.86,502.99,503.89,503.52,503.48,504.24,505.02,505.85,506.74,507.75,508.92,509.84,511.18,512.67,514.15,515.66,516.94,517.93,518.69,519.30,519.74,519.78,519.46,518.85,518.23,517.96,518.17,518.80,519.58,520.56,521.66,522.80,523.88,524.91,525.87,526.89,528.09,529.38,532.31,536.04,540.09,544.10,547.97,551.55,555.00,558.70,563.27,568.11,572.39,576.07,579.90,583.74,587.53,591.24,594.71,597.33,597.95,597.10,595.08,592.38,590.18,588.30,586.45,584.37,583.17,583.85,585.26,586.38,587.89,589.95,592.62,595.70,598.66,605.22,612.40,619.55,626.99,633.93,640.40,646.48,652.18,657.76,664.69,671.83,679.28,687.85,693.48,698.57,704.14,710.33,715.47,720.38,725.03,729.50,734.33,739.26,743.47,747.35,752.07,758.30,763.00,766.98,771.25,776.27,780.41,784.01,787.56,791.80,796.40,800.47,804.00,807.43,812.11,817.29,822.82,828.93,836.19,844.42,850.75,855.18,858.80,862.22,865.47,868.99,873.11,877.62,881.84,885.83,889.17,890.76,891.15,890.36,888.42,885.05,880.19,875.72,871.91,868.63,865.21,862.93,860.74,858.36,855.95,853.56,850.80,847.74,844.70,842.74,841.27,839.46,836.88,833.18,828.59,824.00,819.43,814.61,809.65,806.17,803.30,800.49,797.78,797.33,799.60,803.72,808.57,815.73,822.43,827.64,830.75,832.02,831.60,830.59,829.48,828.51,827.80,827.13,826.59,826.49,827.20,827.47,827.34,826.86,826.02,825.53,825.22,825.00,824.76,824.67,824.59,824.52,824.25,823.09,821.74,820.88,820.67,820.73,820.75,820.81,820.93,821.16,821.38,821.56,821.78,822.06,822.33,822.80,823.26,823.59,823.74,823.83,823.95,824.12,824.33,824.47,824.63,824.81,825.25,826.57,828.06,829.50,830.77,831.70,832.58,833.24,833.56,833.49,833.18,832.97,833.11
472.90,475.51,478.01,480.08,481.49,482.61,483.76,485.15,486.54,487.80,489.01,490.61,492.97,495.44,497.89,500.24,501.90,502.47,502.33,501.77,501.28,500.91,500.49,500.16,500.36,500.33,500.26,500.26,500.50,501.26,501.48,501.93,502.82,503.68,504.57,505.67,506.93,508.19,509.14,510.37,511.81,513.32,514.79,515.69,516.44,517.14,517.72,518.07,518.10,517.85,517.35,516.79,516.74,517.13,517.86,518.68,519.54,520.50,521.56,522.68,523.78,524.94,526.26,527.75,529.31,532.53,536.53,540.84,545.27,549.23,552.82,556.30,560.02,564.50,569.06,573.04,576.36,579.61,582.82,586.16,589.56,592.50,593.40,592.35,590.67,588.92,586.60,584.49,582.66,580.99,579.33,579.22,580.79,583.11,585.35,587.30,589.60,592.49,595.92,599.62,606.24,614.25,622.54,630.13,636.57,644.12,651.30,657.17,663.52,670.81,678.14,685.39,692.80,698.62,704.18,709.79,715.24,719.87,724.76,729.32,733.40,737.52,741.25,744.48,747.63,751.59,756.88,761.29,765.10,768.90,773.35,777.72,781.54,785.07,789.19,793.72,798.25,802.43,806.28,811.12,816.13,821.79,828.47,836.02,843.31,848.94,853.08,856.42,859.77,863.09,866.58,870.52,875.09,879.60,883.94,887.86,890.65,892.31,892.97,892.25,889.58,886.28,882.86,879.72,876.91,873.92,871.35,868.91,866.07,862.12,858.82,855.73,852.46,849.12,847.06,845.60,844.15,842.00,837.79,832.54,827.52,822.91,818.53,813.95,810.50,807.58,804.84,802.29,800.91,801.80,804.72,809.25,816.10,822.91,828.21,831.09,832.58,832.42,831.62,830.68,829.88,829.09,828.33,827.77,827.72,828.15,827.83,827.20,826.62,826.21,826.02,825.87,825.72,825.57,825.37,825.16,824.91,824.49,823.54,822.29,821.40,821.07,821.13,821.18,821.22,821.29,821.49,821.72,821.89,822.08,822.30,822.50,822.83,823.18,823.48,823.63,823.80,823.99,824.21,824.47,824.64,824.93,825.42,826.32,827.97,829.50,830.96,832.28,833.34,834.17,834.73,834.97,834.88,834.60,834.19,833.95
472.23,474.90,477.46,479.71,481.26,482.49,483.74,485.12,486.47,487.78,489.08,490.59,492.60,494.77,497.07,499.40,500.88,500.90,500.28,499.44,498.57,498.07,497.77,497.74,498.17,498.30,498.31,498.37,498.59,499.08,499.72,500.53,501.48,502.46,503.49,504.79,506.23,507.55,508.57,509.74,511.08,512.51,513.70,514.27,514.84,515.50,516.05,516.32,516.36,516.18,515.79,515.38,515.61,516.21,517.00,517.84,518.64,519.50,520.49,521.66,522.92,524.45,526.11,527.83,529.66,533.01,537.05,541.45,546.20,550.33,554.04,557.61,561.30,565.53,569.52,572.88,575.58,578.11,580.49,583.01,585.60,587.67,587.32,585.58,583.78,582.40,580.61,578.69,577.05,575.86,575.43,576.67,579.08,582.13,585.39,587.85,590.83,594.26,598.13,602.66,609.17,617.01,625.08,632.11,638.15,646.97,655.87,662.91,669.69,676.77,684.10,691.26,697.46,703.24,708.98,714.37,718.94,722.99,727.27,731.27,734.84,738.35,741.28,743.89,746.51,749.61,753.58,757.58,761.53,765.48,769.57,774.16,778.46,782.42,786.64,791.25,796.29,801.34,806.07,811.27,816.33,821.82,828.17,835.32,841.60,846.54,850.40,853.66,856.92,860.26,863.75,867.60,872.18,876.76,881.11,885.18,888.93,891.84,893.99,894.89,893.86,892.13,889.62,886.90,884.26,881.78,879.13,876.63,873.61,868.75,864.36,860.85,857.52,854.13,851.86,850.20,848.93,847.21,842.98,836.89,831.19,826.38,822.39,818.52,815.23,812.27,809.54,807.01,805.10,804.69,806.17,810.26,816.50,823.19,828.51,831.29,832.97,833.32,832.98,832.25,831.44,830.47,829.53,828.86,828.75,828.76,827.86,826.72,825.91,825.73,825.70,825.61,825.48,825.38,825.13,824.85,824.53,824.13,823.51,822.57,821.82,821.48,821.54,821.63,821.69,821.74,821.85,822.05,822.23,822.42,822.63,822.80,823.01,823.26,823.53,823.68,823.89,824.12,824.37,824.66,824.97,825.51,826.37,827.66,829.49,831.05,832.47,833.75,834.76,835.48,835.98,836.20,836.13,835.95,835.53,835.14
471.38,474.05,476.60,479.09,480.74,482.05,483.47,484.88,486.31,487.81,489.39,491.07,493.03,495.09,497.09,498.70,499.19,498.71,497.77,496.73,496.12,495.84,495.80,496.00,496.52,496.98,497.14,497.20,497.41,497.86,498.46,499.27,500.29,501.43,502.78,504.21,505.63,506.93,508.08,509.28,510.53,511.65,512.17,512.63,513.22,513.86,514.31,514.52,514.57,514.42,514.09,514.00,514.63,515.43,516.23,517.07,517.91,518.77,519.72,520.93,522.51,524.62,526.71,528.51,530.48,533.67,537.48,541.76,546.66,551.14,555.14,558.82,562.33,566.23,569.17,571.26,572.84,574.58,575.97,577.13,578.07,578.58,578.26,577.56,576.62,575.30,573.40,571.63,570.51,570.63,573.01,575.96,579.34,583.04,586.82,589.63,593.98,598.57,603.02,608.39,615.18,621.36,626.95,632.84,638.88,648.94,660.04,669.34,675.53,682.10,689.40,696.69,702.29,707.00,711.93,716.87,721.22,724.53,726.83,728.94,731.29,734.13,737.31,740.26,742.83,745.08,747.86,751.54,756.22,761.65,766.05,770.59,775.32,780.14,784.87,789.89,795.36,801.25,807.43,813.23,818.66,823.42,827.69,832.68,838.37,843.10,846.87,850.34,853.52,856.74,860.23,864.22,868.88,873.30,877.60,881.83,885.80,889.56,892.82,895.67,897.75,897.10,895.22,893.07,890.97,888.95,886.41,883.65,880.60,876.60,870.86,866.71,863.44,860.28,857.64,855.42,853.83,852.36,849.16,841.98,835.51,830.53,826.71,823.68,820.64,817.69,814.90,812.12,809.68,808.07,808.22,811.93,817.20,823.16,828.23,831.25,833.12,834.33,834.74,834.29,833.22,831.99,830.71,829.73,829.37,828.61,827.58,826.39,825.27,824.88,824.82,824.73,824.59,824.50,824.34,824.11,823.87,823.58,823.10,822.50,822.08,821.94,822.01,822.14,822.27,822.33,822.26,822.39,822.59,822.79,822.97,823.18,823.35,823.56,823.78,823.94,824.11,824.31,824.55,824.87,825.58,826.56,827.73,829.11,830.81,832.38,833.78,834.94,835.69,836.34,836.89,837.22,837.26,837.21,836.80,836.49
470.74,473.40,475.95,478.50,480.38,481.96,483.58,485.18,486.79,488.46,490.16,491.85,493.51,494.87,495.81,496.19,496.27,495.75,494.87,493.96,493.70,493.62,493.85,494.30,494.80,495.33,495.70,495.94,496.19,496.71,497.50,498.48,499.63,500.88,502.27,503.70,505.07,506.29,507.42,508.57,509.61,510.35,510.60,511.00,511.59,512.22,512.61,512.74,512.79,512.72,512.55,512.90,513.73,514.62,515.44,516.30,517.21,518.14,519.12,520.33,522.30,524.72,527.14,529.46,532.03,535.25,538.77,542.52,546.69,551.02,555.13,558.76,561.71,564.37,566.46,567.92,568.90,569.89,570.58,571.08,571.37,571.30,570.86,570.13,569.28,568.33,567.12,566.26,566.67,568.64,572.28,576.02,579.90,584.00,588.40,592.71,598.60,604.42,609.73,615.64,622.30,628.03,633.10,638.57,644.76,653.29,662.49,670.82,677.41,684.40,691.97,699.25,704.30,708.71,713.22,717.52,720.96,723.14,724.34,725.50,727.02,728.83,731.19,733.83,736.72,740.07,743.88,748.41,753.55,759.03,763.89,768.85,773.83,778.83,783.93,789.25,794.99,801.17,807.64,813.20,818.29,822.46,825.70,829.13,833.02,837.53,842.19,846.14,849.60,853.00,856.50,860.27,864.55,869.09,873.63,878.06,882.31,886.39,890.32,894.10,897.44,898.96,898.71,897.56,895.90,894.04,891.92,889.54,886.84,883.39,878.01,873.18,868.96,865.23,862.54,860.35,858.55,856.51,852.55,846.27,840.75,836.24,832.41,829.60,826.94,824.21,821.30,818.06,815.23,812.92,811.88,813.89,818.09,823.65,828.72,831.97,834.17,835.54,835.99,835.53,834.46,833.15,831.80,830.60,829.71,828.69,827.65,826.54,825.48,824.96,824.76,824.60,824.44,824.34,824.17,823.89,823.61,823.35,822.94,822.64,822.55,822.65,822.80,822.92,822.99,822.93,822.71,822.77,822.95,823.14,823.33,823.52,823.72,823.89,824.05,824.24,824.37,824.53,824.75,825.14,826.08,827.33,828.68,830.12,831.73,833.29,834.60,835.61,836.27,837.04,837.71,838.15,838.33,838.44,838.29,838.16
470.27,472.94,475.55,478.17,480.27,482.10,483.86,485.57,487.25,488.97,490.70,492.25,493.47,494.07,494.00,493.31,493.09,492.64,491.98,491.36,491.40,491.55,491.98,492.58,493.08,493.63,494.21,494.71,495.14,495.82,496.82,497.96,499.14,500.38,501.71,503.04,504.33,505.51,506.65,507.72,508.53,508.95,509.09,509.46,510.02,510.62,510.96,511.02,511.07,511.08,511.15,511.89,512.85,513.80,514.69,515.61,516.61,517.63,518.64,519.90,522.56,525.33,528.04,530.82,533.96,537.15,540.32,543.50,546.84,550.64,554.39,557.66,560.04,561.50,562.87,563.87,564.41,564.77,564.91,565.00,565.01,564.77,564.33,563.47,562.70,562.27,561.88,562.13,564.16,567.80,572.06,576.25,580.57,585.18,590.29,596.10,603.30,610.13,616.19,622.75,628.87,634.25,639.26,644.60,650.79,657.39,664.08,670.87,678.28,685.64,693.28,700.45,705.06,709.35,713.34,716.71,718.91,720.06,720.62,721.21,722.09,723.23,724.91,727.50,731.16,736.14,741.40,746.90,752.33,757.52,762.75,768.10,773.15,777.99,783.14,788.61,794.56,800.81,806.90,811.80,816.25,819.98,822.88,825.40,827.71,831.78,836.98,841.47,845.37,848.99,852.57,856.27,860.13,864.71,869.40,873.94,878.36,882.70,887.07,891.39,895.43,898.93,900.51,900.75,899.91,898.24,896.61,894.78,892.58,889.60,884.84,879.54,874.38,870.00,867.31,865.10,863.04,860.46,855.96,851.26,846.83,842.67,838.81,835.86,833.34,830.76,827.81,824.25,821.04,818.11,815.96,816.10,819.36,824.59,829.61,833.00,835.54,836.81,837.05,836.47,835.45,834.16,832.82,831.48,830.12,828.97,827.94,826.95,826.02,825.44,825.14,824.92,824.71,824.57,824.35,824.01,823.67,823.39,823.00,822.93,823.10,823.41,823.65,823.78,823.73,823.52,823.18,823.17,823.30,823.50,823.72,823.90,824.09,824.24,824.37,824.59,824.71,824.84,825.02,825.42,826.52,827.92,829.38,830.86,832.39,833.93,835.16,836.08,836.77,837.65,838.44,839.02,839.34,839.54,839.66,839.73
470.14,472.87,475.68,478.59,480.79,482.62,484.33,485.76,487.07,488.56,490.14,491.24,491.80,492.00,491.78,490.97,490.25,489.80,489.49,489.32,489.46,489.90,490.38,490.86,491.46,492.11,492.82,493.62,494.56,495.61,496.73,497.77,498.68,499.58,500.73,501.85,503.01,504.35,505.63,506.67,507.35,507.62,507.83,508.14,508.61,509.12,509.41,509.51,509.54,509.63,509.98,510.94,511.94,512.96,514.02,515.18,516.27,517.33,518.40,519.91,524.03,527.56,530.49,533.23,536.34,539.13,541.86,544.69,547.76,550.36,552.50,554.59,556.72,557.97,558.80,559.24,559.35,559.37,559.19,559.04,558.94,558.86,558.91,558.64,558.53,558.80,558.90,560.16,563.15,567.43,571.81,576.27,581.32,586.91,592.97,599.25,606.92,613.95,620.21,628.00,632.80,636.98,641.56,646.92,652.60,658.56,664.61,671.17,679.80,686.45,693.33,700.23,704.72,708.65,711.51,713.24,713.85,714.55,715.11,715.42,715.85,717.68,720.11,724.09,729.51,735.88,741.82,747.56,753.04,758.22,763.41,768.63,773.37,777.67,782.04,787.28,793.45,799.55,804.39,808.08,811.62,815.31,818.97,821.94,824.42,827.40,831.24,836.11,840.62,844.41,848.26,852.57,856.43,860.53,864.82,869.15,873.39,878.19,882.78,887.38,892.22,896.11,899.15,901.53,902.80,901.67,900.46,899.14,897.53,895.01,890.12,884.93,879.88,875.31,872.46,869.63,867.04,864.66,862.00,859.13,854.66,849.77,846.07,842.49,839.25,836.38,833.69,830.44,826.74,822.97,819.80,818.83,821.62,826.39,831.01,834.23,837.02,838.09,838.00,837.19,836.18,835.01,833.70,832.32,830.95,829.66,828.63,827.66,826.77,826.32,826.09,825.89,825.63,825.31,825.01,824.65,824.28,823.90,823.41,823.43,823.71,824.08,824.42,824.60,824.46,824.09,823.69,823.54,823.66,823.88,824.13,824.39,824.49,824.62,824.83,825.05,825.26,825.39,825.47,825.71,826.83,828.24,829.71,831.18,832.66,834.14,835.42,836.45,837.26,838.12,839.04,839.80,840.21,840.29,840.46,840.62
469.95,472.65,475.66,478.74,480.75,482.05,483.01,483.97,485.05,486.50,488.14,489.30,489.66,489.65,489.26,488.39,488.00,487.69,487.52,487.65,488.14,488.82,489.36,489.80,490.44,491.25,492.12,493.06,494.09,495.04,496.04,496.98,497.81,498.60,499.61,500.68,501.85,503.23,504.58,505.35,505.76,506.03,506.45,506.82,507.23,507.66,507.96,508.16,508.27,508.57,509.34,510.45,511.55,512.82,514.30,515.78,516.88,517.93,519.41,522.13,526.70,530.07,532.76,535.45,538.36,540.77,542.80,544.75,546.93,548.67,550.07,551.43,552.88,553.74,554.26,554.50,554.48,554.39,554.22,554.06,554.03,554.25,554.75,555.02,555.62,556.80,557.87,559.88,563.21,567.49,571.86,576.47,581.71,587.59,594.09,600.93,608.64,615.57,621.64,628.78,633.26,637.56,642.44,647.87,653.54,659.68,666.09,672.88,680.78,686.53,692.38,698.39,702.57,705.41,707.21,708.07,708.05,708.40,709.09,710.22,712.12,715.48,719.41,724.62,730.76,737.01,742.64,747.93,752.92,757.59,762.31,767.84,772.63,776.46,780.34,785.15,790.70,796.29,801.00,804.01,807.01,810.33,813.93,817.41,820.70,823.83,827.18,831.38,835.56,839.43,843.45,847.95,852.43,856.58,860.72,864.86,868.78,873.06,877.62,882.50,887.75,892.82,896.70,899.94,902.47,903.23,903.21,902.49,901.21,899.31,895.95,891.21,886.04,881.35,878.12,874.85,871.61,868.58,865.93,863.49,859.97,856.02,852.59,848.69,844.97,841.64,838.73,835.89,832.12,827.79,823.88,822.41,824.34,828.35,832.57,835.89,838.84,839.50,839.00,837.99,836.95,835.87,834.58,833.14,831.69,830.29,829.22,828.28,827.52,827.31,827.15,826.94,826.59,826.01,825.60,825.19,824.74,824.25,823.75,823.87,824.21,824.63,825.12,825.25,824.95,824.50,824.23,824.09,824.12,824.29,824.61,825.08,825.08,825.33,825.87,826.22,826.48,826.59,826.57,826.54,826.89,828.13,829.65,831.18,832.68,834.12,835.29,836.20,836.97,837.87,838.97,839.90,840.40,840.57,840.84,841.05
469.75,472.38,475.43,478.49,480.14,480.78,480.91,481.37,482.32,483.80,485.54,486.81,487.14,487.05,486.59,485.81,485.99,485.90,485.88,486.26,487.13,487.99,488.59,489.06,489.71,490.67,491.63,492.56,493.48,494.23,495.06,495.92,496.76,497.57,498.48,499.54,500.77,502.15,503.53,503.95,504.01,504.22,504.85,505.42,505.89,506.28,506.60,506.90,507.19,507.80,508.98,510.26,511.52,513.08,514.96,516.75,517.90,519.28,521.58,525.44,529.70,532.49,534.84,537.39,539.80,541.68,542.95,543.93,545.16,546.25,547.28,548.20,548.88,549.37,549.67,549.81,549.76,549.65,549.69,549.71,549.87,550.51,551.55,552.43,553.73,555.74,557.76,560.32,563.72,567.79,572.11,576.86,582.16,588.00,594.50,601.62,609.22,615.99,621.73,627.72,632.38,637.28,642.70,648.43,654.25,660.78,667.73,674.71,681.11,685.83,690.48,695.17,698.63,700.25,701.12,701.48,701.36,701.97,703.58,706.34,710.32,715.10,720.46,726.52,732.70,738.03,742.85,747.33,751.58,755.61,759.69,765.36,770.41,774.36,778.11,782.49,787.22,792.20,797.03,799.85,802.56,805.50,808.78,812.60,816.69,820.42,823.82,827.19,830.77,834.61,838.67,843.08,848.15,852.75,857.02,861.00,864.61,868.15,872.42,877.30,882.66,888.81,893.37,897.11,900.45,903.30,904.75,904.98,904.31,903.01,901.49,897.50,892.46,887.83,884.16,880.46,876.54,872.58,869.13,866.43,863.94,861.32,858.23,854.38,850.29,846.46,843.24,840.76,837.16,832.51,828.04,826.14,827.11,830.40,834.34,837.84,840.90,841.07,840.11,838.92,837.81,836.79,835.49,833.99,832.47,830.99,829.83,828.92,828.33,828.35,828.25,827.99,827.50,826.70,826.14,825.66,825.13,824.55,824.09,824.28,824.69,825.18,825.81,825.83,825.35,824.89,824.98,824.97,824.90,824.97,825.33,825.97,825.85,826.24,827.14,827.68,827.98,828.04,827.94,827.66,827.16,827.95,829.35,830.92,832.45,833.82,834.82,835.54,836.21,837.19,838.49,839.62,840.28,840.63,841.02,841.22
469.58,472.11,474.64,477.21,478.31,478.59,478.70,478.80,479.74,481.26,482.89,483.73,483.87,483.92,483.85,483.56,484.04,484.24,484.60,485.43,486.34,487.20,487.87,488.40,489.07,490.12,490.89,491.53,492.25,493.06,493.90,494.78,495.68,496.58,497.50,498.56,499.78,501.11,502.50,502.69,502.31,502.00,502.60,503.73,504.58,505.05,505.41,505.73,506.44,507.49,508.81,510.37,512.03,513.81,515.69,517.55,518.95,522.00,526.02,529.42,532.03,534.25,536.44,538.56,539.74,540.53,541.10,541.71,542.70,543.25,544.06,544.82,545.13,545.47,545.57,545.52,545.35,545.06,545.65,546.18,546.73,547.96,549.88,551.70,553.64,555.89,558.15,560.89,564.31,568.31,572.69,577.70,583.29,589.02,594.65,600.94,608.58,615.36,620.78,626.52,631.81,637.11,642.89,649.53,655.37,661.88,668.63,674.91,679.96,683.41,686.54,689.38,690.96,691.92,692.26,692.26,692.63,695.49,700.61,706.33,711.73,716.32,721.72,727.50,732.81,736.61,740.19,743.66,747.16,750.71,754.27,758.73,764.35,770.34,774.82,779.07,783.51,788.03,792.30,795.83,798.69,801.60,804.86,808.35,812.26,816.40,820.45,823.97,827.38,830.96,834.70,838.69,843.30,849.01,854.06,857.99,861.42,864.93,868.40,872.23,877.05,882.90,888.54,893.29,897.10,900.83,903.57,905.84,907.13,906.15,905.09,902.49,898.87,894.79,890.78,886.47,881.95,877.30,872.81,869.45,866.82,864.42,861.81,858.80,854.45,850.25,847.10,844.67,841.41,836.92,832.11,829.18,829.38,832.51,836.58,840.21,843.32,843.04,841.63,840.17,838.93,837.88,836.53,834.97,833.48,831.96,830.68,829.75,829.30,829.38,829.33,828.93,828.22,827.39,826.67,826.05,825.47,824.94,824.53,824.73,825.26,825.96,826.62,826.40,825.74,825.49,826.41,826.68,826.66,826.65,826.81,827.28,826.96,827.32,828.37,829.15,829.52,829.50,829.29,828.97,828.48,828.16,828.71,830.16,831.63,832.84,833.67,834.27,834.96,836.07,837.52,838.96,840.07,840.56,841.09,841.18
469.25,471.64,473.61,475.06,475.61,475.80,476.02,476.17,477.22,478.72,480.17,480.82,480.88,481.01,481.28,481.65,482.36,482.93,483.64,484.63,485.53,486.39,487.10,487.73,488.43,489.30,489.83,490.32,491.08,491.96,492.84,493.74,494.67,495.60,496.58,497.67,498.86,500.11,501.37,501.45,500.90,500.46,501.32,502.45,503.28,503.84,504.45,505.13,506.14,507.37,508.69,510.25,512.52,514.88,517.06,519.07,521.54,525.34,529.39,531.99,533.96,535.98,537.65,538.46,538.24,538.19,538.36,538.73,539.40,539.91,540.65,541.26,541.39,541.50,541.48,541.36,541.16,540.95,542.38,543.83,545.16,546.90,549.12,551.42,553.77,556.17,558.57,561.87,565.61,569.88,575.31,580.93,586.36,591.48,596.62,603.26,610.36,616.66,621.99,627.52,632.84,638.46,644.48,650.70,656.02,662.03,668.17,673.57,677.19,679.17,680.87,682.37,682.83,683.07,683.08,683.63,686.03,691.57,698.70,705.77,711.74,715.63,719.94,724.79,729.49,732.99,735.93,738.57,741.32,744.46,748.00,752.52,758.50,765.21,770.54,775.16,779.71,784.14,788.17,792.04,795.03,797.95,801.18,804.52,808.06,811.95,816.05,820.10,824.22,828.15,831.98,835.84,840.02,845.91,851.19,855.15,858.42,861.81,864.95,868.25,872.48,877.96,883.73,888.92,893.34,897.70,901.50,904.95,907.60,908.28,908.06,906.71,904.18,900.41,896.29,891.68,886.68,881.49,876.61,872.85,869.72,867.00,864.56,861.89,858.11,854.22,850.91,848.17,844.48,839.86,835.23,832.53,832.60,835.52,839.66,843.51,845.61,844.86,843.26,841.69,840.29,839.00,837.56,836.02,834.53,833.07,831.91,831.11,830.74,830.74,830.34,829.58,828.67,827.90,827.28,826.74,826.20,825.64,825.13,825.28,825.87,826.70,827.40,827.02,826.25,826.13,827.55,828.41,828.57,828.51,828.50,828.58,828.07,828.46,829.81,831.19,831.94,832.06,831.77,831.19,830.52,829.54,829.21,829.80,830.81,832.13,833.43,834.48,835.16,836.27,837.76,839.21,840.29,840.76,841.15,841.27
468.60,470.80,472.19,472.38,472.47,472.71,473.09,473.51,474.70,476.12,477.36,478.03,478.16,478.42,479.03,480.05,480.95,481.90,482.87,483.83,484.69,485.55,486.31,487.03,487.75,488.30,488.59,489.05,489.98,490.91,491.85,492.77,493.69,494.63,495.69,496.81,497.97,499.11,500.20,500.21,499.64,499.27,500.56,501.45,502.13,502.83,503.79,504.95,506.19,507.45,508.75,510.28,513.13,516.13,518.70,521.00,524.71,528.52,531.62,533.43,535.37,537.26,538.10,537.34,535.88,535.20,535.07,535.26,535.59,536.35,537.13,537.64,537.68,537.57,537.44,537.32,537.25,537.63,540.04,542.50,544.63,546.75,548.91,551.40,554.00,556.54,559.08,563.12,567.46,572.32,579.05,585.33,590.34,594.84,600.03,607.44,613.69,619.29,624.63,629.89,634.89,640.79,646.94,651.90,656.28,661.27,666.29,670.42,672.49,672.97,673.28,673.65,673.54,673.43,674.05,676.28,681.31,689.02,696.77,704.02,709.98,713.03,715.87,719.53,723.74,727.60,730.42,732.41,734.48,737.36,741.28,746.63,752.97,759.74,765.98,771.18,775.99,780.45,784.40,788.31,791.38,794.30,797.40,800.55,803.54,806.73,810.38,814.96,820.73,825.63,829.88,833.84,837.71,843.03,848.08,852.15,855.34,858.56,861.72,864.93,868.64,873.76,879.16,884.45,889.49,894.28,898.87,902.92,906.46,909.33,910.21,910.00,908.40,904.99,901.05,896.36,891.01,885.40,880.50,876.47,872.76,869.49,866.93,864.24,861.32,858.02,854.42,851.11,846.67,841.85,837.72,836.06,836.63,839.46,843.45,847.18,847.82,846.58,844.90,843.28,841.72,840.16,838.66,837.17,835.66,834.34,833.40,832.78,832.47,832.31,831.44,830.24,829.09,828.40,828.02,827.68,827.23,826.62,825.94,825.95,826.52,827.43,828.14,827.70,826.89,826.76,828.34,829.85,830.32,830.35,830.23,829.83,829.14,829.58,831.24,833.31,834.49,834.86,834.59,833.75,832.84,831.66,830.62,830.05,830.33,831.66,833.58,835.31,836.05,837.11,838.61,839.92,840.68,841.09,841.19,841.40
466.90,468.72,469.60,469.52,469.53,469.77,470.21,470.86,472.01,473.31,474.47,475.21,475.77,476.59,477.68,478.91,480.04,481.13,482.11,483.00,483.85,484.70,485.53,486.30,486.90,487.13,487.33,487.84,488.88,489.92,490.87,491.79,492.72,493.66,494.76,495.91,497.04,498.08,499.06,498.94,498.25,497.84,499.30,500.52,501.61,502.73,503.94,505.21,506.57,507.97,509.49,511.59,514.48,517.32,519.91,522.88,526.33,529.46,531.95,533.67,535.44,536.39,536.20,534.82,533.22,532.05,531.42,531.29,531.60,532.54,533.51,534.13,534.15,533.97,533.66,533.45,533.99,536.65,539.89,542.61,544.80,546.91,549.02,551.65,554.41,557.10,560.00,564.51,569.94,575.96,582.51,588.68,593.43,598.38,605.08,611.70,617.35,622.62,627.75,632.64,637.35,643.48,649.63,653.18,656.08,659.03,661.62,663.18,663.23,662.59,661.45,660.18,659.72,661.17,666.14,672.71,679.01,685.74,692.44,698.96,704.51,707.20,709.69,712.60,715.99,719.81,723.27,724.83,726.44,729.68,734.28,740.36,747.62,755.49,762.69,768.10,772.73,776.88,780.53,784.25,787.35,790.09,792.61,794.94,796.92,799.09,801.78,806.04,815.35,822.35,827.41,831.67,835.41,839.47,843.81,848.06,851.52,854.67,858.11,861.65,865.20,870.12,875.41,880.82,886.13,890.83,895.72,900.20,904.31,908.16,910.14,911.03,910.66,908.59,905.35,900.90,895.46,889.56,884.50,880.08,876.19,872.66,869.46,866.65,863.70,860.38,856.59,852.46,847.92,843.40,839.93,839.47,841.67,845.09,848.25,850.02,850.08,848.35,846.34,844.59,842.94,841.45,840.02,838.57,837.08,835.93,835.04,834.47,834.24,833.96,833.13,831.70,830.15,829.36,829.07,828.88,828.59,828.04,827.27,826.90,827.25,828.18,828.83,828.56,827.72,827.32,828.49,830.13,831.26,831.82,831.73,830.97,830.14,830.47,832.05,834.25,835.34,835.81,835.83,835.36,834.76,834.00,833.00,831.90,831.33,831.44,832.95,834.91,835.99,837.21,838.88,840.20,840.73,841.12,841.15,841.29
464.39,465.75,466.52,466.55,466.76,467.22,467.85,468.62,469.69,470.87,472.01,472.96,473.92,475.11,476.45,477.78,479.08,480.28,481.32,482.19,483.04,483.89,484.73,485.45,485.83,485.92,486.08,486.63,487.72,488.82,489.83,490.80,491.75,492.72,493.82,494.92,495.97,496.95,497.79,497.54,496.94,496.88,498.46,499.96,501.36,502.69,504.01,505.17,506.50,507.94,509.51,511.69,514.25,516.83,519.42,522.47,525.61,528.47,530.87,532.62,534.21,534.51,533.72,532.14,530.66,529.49,528.70,528.35,528.57,529.44,530.29,530.77,530.69,530.62,530.65,531.05,532.50,536.26,539.91,542.80,545.14,547.38,549.58,552.32,555.24,558.25,561.87,566.84,572.91,579.52,585.72,591.48,596.48,602.14,609.43,615.24,620.60,625.77,630.74,635.42,639.89,645.28,650.27,652.46,653.93,654.67,654.83,654.24,652.60,651.06,649.37,647.92,648.27,652.38,660.41,669.19,675.75,681.43,687.17,692.78,697.56,700.15,702.50,704.93,707.72,711.26,714.99,717.08,719.34,723.22,728.24,734.73,742.78,751.72,759.62,765.22,769.46,772.90,775.85,779.13,782.12,784.69,786.77,788.46,789.91,791.93,794.86,799.68,809.57,817.83,824.05,828.72,832.50,835.72,839.28,843.25,846.97,850.47,854.24,858.07,861.82,866.71,872.01,877.53,883.00,887.63,892.49,897.16,901.56,905.64,908.63,910.55,911.30,910.54,908.40,904.67,899.56,893.64,888.31,883.67,879.56,875.77,872.23,869.02,865.79,862.20,858.00,853.07,848.70,845.40,843.52,843.99,846.68,849.77,852.03,852.63,851.92,849.72,847.51,845.75,844.15,842.74,841.36,839.95,838.54,837.40,836.49,835.89,835.61,835.24,834.55,833.33,831.86,830.86,830.45,830.21,829.90,829.40,828.70,827.85,827.94,828.95,829.47,829.36,828.63,828.02,828.58,830.17,831.61,832.63,833.03,832.57,831.80,831.70,832.67,834.75,835.76,836.40,836.72,836.57,836.17,835.74,835.04,834.07,833.17,832.53,833.04,834.13,834.95,836.22,837.92,839.38,840.22,840.80,840.92,841.11
461.38,462.28,463.23,463.58,464.17,465.00,465.94,466.76,467.75,468.86,470.05,471.25,472.50,473.84,475.22,476.61,477.99,479.32,480.48,481.41,482.27,483.12,483.91,484.49,484.59,484.67,484.83,485.37,486.47,487.62,488.71,489.75,490.77,491.80,492.87,493.86,494.83,495.77,496.43,496.06,495.75,496.33,498.00,499.67,501.15,502.50,503.76,504.63,505.80,507.19,508.69,510.56,512.61,514.93,517.50,520.12,523.04,526.02,528.67,530.54,531.96,531.94,530.99,529.52,528.26,527.40,526.74,526.30,526.37,526.97,527.47,527.65,527.55,527.87,528.71,530.19,532.60,536.29,539.93,542.94,545.53,548.04,550.50,553.36,556.45,559.90,564.50,569.97,576.27,582.90,588.79,594.04,599.65,605.97,612.82,618.01,623.41,628.63,633.45,638.03,642.09,645.86,648.72,649.55,649.68,648.44,646.64,644.64,641.87,639.68,638.24,637.89,640.01,647.14,656.51,665.24,671.22,676.15,681.13,685.82,689.73,692.40,694.65,696.87,699.38,702.68,706.55,709.90,713.56,718.24,723.52,730.25,738.85,748.46,756.65,762.32,765.95,768.38,770.28,772.82,775.47,777.87,779.84,781.41,783.06,785.84,790.08,796.14,804.11,812.47,819.74,824.95,828.92,831.78,834.67,838.06,842.02,846.19,850.29,854.36,858.62,863.62,868.94,874.53,880.09,884.76,889.38,894.00,898.38,902.18,905.91,908.73,910.51,911.00,910.17,907.60,903.24,897.58,892.00,887.31,882.94,878.85,875.14,871.36,867.69,863.65,858.87,853.40,849.56,848.03,848.25,849.32,851.45,853.48,854.87,855.03,853.37,850.78,848.50,846.84,845.36,843.99,842.60,841.21,839.89,838.68,837.75,837.08,836.62,836.14,835.62,834.88,833.85,832.63,831.98,831.48,831.00,830.52,829.98,828.68,828.53,829.65,830.01,830.01,829.45,828.75,828.72,830.16,831.58,832.90,834.05,834.40,833.86,833.21,833.26,835.00,836.01,836.84,837.43,837.52,837.24,836.98,836.72,836.29,835.53,834.69,834.01,833.59,833.67,834.72,836.19,837.75,839.18,840.12,840.49,840.87
458.73,459.47,460.37,461.05,461.94,462.98,464.04,465.11,466.21,467.44,468.76,469.96,471.20,472.55,473.94,475.33,476.77,478.19,479.50,480.63,481.54,482.40,483.01,483.33,483.36,483.39,483.49,483.99,485.12,486.28,487.38,488.50,489.66,490.85,491.91,492.88,493.82,494.69,495.08,494.69,494.73,495.87,497.50,499.07,500.37,501.41,502.27,502.89,503.86,505.20,506.84,508.72,510.70,512.86,515.20,517.63,520.32,523.20,525.91,527.94,529.35,529.33,528.50,527.29,526.09,525.27,524.67,524.26,524.22,524.66,524.84,525.15,526.13,527.65,529.41,531.33,533.70,537.18,540.25,543.07,545.77,548.47,551.42,554.57,557.95,561.88,567.07,573.23,579.82,586.35,592.05,597.36,603.16,609.20,614.94,620.00,625.82,631.07,635.37,639.56,642.08,643.73,644.43,643.59,642.47,640.86,639.14,637.35,634.72,632.61,631.65,632.45,636.49,644.29,653.10,660.62,665.39,669.93,674.05,678.07,681.85,684.64,686.84,689.13,692.05,696.31,701.82,706.20,710.43,715.54,721.63,729.29,737.82,746.47,753.81,758.73,761.35,762.64,763.42,764.49,766.03,768.25,771.20,774.40,777.89,782.44,788.06,794.59,801.56,807.80,813.94,820.09,824.41,827.38,830.23,833.60,837.91,842.58,847.00,851.43,856.33,861.54,866.55,871.93,877.68,882.66,887.07,891.23,895.13,898.60,901.96,905.24,908.20,910.27,910.36,909.33,906.20,901.18,896.00,891.35,886.85,882.35,877.86,873.79,869.52,864.77,859.59,854.86,852.57,852.12,852.80,854.06,855.61,857.06,857.71,856.85,854.61,851.94,849.68,848.00,846.57,845.07,843.48,841.94,840.66,839.60,838.77,838.08,837.45,836.79,836.13,835.42,834.61,833.64,832.87,832.08,831.34,830.71,830.04,828.97,828.88,829.86,830.37,830.13,829.43,828.85,829.15,830.40,831.74,833.05,834.27,835.10,835.08,834.60,834.31,835.28,836.23,837.18,837.99,838.47,838.58,838.57,838.47,838.18,837.53,836.86,836.19,835.61,835.21,835.18,835.58,836.41,837.66,838.92,839.87,840.56
456.59,457.50,458.51,459.41,460.32,461.30,462.40,463.69,464.95,466.26,467.58,468.75,469.95,471.26,472.65,474.07,475.53,477.00,478.40,479.66,480.70,481.52,481.97,482.13,482.13,482.11,482.16,482.63,483.73,484.86,486.05,487.30,488.63,489.95,491.03,491.97,492.84,493.57,493.72,493.46,493.84,495.30,496.89,498.26,499.13,499.66,500.23,500.79,501.66,502.90,504.51,506.29,508.24,510.39,512.71,515.06,517.64,520.39,523.04,525.14,526.68,526.75,526.06,525.06,523.93,523.15,522.60,522.22,522.06,522.44,522.88,523.78,525.64,527.93,530.21,532.36,534.60,537.62,540.25,543.02,545.92,548.83,552.37,555.83,559.62,564.22,569.89,576.55,583.41,589.94,595.54,600.95,606.71,612.38,617.49,622.64,628.05,632.58,635.95,638.94,639.89,639.91,639.22,637.51,635.73,633.81,631.93,630.07,627.80,626.19,626.26,628.59,634.00,642.10,649.82,655.62,658.83,662.29,666.00,669.89,673.68,676.53,678.94,682.12,686.37,692.02,699.23,704.73,709.56,715.10,722.12,729.72,737.18,744.00,749.28,752.61,754.05,754.35,754.22,754.40,756.62,760.28,764.83,769.19,773.86,779.42,785.71,792.31,798.58,803.42,808.26,813.94,818.82,822.55,825.87,829.42,833.98,839.09,843.83,848.46,853.50,858.77,863.87,869.29,875.06,880.26,884.52,888.33,891.86,895.07,898.04,901.36,904.84,907.87,908.99,909.23,907.46,903.68,899.25,894.88,890.42,885.63,880.43,875.91,871.07,865.79,860.58,857.18,856.30,856.56,857.34,858.48,859.38,860.06,859.85,858.16,855.62,853.12,850.90,849.02,847.45,845.78,844.04,842.43,841.22,840.22,839.43,838.73,838.02,837.17,836.33,835.53,834.77,833.95,833.09,832.13,831.22,830.50,829.87,829.24,829.27,830.01,830.61,830.33,829.61,829.05,829.36,830.30,831.54,832.87,834.20,835.39,835.95,835.78,835.40,835.83,836.68,837.66,838.56,839.24,839.67,839.84,839.89,839.84,839.54,839.12,838.65,838.15,837.64,837.10,836.85,837.03,837.75,838.81,839.84,840.73
455.02,456.41,457.76,458.75,459.37,460.04,461.11,462.51,463.94,465.25,466.44,467.62,468.78,470.03,471.38,472.83,474.29,475.76,477.16,478.46,479.70,480.42,480.77,480.90,480.89,480.83,480.91,481.35,482.31,483.41,484.75,486.21,487.69,489.05,490.19,491.09,491.85,492.39,492.36,492.41,493.10,494.59,496.13,497.17,497.40,497.28,497.75,498.45,499.33,500.41,501.78,503.28,505.15,507.43,509.98,512.41,515.00,517.65,520.15,522.23,524.03,524.26,523.65,522.70,521.65,520.91,520.42,520.08,519.92,520.41,521.75,523.64,525.88,528.24,530.55,532.76,534.96,537.33,539.78,542.72,545.91,549.08,553.25,557.10,561.44,566.90,572.95,579.90,586.95,593.56,599.15,604.66,610.21,615.57,620.62,625.90,629.88,632.84,634.87,635.81,635.43,634.51,633.28,631.68,629.84,627.44,624.85,622.44,620.61,619.93,621.63,625.75,631.83,640.09,646.51,650.34,651.76,653.39,657.25,661.61,665.45,668.38,671.41,676.31,682.75,689.86,698.47,705.09,710.68,716.67,724.44,730.70,736.05,740.37,742.59,743.67,743.86,743.48,742.94,743.36,748.33,755.00,761.40,766.02,770.79,776.25,782.31,788.65,794.37,799.01,802.81,806.42,811.94,817.14,821.49,825.38,830.11,835.56,840.58,845.17,849.76,854.97,860.66,866.45,872.11,877.35,881.50,885.17,888.56,891.62,894.40,897.38,900.57,903.75,906.02,907.12,906.76,904.84,901.45,897.69,893.43,888.51,882.81,877.63,872.31,866.85,862.09,860.37,860.47,861.08,861.79,862.50,862.61,862.15,860.94,858.77,856.20,854.01,851.87,849.71,847.86,846.07,844.32,842.78,841.66,840.57,839.72,839.01,838.31,837.28,836.28,835.38,834.53,833.64,832.73,831.78,830.85,830.12,829.79,829.65,829.81,830.28,830.83,830.74,830.18,829.54,829.33,829.89,831.01,832.43,833.99,835.44,836.52,836.74,836.47,836.71,837.38,838.30,839.17,839.80,840.39,840.65,840.89,841.23,841.54,841.42,841.12,840.79,840.56,840.30,840.07,839.92,839.91,840.24,840.72,841.62
454.16,455.63,457.04,458.08,458.69,459.29,460.24,461.57,462.91,464.22,465.51,466.76,467.93,469.10,470.31,471.62,473.06,474.50,475.85,477.12,478.36,479.12,479.54,479.73,479.72,479.65,479.73,480.10,480.93,482.15,483.50,484.91,486.35,487.73,488.90,489.87,490.67,491.21,491.02,491.49,492.55,493.97,495.13,495.35,495.05,494.69,494.86,495.57,496.43,497.43,498.67,500.00,501.74,503.97,506.63,509.38,512.03,514.65,517.23,519.62,521.64,522.06,521.36,519.92,518.41,517.49,517.05,517.15,518.12,519.53,521.41,523.52,525.70,527.91,530.02,532.17,534.39,536.68,539.04,541.95,545.23,548.73,553.48,558.32,563.50,569.31,575.57,582.88,589.81,596.00,601.76,607.61,613.28,618.30,622.35,626.63,629.29,630.84,631.41,630.78,629.63,628.02,626.08,623.91,621.70,619.38,617.16,615.40,614.73,615.80,618.76,623.47,629.71,637.03,642.44,645.30,645.69,646.40,650.69,655.59,659.71,663.46,667.98,674.45,681.95,689.04,697.93,704.75,710.68,716.97,723.55,728.35,731.68,733.72,734.46,734.46,734.10,734.00,735.13,738.39,744.76,751.65,757.71,762.66,767.42,772.50,777.92,783.46,788.56,792.73,795.78,798.18,802.86,810.09,816.37,821.12,826.23,831.62,836.46,840.86,845.27,850.74,856.77,863.02,869.11,874.20,878.23,881.81,885.10,887.98,890.72,893.60,896.61,899.63,902.39,904.03,904.93,904.79,902.51,899.84,895.85,890.70,884.80,879.20,873.67,868.62,864.98,864.43,864.72,865.24,865.57,865.15,863.92,862.11,859.96,857.56,854.88,852.51,850.62,849.06,847.40,846.07,844.78,843.48,842.21,840.95,840.01,839.27,838.57,837.51,836.46,835.51,834.71,833.99,833.13,832.36,831.60,830.90,830.71,830.71,830.83,831.12,831.60,831.27,830.65,830.14,830.08,830.53,831.52,832.86,834.39,835.71,836.80,837.40,837.62,837.80,838.16,838.89,839.72,840.39,841.09,841.45,841.78,842.22,842.67,842.90,843.05,843.19,843.35,843.32,843.21,843.09,843.03,843.12,843.32,843.70
453.46,454.90,456.31,457.41,458.09,458.71,459.60,460.83,462.09,463.38,464.71,465.97,467.17,468.27,469.35,470.49,471.83,473.20,474.51,475.74,476.92,477.77,478.32,478.60,478.57,478.52,478.62,478.97,479.73,480.93,482.22,483.56,484.94,486.27,487.40,488.38,489.21,489.76,489.70,490.63,491.99,493.20,493.75,493.35,492.66,492.07,491.96,492.56,493.40,494.39,495.59,496.90,498.58,500.72,503.32,506.25,509.01,511.66,514.31,516.89,518.78,519.05,518.03,516.15,514.59,514.01,514.15,515.01,516.89,518.91,520.97,523.04,525.10,527.13,529.07,531.13,533.38,535.73,538.30,541.38,544.81,548.57,553.82,559.63,565.49,571.36,577.65,585.02,591.73,597.62,603.63,609.75,615.34,619.75,622.55,625.28,626.58,626.90,626.36,624.81,623.27,621.32,618.99,616.51,614.16,612.13,610.48,609.50,609.94,612.61,616.56,621.41,627.13,632.88,636.94,638.96,639.09,639.97,645.31,651.27,656.22,661.04,666.96,674.12,681.51,687.87,695.83,702.47,708.65,715.02,720.36,723.77,725.48,725.92,725.74,725.21,725.08,726.05,729.13,734.51,741.41,747.84,753.11,758.06,762.82,767.64,772.56,777.45,781.88,785.52,788.29,790.69,795.31,803.55,810.94,816.57,822.38,827.84,832.66,837.10,841.64,847.46,853.60,859.93,866.22,871.49,875.38,878.66,881.62,884.18,886.84,889.67,892.57,895.46,898.39,900.56,902.50,903.79,902.87,901.23,897.88,893.07,887.23,881.35,875.72,871.17,868.55,868.50,868.79,868.75,868.14,866.68,864.58,862.05,859.47,857.04,854.57,852.01,850.08,848.80,847.47,846.58,845.59,844.38,842.98,841.62,840.54,839.69,838.92,837.93,836.91,836.00,835.25,834.65,833.92,833.34,832.75,832.14,832.01,832.04,832.09,832.20,832.48,831.97,831.38,831.07,831.27,831.78,832.66,833.81,835.09,836.17,837.18,838.03,838.61,838.77,838.94,839.56,840.35,841.08,841.84,842.18,842.50,842.93,843.37,843.80,844.24,844.67,845.04,845.21,845.25,845.26,845.27,845.30,845.46,845.53
452.79,454.18,455.55,456.73,457.51,458.23,459.18,460.34,461.61,462.85,464.04,465.22,466.44,467.53,468.52,469.50,470.61,471.88,473.15,474.36,475.46,476.40,477.13,477.55,477.49,477.47,477.62,478.04,478.82,479.73,480.89,482.20,483.55,484.77,485.73,486.60,487.37,487.92,488.37,489.81,491.33,492.15,491.81,491.29,490.39,489.42,489.22,489.58,490.39,491.46,492.73,494.21,495.98,498.02,500.38,503.17,506.10,508.81,511.40,513.85,515.04,514.61,513.05,511.03,510.34,511.02,512.50,514.41,516.47,518.28,520.08,521.97,523.96,525.86,527.73,529.74,531.96,534.44,537.67,541.29,545.03,548.93,554.58,561.01,567.21,572.86,578.96,585.87,592.30,598.24,604.56,610.79,615.78,619.17,620.69,621.43,621.31,620.67,619.59,618.04,616.54,614.69,612.58,610.45,608.44,606.86,605.67,605.21,606.48,610.15,614.73,619.41,623.67,627.33,629.44,630.51,631.44,633.97,641.21,649.01,655.53,661.51,668.27,674.76,680.56,685.60,691.13,697.27,703.70,709.83,714.50,716.66,717.40,717.26,716.59,716.08,717.21,720.13,724.84,730.25,736.67,742.42,746.96,751.39,756.18,761.02,765.83,770.51,774.35,777.52,780.69,784.75,791.09,798.56,805.46,811.74,818.58,824.51,829.76,834.69,839.77,845.96,851.89,857.70,863.60,869.57,873.28,875.94,878.17,880.21,882.67,885.42,888.30,891.20,894.01,896.78,899.41,901.56,902.34,901.55,899.40,895.84,890.47,884.51,878.94,874.82,872.78,872.32,872.48,871.32,869.05,866.99,864.98,862.81,860.55,858.38,856.61,854.03,851.55,849.72,848.75,848.01,846.88,845.47,844.07,842.81,841.57,840.44,839.48,838.63,837.76,836.97,836.27,835.61,835.08,834.64,834.18,833.69,833.56,833.54,833.50,833.44,833.35,832.94,832.58,832.49,832.89,833.63,834.43,835.24,836.05,836.88,837.84,838.71,839.33,839.50,839.72,840.36,841.18,841.93,842.67,842.84,842.97,843.31,843.69,844.02,844.38,844.73,844.99,845.28,845.51,845.66,845.73,845.81,846.20,846.43
452.25,453.55,454.85,456.06,456.99,457.84,458.82,459.89,461.05,462.20,463.33,464.50,465.68,466.76,467.72,468.62,469.57,470.63,471.81,473.04,474.09,475.07,475.94,476.51,476.44,476.39,476.64,477.19,478.01,478.82,479.79,480.91,482.09,483.11,483.99,484.84,485.66,486.42,487.21,488.79,490.21,490.66,489.75,488.47,487.21,486.31,486.34,487.02,488.09,489.24,490.35,491.85,493.79,495.99,498.38,501.00,503.87,506.47,508.72,510.47,511.05,510.45,509.23,508.12,508.81,510.29,512.05,513.88,515.57,517.20,518.87,520.63,522.50,524.36,526.22,528.19,530.53,533.65,537.40,541.30,545.16,549.19,554.90,561.52,567.95,573.66,579.16,585.68,592.03,598.05,604.32,610.20,614.35,616.73,617.34,617.28,616.59,615.46,613.96,612.19,610.45,608.69,606.88,605.02,603.32,602.01,601.10,601.02,603.01,606.97,611.47,615.67,618.78,621.25,622.63,624.11,627.07,631.49,639.90,648.51,655.49,661.13,667.31,672.98,678.01,682.68,687.11,692.22,698.13,704.20,707.62,708.55,708.51,708.16,707.84,708.48,710.72,714.61,720.12,725.50,730.42,734.62,738.30,742.81,747.54,752.16,756.71,761.40,765.95,769.97,774.45,780.38,787.99,796.27,803.09,808.58,814.90,821.73,827.87,833.52,839.28,845.83,851.61,857.01,862.29,867.23,870.74,873.19,875.08,876.90,878.88,881.26,883.94,886.76,889.43,892.20,895.03,897.72,899.76,900.15,899.00,896.63,893.07,888.62,883.68,879.64,877.30,876.36,875.45,873.50,870.94,868.98,866.86,864.68,862.55,860.66,859.17,856.85,854.30,852.10,850.86,849.44,847.98,846.68,845.77,844.87,843.73,842.43,841.06,839.76,838.81,838.05,837.37,836.78,836.29,835.99,835.68,835.26,835.00,834.71,834.46,834.28,834.16,833.96,833.84,833.93,834.38,835.00,835.64,836.33,837.07,837.85,838.70,839.50,840.15,840.56,840.92,841.65,842.45,843.00,843.44,843.45,843.46,843.60,843.74,843.98,844.25,844.42,844.50,845.13,845.57,845.84,846.03,846.20,846.39,846.42
451.83,453.06,454.28,455.46,456.48,457.44,458.45,459.45,460.51,461.60,462.69,463.81,464.89,465.90,466.84,467.71,468.57,469.48,470.54,471.72,472.77,473.79,474.77,475.45,475.38,475.31,475.67,476.34,477.17,477.96,478.78,479.71,480.69,481.55,482.40,483.23,484.11,485.07,486.10,487.51,488.52,488.48,487.09,485.21,483.80,483.18,483.55,484.64,485.98,487.24,488.34,489.90,491.98,494.33,496.81,499.30,501.85,504.11,505.92,506.99,507.13,506.71,506.25,506.37,508.12,509.97,511.65,513.12,514.44,515.95,517.54,519.21,520.98,522.84,524.79,526.87,529.39,533.06,537.07,541.02,544.86,548.87,554.30,560.83,567.36,573.19,578.28,584.55,590.94,597.09,603.11,608.50,611.98,613.58,613.46,612.82,611.69,610.19,608.38,606.44,604.60,602.96,601.43,599.83,598.38,597.29,596.60,596.85,599.49,603.45,607.55,611.11,613.41,615.47,617.11,619.61,624.43,630.36,639.01,647.65,654.68,659.70,665.14,670.30,675.16,679.95,683.89,687.91,692.71,697.86,700.14,700.26,699.73,699.28,699.62,701.86,705.21,709.58,715.09,720.21,724.04,727.10,730.10,734.40,738.85,743.52,748.33,753.15,758.54,763.69,769.49,776.83,785.30,794.28,801.16,806.07,811.74,819.41,826.54,832.96,839.25,846.09,851.64,856.50,860.86,864.35,867.44,869.76,871.58,873.47,875.16,877.27,879.75,882.45,884.86,887.44,890.21,893.09,895.80,897.12,896.95,895.88,894.36,891.98,888.24,884.55,881.79,880.11,878.05,875.60,873.16,871.31,869.08,866.90,864.93,863.24,861.72,859.65,857.24,854.89,853.25,851.17,849.41,848.23,847.73,847.14,846.16,844.82,843.21,841.58,840.49,839.48,838.55,838.03,837.62,837.44,837.27,836.91,836.51,835.99,835.53,835.23,835.13,835.09,835.14,835.34,835.76,836.19,836.69,837.31,838.06,838.84,839.65,840.41,841.10,841.72,842.27,843.08,843.83,844.13,844.20,844.06,843.92,843.84,843.77,843.86,843.98,844.03,844.12,845.02,845.55,845.85,846.11,846.30,846.39,846.12
451.63,452.85,454.00,455.00,455.99,456.99,458.00,459.00,460.06,461.14,462.21,463.22,464.04,464.87,465.75,466.67,467.58,468.50,469.43,470.40,471.52,472.60,473.63,474.34,474.28,474.25,474.70,475.41,476.21,477.03,477.83,478.63,479.47,480.31,481.16,481.97,482.84,483.90,485.03,485.75,485.82,485.00,483.13,481.38,480.41,480.30,481.05,482.42,483.88,485.36,486.90,488.69,490.77,493.12,495.65,498.12,499.86,501.35,502.66,503.46,503.57,503.75,504.48,505.91,507.62,509.20,510.58,511.82,513.09,514.59,516.18,517.81,519.51,521.40,523.67,526.15,528.98,532.59,536.35,540.03,543.60,547.23,551.79,557.89,564.31,570.20,575.56,581.85,588.48,594.88,600.36,605.24,608.56,609.99,609.24,607.82,606.04,604.11,602.14,600.40,598.87,597.47,596.11,594.75,593.47,592.56,592.10,592.67,595.90,599.64,603.00,605.73,607.84,610.74,614.13,618.27,623.71,630.11,637.34,644.79,651.64,656.38,661.60,667.07,672.64,678.04,682.07,685.29,687.97,690.10,691.90,692.24,691.72,691.21,692.36,696.52,701.10,705.44,709.57,714.00,718.28,721.80,724.57,727.64,731.34,736.86,743.17,748.35,754.05,760.07,766.65,774.21,782.89,791.26,798.28,804.02,809.72,817.80,825.87,833.09,839.39,846.36,851.51,855.39,858.32,860.49,862.68,864.78,866.90,869.29,871.34,873.56,876.03,878.59,880.45,882.74,885.21,887.65,889.88,891.37,892.26,892.77,893.01,892.99,891.37,888.88,885.98,883.02,880.24,877.74,875.47,873.37,871.14,869.24,867.57,865.92,863.93,861.88,859.79,857.72,855.77,853.59,851.75,850.49,849.96,849.41,848.51,847.36,846.06,844.80,843.50,841.69,839.87,839.37,839.16,839.11,839.00,838.71,838.27,837.71,837.15,836.70,836.50,836.41,836.47,836.65,836.93,837.25,837.69,838.23,838.91,839.75,840.69,841.54,842.28,842.97,843.69,844.51,845.14,845.25,845.00,844.65,844.31,844.03,843.88,843.73,843.60,843.69,844.28,845.13,845.47,845.60,845.71,845.82,846.24,845.73
451.40,452.47,453.46,454.40,455.38,456.40,457.44,458.44,459.48,460.52,461.51,462.27,462.86,463.54,464.36,465.29,466.21,467.17,468.15,469.20,470.42,471.56,472.57,473.25,473.18,473.24,473.70,474.41,475.23,476.04,476.81,477.59,478.38,479.22,479.98,480.71,481.53,482.49,483.19,483.44,483.21,482.36,480.81,479.49,478.85,478.95,479.78,481.01,482.48,484.19,486.20,488.24,490.34,492.58,494.87,496.84,498.22,499.30,500.18,500.81,501.33,502.10,503.35,505.09,506.69,508.09,509.33,510.51,511.78,513.24,514.80,516.46,518.31,520.34,522.83,525.50,528.38,531.73,535.18,538.49,541.76,545.36,549.45,554.99,561.12,567.18,572.99,579.43,586.00,592.19,597.31,601.55,604.16,604.90,603.66,602.19,600.50,598.70,596.88,595.19,593.68,592.28,590.91,589.57,588.73,588.50,588.80,589.86,592.23,595.30,598.19,600.54,602.46,606.13,611.01,616.36,621.92,628.39,635.06,642.13,649.20,654.57,659.83,665.13,670.48,675.61,679.14,681.17,682.17,682.47,682.91,682.93,682.93,683.59,686.21,690.44,695.55,700.36,704.00,708.07,712.41,716.54,720.37,724.26,728.36,734.05,740.53,746.09,751.91,758.28,764.96,772.09,780.58,788.70,796.06,802.66,808.90,817.29,825.69,833.07,838.96,844.88,849.60,852.92,854.91,856.53,858.24,859.98,861.81,863.91,866.32,869.38,872.57,875.27,876.97,878.86,880.82,882.77,884.74,886.37,887.81,889.02,889.86,890.63,890.55,889.65,887.92,885.39,882.43,879.71,877.31,875.12,873.02,871.37,869.82,868.03,865.97,863.86,861.86,860.01,858.13,856.05,854.42,853.38,852.93,852.37,851.54,850.52,849.41,848.32,847.11,845.55,844.04,843.54,843.30,842.78,842.08,841.33,840.47,839.58,838.81,838.25,838.01,837.91,837.93,838.03,838.20,838.42,838.77,839.33,840.15,841.03,841.83,842.61,843.38,844.15,844.95,845.82,846.41,846.35,845.63,844.83,844.24,843.99,844.06,843.89,843.59,843.49,843.99,844.65,844.94,845.07,845.21,845.26,845.49,844.91
451.07,451.96,452.83,453.76,454.75,455.78,456.83,457.83,458.82,459.79,460.64,461.13,461.54,462.12,462.88,463.80,464.74,465.73,466.82,468.03,469.33,470.55,471.54,472.14,472.09,472.23,472.70,473.40,474.23,475.00,475.78,476.55,477.32,478.14,478.79,479.41,480.12,480.91,481.12,481.03,480.73,480.15,479.08,478.19,477.88,478.17,478.98,479.99,481.41,483.31,485.67,487.94,490.08,492.16,494.07,495.50,496.69,497.53,498.15,498.75,499.72,500.94,502.43,504.10,505.55,506.83,508.03,509.22,510.48,511.90,513.43,515.19,517.29,519.50,522.14,524.90,527.70,530.68,533.79,536.72,539.74,543.39,547.35,552.43,558.26,564.48,570.64,577.22,583.58,589.37,594.18,597.76,599.47,599.47,597.98,596.67,595.14,593.47,591.73,589.95,588.36,586.97,585.70,584.63,584.52,585.12,586.22,587.69,589.00,591.24,593.58,595.65,597.65,602.09,608.13,614.38,620.00,626.57,633.11,640.13,647.41,653.38,658.67,663.50,668.04,672.23,674.88,675.77,675.63,674.92,674.15,673.85,674.49,676.51,680.57,684.55,689.78,694.94,698.61,702.67,707.30,712.25,717.38,722.43,727.19,732.90,739.22,745.04,750.93,757.54,764.30,771.16,779.66,787.40,794.86,802.17,809.19,817.61,825.78,832.78,837.93,842.38,846.37,849.21,850.74,852.28,853.89,855.41,856.88,858.60,861.22,865.03,868.97,872.04,873.77,875.29,876.76,878.25,879.94,881.59,883.32,884.91,886.01,887.05,888.00,888.44,888.02,886.53,884.06,881.46,879.02,876.79,874.84,873.30,871.71,869.72,867.74,865.68,863.83,862.22,860.53,858.59,857.21,856.45,856.12,855.56,854.76,853.84,852.82,851.77,850.77,849.83,849.03,848.54,848.16,847.07,845.66,844.31,842.97,841.78,840.81,840.13,839.85,839.72,839.63,839.59,839.68,839.75,840.07,840.73,841.72,842.66,843.29,843.95,844.71,845.51,846.32,847.16,847.66,847.34,846.25,845.07,844.28,844.07,844.29,844.16,843.79,843.49,843.64,843.88,843.98,844.08,844.24,844.25,844.24,843.82
450.44,451.25,452.13,453.15,454.16,455.18,456.18,457.13,458.02,458.85,459.49,459.76,460.11,460.69,461.44,462.32,463.29,464.34,465.52,466.86,468.18,469.51,470.51,471.04,471.00,471.22,471.73,472.41,473.20,473.97,474.74,475.48,476.21,476.98,477.58,478.00,478.46,479.09,479.10,478.87,478.67,478.40,477.55,476.82,476.88,477.59,478.44,479.32,480.66,482.53,484.91,487.28,489.52,491.39,492.81,494.04,495.11,495.97,496.74,497.61,498.75,500.03,501.44,502.92,504.22,505.47,506.69,507.91,509.17,510.55,512.17,514.12,516.51,518.98,521.68,524.37,526.95,529.44,532.10,534.81,537.76,541.40,545.81,550.98,556.70,562.81,568.84,575.31,581.33,586.64,591.11,594.05,594.96,594.53,593.34,592.20,590.26,588.07,585.90,583.75,582.09,580.95,580.38,580.63,581.83,583.23,584.69,586.11,587.31,588.60,589.91,591.53,594.48,599.70,606.19,612.75,618.80,625.94,632.85,640.00,647.13,652.57,657.63,661.51,664.33,666.38,667.48,667.80,667.79,667.56,666.90,666.85,668.01,670.75,675.40,680.04,684.78,689.44,693.88,698.69,704.75,711.06,716.96,722.09,727.01,733.03,739.57,745.19,751.18,758.24,765.70,773.50,783.08,789.71,796.24,803.78,811.80,819.36,826.13,831.75,835.64,838.44,840.82,843.02,845.09,847.22,849.45,851.33,852.93,854.69,857.12,860.64,864.72,868.56,870.49,871.88,873.15,874.34,875.42,876.71,878.42,880.27,881.83,883.07,884.11,884.65,884.57,884.32,883.87,882.72,880.87,878.51,876.67,874.86,872.86,870.69,868.84,867.26,865.96,864.75,863.17,861.34,860.06,859.41,859.23,858.72,857.91,856.96,855.91,854.70,853.98,853.68,853.56,853.17,852.60,851.23,849.41,847.57,846.05,844.81,843.81,843.05,842.58,842.34,841.96,841.67,841.75,841.53,842.07,842.99,844.00,845.02,845.67,846.27,846.91,847.52,848.18,848.78,848.85,848.02,846.99,845.98,845.23,844.81,844.63,844.46,844.25,844.00,843.59,842.69,842.08,841.83,841.88,841.89,842.07,842.29
449.74,450.59,451.49,452.49,453.47,454.43,455.36,456.29,457.13,457.85,458.38,458.60,458.98,459.50,460.16,460.97,461.92,463.04,464.30,465.65,467.00,468.30,469.13,469.47,469.52,469.98,470.64,471.38,472.15,472.93,473.68,474.38,474.98,475.39,475.79,476.12,476.47,476.92,476.80,476.59,476.48,476.38,475.81,475.67,476.14,477.01,477.87,478.75,479.94,481.68,484.11,486.35,488.38,490.08,491.44,492.61,493.72,494.77,495.81,496.92,498.10,499.36,500.69,502.07,503.34,504.64,505.87,507.03,508.18,509.38,511.06,513.23,515.86,518.45,521.08,523.62,525.98,528.18,530.47,533.13,536.36,540.46,545.06,550.18,555.83,561.89,567.68,573.83,579.50,584.38,588.26,590.21,590.15,588.99,587.45,586.02,584.17,582.18,580.23,578.44,577.37,576.68,576.61,577.78,579.70,581.54,583.17,584.54,585.61,586.52,587.75,589.80,593.59,599.52,606.19,612.85,619.36,626.65,633.29,640.11,646.86,651.50,654.74,656.96,658.37,658.95,659.06,658.85,659.03,659.92,660.64,661.74,663.77,666.99,671.58,676.34,681.15,686.25,692.01,698.13,704.57,711.24,717.75,723.03,728.16,735.15,742.87,748.86,755.46,762.84,770.50,778.43,787.60,793.38,799.48,806.89,814.08,820.17,825.19,829.15,831.80,833.51,834.99,836.71,838.87,841.35,844.15,846.55,848.62,850.90,853.94,857.48,861.23,864.71,866.55,867.78,868.82,869.77,870.61,871.58,872.88,874.34,875.70,876.98,878.43,879.61,880.32,880.92,881.52,881.53,880.73,879.03,877.78,876.39,874.69,872.68,870.86,869.38,868.29,867.38,866.06,864.41,863.00,862.06,861.70,861.09,860.30,859.40,858.44,857.37,856.24,855.44,854.86,854.08,853.38,852.52,851.63,850.77,849.63,848.16,846.95,846.20,845.66,845.29,844.63,844.00,843.93,843.50,844.20,845.32,846.35,847.35,848.15,848.92,849.67,850.28,850.99,851.11,850.58,849.42,848.31,847.34,846.60,846.07,845.61,845.36,845.20,844.93,844.26,842.77,841.25,840.13,839.56,839.28,839.39,840.08
449.01,449.92,450.84,451.76,452.69,453.59,454.46,455.37,456.17,456.82,457.28,457.55,457.99,458.48,459.04,459.76,460.64,461.81,463.12,464.45,465.79,466.88,467.44,467.62,467.83,468.58,469.44,470.30,471.09,471.87,472.59,473.23,473.67,473.66,473.81,474.04,474.33,474.62,474.41,474.33,474.35,474.34,474.16,474.70,475.53,476.45,477.34,478.28,479.33,480.91,483.28,485.31,487.05,488.67,490.16,491.37,492.60,493.87,495.16,496.43,497.63,498.85,500.13,501.42,502.71,504.03,505.23,506.29,507.30,508.32,509.98,512.26,515.03,517.71,520.30,522.71,524.90,526.94,528.99,531.75,535.41,540.09,544.72,549.77,555.38,561.41,566.90,572.58,577.83,582.28,585.39,586.20,585.25,583.44,581.42,579.54,577.91,576.35,574.86,573.73,573.44,573.31,573.68,575.47,577.76,579.85,581.59,582.91,583.87,584.86,586.63,589.54,594.02,600.38,606.98,613.65,620.64,627.79,633.92,640.08,646.07,649.66,650.69,651.18,651.43,650.90,650.33,649.82,650.42,652.73,655.26,657.83,660.81,664.44,668.90,673.74,679.00,685.00,692.12,699.43,705.64,712.21,719.26,724.75,730.69,738.91,747.81,754.33,761.62,768.96,776.45,784.29,792.22,797.34,803.08,809.89,815.39,819.74,822.89,825.15,826.72,827.88,829.03,830.54,832.60,835.26,838.49,841.44,844.12,847.08,851.04,854.70,857.93,860.57,862.17,863.24,864.10,864.88,865.65,866.36,867.17,868.07,869.03,870.28,872.10,873.94,875.44,876.55,877.59,878.41,878.72,878.03,877.63,877.03,876.03,874.56,872.98,871.63,870.65,869.89,868.83,867.43,865.87,864.55,863.83,862.97,862.08,861.16,860.19,859.04,857.13,855.38,853.95,852.62,851.75,851.53,851.82,852.30,851.93,850.75,849.77,849.26,848.69,848.18,847.31,846.42,846.02,845.51,846.34,847.64,848.81,849.88,850.91,851.94,852.86,853.52,854.18,853.75,852.62,851.27,850.01,848.97,848.15,847.50,846.87,846.57,846.39,846.10,845.34,843.67,841.48,839.50,838.20,837.49,837.13,837.71
448.24,449.09,450.00,450.89,451.79,452.69,453.54,454.41,455.16,455.73,456.14,456.50,456.99,457.58,458.24,458.93,459.63,460.70,461.96,463.31,464.49,464.98,465.24,465.52,466.05,466.94,467.98,469.00,469.93,470.76,471.49,472.01,472.27,472.25,472.16,472.13,472.21,472.37,472.23,472.49,472.69,472.73,473.28,474.11,475.01,475.98,477.05,478.09,479.17,480.55,482.46,484.30,486.07,487.79,489.44,490.82,492.14,493.44,494.74,496.00,497.26,498.55,499.81,501.00,502.14,503.25,504.32,505.32,506.28,507.33,508.76,510.73,513.34,516.17,519.12,521.70,523.81,525.88,528.00,531.10,535.18,539.92,544.53,549.69,555.39,561.32,566.47,571.46,576.10,579.98,582.06,581.76,580.56,579.00,577.19,575.14,573.31,571.65,570.29,569.64,569.69,570.13,571.14,573.23,575.57,577.84,579.75,581.09,582.04,583.90,586.76,590.57,595.42,601.21,607.31,613.96,621.38,628.16,633.97,639.12,643.29,645.29,645.60,645.43,644.82,643.31,642.23,642.23,644.02,647.82,651.55,655.09,658.79,662.99,668.25,674.04,680.15,686.94,694.67,701.56,707.24,713.77,721.30,727.16,736.19,745.44,753.63,760.30,767.62,773.76,780.63,789.07,795.31,799.97,804.75,809.74,813.61,816.31,817.73,818.58,819.64,821.23,823.04,825.02,827.24,829.79,833.02,836.32,839.56,842.96,847.47,851.16,853.97,856.00,857.28,858.31,859.16,859.89,860.65,861.26,862.01,862.89,863.89,865.06,866.55,868.09,869.47,870.48,871.40,872.35,873.14,873.40,873.86,874.11,874.16,874.06,873.71,873.33,872.71,871.81,870.70,869.61,868.35,867.07,865.88,864.42,862.94,861.53,859.92,857.33,854.37,852.07,850.40,848.82,847.56,847.00,846.98,847.42,848.33,849.83,851.12,851.63,850.92,850.21,849.50,848.65,847.64,847.36,848.30,849.83,851.54,853.24,854.62,855.82,856.77,857.18,857.11,856.20,854.88,853.49,852.14,850.90,849.71,848.67,848.09,847.84,847.68,847.39,846.68,845.46,843.76,841.99,840.45,839.31,837.48,835.98
447.30,448.09,449.05,449.96,450.88,451.78,452.63,453.45,454.15,454.66,455.03,455.50,456.09,456.76,457.47,458.18,458.81,459.75,460.92,462.10,462.75,462.84,463.04,463.55,464.41,465.49,466.60,467.65,468.62,469.53,470.23,470.63,470.77,470.80,470.69,470.55,470.46,470.48,470.40,470.88,471.44,471.91,472.86,473.85,474.83,475.85,476.95,478.03,479.11,480.41,482.12,483.84,485.55,487.27,488.94,490.43,491.75,493.03,494.30,495.50,496.73,497.95,499.13,500.25,501.30,502.32,503.31,504.26,505.22,506.32,507.68,509.38,511.61,514.42,517.63,520.50,522.84,525.00,527.20,530.34,534.51,539.59,544.42,549.68,555.38,561.14,565.74,570.11,574.12,577.35,578.76,577.98,576.65,575.12,573.22,570.99,569.00,567.39,566.31,566.09,566.47,567.34,568.75,570.89,573.19,575.54,577.56,579.03,580.19,582.87,586.71,591.23,595.98,601.36,607.33,614.12,621.72,627.97,632.97,636.82,639.34,640.29,640.10,639.50,638.55,637.03,636.20,637.16,639.84,644.15,649.10,653.55,657.85,662.58,668.65,675.58,682.57,689.72,697.15,703.76,709.59,716.46,724.74,732.69,742.23,750.39,757.03,763.43,770.53,776.59,783.28,791.17,796.14,800.10,803.64,806.94,809.90,811.48,811.98,812.22,812.97,814.49,816.58,819.05,821.81,824.68,828.18,831.88,835.49,838.88,842.91,846.30,848.93,850.79,852.06,853.22,854.25,855.13,855.96,856.64,857.44,858.35,859.34,860.43,861.80,863.27,864.63,865.63,866.53,867.46,868.36,869.09,869.96,870.44,870.87,871.57,872.14,872.46,872.35,871.84,871.11,870.41,869.17,867.44,865.48,863.86,862.28,860.32,857.65,854.26,851.13,848.70,846.81,845.04,843.38,842.38,841.98,842.27,843.47,845.84,848.60,850.85,851.15,850.87,850.49,849.84,848.68,848.26,849.53,851.52,853.68,855.99,857.66,858.85,859.65,859.92,859.73,858.77,857.44,856.10,854.74,853.31,851.81,850.43,849.69,849.33,849.10,848.75,847.98,846.42,844.95,843.47,841.88,840.42,837.98,835.33
446.22,447.01,448.01,449.01,449.97,450.87,451.69,452.47,453.12,453.60,453.98,454.54,455.26,455.98,456.70,457.45,458.10,458.95,459.94,460.81,460.82,460.68,460.98,461.78,462.92,464.18,465.29,466.28,467.22,468.17,468.79,469.11,469.19,469.26,469.28,469.15,468.98,468.89,468.94,469.60,470.57,471.66,472.74,473.81,474.89,475.95,476.98,478.03,479.10,480.39,482.06,483.69,485.32,486.94,488.54,490.04,491.32,492.54,493.74,494.90,496.00,497.10,498.19,499.26,500.27,501.27,502.23,503.15,504.11,505.31,506.70,508.22,509.99,512.59,515.91,519.09,521.78,524.06,526.36,529.34,533.43,539.01,544.23,549.53,555.15,560.72,564.71,568.52,571.94,574.55,575.53,574.67,573.23,571.47,569.27,566.86,564.83,563.39,562.70,562.89,563.65,564.86,566.48,568.52,570.72,573.05,575.14,576.81,578.44,581.76,586.28,591.26,595.73,600.95,607.10,614.09,621.49,627.05,630.88,633.31,634.45,634.75,634.08,633.18,632.32,631.57,631.66,633.89,637.25,641.44,647.60,652.88,657.86,663.27,670.13,678.06,685.76,693.00,699.84,706.53,713.03,720.54,729.70,739.93,747.91,753.67,758.53,764.41,771.23,777.91,784.63,791.09,795.11,798.26,800.61,802.55,805.00,805.91,806.13,806.28,806.86,808.06,810.15,812.98,816.37,819.76,823.68,827.75,831.61,834.83,837.85,840.73,843.24,845.12,846.50,847.88,849.19,850.36,851.38,852.31,853.23,854.16,855.12,856.13,857.54,859.07,860.51,861.61,862.59,863.45,864.24,865.01,865.89,866.19,866.57,867.62,868.80,869.56,870.01,870.20,870.06,869.73,868.32,865.98,863.22,861.60,860.08,857.64,854.04,850.52,847.79,845.43,843.28,841.27,839.23,837.80,837.12,837.28,838.14,840.07,843.39,847.34,849.37,850.07,850.26,850.00,849.08,848.24,849.93,852.47,854.93,857.69,859.64,860.83,861.46,861.81,862.05,861.36,860.17,858.91,857.59,856.03,854.36,852.77,851.68,850.97,850.47,849.88,848.73,846.45,844.98,843.71,842.16,840.50,838.14,835.24
445.08,445.97,446.97,447.98,449.00,449.92,450.67,451.44,452.06,452.54,453.02,453.72,454.48,455.20,455.93,456.69,457.42,458.21,458.93,459.39,459.36,459.15,459.50,460.42,461.59,462.79,463.90,464.93,465.88,466.68,467.12,467.30,467.36,467.53,467.60,467.58,467.53,467.61,468.13,469.16,470.38,471.57,472.72,473.85,474.95,476.03,477.08,478.07,479.04,480.22,481.77,483.39,484.93,486.48,488.00,489.38,490.56,491.69,492.81,493.91,495.00,496.08,497.16,498.23,499.23,500.20,501.11,501.99,502.96,504.24,505.69,507.23,508.85,510.91,514.07,517.25,519.97,522.43,524.77,527.76,531.96,537.88,543.30,548.50,553.98,559.51,563.32,566.61,569.61,571.92,572.37,571.38,569.57,567.37,565.00,562.63,560.75,559.55,559.21,559.88,561.09,562.59,564.31,566.29,568.39,570.60,572.65,574.57,577.24,580.70,585.00,589.82,594.62,600.03,606.49,613.38,619.70,624.19,626.89,628.22,628.39,628.00,626.64,625.56,625.14,625.72,627.65,631.25,635.38,639.91,646.88,652.87,659.16,666.24,673.83,681.73,689.37,696.83,704.36,712.14,719.45,727.88,737.43,745.28,750.78,754.89,758.93,764.56,771.35,778.18,784.24,788.89,792.17,794.87,796.94,798.54,800.02,800.76,800.98,801.07,801.58,803.16,805.38,808.06,811.18,814.70,818.76,822.96,827.03,830.62,833.50,835.88,837.79,839.18,840.30,841.77,843.27,844.72,846.31,847.77,848.93,849.92,850.95,851.96,853.10,854.43,855.86,857.01,858.15,859.12,859.81,860.13,860.44,860.71,861.34,862.65,864.17,865.25,866.03,866.53,866.58,866.12,864.77,862.68,860.07,857.65,855.29,852.76,849.98,847.19,844.64,842.08,839.46,836.90,834.36,832.77,832.11,832.35,833.25,834.98,837.53,840.73,844.05,846.52,848.01,848.59,848.12,846.80,848.59,851.38,853.82,856.47,858.94,860.66,861.78,862.80,863.75,863.62,862.74,861.51,860.12,858.77,857.33,855.76,854.21,852.59,851.21,849.60,847.05,844.85,843.36,842.08,840.61,838.79,836.71,834.34
443.97,444.92,445.88,446.92,448.03,449.01,449.73,450.42,451.00,451.55,452.16,452.93,453.67,454.41,455.14,455.90,456.58,457.22,457.69,457.93,457.99,457.89,458.34,459.31,460.40,461.50,462.57,463.58,464.45,465.09,465.36,465.45,465.52,465.74,465.86,465.93,466.14,466.74,467.74,469.03,470.41,471.71,472.73,473.74,474.77,475.84,476.93,477.91,478.86,479.96,481.37,482.94,484.39,485.83,487.22,488.43,489.58,490.68,491.76,492.84,493.93,495.00,496.08,497.15,498.16,499.11,499.99,500.86,501.86,503.21,504.69,506.23,507.82,509.55,512.31,515.25,518.00,520.63,523.19,526.27,530.41,536.19,541.92,546.98,552.01,557.12,561.02,564.15,566.86,568.81,568.91,567.77,565.72,563.33,561.03,558.81,557.00,555.91,555.80,556.79,558.27,560.09,562.08,564.10,566.17,568.31,570.51,572.98,576.45,580.12,584.24,588.85,593.83,599.42,606.11,612.62,617.44,620.74,622.06,622.31,621.81,620.60,618.83,618.11,618.71,620.71,624.13,628.87,633.89,639.25,647.09,654.18,661.44,669.23,677.29,685.23,693.07,700.98,709.21,717.77,725.60,733.99,742.70,748.74,752.85,756.27,760.13,765.74,771.99,778.00,782.93,786.26,788.84,791.16,793.12,794.59,795.35,795.82,795.97,796.09,796.66,798.51,800.98,803.72,806.73,810.20,814.11,818.76,823.46,826.79,829.31,831.00,832.31,833.42,834.16,835.57,837.32,839.20,841.06,842.84,844.29,845.50,846.60,847.63,848.74,849.95,851.22,852.31,853.42,854.24,854.69,854.77,855.01,855.66,856.71,858.18,859.70,860.81,861.67,862.24,862.24,861.57,859.62,857.09,854.88,852.68,850.46,848.28,846.16,843.90,841.17,838.12,835.03,832.34,829.72,828.03,827.26,827.43,828.34,829.99,832.03,834.57,838.13,841.71,844.26,845.57,845.51,844.47,845.99,848.70,851.53,854.07,856.79,859.28,861.32,862.75,864.08,864.33,863.76,862.68,861.35,860.06,858.47,856.50,854.45,852.18,850.19,848.00,845.01,842.88,841.28,839.84,838.31,836.44,834.58,832.64
442.88,443.85,444.76,445.87,447.06,448.12,448.85,449.43,449.98,450.62,451.37,452.14,452.85,453.59,454.35,455.05,455.54,455.92,456.23,456.46,456.62,456.82,457.42,458.35,459.31,460.31,461.30,462.21,462.93,463.42,463.55,463.59,463.69,463.93,464.13,464.34,464.90,466.25,467.66,469.06,470.51,471.88,472.66,473.41,474.31,475.38,476.52,477.55,478.55,479.61,480.83,482.33,483.70,484.99,486.19,487.24,488.43,489.56,490.65,491.75,492.83,493.91,494.99,496.05,497.06,498.00,498.89,499.78,500.82,502.21,503.69,505.23,506.86,508.51,510.74,513.31,516.08,518.84,521.75,524.97,528.85,533.98,540.07,544.99,549.36,553.65,557.72,561.03,563.59,565.17,565.13,563.87,561.78,559.50,557.45,555.41,553.63,552.58,552.57,553.65,555.19,557.31,559.71,561.90,564.05,566.24,568.81,572.07,575.98,579.97,584.13,588.56,593.50,599.10,605.78,611.70,614.87,616.86,616.67,615.92,615.00,613.06,611.24,611.39,613.43,616.81,621.23,626.85,632.96,639.62,648.32,656.63,664.33,671.85,680.18,688.36,696.73,705.32,714.09,722.80,730.83,738.32,745.05,750.37,754.32,757.92,762.10,767.75,772.89,777.25,780.75,783.27,785.15,787.12,789.02,790.50,790.92,791.02,791.03,791.22,791.98,793.92,796.71,799.79,803.00,806.39,809.94,815.13,820.57,823.16,825.04,825.95,826.77,827.89,828.37,829.65,831.68,833.99,835.68,837.41,839.10,840.61,841.84,843.07,844.44,845.69,846.73,847.67,848.55,849.02,849.16,849.26,849.93,851.23,852.78,854.27,855.56,856.46,857.15,857.57,857.34,856.43,853.45,849.95,848.17,847.16,845.90,844.25,842.25,840.15,837.03,833.47,830.09,827.68,825.36,823.60,822.57,822.53,823.36,824.98,826.92,829.18,832.19,836.16,839.31,841.12,841.36,841.27,842.28,844.70,848.17,850.77,853.55,856.88,860.12,861.78,863.11,863.51,863.20,862.35,861.17,859.78,857.70,854.99,852.46,849.85,847.54,845.31,842.84,840.72,838.94,837.26,835.54,833.67,831.89,830.13
441.73,442.74,443.79,444.94,446.15,447.23,448.00,448.56,449.14,449.80,450.53,451.30,452.01,452.75,453.44,453.86,454.03,454.32,454.67,454.98,455.25,455.68,456.40,457.34,458.30,459.18,460.01,460.73,461.27,461.60,461.67,461.71,461.83,462.13,462.63,463.37,464.44,465.91,467.38,468.82,470.09,471.05,471.73,472.49,473.53,474.78,476.01,477.05,478.06,479.08,480.18,481.46,482.74,483.91,485.00,486.06,487.23,488.38,489.52,490.69,491.78,492.83,493.88,494.95,495.96,496.94,497.84,498.73,499.78,501.18,502.74,504.39,506.11,507.84,509.90,512.31,515.00,517.75,520.63,523.89,527.45,531.47,537.39,542.21,546.25,549.93,553.29,556.62,559.47,561.29,561.16,559.98,558.21,556.23,554.25,552.21,550.77,550.06,550.13,550.95,552.12,554.19,556.84,559.47,562.01,564.63,567.68,571.43,575.60,579.82,584.10,588.55,593.38,598.26,604.12,609.34,611.87,612.34,611.43,610.25,609.10,607.63,606.44,607.41,610.42,614.75,619.61,626.31,634.12,642.47,651.09,658.75,666.08,673.74,682.57,691.25,700.04,709.22,718.63,726.02,734.24,741.12,745.86,750.35,754.44,758.59,763.10,768.03,771.88,774.76,777.03,778.78,780.13,781.71,783.58,785.35,786.09,786.06,786.02,786.32,787.36,789.49,792.40,795.90,799.83,803.57,806.98,810.96,815.16,818.24,819.82,820.54,821.24,822.42,823.92,825.81,827.77,829.41,830.13,831.09,832.25,833.68,835.61,837.98,840.08,841.66,842.67,843.55,844.21,844.66,844.93,845.15,845.90,847.22,848.76,850.21,851.46,852.26,852.72,852.76,852.13,850.94,848.47,845.60,843.75,842.94,841.39,838.91,835.77,833.21,830.65,828.03,825.45,823.15,820.87,819.07,817.95,817.75,818.40,819.88,821.56,823.58,826.93,831.21,834.32,835.97,836.39,836.57,837.85,840.14,843.23,846.45,849.87,853.74,857.67,860.47,861.66,861.96,861.76,861.04,859.67,858.17,856.13,853.48,850.59,847.60,844.87,842.44,840.25,838.27,836.43,834.62,832.73,830.70,828.65,826.69
440.61,441.71,442.87,444.05,445.25,446.34,447.16,447.75,448.37,449.03,449.72,450.44,451.18,451.85,452.32,452.45,452.40,452.65,453.08,453.54,453.97,454.62,455.42,456.31,457.22,457.99,458.69,459.28,459.71,459.96,460.02,460.06,460.25,460.75,461.50,462.61,463.98,465.44,466.87,468.25,469.29,469.94,470.63,471.56,472.76,474.12,475.41,476.53,477.55,478.52,479.50,480.55,481.69,482.77,483.77,484.86,486.02,487.19,488.37,489.57,490.70,491.76,492.79,493.85,494.85,495.86,496.82,497.81,498.98,500.43,502.19,504.05,505.86,507.67,509.68,511.96,514.50,517.10,519.88,523.00,526.20,529.38,534.38,539.17,543.22,546.40,549.15,552.13,554.76,556.56,556.74,555.85,554.54,553.03,551.41,549.70,548.58,548.13,548.33,548.94,549.78,551.69,554.41,557.31,560.15,563.29,566.90,571.03,575.37,579.71,584.06,588.43,592.87,596.95,601.47,605.39,607.21,607.04,606.08,604.98,603.93,603.03,602.31,603.96,607.95,613.56,619.09,626.78,635.68,644.76,652.97,659.99,667.22,675.34,684.65,693.41,702.66,712.19,721.10,727.36,734.89,740.98,744.71,748.68,753.03,757.91,762.85,766.82,769.52,771.17,772.41,773.62,774.93,776.48,778.32,780.14,781.01,780.74,780.54,780.96,782.43,785.14,788.32,792.15,796.64,800.94,804.33,807.26,810.11,812.91,814.05,814.64,815.37,816.76,819.44,822.24,824.23,825.12,825.05,825.25,825.88,827.17,829.56,832.73,835.50,837.48,838.62,839.49,840.04,840.45,840.82,841.20,842.02,843.25,844.59,845.85,847.00,847.77,848.11,847.95,847.20,845.95,843.86,841.26,838.83,837.65,835.81,832.99,829.45,826.57,824.27,822.32,820.46,818.28,816.07,814.39,813.33,813.01,813.38,814.48,816.00,818.19,821.89,826.02,828.79,830.22,830.83,831.58,833.51,836.01,838.82,842.33,846.09,850.17,854.31,857.67,858.73,858.92,858.76,858.18,856.87,855.67,854.10,851.77,848.49,845.17,842.25,839.79,837.80,835.94,834.10,832.14,830.02,827.72,825.41,823.28
439.62,440.85,442.03,443.25,444.41,445.46,446.31,446.94,447.61,448.27,448.90,449.55,450.33,450.83,450.99,450.83,450.74,451.00,451.51,452.18,452.84,453.67,454.50,455.27,456.00,456.70,457.36,457.93,458.36,458.60,458.65,458.74,459.06,459.90,460.81,461.96,463.31,464.75,466.09,467.26,468.12,468.70,469.54,470.76,472.09,473.41,474.73,476.00,477.04,477.94,478.80,479.62,480.60,481.58,482.54,483.63,484.83,486.02,487.18,488.36,489.56,490.68,491.74,492.75,493.77,494.78,495.87,497.08,498.51,500.08,502.15,504.32,506.21,508.14,510.13,512.25,514.55,516.92,519.53,522.31,525.11,527.91,531.24,535.98,540.34,543.25,545.79,547.98,549.69,550.97,551.87,551.52,550.76,549.89,549.00,548.08,547.15,546.79,547.15,547.75,548.46,550.22,552.83,555.70,558.59,562.27,566.46,570.89,575.28,579.65,583.91,588.00,591.77,595.13,597.87,599.78,600.58,600.91,600.53,599.95,599.41,598.92,598.49,600.71,605.82,613.19,619.81,628.27,637.30,645.70,653.31,660.20,667.86,676.74,686.44,694.66,704.30,713.80,720.76,726.51,732.29,737.33,741.35,745.22,749.86,755.53,760.96,763.92,765.71,766.42,766.93,767.96,769.85,771.82,773.59,774.99,775.56,774.81,774.34,774.86,776.97,780.76,784.50,788.57,793.27,798.22,801.72,804.25,806.16,807.48,807.90,808.32,809.16,810.97,814.61,818.35,820.49,820.84,820.46,820.11,820.43,821.66,824.11,827.42,830.63,833.06,834.47,835.39,835.93,836.24,836.51,837.07,838.05,839.21,840.29,841.18,842.12,842.89,843.25,843.11,842.58,841.52,839.30,836.18,832.78,830.78,828.97,826.78,824.07,821.22,818.47,816.48,814.93,812.93,810.97,809.57,808.68,808.29,808.30,808.74,810.27,813.13,816.95,820.37,822.54,823.75,824.67,826.57,829.48,832.56,835.50,838.74,842.36,846.23,850.01,852.87,853.82,853.98,853.84,853.45,852.63,852.25,851.49,849.64,845.96,842.50,839.73,837.51,835.63,833.84,831.99,829.88,827.42,824.80,822.35,820.18
439.36,440.55,441.80,443.03,443.92,444.65,445.38,446.00,446.65,447.29,447.91,448.57,449.20,449.59,449.70,449.57,449.48,449.74,450.30,451.08,451.82,452.57,453.30,454.02,454.71,455.37,456.03,456.64,457.08,457.26,457.32,457.57,458.15,459.11,460.08,461.26,462.55,463.79,464.98,466.02,466.88,467.65,468.75,470.09,471.46,472.82,474.16,475.40,476.32,477.07,477.83,478.61,479.49,480.38,481.32,482.44,483.63,484.82,486.01,487.17,488.36,489.54,490.66,491.72,492.81,494.01,495.37,496.84,498.31,499.83,502.05,504.53,506.86,509.06,510.88,512.79,514.97,517.22,519.26,521.51,523.95,526.45,529.08,532.87,536.88,540.38,543.19,545.13,546.66,547.93,548.70,548.61,548.24,547.80,547.25,546.50,545.68,545.46,545.96,546.59,547.81,549.88,552.50,555.31,558.03,561.70,566.05,570.72,575.01,579.18,583.12,586.83,590.24,593.01,594.64,595.34,595.30,595.15,594.50,593.90,593.69,594.01,595.61,599.44,605.54,613.81,621.74,630.45,639.05,646.73,653.80,661.01,669.08,678.21,688.12,695.78,704.28,712.57,718.75,724.03,729.31,734.01,737.91,741.68,746.20,751.51,756.55,759.38,760.34,760.49,760.98,762.52,764.79,767.01,768.35,768.75,768.69,767.28,766.65,767.47,770.27,775.05,780.28,785.19,789.72,794.43,798.00,800.62,802.39,803.15,803.34,803.48,804.34,806.57,809.90,812.80,814.28,814.37,813.97,813.59,813.93,815.38,818.44,822.57,825.96,828.58,830.38,831.26,831.65,831.84,832.06,832.67,833.75,835.00,836.20,837.20,838.01,838.44,838.41,837.88,836.87,835.18,833.06,830.58,827.82,825.71,823.96,822.00,819.48,816.44,813.31,811.10,809.59,807.90,806.31,805.18,804.37,803.78,803.40,803.37,804.80,807.92,811.78,814.76,815.95,816.50,818.29,821.79,825.35,828.80,832.20,835.64,839.15,842.50,845.28,846.64,847.47,847.82,847.94,848.02,848.02,848.10,847.52,845.75,842.55,839.79,837.40,835.26,833.35,831.63,829.57,827.20,824.57,821.90,819.70,817.72
439.21,440.32,441.57,442.67,443.29,443.78,444.41,445.03,445.65,446.26,446.88,447.53,448.01,448.34,448.50,448.42,448.39,448.72,449.33,450.12,450.81,451.39,452.03,452.72,453.40,454.04,454.71,455.36,455.83,455.96,456.09,456.54,457.38,458.38,459.39,460.55,461.74,462.82,463.89,464.93,465.93,466.97,468.26,469.64,471.04,472.41,473.61,474.62,475.37,476.02,476.74,477.53,478.38,479.23,480.15,481.25,482.42,483.62,484.83,486.02,487.22,488.44,489.64,490.78,491.98,493.38,494.98,496.66,498.21,499.74,502.44,505.53,508.05,510.23,511.82,513.51,515.50,517.49,518.95,520.60,522.59,524.87,527.15,530.04,533.57,537.45,540.62,542.67,544.29,545.57,546.11,546.16,546.06,545.89,545.59,544.93,544.24,544.16,544.83,545.76,547.52,549.83,552.41,555.12,557.69,561.20,565.52,570.31,574.41,578.18,581.68,584.91,587.78,589.83,590.64,590.56,589.98,589.55,588.88,588.54,588.93,590.39,594.07,599.56,606.56,615.11,624.12,632.90,640.96,648.04,654.60,662.25,670.71,679.82,689.33,696.52,703.72,710.62,716.17,720.99,726.01,730.69,734.71,738.36,742.64,747.34,751.59,753.85,754.11,753.94,754.59,756.69,759.22,761.43,762.18,761.49,760.35,758.30,757.62,758.95,762.76,768.38,774.92,780.92,785.82,790.13,793.58,796.09,797.65,798.17,798.35,798.64,799.99,802.93,805.93,807.75,808.42,808.25,807.81,807.52,808.05,809.74,813.04,817.37,820.93,823.91,826.21,827.14,827.43,827.55,827.78,828.46,829.61,830.91,832.22,833.37,834.05,834.13,833.58,832.46,831.03,829.15,827.34,825.49,823.33,821.06,819.08,817.08,814.70,811.39,808.00,805.63,804.14,802.66,801.40,800.47,799.75,799.13,798.62,798.42,799.82,803.07,807.01,809.40,809.66,809.70,812.20,816.69,820.80,824.75,828.81,832.63,836.06,838.78,840.44,840.52,841.12,841.49,841.77,842.26,842.98,843.53,843.08,841.39,838.93,836.91,834.90,832.84,830.89,829.12,826.93,824.45,821.84,819.28,817.29,815.45
438.95,439.96,441.06,441.73,442.22,442.76,443.43,444.06,444.67,445.26,445.83,446.43,446.81,447.16,447.39,447.34,447.45,447.95,448.63,449.30,449.75,450.18,450.74,451.42,452.05,452.72,453.41,454.08,454.60,454.73,455.01,455.69,456.71,457.72,458.79,459.85,460.91,461.98,463.01,464.25,465.57,466.88,468.20,469.57,470.99,472.27,473.02,473.51,474.11,474.79,475.52,476.41,477.27,478.16,479.08,480.06,481.24,482.43,483.64,484.93,486.22,487.47,488.72,490.01,491.32,492.90,494.62,496.39,498.18,499.88,503.83,507.98,510.13,511.62,512.96,514.41,515.99,517.46,518.50,519.51,520.88,523.04,525.23,527.74,530.75,534.26,537.75,540.35,542.17,543.34,543.85,543.93,543.92,543.88,543.77,543.32,542.87,542.93,543.82,545.59,547.60,549.79,552.17,554.75,557.31,560.59,564.73,569.43,573.20,576.36,579.27,581.89,583.71,584.72,584.97,584.66,584.04,584.13,584.33,585.01,586.60,589.64,594.63,601.42,609.20,617.19,626.84,635.53,643.14,649.81,655.93,664.04,672.86,681.62,689.68,696.51,702.84,708.56,713.26,717.59,722.23,727.15,731.92,735.51,739.53,743.60,746.69,747.23,746.98,746.78,747.65,750.09,752.72,754.46,754.45,752.67,749.83,747.30,746.82,749.02,754.43,760.63,767.71,774.90,781.28,785.29,788.33,790.15,791.03,791.46,791.93,793.22,795.93,800.10,803.28,804.39,804.34,803.71,803.09,802.90,803.82,805.69,808.31,811.39,815.18,818.93,821.86,823.04,823.40,823.55,823.87,824.73,825.91,827.12,828.35,829.50,830.04,829.89,828.73,826.84,825.47,824.56,823.32,821.55,819.14,816.38,813.56,811.25,809.19,805.60,802.13,799.83,798.40,796.85,795.78,794.94,794.38,794.15,793.94,794.08,795.66,798.96,803.05,804.45,804.13,804.13,806.74,810.89,815.50,820.33,825.25,829.58,832.96,834.96,835.62,835.25,835.45,835.45,835.55,836.21,837.29,838.45,838.41,836.98,835.34,833.73,831.95,830.06,828.15,826.10,823.97,821.74,819.39,817.18,815.15,813.17
438.24,439.16,440.04,440.63,441.18,441.78,442.46,443.08,443.67,444.25,444.80,445.25,445.62,445.97,446.22,446.30,446.63,447.23,447.90,448.51,448.91,449.30,449.76,450.28,450.80,451.43,452.09,452.75,453.31,453.49,453.93,454.78,455.93,457.07,458.22,459.29,460.34,461.51,462.71,464.02,465.39,466.76,468.08,469.36,470.56,471.53,471.97,472.34,472.89,473.60,474.43,475.31,476.23,477.16,478.11,479.12,480.21,481.40,482.66,483.98,485.29,486.55,487.85,489.26,490.74,492.46,494.23,496.02,497.87,500.00,504.88,509.57,511.19,512.40,513.40,514.36,515.35,516.37,517.25,518.17,519.35,521.07,523.07,525.38,528.04,531.11,534.45,537.24,539.37,540.83,541.56,541.78,541.83,541.83,541.79,541.60,541.46,541.98,543.36,545.35,547.38,549.52,551.82,554.36,556.83,559.70,563.37,567.77,571.22,573.93,576.03,577.50,578.24,578.68,578.85,578.94,579.18,579.88,581.14,583.43,586.86,590.89,596.69,603.89,611.65,619.37,629.34,637.98,645.36,651.86,657.84,666.08,674.71,682.66,689.24,695.10,700.33,705.19,709.83,714.06,718.22,722.73,727.66,732.39,736.41,739.52,741.39,741.41,740.89,740.78,741.78,744.25,747.01,747.47,745.42,741.62,738.16,736.48,738.15,742.54,748.81,755.20,762.35,769.13,774.87,779.53,783.05,784.86,785.47,785.97,786.95,789.20,792.78,797.29,800.48,801.06,800.12,798.58,797.69,797.75,799.61,802.40,805.07,807.77,810.92,814.20,817.06,818.48,819.00,819.30,819.81,821.03,822.30,823.53,824.56,825.22,825.50,825.02,823.57,821.42,819.71,818.95,817.87,816.15,813.71,810.73,807.47,804.94,803.25,800.68,797.47,794.70,792.50,790.66,789.63,789.00,788.75,788.92,789.10,789.75,791.36,794.19,797.92,799.09,798.90,799.06,801.38,805.08,811.01,817.20,822.39,826.47,829.62,831.19,831.32,830.63,830.26,830.01,829.87,830.04,831.02,832.44,833.03,832.49,831.49,830.08,828.41,826.62,824.73,822.68,820.57,818.41,816.35,814.80,812.91,809.05
437.36,438.20,438.88,439.50,440.13,440.79,441.49,442.10,442.65,443.21,443.73,444.05,444.42,444.77,445.08,445.34,445.86,446.51,447.17,447.75,448.15,448.54,448.92,449.29,449.70,450.25,450.83,451.44,452.03,452.30,452.89,453.86,455.08,456.32,457.55,458.71,459.88,461.19,462.55,463.86,465.17,466.52,467.81,468.96,469.90,470.54,470.78,471.13,471.70,472.46,473.38,474.27,475.26,476.24,477.21,478.27,479.30,480.47,481.75,483.07,484.38,485.64,486.99,488.52,490.16,492.00,493.87,495.71,497.66,500.33,505.67,510.41,511.54,512.50,513.19,513.72,514.22,514.92,515.75,516.75,517.88,519.16,520.88,522.92,525.25,527.96,530.99,533.82,536.18,537.92,538.81,539.20,539.39,539.51,539.57,539.61,540.07,541.24,543.08,545.07,547.06,549.13,551.37,553.86,556.25,558.69,561.82,565.71,568.84,571.15,572.50,573.00,572.95,573.04,573.25,573.82,575.04,576.53,578.84,582.64,587.83,592.84,599.30,606.55,614.05,621.77,631.76,640.28,647.50,653.89,659.85,667.78,675.69,682.55,687.93,693.03,697.65,702.14,706.71,710.66,714.13,717.99,722.71,728.23,732.54,734.94,735.70,735.29,734.82,734.97,736.12,738.40,740.82,739.53,735.51,730.42,727.36,727.22,731.02,737.17,744.07,751.01,758.13,764.11,768.63,773.32,776.92,778.73,779.44,780.51,782.57,785.82,789.89,794.17,796.95,796.99,795.38,793.18,792.07,792.42,795.06,798.77,802.06,804.78,807.26,809.81,812.29,813.77,814.43,814.91,815.71,817.28,818.63,819.84,820.62,820.75,820.75,819.95,818.30,816.01,813.88,812.98,811.98,810.42,808.07,805.07,801.57,798.76,797.12,795.68,792.90,789.79,786.89,784.72,783.57,783.14,783.24,783.78,784.42,785.53,787.12,789.35,792.42,793.45,793.64,794.30,796.76,800.51,807.52,814.57,819.71,823.48,826.37,827.61,827.38,826.37,825.47,824.92,824.49,824.13,824.80,826.22,827.40,827.88,827.49,826.28,824.66,822.79,820.77,818.80,816.78,814.47,812.05,810.60,808.44,803.13
436.39,437.15,437.78,438.40,439.06,439.77,440.50,441.07,441.62,442.10,442.50,442.81,443.19,443.61,444.05,444.55,445.13,445.80,446.47,447.04,447.44,447.82,448.18,448.51,448.91,449.33,449.75,450.23,450.79,451.27,451.96,452.92,454.11,455.34,456.58,457.98,459.50,461.02,462.32,463.52,464.75,466.00,467.18,468.19,468.92,469.36,469.55,469.85,470.53,471.42,472.37,473.40,474.46,475.49,476.49,477.51,478.57,479.67,480.85,482.16,483.47,484.73,486.14,487.81,489.50,491.47,493.54,495.65,497.94,501.25,506.06,509.94,510.77,511.21,511.72,512.20,512.67,513.36,514.24,515.28,516.42,517.55,518.83,520.22,522.14,524.78,527.50,530.22,532.50,534.10,534.84,535.36,535.99,536.56,536.84,536.99,538.77,540.89,542.81,544.75,546.69,548.65,550.74,553.09,555.37,557.61,560.20,563.26,566.03,567.85,568.88,569.31,569.30,569.27,569.49,570.24,571.97,574.70,577.84,582.43,588.68,595.05,602.16,609.23,616.45,624.71,634.13,642.32,649.37,655.62,661.65,668.33,674.50,679.89,684.91,690.24,695.84,701.03,704.91,707.72,710.06,713.06,717.08,721.43,726.57,729.27,729.26,727.70,727.93,728.79,730.14,731.85,732.69,728.98,724.27,720.66,719.85,722.19,726.40,732.08,739.52,748.33,755.55,760.90,764.37,766.56,768.43,769.78,771.21,774.13,778.68,783.04,786.97,790.17,791.56,790.88,789.29,787.52,786.44,787.00,789.56,793.60,798.41,801.64,804.06,806.15,807.92,809.09,809.64,810.39,811.61,813.36,814.74,815.75,816.23,816.06,815.81,814.84,813.01,810.49,808.02,806.86,806.06,804.93,802.87,800.13,796.66,793.31,790.79,789.77,787.61,784.96,782.21,779.73,778.24,777.86,778.20,779.06,780.31,781.65,783.14,784.88,786.84,787.40,788.08,789.96,794.15,799.43,806.12,812.29,816.95,820.94,823.52,824.48,824.04,822.63,821.32,820.31,819.52,818.99,819.15,820.21,821.69,823.06,823.30,822.46,820.75,818.45,815.88,813.95,812.29,809.34,804.78,801.51,797.87,793.77
435.35,436.10,436.69,437.33,438.06,438.81,439.48,440.04,440.58,441.07,441.52,441.90,442.32,442.72,443.18,443.81,444.45,445.11,445.74,446.28,446.67,447.06,447.40,447.74,448.12,448.51,448.87,449.29,449.83,450.37,451.06,451.99,453.13,454.39,455.83,457.41,459.01,460.55,461.76,462.94,464.15,465.35,466.37,467.13,467.67,468.05,468.41,468.90,469.69,470.63,471.62,472.69,473.74,474.75,475.73,476.77,477.82,478.88,480.01,481.25,482.46,483.47,484.75,486.50,488.31,490.37,492.56,494.79,497.10,499.97,503.22,505.93,507.28,508.02,509.09,510.11,510.94,511.78,512.72,513.76,514.85,515.90,516.83,517.89,519.39,521.46,523.63,526.27,528.67,530.41,531.06,531.56,532.34,533.28,534.30,535.94,538.60,541.01,542.81,544.63,546.42,548.20,550.07,552.14,554.30,556.41,558.61,560.95,563.22,564.79,565.80,566.37,566.58,566.70,567.22,568.41,570.68,574.22,578.38,583.72,590.28,596.89,604.47,611.49,618.42,626.76,635.81,643.62,650.27,655.99,661.30,666.43,671.50,676.76,682.77,688.83,694.41,699.15,702.52,704.62,706.19,708.21,711.03,714.36,718.18,720.06,719.66,717.66,717.64,719.43,721.16,721.42,720.19,717.35,714.63,713.10,713.94,717.58,722.33,727.77,734.53,743.81,751.77,756.81,758.65,759.39,760.48,762.13,764.77,769.37,775.05,779.86,783.58,785.97,786.44,785.41,783.92,782.46,781.55,782.41,785.10,789.06,793.66,797.39,800.18,802.32,803.85,804.71,805.24,806.17,807.60,809.36,810.68,811.46,811.71,811.42,811.00,810.01,808.04,805.11,801.92,800.21,799.28,798.41,796.92,794.59,791.99,789.31,786.92,785.66,783.84,781.23,778.19,775.56,773.45,773.02,773.70,774.92,776.16,777.19,778.27,779.49,780.61,781.04,781.91,784.70,790.99,797.71,803.82,809.29,814.09,818.30,820.52,821.07,820.29,818.58,817.23,816.17,815.34,814.74,814.43,814.95,815.87,816.81,817.10,816.50,815.00,813.00,810.92,809.20,807.44,803.83,798.05,793.95,791.33,789.03
434.27,435.03,435.61,436.31,437.11,437.85,438.45,439.01,439.56,440.11,440.64,441.11,441.56,441.94,442.39,443.08,443.78,444.42,445.00,445.49,445.88,446.26,446.61,446.94,447.32,447.70,448.06,448.49,449.03,449.58,450.22,451.07,452.17,453.45,455.13,456.80,458.40,459.88,461.06,462.28,463.50,464.61,465.40,465.94,466.37,466.81,467.41,468.15,469.01,469.95,470.95,472.01,473.02,474.00,474.97,476.03,477.06,478.11,479.18,480.28,481.29,482.00,483.10,484.91,486.83,488.93,491.12,493.34,495.52,497.65,499.32,500.94,502.79,504.03,505.69,507.33,508.74,509.97,511.10,512.16,513.20,514.19,514.85,515.72,516.88,518.34,519.99,522.46,524.92,526.81,527.51,528.12,529.10,530.41,532.27,535.50,538.75,541.20,542.84,544.52,546.13,547.72,549.35,551.10,553.09,555.09,556.97,558.72,560.49,561.89,562.93,563.67,564.15,564.60,565.69,567.50,570.27,574.53,579.66,585.56,592.09,598.61,606.53,613.61,620.31,628.40,637.06,644.46,650.59,655.55,659.83,663.59,668.06,673.79,681.00,687.62,692.67,696.48,699.27,700.91,702.02,703.21,704.83,707.06,708.87,709.66,709.14,707.28,707.00,709.64,711.77,710.78,708.08,706.97,706.69,707.14,709.17,713.33,718.44,723.73,729.31,737.77,745.95,750.73,751.39,751.43,752.53,755.05,759.10,765.01,771.26,776.16,779.61,781.37,781.30,780.21,778.94,777.82,777.13,778.37,781.28,785.03,788.88,792.84,796.01,798.39,799.88,800.45,801.00,802.06,803.62,805.31,806.48,807.00,807.04,806.70,806.20,805.22,803.14,799.83,795.87,793.60,792.48,791.84,791.04,789.36,787.74,785.96,783.91,782.10,780.31,777.67,774.45,771.59,768.75,768.05,768.86,770.26,771.19,771.73,772.45,773.42,774.08,774.71,776.07,779.78,787.66,795.25,801.05,806.28,811.44,815.58,817.35,817.39,816.25,814.43,813.19,812.26,811.51,810.88,810.22,810.10,810.13,810.18,810.27,809.80,808.68,807.23,805.78,803.91,801.34,797.00,791.05,787.43,786.84,786.29
433.18,433.89,434.57,435.42,436.19,436.86,437.43,438.02,438.62,439.22,439.80,440.31,440.69,441.12,441.68,442.37,443.06,443.70,444.24,444.65,445.04,445.38,445.73,446.10,446.48,446.81,447.29,447.83,448.38,448.98,449.51,450.22,451.22,452.59,454.24,455.90,457.48,458.96,460.35,461.66,462.81,463.66,464.18,464.65,465.25,465.99,466.78,467.60,468.45,469.33,470.24,471.25,472.21,473.20,474.25,475.27,476.32,477.33,478.28,479.15,479.75,480.26,481.29,483.10,485.02,487.04,489.01,490.93,492.85,494.63,495.95,497.13,498.45,499.74,501.15,502.96,505.17,507.37,509.10,510.41,511.47,512.32,512.81,513.57,514.66,516.08,517.65,519.53,521.56,523.38,524.47,525.91,527.52,529.38,531.76,535.17,538.51,541.03,542.64,544.21,545.68,547.09,548.47,549.88,551.62,553.43,555.12,556.58,557.97,559.20,560.12,560.79,561.47,562.48,564.74,567.56,570.59,575.79,581.42,587.33,593.61,600.38,608.43,615.78,622.51,629.76,637.79,644.69,650.14,654.07,657.36,660.67,665.50,672.06,679.39,685.30,689.32,692.03,693.90,695.36,696.54,697.62,698.61,699.32,699.64,699.77,699.60,698.95,699.66,702.57,704.88,704.55,703.04,702.26,702.50,703.81,706.26,709.73,714.51,719.56,723.86,728.86,734.62,738.89,740.68,741.33,743.88,748.22,753.77,759.98,766.53,771.24,774.25,775.71,775.77,775.13,774.42,773.81,773.41,775.18,778.33,781.97,785.43,788.69,791.77,794.31,795.88,796.27,796.82,797.97,799.58,801.19,802.02,802.17,802.00,801.68,801.30,800.21,798.04,794.66,790.27,787.79,786.74,786.49,786.47,786.00,784.69,782.89,780.69,778.05,775.60,773.30,770.76,767.23,763.64,762.05,762.09,763.05,763.41,763.56,764.55,766.25,767.29,768.90,772.14,777.28,784.44,791.13,797.78,804.18,809.63,812.71,813.75,813.19,811.71,810.29,809.29,808.53,807.85,807.18,806.54,805.71,804.86,804.19,803.91,803.45,802.78,801.78,800.02,796.66,791.42,786.07,782.41,782.53,784.14,784.44
432.14,432.88,433.68,434.53,435.24,435.85,436.43,437.04,437.64,438.26,438.87,439.34,439.79,440.33,440.96,441.65,442.35,442.99,443.48,443.81,444.16,444.50,444.87,445.25,445.64,446.05,446.59,447.19,447.77,448.35,448.87,449.49,450.38,451.74,453.36,454.98,456.54,458.05,459.64,460.94,461.89,462.53,463.09,463.70,464.43,465.25,466.10,466.95,467.80,468.65,469.52,470.44,471.43,472.46,473.53,474.57,475.53,476.45,477.32,478.08,478.49,479.01,479.94,481.41,483.19,485.13,487.03,488.81,490.39,491.79,493.09,494.39,495.77,497.21,498.62,500.26,502.29,504.74,506.66,508.11,509.30,510.33,510.86,511.50,512.56,514.15,515.88,517.65,519.53,521.35,522.82,524.66,526.58,528.61,531.02,534.40,537.81,540.43,542.12,543.57,544.95,546.24,547.49,548.75,550.13,551.53,552.86,554.06,555.21,556.39,557.44,558.34,559.32,561.05,564.12,567.66,571.28,577.17,582.82,588.56,594.89,602.25,610.21,617.48,624.11,630.79,638.15,643.95,648.19,651.22,654.40,658.06,663.69,670.84,676.95,680.90,683.08,684.47,685.92,688.08,689.71,690.95,691.79,691.93,691.74,691.50,691.28,691.22,692.30,694.61,696.63,697.31,697.45,697.51,698.45,700.54,703.52,706.84,710.91,715.08,718.54,721.77,725.12,727.73,729.14,730.22,736.19,743.19,749.60,755.11,761.23,765.62,768.40,769.75,769.90,769.61,769.22,768.91,769.07,771.41,774.82,778.51,781.93,784.76,787.47,789.90,791.61,792.03,792.65,794.01,795.73,796.92,797.40,797.12,796.59,796.13,795.57,794.44,792.57,789.62,785.22,782.43,781.10,780.97,781.89,782.45,781.42,779.49,777.00,773.93,770.76,768.39,766.22,762.54,757.73,755.04,754.50,755.40,755.25,754.96,756.14,758.82,761.32,764.35,768.97,774.96,781.87,788.68,796.14,802.73,807.21,809.25,809.70,808.92,807.50,806.42,805.61,804.94,804.30,803.57,802.70,800.82,798.86,797.28,796.18,795.55,794.53,792.87,790.39,787.56,783.55,779.86,777.98,779.22,781.59,782.42
431.17,431.97,432.87,433.64,434.27,434.84,435.45,436.07,436.63,437.24,437.86,438.31,438.89,439.56,440.25,440.94,441.64,442.28,442.72,442.95,443.27,443.64,444.03,444.42,444.84,445.37,445.95,446.56,447.17,447.72,448.26,448.86,449.64,450.92,452.47,454.04,455.59,457.16,458.82,460.05,460.85,461.39,462.15,462.95,463.74,464.54,465.39,466.24,467.09,467.94,468.79,469.65,470.67,471.74,472.80,473.83,474.67,475.49,476.32,477.05,477.44,478.10,478.93,479.95,481.48,483.29,485.18,486.91,488.20,489.34,490.78,492.44,494.18,495.79,497.31,498.63,500.03,502.22,504.06,505.58,506.95,508.28,508.95,509.60,510.73,512.53,514.49,516.42,518.32,520.16,521.94,523.89,525.89,527.89,530.08,533.27,536.68,539.48,541.37,542.72,544.02,545.24,546.40,547.59,548.63,549.56,550.49,551.45,552.42,553.57,554.85,556.20,557.69,560.15,563.74,567.82,572.21,578.50,583.91,589.47,596.05,604.12,611.79,618.80,625.31,631.57,637.82,642.10,644.95,647.31,651.02,655.62,662.09,669.31,673.60,675.19,675.38,675.51,676.77,679.70,681.81,683.31,684.29,684.42,684.27,683.89,683.57,683.91,685.02,686.42,687.97,689.64,691.35,692.48,694.26,697.15,700.98,704.46,707.75,710.88,713.71,716.11,717.46,718.14,718.59,720.21,729.61,739.09,746.06,750.44,755.66,759.69,762.39,763.73,763.93,763.77,763.40,763.16,764.08,767.17,770.94,774.78,778.31,780.94,783.16,785.27,787.02,787.58,788.48,790.12,791.88,792.52,792.70,792.05,791.18,790.51,789.64,788.53,787.02,784.60,780.39,777.22,775.42,775.23,776.94,778.28,777.57,775.60,772.83,769.56,765.76,763.05,760.97,757.44,751.67,747.98,746.88,747.74,747.20,746.49,747.91,751.79,756.26,760.72,766.43,773.09,780.04,787.31,795.00,800.95,803.90,805.16,805.04,804.12,802.88,801.92,801.10,800.32,799.53,798.68,797.51,794.78,792.04,789.88,788.09,787.25,785.70,783.21,780.27,778.86,777.70,776.59,775.87,776.63,778.79,779.70
430.37,431.17,432.02,432.71,433.29,433.86,434.48,435.10,435.65,436.22,436.81,437.42,438.13,438.84,439.54,440.23,440.93,441.56,441.94,442.06,442.42,442.80,443.19,443.61,444.17,444.75,445.33,445.92,446.53,447.13,447.68,448.31,449.11,450.17,451.60,453.13,454.69,456.25,457.57,458.73,459.77,460.69,461.52,462.27,463.03,463.82,464.67,465.52,466.37,467.22,468.07,468.93,469.95,470.98,471.94,472.85,473.64,474.46,475.29,476.03,476.59,477.37,478.26,479.21,480.34,481.84,483.47,485.07,486.54,488.03,489.68,491.47,493.31,494.90,496.25,497.45,498.67,500.17,501.71,503.32,504.90,506.23,507.07,508.22,509.75,511.61,513.55,515.49,517.40,519.30,521.14,523.07,525.06,526.99,528.93,531.63,534.86,537.94,540.38,541.70,542.96,544.10,545.13,546.13,547.04,547.90,548.68,549.36,550.04,550.98,552.38,554.35,557.01,559.84,563.70,568.25,573.24,579.40,584.65,590.29,597.22,605.65,612.81,619.62,626.21,631.94,635.38,637.77,639.72,642.04,646.85,653.10,659.70,665.49,668.39,668.73,668.20,667.88,668.57,670.55,672.42,674.07,675.29,675.53,675.51,675.38,675.66,677.13,678.44,679.65,681.13,683.11,685.08,687.03,689.60,693.41,699.14,702.63,705.74,708.63,710.72,711.98,712.66,713.05,713.81,717.00,725.27,734.69,742.49,746.23,750.20,753.97,756.78,758.00,758.17,757.53,756.53,755.99,757.77,762.35,766.90,770.90,774.44,777.05,778.93,780.44,781.64,782.49,784.21,786.08,787.53,787.96,788.05,787.40,786.53,785.77,784.90,783.77,782.02,779.29,775.22,771.68,769.51,769.05,770.54,772.07,772.00,770.54,767.85,764.31,760.18,757.11,754.75,751.31,746.76,742.96,740.89,740.85,740.30,739.37,741.40,746.93,753.14,758.07,765.00,773.01,779.92,786.40,792.13,796.26,798.38,799.68,798.80,797.25,795.65,794.13,792.53,790.89,789.38,788.14,787.00,785.12,783.53,782.55,781.67,781.06,780.05,778.65,777.14,776.06,775.17,774.29,773.52,773.46,774.80,774.43
429.67,430.39,431.12,431.75,432.34,432.91,433.51,434.12,434.70,435.30,435.94,436.64,437.40,438.13,438.82,439.51,440.18,440.81,441.17,441.23,441.55,441.96,442.42,442.92,443.51,444.13,444.72,445.30,445.92,446.51,447.08,447.78,448.64,449.69,451.07,452.57,454.07,455.51,456.69,457.86,459.02,460.06,460.90,461.62,462.34,463.11,463.96,464.81,465.62,466.44,467.29,468.19,469.15,470.13,471.07,471.90,472.70,473.52,474.32,475.09,475.86,476.73,477.66,478.58,479.50,480.74,482.21,483.82,485.49,487.21,488.96,490.76,492.52,493.98,495.25,496.46,497.69,498.94,500.32,501.89,503.53,504.96,506.13,507.63,509.34,511.15,512.99,514.84,516.68,518.52,520.33,522.24,524.18,526.09,527.98,530.29,533.33,536.39,538.94,540.44,541.69,542.76,543.72,544.61,545.47,546.30,547.04,547.66,548.25,549.23,550.83,553.20,556.47,559.70,563.90,568.86,574.31,580.31,585.53,591.31,598.46,606.89,613.48,619.55,625.35,629.98,631.65,633.10,635.06,638.10,643.31,650.10,656.08,660.16,661.60,661.03,659.92,659.35,660.16,662.06,664.21,666.25,667.81,668.28,668.37,668.37,668.93,670.93,672.38,673.56,674.90,676.72,678.98,681.59,684.89,689.70,697.17,701.30,704.37,706.63,707.52,707.86,708.02,708.27,709.41,713.53,721.26,729.66,736.83,741.03,745.01,748.58,751.11,751.86,750.91,749.47,748.52,748.79,751.45,756.94,762.50,767.18,770.61,773.30,775.18,776.40,777.12,777.88,779.83,781.66,782.82,783.12,783.16,782.52,781.57,780.57,779.45,778.13,776.28,773.66,770.05,766.67,764.23,763.45,764.99,766.43,766.50,764.78,761.25,757.27,753.68,750.91,748.48,745.24,741.58,738.07,735.65,734.96,734.38,733.86,737.01,744.17,751.45,756.66,764.26,772.94,779.50,784.83,788.01,789.79,790.58,790.86,789.87,788.58,787.33,786.04,784.67,783.23,781.91,780.92,780.14,779.08,778.28,777.88,777.48,776.94,776.24,775.45,774.66,773.75,772.91,771.75,770.21,769.06,768.76,767.15
429.01,429.61,430.18,430.79,431.39,431.99,432.55,433.17,433.79,434.48,435.23,435.93,436.69,437.42,438.11,438.79,439.41,440.02,440.37,440.42,440.68,441.16,441.73,442.32,442.88,443.48,444.09,444.71,445.32,445.88,446.49,447.26,448.25,449.42,450.82,452.28,453.68,454.93,456.16,457.38,458.50,459.46,460.25,460.96,461.66,462.40,463.23,464.06,464.82,465.58,466.45,467.39,468.23,469.17,470.19,471.02,471.86,472.66,473.44,474.24,475.19,476.13,477.07,477.98,478.87,479.93,481.34,483.07,484.89,486.68,488.46,490.19,491.78,493.08,494.38,495.69,497.01,498.38,499.73,501.21,502.78,504.38,505.95,507.61,509.29,510.96,512.67,514.39,516.10,517.82,519.54,521.43,523.32,525.24,527.23,529.28,532.11,534.88,537.16,538.95,540.24,541.27,542.19,543.05,543.90,544.71,545.48,546.23,546.98,548.22,550.09,552.67,556.11,559.76,564.35,569.66,575.39,581.27,586.64,592.59,599.75,607.89,613.73,618.51,622.71,625.89,626.91,628.48,631.29,635.52,640.41,646.56,651.16,653.33,653.31,652.13,650.75,650.27,651.70,654.22,657.01,659.56,661.50,662.37,662.58,662.60,663.14,665.09,666.51,667.76,668.99,670.49,673.25,676.50,680.59,686.39,695.06,700.22,703.19,704.45,703.96,703.51,703.13,703.30,704.88,709.44,717.27,724.24,729.78,734.88,739.49,742.74,744.71,745.00,742.60,740.54,740.25,742.00,745.48,751.37,757.90,763.45,766.72,769.47,771.55,772.79,773.19,773.55,775.23,776.78,777.72,777.92,777.95,777.29,776.20,774.90,773.42,771.87,770.07,767.76,764.57,761.55,758.92,757.89,759.73,760.94,760.73,758.28,753.58,749.25,746.68,744.58,742.25,739.23,736.03,733.09,730.92,729.93,729.34,729.76,734.34,742.87,750.62,756.12,763.93,772.59,778.51,782.53,783.24,782.72,782.00,780.76,780.12,779.69,779.25,778.76,778.32,777.83,777.35,776.97,776.72,776.25,775.75,775.30,774.88,774.30,773.52,772.58,771.55,770.49,769.49,767.81,765.23,763.09,761.08,758.74
