605.13,605.24,605.21,605.10,604.93,604.73,604.40,603.94,603.33,602.67,601.88,601.04,600.04,598.64,596.99,595.33,593.72,592.22,590.88,589.77,589.19,589.13,589.19,589.14,589.08,589.15,589.48,589.85,590.19,590.11,589.51,588.93,588.37,588.23,588.63,589.58,590.56,591.54,592.48,593.34,593.97,594.39,594.74,595.09,595.47,595.84,596.20,596.57,596.90,596.86,596.45,595.94,595.45,594.91,594.35,593.72,593.06,592.53,592.02,591.54,591.13,590.84,590.74,590.76,590.89,591.18,591.76,592.44,593.10,593.49,593.31,592.65,591.87,591.01,589.88,588.00,585.39,582.69,580.69,580.57,580.57,580.73,580.92,580.88,579.99,578.53,576.99,576.35,578.48,579.96,580.83,581.42,581.98,582.27,582.39,582.51,582.73,583.10,583.49,583.88,584.27,584.73,585.03,585.33,585.44,585.15,584.69,584.01,583.21,582.37,581.55,580.79,580.24,579.99,580.17,580.46,580.92,581.39,581.60,581.18,580.61,579.91,579.12,578.25,577.42,576.81,576.24,575.66,575.50,575.22,574.60,573.52,571.95,570.45,569.23,568.36,567.91,567.38,566.89,566.46,566.09,565.72,564.30,562.40,560.51,559.28,559.38,560.21,561.26,562.18,563.11,564.00,564.64,564.92,564.86,564.85,564.85,564.85,564.71,563.67,562.15,560.57,559.26,558.57,558.43,558.53,559.07,560.61,562.41,564.28,566.17,568.03,569.77,571.19,572.48,573.67,574.62,575.31,576.35,577.73,579.11,580.71,581.90,582.64,582.90,582.69,582.19,581.38,580.23,578.84,578.46,579.47,581.33,583.45,585.56,587.65,589.59,591.29,592.79,594.02,595.08,596.02,596.93,597.71,598.42,598.95,599.15,598.93,597.60,595.55,593.12,590.75,588.83,587.51,586.57,585.94,586.28,586.16,585.75,585.24,584.73,584.27,583.91,583.50,582.67,581.05,579.32,577.57,575.74,573.80,572.85,572.55,572.73,573.41,574.27,575.43,576.85,578.32,579.24,580.74,582.55,584.25,584.98,585.31,585.44,585.39,585.12,584.57,583.69,582.67,581.78,581.41,581.18,581.04,581.03,581.10
606.35,606.42,606.39,606.30,606.15,605.88,605.50,604.98,604.32,603.57,602.80,601.99,601.03,599.73,598.16,596.60,595.07,593.57,592.17,591.00,590.33,590.13,590.19,590.09,590.00,590.04,590.37,590.82,591.30,591.24,590.44,589.59,588.88,588.65,588.98,589.87,590.88,591.82,592.73,593.63,594.44,595.01,595.41,595.73,596.09,596.47,596.81,597.13,597.42,597.33,596.89,596.37,595.87,595.34,594.89,594.33,593.71,593.25,592.78,592.32,591.92,591.69,591.67,591.75,591.92,592.19,592.63,593.26,593.91,594.18,593.54,592.65,591.71,590.75,589.65,587.94,585.70,583.44,581.81,581.78,581.75,581.89,581.98,581.67,580.70,579.27,577.69,576.95,579.04,580.25,580.97,581.58,582.24,582.69,582.92,583.08,583.25,583.62,584.00,584.41,584.81,585.18,585.46,585.73,585.83,585.54,584.95,584.19,583.38,582.58,581.84,581.12,580.63,580.53,580.97,581.45,581.92,582.33,582.49,581.95,581.28,580.59,579.90,579.25,578.66,578.27,577.89,577.33,576.96,576.55,575.99,575.16,573.96,572.55,571.15,569.94,569.16,568.71,568.23,567.79,567.51,567.30,565.72,563.61,561.43,559.64,559.61,560.43,561.45,562.35,563.28,564.20,565.00,565.53,565.62,565.63,565.63,565.61,565.39,564.13,562.52,560.87,559.49,559.16,559.46,559.59,559.79,561.28,563.02,564.87,566.76,568.65,570.30,571.69,572.98,574.26,575.56,576.71,577.92,579.24,580.68,582.15,583.34,584.18,584.55,584.39,583.93,583.14,581.97,580.40,579.48,579.84,581.31,583.66,586.01,588.32,590.48,592.41,594.09,595.56,596.78,597.84,598.84,599.68,600.35,600.85,601.08,600.92,599.70,597.84,595.61,593.32,591.27,589.87,588.88,588.07,587.98,587.55,587.00,586.50,585.99,585.45,584.91,584.21,582.91,581.12,579.47,577.91,576.30,574.62,573.83,573.69,574.06,574.84,575.66,576.68,577.92,579.27,580.31,582.15,584.00,585.22,585.56,585.67,585.63,585.45,585.11,584.54,583.68,582.82,582.22,582.00,581.75,581.70,581.87,582.05
607.57,607.61,607.57,607.49,607.35,607.01,606.56,605.99,605.26,604.46,603.78,602.94,601.90,600.72,599.31,597.88,596.44,594.99,593.63,592.53,591.80,591.48,591.53,591.37,591.24,591.29,591.60,592.04,592.50,592.33,591.30,590.09,589.23,589.02,589.40,590.23,591.25,592.18,593.07,593.98,594.83,595.55,596.05,596.36,596.68,597.05,597.39,597.70,597.93,597.83,597.41,596.88,596.35,595.83,595.56,595.13,594.55,594.07,593.59,593.12,592.73,592.57,592.68,592.83,593.02,593.26,593.54,594.07,594.71,594.81,593.64,592.54,591.48,590.46,589.32,587.61,585.81,584.19,583.07,583.00,582.93,583.04,582.90,582.11,581.05,579.78,578.33,577.57,579.50,580.44,581.08,581.71,582.39,583.00,583.39,583.62,583.78,584.14,584.52,584.94,585.34,585.59,585.89,586.15,586.21,585.89,585.20,584.40,583.61,582.89,582.33,581.82,581.57,581.58,581.87,582.35,582.83,583.13,583.06,582.43,581.75,581.14,580.63,580.30,580.01,579.77,579.41,578.80,578.04,577.29,576.55,575.83,575.23,574.30,573.06,571.65,570.38,570.05,569.60,569.19,569.04,568.95,567.62,565.78,563.54,560.73,560.23,560.80,561.69,562.57,563.48,564.41,565.29,566.01,566.34,566.40,566.40,566.37,566.07,564.63,562.99,561.37,560.04,559.85,560.47,560.80,560.97,562.24,563.87,565.60,567.39,569.22,570.74,572.09,573.40,574.70,576.02,577.32,578.59,579.99,581.74,583.39,584.71,585.68,586.23,586.14,585.71,584.91,583.71,582.14,581.10,580.84,581.75,584.25,586.76,589.17,591.41,593.43,595.23,596.99,598.45,599.64,600.71,601.57,602.15,602.54,602.67,602.23,601.23,599.73,597.78,595.47,593.20,591.83,591.04,590.28,589.56,588.84,588.20,587.66,587.15,586.51,585.79,584.83,583.19,581.29,579.56,578.02,576.67,575.48,574.85,574.85,575.41,576.25,577.05,577.99,579.12,580.44,581.67,583.50,584.94,585.54,585.92,585.93,585.69,585.34,584.98,584.43,583.65,583.04,582.88,582.65,582.37,582.43,582.83,583.11
608.75,608.78,608.76,608.68,608.48,608.11,607.59,606.95,606.20,605.46,604.77,603.86,602.78,601.75,600.61,599.26,597.81,596.39,595.18,594.13,593.40,593.07,593.16,593.03,592.95,592.98,593.17,593.56,593.62,592.98,591.61,590.32,589.44,589.31,589.82,590.70,591.67,592.60,593.51,594.42,595.27,596.08,596.64,596.95,597.26,597.59,597.94,598.24,598.35,598.24,597.91,597.46,596.92,596.46,596.54,596.33,595.75,595.14,594.57,594.00,593.62,593.59,593.76,593.93,594.13,594.36,594.60,594.99,595.45,595.36,593.97,592.59,591.29,590.15,589.02,587.39,585.88,584.79,584.21,584.17,584.10,584.06,583.66,582.58,581.44,580.21,578.77,577.91,579.66,580.56,581.20,581.84,582.53,583.15,583.69,584.09,584.34,584.67,585.04,585.42,585.75,585.99,586.28,586.54,586.57,586.19,585.55,584.89,584.26,583.66,583.12,582.69,582.56,582.66,582.87,583.24,583.71,583.90,583.56,582.94,582.34,581.79,581.36,581.11,580.87,580.67,580.27,579.48,578.68,577.86,577.09,576.42,575.93,575.27,574.39,573.16,571.60,571.33,571.05,570.79,570.68,570.51,569.80,568.79,567.15,564.07,562.49,561.81,561.92,562.86,563.74,564.66,565.57,566.41,567.00,567.16,567.19,567.17,566.95,565.69,564.09,562.51,561.24,560.62,561.38,562.06,562.52,563.76,565.22,566.73,568.28,569.82,571.21,572.54,573.83,575.11,576.47,577.79,579.17,580.76,582.72,584.61,586.10,587.21,587.87,587.92,587.66,586.97,585.88,584.61,583.49,582.62,582.86,585.18,587.66,590.01,592.21,594.27,596.25,598.19,600.03,601.65,602.83,603.65,604.10,604.28,604.08,603.18,602.04,600.71,599.01,596.71,594.87,593.72,592.88,591.86,590.75,589.75,588.94,588.29,587.62,586.90,586.13,585.32,584.28,582.32,580.17,578.38,577.26,576.42,575.92,575.88,576.34,577.23,578.10,579.12,580.32,581.72,583.02,584.36,585.34,585.83,586.28,586.12,585.73,585.30,584.88,584.42,583.98,583.67,583.53,583.30,583.01,583.15,583.74,584.22
610.00,610.03,610.02,609.92,609.64,609.20,608.59,607.89,607.17,606.54,605.75,604.87,603.98,603.13,602.05,600.68,599.22,597.86,596.75,595.75,595.02,594.70,594.82,594.78,594.75,594.77,594.86,595.05,594.55,593.41,591.83,590.45,589.74,589.94,590.84,591.98,592.86,593.68,594.37,594.91,595.75,596.59,597.20,597.55,597.85,598.15,598.48,598.73,598.75,598.62,598.39,598.00,597.54,597.38,597.66,597.56,597.00,596.31,595.63,594.91,594.46,594.55,594.75,594.95,595.16,595.40,595.66,595.94,596.16,595.82,594.33,592.81,591.35,590.04,588.87,587.51,586.37,585.65,585.34,585.31,585.26,584.94,584.18,582.92,581.70,580.48,579.11,578.28,579.78,580.65,581.30,581.94,582.62,583.25,583.89,584.44,584.85,585.19,585.54,585.86,586.14,586.40,586.68,586.95,587.01,586.67,586.13,585.58,585.04,584.50,584.00,583.62,583.57,583.73,583.90,584.17,584.55,584.60,584.10,583.54,582.99,582.50,582.11,581.88,581.64,581.31,580.73,579.82,579.06,578.30,577.56,576.90,576.39,575.85,575.17,574.04,572.32,572.46,572.56,572.42,572.16,571.86,571.42,570.86,569.75,567.26,565.18,563.61,562.84,563.25,564.07,564.98,565.89,566.76,567.49,567.83,567.94,567.97,567.85,566.84,565.43,564.00,562.73,561.70,562.31,563.21,564.06,565.25,566.53,567.83,569.14,570.47,571.75,573.01,574.27,575.52,576.87,578.18,579.69,581.51,583.74,585.85,587.52,588.81,589.66,589.88,589.74,589.15,588.19,587.09,585.83,584.50,584.23,586.26,588.58,590.79,592.93,595.01,597.11,599.29,601.56,603.63,604.97,605.75,606.04,605.94,605.33,604.09,602.77,601.43,599.89,597.86,596.38,595.27,594.23,592.99,591.66,590.43,589.44,588.71,587.94,587.16,586.40,585.73,585.13,583.61,581.22,579.08,578.03,577.41,577.00,576.91,577.24,578.09,579.02,580.15,581.48,582.93,584.14,585.03,585.68,586.14,586.55,586.29,585.86,585.44,585.01,584.68,584.49,584.35,584.17,583.93,583.65,583.81,584.43,585.04
611.36,611.40,611.35,611.20,610.85,610.28,609.56,608.83,608.20,607.74,606.80,606.07,605.56,604.88,603.64,602.20,600.77,599.47,598.34,597.36,596.65,596.33,596.46,596.54,596.56,596.57,596.59,596.41,595.27,593.72,592.11,590.63,590.32,591.11,592.59,594.14,594.96,595.56,595.75,595.55,596.28,597.07,597.72,598.18,598.44,598.74,599.00,599.16,599.15,599.01,598.85,598.54,598.22,598.60,598.90,598.76,598.21,597.50,596.73,595.80,595.25,595.45,595.61,595.87,596.13,596.37,596.66,596.91,596.87,596.24,594.70,593.22,591.70,590.26,589.02,588.10,587.40,586.87,586.50,586.43,586.40,585.72,584.57,583.16,581.81,580.54,579.36,578.75,579.91,580.71,581.36,582.00,582.69,583.33,583.99,584.66,585.27,585.68,586.01,586.29,586.55,586.84,587.09,587.37,587.52,587.37,586.94,586.42,585.88,585.36,584.90,584.62,584.61,584.77,584.94,585.16,585.35,585.23,584.71,584.22,583.70,583.24,582.88,582.63,582.36,581.71,580.82,579.88,579.21,578.56,577.88,577.20,576.59,576.04,575.35,574.20,572.55,573.45,574.02,573.94,573.42,572.96,572.35,571.66,570.86,569.68,567.92,566.10,564.58,563.84,564.47,565.36,566.25,567.08,567.78,568.38,568.67,568.76,568.72,567.99,566.95,565.75,564.43,563.14,563.27,564.20,565.45,566.57,567.68,568.83,570.03,571.26,572.45,573.64,574.83,576.03,577.26,578.55,580.20,582.30,584.83,587.12,588.99,590.53,591.64,592.05,591.93,591.39,590.52,589.39,587.90,586.33,585.78,587.41,589.46,591.51,593.56,595.64,597.75,600.29,603.01,605.49,607.04,607.79,607.89,607.47,606.46,605.05,603.57,602.10,600.62,599.04,597.72,596.41,595.07,593.70,592.30,590.87,589.72,588.95,588.19,587.41,586.69,586.06,585.57,584.94,582.63,580.19,579.01,578.44,578.07,577.95,578.18,578.90,579.86,581.13,582.59,584.01,584.97,585.58,586.07,586.49,586.73,586.48,586.13,585.78,585.41,585.20,585.08,584.97,584.79,584.52,584.27,584.38,584.89,585.51
612.72,612.76,612.68,612.46,612.02,611.34,610.59,609.91,609.40,609.03,608.40,607.85,607.34,606.56,605.33,604.24,603.10,601.67,600.19,599.07,598.33,598.01,598.14,598.31,598.35,598.25,597.99,597.39,596.07,594.47,592.93,591.80,592.22,593.38,594.81,596.24,597.22,597.69,597.60,597.02,596.94,597.53,598.23,598.78,599.07,599.34,599.52,599.61,599.54,599.40,599.28,599.19,599.23,599.72,600.13,599.94,599.25,598.40,597.50,596.63,596.22,596.50,596.59,596.76,596.99,597.23,597.49,597.73,597.69,597.04,595.41,593.88,592.35,591.01,590.02,589.38,588.75,588.16,587.71,587.58,587.40,586.88,585.75,583.87,582.09,580.65,579.55,579.11,580.03,580.74,581.39,582.07,582.76,583.43,584.12,584.81,585.48,586.05,586.42,586.71,586.98,587.25,587.52,587.79,587.97,587.94,587.73,587.27,586.75,586.25,585.76,585.60,585.65,585.82,586.01,586.20,586.17,585.89,585.40,584.89,584.39,584.00,583.66,583.13,582.47,581.62,580.70,579.82,579.09,578.38,577.64,576.87,576.21,575.64,574.87,574.00,573.59,574.41,574.81,574.75,574.36,573.82,573.12,572.33,571.48,570.54,569.28,567.92,566.56,565.41,565.15,565.71,566.53,567.35,568.05,568.76,569.26,569.55,569.61,569.25,568.56,567.58,566.26,564.79,564.26,564.85,566.23,567.51,568.59,570.03,571.56,572.75,574.00,575.25,576.29,577.10,578.11,579.25,581.09,583.50,586.07,588.55,590.75,592.60,593.90,594.30,593.99,593.30,592.34,591.06,589.58,588.05,587.29,588.30,590.13,592.09,594.08,596.12,598.16,600.98,604.21,607.19,608.86,609.36,609.29,608.74,607.62,606.18,604.76,603.37,601.89,600.09,598.56,597.14,595.75,594.34,592.78,591.08,589.78,589.06,588.33,587.57,586.92,586.37,585.87,585.39,583.79,581.86,580.43,579.55,579.12,578.95,579.10,579.80,580.83,582.18,583.60,584.75,585.47,586.00,586.46,586.86,587.00,586.80,586.49,586.18,585.85,585.63,585.51,585.40,585.24,585.08,584.93,585.01,585.39,585.98
614.08,614.10,613.99,613.69,613.14,612.41,611.69,611.08,610.64,610.33,609.96,609.51,608.96,608.23,607.28,606.54,605.62,604.14,602.49,601.13,600.20,599.80,599.95,600.09,600.02,599.73,599.17,598.27,596.87,595.29,593.90,593.41,594.41,595.75,597.04,598.24,599.20,599.59,599.37,598.60,597.91,598.17,598.80,599.42,599.75,599.97,600.09,600.10,600.02,599.92,599.91,600.01,600.28,600.78,601.19,600.93,600.09,599.15,598.16,597.44,597.23,597.58,597.62,597.70,597.85,598.07,598.30,598.50,598.49,597.89,596.26,594.68,593.11,591.84,591.08,590.59,589.99,589.38,588.89,588.67,588.36,587.99,587.03,585.04,582.95,581.22,579.98,579.49,580.16,580.82,581.49,582.18,582.86,583.55,584.24,584.95,585.66,586.37,586.80,587.14,587.43,587.67,587.96,588.22,588.40,588.46,588.41,588.06,587.61,587.13,586.68,586.60,586.70,586.88,587.06,587.15,586.93,586.54,586.08,585.57,585.09,584.65,584.14,583.35,582.38,581.42,580.51,579.69,578.91,578.13,577.32,576.50,575.78,575.17,574.48,574.05,574.51,575.07,575.29,575.24,575.00,574.49,573.74,572.85,571.89,570.94,570.07,569.13,568.05,566.83,565.95,566.23,566.92,567.68,568.39,569.18,569.84,570.30,570.46,570.44,570.02,569.18,567.88,566.34,565.23,565.48,566.92,568.37,569.69,571.55,573.40,574.57,575.80,577.02,577.92,578.50,579.40,580.53,582.48,585.01,587.60,590.27,592.79,594.90,596.24,596.49,595.92,595.04,593.93,592.51,591.05,589.61,588.74,589.24,590.76,592.59,594.52,596.48,598.46,601.29,604.88,608.35,610.06,610.46,610.33,609.80,608.82,607.52,606.20,604.91,603.45,601.29,599.37,597.77,596.31,594.76,593.04,591.17,589.78,589.10,588.41,587.78,587.29,586.88,586.30,585.77,584.74,583.31,581.74,580.76,580.36,580.28,580.48,581.12,581.87,583.07,584.36,585.22,585.78,586.27,586.75,587.15,587.28,587.13,586.86,586.57,586.27,586.03,585.88,585.78,585.67,585.61,585.55,585.63,585.93,586.48
615.43,615.41,615.25,614.88,614.21,613.51,612.89,612.34,611.88,611.61,611.24,610.73,610.21,609.89,609.53,609.00,608.13,606.80,605.38,603.71,602.39,601.76,601.92,601.86,601.51,600.92,600.10,599.13,597.69,596.11,594.96,595.38,596.54,597.85,599.08,600.06,600.62,600.97,600.82,600.00,599.32,599.13,599.49,600.15,600.51,600.66,600.70,600.69,600.63,600.67,600.87,601.09,601.32,601.75,602.00,601.60,600.68,599.75,598.75,598.23,598.24,598.67,598.73,598.69,598.75,598.92,599.13,599.25,599.24,598.73,597.23,595.63,593.96,592.66,591.96,591.48,591.00,590.51,590.06,589.69,589.30,588.91,588.19,586.77,584.71,582.54,580.84,580.00,580.38,581.00,581.68,582.35,582.99,583.68,584.38,585.10,585.86,586.62,587.18,587.59,587.88,588.12,588.42,588.68,588.85,588.92,588.91,588.76,588.44,588.01,587.69,587.63,587.76,587.94,588.00,587.91,587.57,587.14,586.73,586.25,585.77,585.07,584.16,583.19,582.19,581.19,580.27,579.49,578.72,577.90,577.09,576.30,575.49,574.79,574.50,574.61,574.99,575.30,575.52,575.53,575.24,574.93,574.16,573.18,572.13,571.16,570.40,569.59,568.65,567.65,566.84,567.02,567.56,568.16,568.86,569.72,570.46,571.00,571.27,571.46,571.17,570.38,569.10,567.63,566.15,566.22,567.73,569.28,571.22,573.51,575.55,576.71,577.82,578.80,579.59,580.28,581.31,582.64,584.55,586.92,589.57,592.37,595.16,597.42,598.60,598.49,597.70,596.62,595.34,593.82,592.35,590.97,590.13,590.39,591.43,593.05,594.88,596.74,598.64,601.07,604.79,608.66,610.33,610.94,610.94,610.62,610.05,609.10,607.88,606.68,605.26,602.79,600.29,598.38,596.74,594.88,593.05,591.13,589.75,589.11,588.45,588.13,587.95,587.68,587.01,586.34,585.44,584.18,582.69,582.07,581.94,582.16,582.62,583.04,582.98,583.67,584.74,585.37,585.87,586.38,586.88,587.31,587.58,587.45,587.22,586.96,586.66,586.42,586.24,586.15,586.13,586.12,586.11,586.21,586.52,587.07
616.75,616.71,616.46,616.01,615.35,614.66,613.99,613.45,613.07,612.67,612.18,611.63,611.11,610.77,610.56,610.25,609.73,608.90,607.82,606.21,604.67,603.69,603.76,603.41,602.78,601.97,601.03,600.03,598.63,597.17,596.23,597.00,598.22,599.39,600.42,601.28,601.75,602.08,601.95,601.14,600.51,600.26,600.46,600.96,601.25,601.33,601.32,601.33,601.47,601.63,601.86,602.12,602.38,602.74,602.88,602.40,601.46,600.49,599.53,599.14,599.27,599.73,599.86,599.85,599.85,599.90,600.04,600.17,600.14,599.75,598.65,597.03,595.12,593.84,593.51,593.09,592.67,592.25,591.79,591.19,590.59,590.00,589.32,588.31,586.47,584.59,582.77,581.32,581.07,581.28,581.82,582.51,583.17,583.87,584.59,585.34,586.10,586.84,587.51,587.99,588.29,588.57,588.83,589.08,589.25,589.33,589.37,589.33,589.15,588.88,588.71,588.70,588.76,588.81,588.77,588.56,588.16,587.73,587.29,586.64,585.93,585.06,584.06,583.05,582.01,580.99,580.07,579.30,578.57,577.78,577.01,576.27,575.52,574.98,574.85,575.03,575.36,575.64,575.80,575.72,575.38,575.09,574.37,573.40,572.34,571.37,570.66,569.98,569.21,568.29,567.62,567.84,568.33,568.86,569.53,570.40,571.30,572.01,572.31,572.55,572.07,571.08,569.75,568.20,567.24,567.61,569.21,571.29,573.68,575.90,577.81,579.39,581.24,582.01,582.51,583.16,583.79,585.01,586.81,589.09,591.81,594.65,597.34,599.37,600.26,600.09,599.28,598.10,596.66,595.12,593.61,592.51,591.91,591.94,592.33,593.67,595.37,597.13,598.86,601.25,604.63,608.17,610.20,611.05,611.41,611.37,610.87,610.20,609.39,608.47,607.08,604.40,601.62,599.41,597.56,595.66,593.77,591.57,589.95,589.27,588.87,588.73,588.65,588.43,587.75,586.88,585.77,584.48,583.27,583.01,583.42,583.97,584.35,584.35,584.17,584.53,585.18,585.62,586.05,586.49,586.97,587.46,587.83,587.76,587.54,587.31,587.05,586.85,586.70,586.65,586.69,586.69,586.69,586.78,587.07,587.73
618.07,618.02,617.68,617.13,616.47,615.73,615.02,614.52,614.17,613.62,613.02,612.44,611.91,611.47,611.26,611.10,610.87,610.46,609.69,608.31,606.77,605.58,605.39,604.72,603.85,602.88,601.86,600.83,599.51,598.25,597.61,598.47,599.64,600.66,601.51,602.31,602.77,603.11,602.98,602.23,601.67,601.38,601.45,601.78,601.96,602.02,602.02,602.10,602.39,602.64,602.88,603.14,603.45,603.74,603.78,603.25,602.31,601.36,600.43,600.13,600.34,600.79,601.00,601.08,601.07,601.04,601.11,601.23,601.16,600.80,599.93,598.30,596.20,595.01,595.14,594.91,594.55,594.14,593.63,592.86,592.08,591.31,590.60,589.84,588.30,586.73,584.81,582.81,581.93,581.74,582.07,582.66,583.36,584.06,584.81,585.58,586.34,587.06,587.82,588.36,588.69,588.99,589.25,589.49,589.69,589.79,589.88,589.91,589.88,589.78,589.74,589.78,589.75,589.65,589.47,589.17,588.72,588.24,587.67,586.82,585.90,584.93,583.93,582.92,581.86,580.84,579.94,579.19,578.50,577.76,577.03,576.33,575.71,575.36,575.29,575.44,575.75,576.06,576.08,575.85,575.45,575.11,574.43,573.53,572.52,571.58,570.92,570.36,569.71,568.91,568.40,568.70,569.22,569.75,570.40,571.25,572.23,573.08,573.45,573.65,572.88,571.59,570.15,568.66,568.48,569.43,571.33,573.97,576.76,579.18,581.24,583.14,585.34,585.84,585.98,586.36,586.53,587.52,589.16,591.37,594.14,596.92,599.25,600.89,601.60,601.56,600.78,599.52,597.96,596.42,594.95,594.15,593.82,593.67,593.50,594.42,595.86,597.48,599.08,601.49,604.50,607.61,609.99,611.06,611.79,612.04,611.57,611.13,610.66,610.02,608.80,606.21,603.22,600.75,598.72,596.81,594.81,592.38,590.51,589.71,589.42,589.53,589.55,589.25,588.48,587.44,586.09,584.75,583.82,583.80,584.59,585.37,585.70,585.40,585.20,585.31,585.59,585.91,586.29,586.67,587.12,587.62,588.04,588.05,587.87,587.64,587.42,587.30,587.24,587.24,587.29,587.31,587.31,587.36,587.59,588.30
619.44,619.33,618.91,618.26,617.49,616.56,616.03,615.59,615.08,614.48,613.87,613.25,612.68,612.25,612.00,611.77,611.50,611.09,610.50,609.50,608.39,607.37,606.58,605.60,604.60,603.58,602.50,601.38,600.14,599.25,599.10,599.85,600.75,601.63,602.49,603.29,603.80,604.11,604.01,603.38,602.83,602.39,602.34,602.59,602.64,602.76,602.92,603.12,603.37,603.67,603.91,604.18,604.49,604.78,604.74,604.13,603.19,602.37,601.52,601.27,601.46,601.86,602.15,602.36,602.46,602.45,602.47,602.54,602.37,601.77,600.57,598.99,596.91,595.93,596.56,596.76,596.50,596.01,595.38,594.61,593.84,593.06,592.28,591.43,590.32,588.64,586.44,584.15,582.90,582.56,582.57,582.87,583.56,584.25,585.00,585.77,586.54,587.30,588.08,588.67,589.08,589.38,589.69,589.98,590.25,590.43,590.52,590.64,590.73,590.77,590.82,590.84,590.76,590.54,590.14,589.77,589.24,588.54,587.67,586.71,585.77,584.80,583.80,582.79,581.78,580.81,579.95,579.26,578.62,577.93,577.20,576.51,576.07,575.79,575.77,575.96,576.27,576.58,576.36,575.88,575.38,574.99,574.30,573.50,572.67,571.83,571.22,570.67,570.12,569.57,569.31,569.67,570.27,570.92,571.62,572.39,573.24,574.07,574.68,574.75,573.63,571.97,570.33,569.29,569.96,571.87,574.56,577.52,580.70,584.27,587.38,589.04,590.07,590.21,589.95,589.60,589.53,590.15,591.60,593.76,596.51,599.02,600.64,601.77,602.64,603.01,602.22,600.85,599.26,597.74,596.53,595.96,595.77,595.57,595.14,595.34,596.23,597.68,599.21,601.66,604.50,607.38,609.86,611.07,612.02,612.52,612.27,611.89,611.44,610.98,610.22,608.41,605.21,602.53,600.44,598.41,596.12,593.72,591.82,590.69,590.06,590.65,590.87,590.32,589.18,588.04,586.68,585.37,584.51,584.45,585.09,585.86,586.38,586.19,585.77,585.70,585.92,586.24,586.62,587.00,587.40,587.81,588.19,588.30,588.19,587.96,587.76,587.82,587.89,587.93,587.95,588.01,588.03,587.98,588.02,588.59
620.72,620.47,619.90,619.16,618.32,617.53,616.99,616.48,615.90,615.32,614.70,614.09,613.49,612.98,612.67,612.43,612.11,611.63,611.06,610.27,609.34,608.34,607.37,606.31,605.22,604.17,603.18,602.30,601.37,600.82,600.94,601.58,602.33,603.12,603.85,604.36,604.79,605.14,605.13,604.58,604.00,603.49,603.27,603.36,603.48,603.69,603.92,604.15,604.39,604.66,604.90,605.17,605.48,605.76,605.77,605.22,604.33,603.55,602.71,602.43,602.56,602.90,603.21,603.52,603.74,603.83,603.81,603.63,602.85,601.67,600.35,598.80,597.29,596.88,597.85,598.51,598.38,597.84,597.13,596.36,595.59,594.74,593.84,592.85,591.57,589.82,587.56,585.17,583.83,583.45,583.36,583.42,583.76,584.44,585.19,585.97,586.74,587.51,588.28,588.95,589.49,589.92,590.38,590.74,591.01,591.19,591.35,591.50,591.64,591.75,591.82,591.87,591.81,591.54,590.88,590.20,589.43,588.56,587.59,586.63,585.66,584.69,583.72,582.72,581.74,580.83,579.99,579.28,578.64,578.00,577.36,576.81,576.48,576.24,576.23,576.43,576.73,576.93,576.57,575.93,575.30,574.75,574.12,573.48,572.84,572.16,571.59,571.05,570.52,570.10,570.08,570.55,571.22,571.96,572.73,573.50,574.27,575.03,575.59,575.32,574.05,572.37,570.98,570.95,572.40,574.86,578.03,581.61,585.29,588.52,591.04,592.54,593.37,593.46,593.11,592.53,592.33,592.72,594.03,596.09,598.48,600.29,601.55,602.59,603.58,604.29,603.58,602.21,600.59,599.07,598.09,597.51,597.13,596.82,596.47,596.49,597.06,598.20,599.58,601.97,604.70,607.44,609.90,611.19,612.28,612.93,612.83,612.51,612.01,611.44,610.71,609.41,606.33,603.59,601.49,599.72,597.61,595.96,595.00,594.60,593.95,593.74,593.24,592.16,590.46,588.93,587.55,586.36,585.49,585.28,585.78,586.48,587.00,586.87,586.43,586.19,586.24,586.56,586.94,587.33,587.71,588.10,588.47,588.61,588.54,588.34,588.14,588.24,588.45,588.60,588.64,588.68,588.69,588.61,588.55,588.80
621.87,621.45,620.75,619.93,619.06,618.48,617.90,617.29,616.70,616.14,615.54,614.93,614.31,613.73,613.36,613.08,612.70,612.12,611.49,610.81,609.99,609.03,608.03,606.98,605.87,604.83,604.05,603.51,602.97,602.76,603.04,603.50,604.13,604.82,605.35,605.45,605.81,606.19,606.26,605.81,605.22,604.65,604.27,604.16,604.39,604.68,604.95,605.18,605.42,605.66,605.89,606.15,606.45,606.74,606.81,606.37,605.56,604.77,603.94,603.61,603.67,603.98,604.28,604.64,604.95,605.13,605.05,604.42,602.97,601.24,599.89,598.59,597.80,597.97,599.13,600.15,600.13,599.58,598.82,598.06,597.26,596.34,595.25,593.93,592.21,590.42,588.27,585.99,584.73,584.38,584.28,584.19,584.15,584.68,585.37,586.12,586.89,587.68,588.45,589.21,589.93,590.55,591.16,591.58,591.83,592.00,592.23,592.40,592.57,592.72,592.79,592.88,592.78,592.37,591.43,590.46,589.46,588.46,587.47,586.54,585.56,584.61,583.68,582.72,581.81,580.93,580.09,579.33,578.68,578.09,577.58,577.19,576.94,576.71,576.69,576.88,577.15,577.23,576.76,576.04,575.29,574.61,574.05,573.55,573.05,572.52,571.98,571.45,570.94,570.60,570.81,571.40,572.13,572.91,573.75,574.57,575.30,575.95,576.35,575.67,574.32,572.91,572.17,573.16,575.15,578.00,581.58,585.66,589.48,591.97,593.63,595.09,596.13,596.33,595.99,595.37,595.06,595.29,596.44,598.25,600.13,601.30,602.36,603.43,604.50,605.46,605.05,603.85,602.27,600.76,599.72,598.90,598.27,597.90,597.73,597.74,598.10,598.91,600.12,602.46,605.11,607.72,610.03,611.40,612.57,613.33,613.34,612.98,612.38,611.62,610.75,609.66,606.83,604.25,602.32,600.88,599.14,598.31,598.29,598.64,598.14,597.10,595.77,594.13,591.92,590.00,588.56,587.43,586.56,586.17,586.56,587.16,587.63,587.55,587.15,586.75,586.59,586.90,587.28,587.65,588.03,588.42,588.78,588.92,588.88,588.71,588.53,588.64,588.95,589.27,589.45,589.52,589.50,589.36,589.15,589.10
622.72,622.15,621.40,620.58,619.71,619.19,618.65,618.09,617.53,616.93,616.37,615.77,615.15,614.56,614.10,613.73,613.23,612.51,611.83,611.14,610.44,609.69,608.74,607.74,606.70,605.88,605.51,605.20,605.15,605.29,605.55,605.70,606.18,606.63,606.80,606.55,606.89,607.25,607.37,607.10,606.57,605.93,605.40,605.14,605.36,605.66,605.92,606.17,606.45,606.69,606.92,607.17,607.43,607.72,607.83,607.49,606.78,605.95,605.16,604.84,604.89,605.14,605.45,605.77,606.08,606.27,605.99,604.56,602.72,600.93,599.59,599.18,599.12,599.54,600.51,601.58,601.57,601.04,600.33,599.60,598.74,597.77,596.33,594.07,591.63,589.90,588.21,586.51,585.63,585.39,585.35,585.29,585.15,585.12,585.49,586.13,586.91,587.74,588.52,589.41,590.40,591.33,592.00,592.42,592.68,592.84,593.07,593.29,593.50,593.69,593.77,593.85,593.44,592.54,591.31,590.32,589.34,588.33,587.34,586.41,585.47,584.57,583.73,582.96,582.16,581.25,580.33,579.51,578.82,578.33,577.99,577.75,577.47,577.22,577.18,577.32,577.53,577.46,576.95,576.25,575.55,574.92,574.40,573.90,573.38,572.90,572.37,571.87,571.41,571.15,571.59,572.25,572.98,573.75,574.55,575.53,576.28,576.81,576.97,575.83,574.49,573.92,574.65,576.05,577.89,581.00,585.16,589.02,591.68,593.63,595.38,597.16,598.71,599.13,598.84,598.20,597.80,597.93,598.75,600.00,601.23,602.32,603.36,604.40,605.47,606.46,606.93,606.39,605.02,603.62,601.52,600.05,599.33,599.18,599.07,599.06,599.28,599.88,601.09,603.42,605.99,608.38,610.30,611.74,613.00,613.80,613.79,613.13,612.30,611.41,610.38,608.84,606.25,604.38,603.12,601.81,600.65,600.05,599.88,599.98,599.84,599.19,597.72,595.62,593.34,591.27,589.65,588.45,587.62,587.06,587.36,587.92,588.36,588.37,587.95,587.37,587.03,587.29,587.67,588.00,588.36,588.73,589.05,589.18,589.16,589.05,588.92,589.08,589.41,589.92,590.60,590.93,590.82,590.41,589.90,589.69
623.52,622.91,622.10,621.22,620.31,619.64,619.10,618.58,618.03,617.48,616.94,616.39,615.84,615.26,614.78,614.30,613.72,612.99,612.29,611.60,610.94,610.29,609.51,608.58,607.88,607.48,607.35,607.25,607.46,607.77,608.00,608.05,608.14,608.13,607.94,607.63,607.92,608.26,608.44,608.33,607.80,607.03,606.38,606.08,606.33,606.60,606.87,607.14,607.41,607.68,607.95,608.19,608.44,608.70,608.79,608.54,607.97,607.12,606.28,605.99,606.10,606.43,606.75,607.06,607.36,607.53,607.09,605.41,603.44,601.69,600.61,600.68,600.94,601.39,602.13,602.92,602.70,602.11,601.44,600.73,599.95,598.69,596.77,594.11,591.39,589.79,588.51,587.33,586.63,586.45,586.42,586.35,586.19,585.99,586.05,586.36,586.93,587.75,588.62,589.64,590.81,591.98,592.84,593.29,593.53,593.73,593.95,594.18,594.40,594.59,594.72,594.70,594.01,592.80,591.41,590.25,589.30,588.43,587.57,586.74,585.86,584.99,584.14,583.31,582.44,581.46,580.47,579.62,579.08,578.80,578.58,578.34,578.06,577.74,577.65,577.77,577.95,577.78,577.23,576.55,575.89,575.25,574.71,574.19,573.67,573.21,572.70,572.23,571.88,571.87,572.41,573.09,573.83,574.66,575.56,576.53,577.26,577.70,577.67,576.39,575.23,575.10,576.35,577.85,579.84,583.01,587.06,590.54,592.88,594.86,596.80,598.77,600.41,600.93,600.77,600.29,600.02,600.12,600.61,601.38,602.33,603.36,604.38,605.40,606.45,607.48,608.28,608.43,607.93,606.98,604.89,603.06,601.93,601.62,601.51,601.33,601.29,601.60,602.35,604.30,606.62,608.84,610.58,612.03,613.42,614.20,613.82,612.90,611.91,610.90,609.68,607.82,605.74,604.49,603.66,602.60,601.76,601.25,600.94,600.78,600.65,600.19,598.99,597.11,594.85,592.77,591.01,589.61,588.58,587.86,588.11,588.64,589.10,589.19,588.68,588.01,587.56,587.66,588.01,588.37,588.73,589.08,589.29,589.39,589.42,589.39,589.30,589.51,590.31,591.46,592.65,593.17,593.04,592.53,591.86,591.42
624.31,623.67,622.80,621.84,620.86,619.99,619.41,618.89,618.37,617.90,617.38,616.89,616.41,615.89,615.42,614.85,614.20,613.50,612.81,612.12,611.47,610.87,610.32,609.51,609.19,609.20,609.21,609.28,609.61,609.95,610.15,610.21,609.89,609.42,608.97,608.72,608.93,609.26,609.51,609.51,608.92,608.01,607.27,606.98,607.29,607.54,607.81,608.09,608.33,608.64,608.99,609.31,609.57,609.78,609.84,609.64,609.14,608.26,607.34,607.09,607.32,607.76,608.10,608.41,608.71,608.82,608.27,606.62,604.66,603.05,602.44,602.73,603.07,603.44,603.89,604.18,603.65,602.97,602.32,601.58,600.86,599.25,596.94,594.20,591.58,590.13,589.16,588.37,587.72,587.56,587.50,587.40,587.24,587.08,586.89,586.84,587.09,587.80,588.76,589.89,591.17,592.51,593.59,594.14,594.41,594.63,594.86,595.09,595.29,595.47,595.66,595.50,594.59,593.20,591.76,590.39,589.47,588.75,588.05,587.30,586.47,585.65,584.80,583.73,582.70,581.64,580.60,579.75,579.49,579.42,579.25,578.93,578.66,578.25,578.10,578.21,578.38,578.14,577.57,576.90,576.26,575.59,575.00,574.45,573.93,573.46,573.00,572.56,572.37,572.67,573.25,573.94,574.72,575.64,576.68,577.56,578.23,578.62,578.48,577.20,576.15,576.13,577.45,579.00,581.26,584.37,587.95,591.04,593.50,595.73,597.91,599.97,601.50,602.15,602.24,602.00,601.91,602.02,602.25,602.65,603.46,604.43,605.43,606.43,607.46,608.55,609.48,610.29,610.81,610.42,608.88,606.97,605.38,604.71,604.48,604.07,603.78,603.79,603.92,605.19,607.13,609.23,610.94,612.43,613.94,614.56,613.62,612.45,611.36,610.20,608.74,606.71,605.23,604.47,603.95,603.18,602.57,602.09,601.67,601.32,601.04,600.62,599.82,598.49,596.34,594.26,592.36,590.71,589.47,588.66,588.86,589.39,589.87,589.94,589.33,588.61,588.09,588.00,588.33,588.72,589.10,589.42,589.51,589.61,589.75,589.88,589.92,590.24,591.60,593.44,595.08,595.78,595.69,595.11,594.32,593.75
625.08,624.37,623.42,622.43,621.43,620.46,619.75,619.18,618.69,618.23,617.75,617.31,616.90,616.47,616.01,615.40,614.72,614.02,613.33,612.68,612.05,611.49,611.10,610.64,610.40,610.36,610.43,610.61,610.84,611.07,611.27,611.34,611.02,610.54,610.06,609.81,609.99,610.36,610.65,610.59,609.83,608.86,608.10,607.81,608.29,608.53,608.75,609.00,609.25,609.60,610.16,610.73,611.13,611.26,611.38,611.08,610.35,609.38,608.40,608.20,608.51,609.01,609.44,609.77,609.98,609.94,609.39,607.81,605.94,604.70,604.92,605.25,605.54,605.72,605.69,605.22,604.50,603.81,603.11,602.12,601.01,599.39,597.23,594.67,592.68,591.44,590.48,589.65,589.04,588.73,588.59,588.50,588.33,588.13,587.94,587.81,587.79,587.98,588.94,590.18,591.50,592.87,594.13,594.93,595.36,595.54,595.77,596.00,596.22,596.44,596.62,596.29,595.32,593.98,592.63,591.29,590.29,589.51,588.83,587.93,587.06,586.39,585.65,584.23,583.01,581.89,580.90,580.22,580.28,580.24,579.95,579.50,579.15,578.71,578.52,578.61,578.77,578.53,577.95,577.27,576.60,575.96,575.31,574.71,574.19,573.73,573.26,572.94,572.96,573.49,574.10,574.82,575.69,576.72,577.78,578.58,579.17,579.55,579.48,578.23,576.67,576.30,577.88,579.74,582.16,585.07,588.22,591.07,593.57,595.97,598.31,600.40,601.85,603.04,603.65,603.61,603.55,603.71,603.90,604.16,604.72,605.56,606.53,607.53,608.58,609.82,611.18,612.46,613.36,613.31,612.28,610.73,609.17,608.05,607.40,606.88,606.57,606.41,606.14,606.37,607.69,609.74,611.68,613.40,614.81,614.97,613.33,611.88,610.76,609.33,607.45,605.56,604.53,604.05,603.72,603.28,602.93,602.58,602.19,601.75,601.29,600.83,600.27,599.36,597.57,595.36,593.11,591.30,590.28,589.68,589.79,590.30,590.78,590.44,589.69,589.01,588.51,588.29,588.64,589.04,589.41,589.68,589.72,589.88,590.35,590.98,591.44,592.10,593.58,595.49,597.29,598.30,598.28,597.51,596.45,596.19
625.86,625.13,624.17,623.17,622.19,621.19,620.36,619.67,619.14,618.67,618.23,617.82,617.44,617.07,616.57,615.94,615.25,614.58,613.88,613.23,612.65,612.19,611.88,611.58,611.38,611.34,611.49,611.71,611.91,612.10,612.28,612.37,612.13,611.67,611.19,611.01,611.15,611.53,611.74,611.40,610.51,609.51,608.91,608.92,609.58,609.97,610.28,610.57,610.92,611.43,612.14,612.70,612.93,612.96,612.87,612.33,611.40,610.37,609.56,609.41,609.67,610.08,610.56,610.96,611.17,611.06,610.33,608.91,607.52,606.85,607.45,607.65,607.60,607.39,606.96,606.16,605.31,604.42,603.46,602.30,601.04,599.39,597.49,595.60,594.24,593.14,592.19,591.36,590.69,590.25,589.99,589.82,589.63,589.40,589.20,588.98,588.70,588.44,589.22,590.40,591.74,593.28,594.80,595.86,596.43,596.57,596.79,597.00,597.21,597.44,597.56,597.13,596.17,594.93,593.65,592.42,591.33,590.28,589.31,588.55,587.94,587.35,586.50,584.88,583.43,582.21,581.35,581.07,581.37,581.29,580.88,580.23,579.64,579.16,578.97,579.02,579.16,578.89,578.33,577.65,576.96,576.31,575.65,575.02,574.46,574.02,573.61,573.48,573.68,574.27,575.02,575.90,576.89,577.95,578.93,579.63,580.14,580.44,580.27,579.00,577.14,576.58,578.31,580.42,582.89,585.55,588.26,590.83,593.34,595.85,598.26,600.37,601.81,603.29,604.43,605.02,605.20,605.40,605.57,605.77,606.12,606.82,607.70,608.76,610.09,611.80,613.36,614.74,615.82,616.21,615.72,614.76,613.58,612.30,611.16,610.39,609.77,609.12,608.26,607.82,608.55,610.27,612.36,614.34,615.46,615.10,613.06,611.29,609.80,608.05,606.13,604.79,604.00,603.57,603.31,603.03,602.77,602.49,602.17,601.78,601.34,600.92,600.48,599.72,598.01,595.80,593.48,591.79,591.25,590.98,591.12,591.49,591.67,590.86,589.92,589.28,588.94,588.86,589.17,589.66,590.13,590.45,590.63,591.03,591.73,592.60,593.39,594.19,595.60,597.38,599.11,600.22,600.19,599.39,598.36,598.13
626.65,625.97,625.03,624.06,623.11,622.12,621.19,620.38,619.72,619.21,618.80,618.42,618.04,617.69,617.13,616.46,615.79,615.15,614.46,613.80,613.30,612.97,612.66,612.35,612.19,612.22,612.45,612.68,612.91,613.11,613.27,613.41,613.25,612.81,612.34,612.28,612.40,612.73,612.74,612.02,611.06,610.13,609.90,610.46,611.29,611.93,612.39,612.77,613.22,613.91,614.62,614.97,614.87,614.71,614.23,613.38,612.31,611.30,610.80,610.73,610.85,611.08,611.54,612.00,612.31,612.19,611.16,609.98,609.25,609.19,609.80,609.78,609.25,608.54,607.79,607.00,606.03,604.86,603.55,602.31,601.06,599.45,597.92,596.89,596.05,595.04,594.12,593.35,592.61,592.03,591.64,591.37,591.14,590.91,590.69,590.38,589.84,589.16,589.57,590.61,592.02,593.78,595.60,596.90,597.58,597.70,597.90,598.07,598.26,598.45,598.48,597.99,597.09,595.95,594.73,593.59,592.39,591.03,589.69,589.27,589.03,588.43,587.32,585.63,583.95,582.63,581.96,582.20,582.64,582.51,581.95,581.11,580.25,579.68,579.45,579.47,579.60,579.25,578.69,578.04,577.34,576.65,576.02,575.37,574.75,574.36,574.04,574.13,574.51,575.10,576.04,577.12,578.22,579.26,580.11,580.73,581.13,581.27,580.84,579.54,577.61,576.97,578.75,580.99,583.40,585.80,588.12,590.41,592.90,595.43,597.85,599.95,601.47,603.03,604.63,606.04,606.74,607.06,607.25,607.42,607.63,608.22,609.06,610.26,612.01,614.30,615.85,617.05,618.10,618.91,618.91,618.62,618.01,616.88,615.43,614.35,613.24,611.86,610.29,609.46,609.72,610.97,613.05,615.19,615.92,615.10,612.87,610.74,608.67,606.63,604.95,604.34,603.66,603.20,602.89,602.60,602.27,602.01,601.76,601.50,601.18,600.86,600.42,599.56,597.75,595.71,593.67,592.42,592.43,592.47,592.66,592.74,592.41,591.20,590.07,589.50,589.44,589.75,590.06,590.68,591.30,591.74,592.13,592.83,593.65,594.55,595.56,596.34,597.59,599.13,600.62,601.67,601.54,600.82,599.98,599.56
627.45,626.88,626.02,625.06,624.09,623.13,622.24,621.39,620.60,619.85,619.42,619.06,618.68,618.29,617.71,617.04,616.35,615.68,614.99,614.50,614.10,613.75,613.44,613.13,613.03,613.13,613.41,613.65,613.89,614.11,614.31,614.50,614.35,613.94,613.53,613.56,613.65,613.75,613.51,612.69,611.76,611.29,611.80,613.11,614.15,614.93,615.38,615.64,615.90,616.47,616.86,616.98,616.79,616.19,615.22,614.10,613.03,612.40,612.14,612.14,612.25,612.41,612.64,613.04,613.36,613.23,612.15,611.28,610.77,610.71,611.14,611.12,610.29,609.27,608.39,607.51,606.45,605.24,603.94,602.60,601.26,600.12,599.20,598.51,597.84,596.94,596.08,595.36,594.65,594.03,593.61,593.33,593.09,592.86,592.70,592.33,591.47,590.16,590.01,591.01,592.75,594.59,596.48,597.93,598.78,598.96,599.09,599.20,599.31,599.40,599.35,598.84,597.94,596.83,595.63,594.36,593.03,591.74,590.70,590.42,590.17,589.39,588.05,586.35,584.60,583.34,582.85,583.36,583.96,583.69,582.99,582.13,581.27,580.56,580.10,579.99,580.27,579.72,579.08,578.43,577.73,577.04,576.40,575.77,575.18,574.76,574.56,574.80,575.41,576.31,577.31,578.34,579.41,580.43,581.23,581.86,582.20,582.09,581.21,579.88,577.98,577.29,578.91,581.07,583.29,585.49,587.69,589.86,592.30,594.70,596.97,599.04,600.79,602.39,604.04,605.82,607.59,608.50,608.90,609.09,609.26,609.89,611.06,612.65,614.65,616.91,618.33,619.23,619.85,620.40,620.59,620.56,620.34,619.83,619.14,618.12,616.60,614.57,612.45,611.22,611.38,612.57,614.14,615.97,616.44,615.37,612.90,610.31,607.90,605.94,604.62,604.09,603.75,603.38,602.93,602.39,601.87,601.52,601.26,601.01,600.71,600.40,599.69,598.44,596.64,595.07,594.21,593.91,594.00,594.07,593.92,593.38,592.43,591.29,590.26,589.89,590.23,591.20,591.94,592.65,593.28,593.79,594.24,594.88,595.63,596.47,597.45,598.41,599.48,600.63,601.81,602.86,602.60,601.80,600.92,600.24
628.25,627.82,627.03,626.08,625.13,624.25,623.39,622.51,621.59,620.61,620.12,619.72,619.32,618.88,618.26,617.58,616.90,616.22,615.67,615.37,615.06,614.67,614.32,613.93,613.88,614.08,614.36,614.62,614.86,615.09,615.32,615.53,615.44,615.09,614.77,614.85,614.92,614.73,614.19,613.32,612.44,612.54,613.67,615.44,616.78,617.67,618.08,618.22,618.31,618.64,618.78,618.73,618.36,617.34,616.02,614.83,613.97,613.65,613.54,613.58,613.69,613.82,613.93,614.21,614.43,614.30,613.40,612.75,612.29,612.15,612.39,612.13,611.08,609.90,608.90,607.89,606.76,605.58,604.33,602.98,601.61,600.75,600.23,599.78,599.29,598.66,598.02,597.40,596.72,596.09,595.64,595.33,595.09,594.92,594.78,594.29,593.14,591.47,590.76,591.61,593.58,595.52,597.49,599.06,599.98,600.11,600.17,600.25,600.31,600.34,600.25,599.70,598.77,597.63,596.38,595.00,593.61,592.49,591.84,591.60,591.04,589.97,588.44,586.65,584.87,584.04,584.05,584.66,585.32,584.99,584.26,583.43,582.59,581.80,581.24,581.03,581.15,580.25,579.44,578.76,578.09,577.42,576.79,576.26,575.85,575.52,575.34,575.53,576.09,576.97,577.98,579.02,580.09,581.14,582.09,582.94,583.13,582.61,581.46,580.14,578.34,577.61,578.98,581.00,583.07,585.16,587.29,589.37,591.67,593.90,596.04,598.09,599.95,601.58,603.35,605.44,607.81,609.39,610.41,610.99,611.24,612.00,613.42,615.27,617.30,619.04,620.12,620.76,621.16,621.51,621.77,621.90,621.90,621.74,621.51,620.47,618.75,616.52,614.24,612.97,613.19,614.36,615.61,617.09,617.31,616.03,613.31,610.36,607.85,605.97,604.77,604.25,604.09,603.80,603.31,602.63,601.89,601.28,600.84,600.51,600.10,599.55,598.59,597.38,596.36,595.51,595.41,595.60,595.58,595.28,594.63,593.59,592.37,591.49,591.05,591.14,591.79,592.99,593.95,594.74,595.40,595.92,596.40,596.97,597.64,598.42,599.28,600.25,601.16,602.06,603.03,604.03,603.64,602.78,601.89,601.07
629.06,628.78,628.04,627.11,626.25,625.46,624.60,623.67,622.63,621.48,620.87,620.41,619.95,619.46,618.81,618.11,617.42,616.81,616.54,616.40,616.15,615.75,615.28,614.78,614.75,615.02,615.27,615.57,615.83,616.06,616.29,616.51,616.49,616.28,616.07,616.13,616.17,615.67,614.84,613.92,613.12,613.82,615.35,617.22,618.89,619.83,620.20,620.28,620.29,620.34,620.32,620.11,619.48,618.12,616.67,615.66,615.16,615.05,614.97,615.04,615.16,615.26,615.39,615.50,615.56,615.44,614.88,614.34,613.85,613.61,613.66,612.92,611.73,610.48,609.33,608.19,607.03,605.87,604.68,603.42,602.06,601.28,600.89,600.64,600.38,600.15,599.84,599.37,598.72,598.11,597.66,597.32,597.06,597.01,596.85,596.19,594.80,593.07,591.81,592.38,594.44,596.51,598.57,600.19,601.10,601.14,601.16,601.22,601.26,601.26,601.19,600.54,599.54,598.33,596.96,595.58,594.22,593.31,593.00,592.68,591.60,590.17,588.51,586.55,584.86,584.80,585.52,586.07,586.68,586.43,585.78,584.98,584.14,583.36,582.83,582.52,582.14,580.83,579.81,579.05,578.43,577.81,577.24,576.90,576.78,576.64,576.38,576.35,576.58,577.08,578.04,579.14,580.26,581.38,582.65,583.87,583.88,582.90,581.66,580.39,578.72,577.92,578.95,580.81,582.82,584.88,586.97,589.01,591.12,593.16,595.19,597.22,599.02,600.69,602.67,605.09,607.51,609.75,611.62,612.92,613.43,614.38,615.96,617.85,619.68,620.61,621.21,621.70,622.12,622.43,622.68,622.89,623.00,622.84,622.56,621.36,619.64,617.65,615.59,614.68,615.05,616.18,617.32,618.50,618.51,617.10,614.19,611.04,608.57,606.67,605.38,604.84,604.67,604.42,603.98,603.29,602.36,601.36,600.58,600.07,599.44,598.50,597.47,596.79,597.13,597.14,597.19,597.22,596.98,596.01,594.76,593.50,592.44,592.01,592.50,593.25,594.09,595.04,595.98,596.82,597.51,598.03,598.51,599.04,599.67,600.36,601.09,601.88,602.67,603.49,604.35,605.21,604.73,603.85,603.00,602.16
630.01,629.75,629.13,628.32,627.51,626.69,625.71,624.62,623.47,622.31,621.63,621.10,620.58,620.05,619.38,618.65,617.99,617.54,617.54,617.46,617.20,616.75,616.12,615.64,615.60,615.84,616.13,616.48,616.77,617.03,617.26,617.49,617.54,617.49,617.40,617.35,617.08,616.41,615.53,614.65,614.02,615.11,616.81,618.51,619.89,620.78,621.22,621.38,621.42,621.38,621.09,620.59,619.78,618.38,617.35,616.78,616.55,616.48,616.44,616.50,616.61,616.73,616.79,616.79,616.74,616.58,616.23,615.80,615.41,615.08,614.71,613.65,612.38,611.07,609.79,608.57,607.37,606.18,605.01,603.77,602.53,601.86,601.57,601.43,601.30,601.19,600.97,600.61,600.16,599.77,599.50,599.30,599.12,599.09,598.92,598.16,596.58,594.69,592.92,593.14,595.13,597.25,599.26,600.86,601.86,602.11,602.13,602.19,602.21,602.15,601.99,601.11,600.02,598.83,597.44,596.10,595.02,594.36,594.02,593.23,591.89,590.30,588.48,586.40,585.68,586.17,586.98,587.44,587.95,587.86,587.31,586.49,585.69,584.92,584.30,583.67,582.67,581.37,580.27,579.44,578.87,578.27,578.06,578.00,577.94,577.76,577.47,577.40,577.49,577.66,578.16,579.10,580.21,581.44,582.85,584.35,584.56,583.61,582.19,580.80,579.16,578.20,578.75,580.48,582.49,584.61,586.79,588.97,591.00,592.91,594.78,596.65,598.35,600.10,602.22,604.80,607.42,609.84,611.84,613.41,614.61,616.09,617.75,619.40,620.82,621.62,622.18,622.64,623.03,623.34,623.58,623.84,624.03,623.91,623.24,621.79,620.06,618.27,616.58,616.24,616.73,617.63,618.58,619.46,619.62,618.57,616.00,612.96,610.07,607.90,606.60,605.97,605.68,605.31,604.73,603.86,602.87,601.81,600.81,599.92,599.07,598.44,598.17,598.34,598.93,599.01,598.66,598.04,597.20,595.98,594.62,593.67,593.37,593.75,594.61,595.49,596.34,597.18,598.10,598.83,599.39,599.86,600.41,600.95,601.50,602.10,602.84,603.57,604.33,605.11,605.86,606.37,605.81,604.94,604.11,603.29
631.21,630.94,630.36,629.60,628.76,627.81,626.68,625.48,624.27,623.12,622.36,621.75,621.19,620.62,619.96,619.25,618.65,618.38,618.59,618.50,618.16,617.60,616.85,616.49,616.47,616.66,616.95,617.32,617.65,617.94,618.21,618.46,618.62,618.68,618.64,618.43,617.90,617.11,616.23,615.42,615.07,616.26,617.85,619.30,620.42,621.25,621.84,622.22,622.33,622.11,621.56,620.86,620.01,618.84,618.24,618.02,617.98,617.90,617.89,617.91,617.97,618.05,618.04,617.95,617.84,617.68,617.44,617.11,616.77,616.35,615.60,614.32,613.00,611.65,610.29,609.02,607.78,606.58,605.38,604.17,603.09,602.55,602.35,602.27,602.20,602.12,601.94,601.66,601.42,601.27,601.21,601.15,601.02,600.98,600.69,599.75,597.99,596.04,593.98,593.98,595.88,597.93,599.82,601.39,602.53,603.02,603.10,603.15,603.15,603.04,602.67,601.60,600.42,599.24,597.91,596.70,595.94,595.41,594.84,593.60,592.10,590.40,588.48,586.55,586.80,587.68,588.52,589.09,589.61,589.56,588.94,587.93,587.11,586.26,585.49,584.59,583.27,582.02,580.90,580.02,579.48,579.05,579.18,579.34,579.31,579.00,578.63,578.50,578.48,578.44,578.60,579.22,580.29,581.76,583.36,585.03,585.29,584.26,582.74,581.25,579.66,578.54,578.57,580.17,582.22,584.44,586.75,589.13,591.07,592.83,594.55,596.27,597.88,599.63,601.79,604.45,607.18,609.66,611.65,613.32,615.06,616.96,618.72,620.26,621.50,622.45,623.12,623.59,623.94,624.22,624.48,624.77,625.02,624.95,623.93,622.36,620.67,619.08,617.84,617.87,618.38,619.05,619.83,620.50,620.71,620.02,618.12,615.68,612.46,609.72,608.02,607.35,606.92,606.33,605.52,604.50,603.47,602.38,601.21,600.06,599.19,598.92,599.24,599.95,600.58,600.46,599.63,598.45,597.12,595.80,594.71,594.26,594.59,595.46,596.42,597.36,598.22,599.05,599.96,600.58,601.02,601.44,602.09,602.72,603.27,603.82,604.57,605.29,606.02,606.77,607.39,607.50,606.87,606.01,605.12,604.17
632.70,632.42,631.76,630.87,629.88,628.66,627.44,626.24,625.07,623.89,623.06,622.40,621.80,621.19,620.57,619.95,619.50,619.39,619.69,619.52,618.99,618.24,617.47,617.30,617.38,617.54,617.74,618.10,618.43,618.76,619.13,619.44,619.73,619.86,619.77,619.36,618.66,617.81,616.91,616.22,616.27,617.20,618.36,619.49,620.56,621.39,622.22,622.92,623.13,622.56,621.83,621.10,620.40,619.72,619.43,619.38,619.40,619.34,619.33,619.29,619.23,619.17,619.11,618.98,618.86,618.73,618.49,618.19,617.87,617.36,616.34,614.94,613.58,612.24,610.86,609.55,608.30,607.07,605.83,604.63,603.78,603.40,603.27,603.19,603.12,603.03,602.88,602.69,602.60,602.67,602.78,602.83,602.69,602.58,601.96,600.69,598.81,596.94,594.93,594.91,596.70,598.57,600.26,601.84,603.14,603.91,604.05,604.08,604.08,603.92,603.20,602.06,600.83,599.62,598.41,597.47,596.96,596.38,595.38,593.84,592.24,590.47,588.60,587.18,588.13,589.28,590.27,591.23,591.92,591.74,590.75,589.30,588.31,587.29,586.29,585.27,584.08,582.86,581.76,580.92,580.44,580.37,580.69,580.97,580.98,580.56,580.01,579.72,579.60,579.53,579.59,579.76,580.72,582.60,584.45,586.12,586.07,584.73,583.25,581.72,580.22,578.95,578.49,579.94,582.10,584.45,586.90,589.46,591.28,592.89,594.49,596.12,597.68,599.31,601.39,604.01,606.68,609.17,611.12,612.80,614.73,616.82,618.75,620.44,621.86,623.18,624.03,624.55,624.85,625.10,625.39,625.70,625.98,625.96,624.79,623.28,621.72,620.33,619.56,619.64,620.04,620.56,621.19,621.76,621.80,621.31,620.32,619.05,615.84,612.35,609.73,609.03,608.37,607.44,606.36,605.27,604.19,603.01,601.73,600.53,599.97,599.95,600.39,601.12,601.76,601.26,600.03,598.51,596.97,595.68,595.23,595.38,595.98,596.77,597.68,598.64,599.61,600.52,601.44,602.00,602.37,602.76,603.50,604.31,604.97,605.55,606.26,607.01,607.73,608.40,608.87,608.63,607.90,607.00,605.99,604.69
634.24,633.88,632.86,631.43,630.02,628.85,627.67,626.50,625.38,624.47,623.91,623.38,622.81,622.24,621.66,621.30,621.03,620.88,621.07,620.55,619.68,618.76,618.14,618.11,618.23,618.39,618.57,618.89,619.21,619.59,620.05,620.50,620.94,621.15,621.01,620.30,619.50,618.67,617.83,617.10,616.94,617.71,618.73,619.73,620.76,621.68,622.63,623.43,623.71,623.11,622.38,621.68,621.08,620.69,620.70,620.79,620.84,620.82,620.89,620.80,620.66,620.54,620.41,620.27,620.11,619.93,619.68,619.28,618.89,618.30,617.11,615.61,614.19,612.82,611.43,610.08,608.82,607.54,606.21,605.00,604.55,604.40,604.34,604.25,604.13,604.01,603.96,604.00,604.06,604.16,604.30,604.40,604.30,603.77,602.39,600.66,598.89,597.20,595.55,595.59,597.17,598.91,600.56,602.16,603.64,604.74,604.96,605.00,605.00,604.78,603.76,602.56,601.40,600.27,599.15,598.45,597.99,597.17,595.69,593.92,592.23,590.45,588.85,588.40,590.00,591.74,593.23,594.43,595.14,594.59,592.94,590.67,589.09,587.91,586.87,585.83,584.72,583.62,582.95,582.67,582.70,582.91,583.29,583.64,583.81,583.59,583.11,582.79,582.56,582.26,581.99,582.05,582.86,584.46,586.10,587.03,586.57,585.20,583.76,582.27,580.76,579.37,578.60,579.80,582.15,584.76,587.37,589.86,591.64,593.24,594.82,596.40,597.94,599.62,601.58,603.86,606.16,608.39,610.42,612.37,614.44,616.59,618.69,620.55,622.06,623.57,624.86,625.64,625.98,626.26,626.60,626.95,627.21,627.09,626.05,624.61,623.18,622.04,621.48,621.47,621.64,621.93,622.47,623.04,622.87,622.24,621.45,620.56,618.71,616.13,613.43,611.81,609.91,608.44,607.26,606.05,604.84,603.57,602.29,601.25,601.26,601.54,602.10,602.76,603.06,602.19,600.63,598.83,597.18,596.24,596.32,596.80,597.44,598.13,598.98,599.94,600.94,601.90,602.83,603.40,603.76,604.14,604.96,605.82,606.55,607.20,607.94,608.71,609.32,609.79,610.06,609.74,608.87,607.76,606.53,605.15
635.82,635.07,633.53,631.57,629.85,628.79,627.70,626.64,625.75,625.16,624.87,624.47,623.94,623.41,622.91,622.76,622.67,622.46,622.40,621.50,620.35,619.40,619.05,619.12,619.27,619.42,619.60,619.91,620.23,620.63,621.12,621.63,622.17,622.43,622.23,621.32,620.47,619.66,618.86,618.12,617.75,618.30,619.17,620.12,621.12,622.12,623.14,623.97,624.25,623.68,623.02,622.43,621.95,621.73,621.91,622.15,622.29,622.31,622.44,622.38,622.22,622.07,621.91,621.77,621.58,621.33,621.04,620.55,620.03,619.29,617.94,616.32,614.84,613.42,612.03,610.61,609.28,607.94,606.57,605.35,605.31,605.42,605.43,605.33,605.20,605.03,605.05,605.27,605.53,605.67,605.81,605.94,605.87,604.92,602.95,600.80,598.98,597.50,596.20,596.29,597.62,599.22,600.86,602.54,604.22,605.63,605.89,605.92,605.91,605.65,604.54,603.35,602.26,601.21,600.15,599.54,598.90,597.75,595.94,594.04,592.26,590.47,589.18,589.77,592.04,594.42,596.35,597.54,598.13,597.38,595.31,592.29,589.77,588.42,587.40,586.40,585.39,584.56,584.46,584.79,585.32,585.74,586.18,586.62,586.97,587.06,586.80,586.56,586.27,585.73,585.07,585.01,585.60,586.72,587.82,587.88,587.04,585.70,584.29,582.84,581.28,579.76,578.82,579.75,582.27,585.17,587.91,590.27,592.01,593.63,595.23,596.79,598.34,600.08,601.98,603.96,605.88,607.80,609.83,611.97,614.25,616.50,618.74,620.75,622.43,624.17,625.79,626.78,627.18,627.52,627.91,628.25,628.43,628.23,627.41,626.10,624.85,623.96,623.46,623.37,623.37,623.46,623.85,624.26,623.88,623.11,622.33,621.56,620.88,619.41,617.15,614.82,611.45,609.25,607.92,606.61,605.30,604.00,602.86,602.17,602.66,603.16,603.74,604.25,604.20,603.06,601.23,599.20,597.52,597.07,597.57,598.25,598.84,599.41,600.20,601.14,602.16,603.19,604.26,604.94,605.36,605.73,606.51,607.32,608.07,608.76,609.50,610.24,610.73,611.05,611.16,610.66,609.66,608.39,606.99,605.60
637.41,635.75,633.50,631.23,629.56,628.59,627.60,626.84,626.44,626.20,625.97,625.60,625.11,624.59,624.23,624.16,624.16,623.98,623.49,622.30,621.08,620.32,620.42,620.56,620.71,620.87,621.05,621.40,621.77,622.12,622.48,622.90,623.41,623.61,623.35,622.48,621.63,620.79,620.00,619.36,619.08,619.24,619.84,620.77,621.77,622.78,623.82,624.65,624.85,624.27,623.72,623.31,623.04,622.83,622.97,623.38,623.78,623.80,623.93,624.01,623.97,623.82,623.67,623.56,623.37,623.06,622.68,622.17,621.44,620.39,618.86,617.13,615.54,614.07,612.65,611.14,609.63,608.23,606.90,605.78,606.04,606.40,606.52,606.38,606.29,606.10,606.06,606.32,606.89,607.18,607.36,607.50,607.39,606.25,604.17,601.74,599.48,598.18,597.09,597.15,598.26,599.61,601.24,603.11,605.05,606.69,606.89,606.89,606.86,606.62,605.73,604.66,603.62,602.59,601.54,600.76,599.57,597.99,596.14,594.29,592.46,590.65,589.62,591.17,594.14,597.06,599.14,599.92,600.19,599.70,597.83,594.45,590.56,588.93,587.95,587.03,586.23,585.94,586.43,587.22,587.97,588.52,589.10,589.68,590.24,590.67,590.79,590.80,590.55,589.83,588.82,588.48,588.74,589.30,589.35,588.72,587.63,586.28,584.85,583.45,581.77,580.14,579.15,579.84,582.49,585.60,588.46,590.68,592.36,593.95,595.57,597.17,598.73,600.54,602.49,604.41,606.05,607.72,609.53,611.63,614.24,616.76,619.09,621.25,623.26,625.38,626.96,627.93,628.43,628.88,629.27,629.50,629.53,629.32,628.76,627.71,626.73,626.07,625.50,625.38,625.37,625.40,625.50,625.37,624.78,624.01,623.24,622.48,621.86,621.08,619.87,617.70,612.89,609.70,608.05,606.74,605.43,604.22,603.45,603.38,603.99,604.54,604.95,605.18,604.98,603.75,601.75,599.57,597.95,598.09,598.85,599.57,600.08,600.47,601.18,602.14,603.22,604.35,605.82,606.77,607.34,607.72,608.19,608.85,609.52,610.15,610.79,611.43,611.87,612.15,612.16,611.23,610.15,608.88,607.44,606.06
638.76,636.75,634.40,632.12,630.29,629.22,628.34,627.71,627.40,627.23,627.02,626.72,626.33,625.83,625.59,625.58,625.64,625.58,625.08,624.07,623.11,622.57,622.76,622.83,622.89,622.99,623.16,623.42,623.57,623.80,624.17,624.49,624.88,624.94,624.55,623.70,622.85,622.03,621.30,620.79,620.57,620.56,620.97,621.79,622.64,623.51,624.52,625.34,625.47,625.05,624.63,624.32,624.09,623.88,624.05,624.51,625.03,625.26,625.42,625.63,625.73,625.58,625.46,625.34,625.13,624.79,624.32,623.72,622.80,621.49,619.72,617.85,616.29,614.76,613.11,611.52,609.93,608.41,607.13,606.57,606.93,607.40,607.61,607.46,607.34,607.08,606.99,607.26,607.92,608.43,608.81,609.04,608.98,608.35,606.56,603.91,601.01,599.41,598.39,598.13,598.73,600.28,602.25,604.26,606.17,607.69,607.87,607.87,607.81,607.56,606.84,605.92,604.96,603.97,602.91,601.80,600.18,598.33,596.54,595.14,593.46,591.50,590.36,592.50,596.24,599.00,600.60,601.27,601.24,600.74,599.51,597.05,592.88,590.18,588.72,587.91,587.31,587.56,588.27,589.33,590.61,591.50,592.35,593.14,593.85,594.43,594.66,594.74,594.57,593.95,593.06,592.53,592.35,592.13,590.89,589.51,588.27,587.29,586.60,585.54,583.81,581.53,579.54,580.65,583.36,586.43,589.23,591.17,592.78,594.38,596.00,597.61,599.16,600.94,602.79,604.59,606.18,607.84,609.70,611.94,614.79,617.59,620.59,623.09,624.71,626.69,628.14,629.08,629.71,630.36,630.82,631.00,630.95,630.67,630.17,629.40,628.70,628.15,627.60,627.38,627.25,627.07,626.80,626.33,625.67,624.92,624.16,623.46,622.71,621.83,620.73,618.80,613.12,609.58,608.04,606.79,605.69,604.80,604.32,604.41,604.84,605.27,605.59,605.70,605.43,604.55,602.38,599.90,598.38,599.02,599.79,600.41,600.88,601.27,602.07,603.05,604.17,605.56,607.33,608.50,609.15,609.42,609.69,610.18,610.74,611.32,611.95,612.60,613.05,613.18,612.78,611.67,610.53,609.29,607.89,606.51
640.20,638.08,635.84,633.65,631.69,630.43,629.59,628.96,628.53,628.29,628.06,627.83,627.54,627.09,626.97,627.01,627.12,627.18,626.82,626.17,625.56,625.21,625.37,625.35,625.32,625.35,625.48,625.61,625.53,625.61,625.96,626.21,626.43,626.30,625.78,624.95,624.10,623.33,622.71,622.29,622.12,622.02,622.30,622.98,623.69,624.44,625.36,626.10,626.18,625.94,625.64,625.37,625.14,624.94,625.13,625.60,626.19,626.65,626.88,627.23,627.45,627.35,627.28,627.13,626.88,626.50,625.94,625.21,624.05,622.47,620.56,618.59,617.12,615.57,613.68,611.92,610.22,608.61,607.45,607.54,607.97,608.47,608.73,608.57,608.39,608.04,607.90,608.17,608.88,609.62,610.20,610.54,610.53,610.37,608.92,606.24,602.84,600.74,599.70,599.12,599.29,601.26,603.59,605.72,607.51,608.74,608.89,608.85,608.75,608.50,607.92,607.12,606.25,605.32,604.21,602.73,600.84,598.95,597.45,596.59,595.08,592.96,591.60,593.94,598.07,600.45,601.56,602.26,601.97,601.40,600.76,599.41,595.69,592.01,589.91,589.02,588.56,589.26,590.23,591.58,593.32,594.56,595.66,596.62,597.42,598.05,598.27,598.36,598.25,597.77,597.15,596.53,595.84,594.75,592.50,590.52,589.20,588.59,588.61,587.99,586.28,583.23,579.99,581.70,584.68,587.66,590.18,591.85,593.38,594.93,596.52,598.12,599.69,601.41,603.15,604.85,606.51,608.22,610.35,612.99,616.09,619.34,623.00,625.69,626.72,628.21,629.43,630.35,631.12,631.94,632.46,632.62,632.50,632.11,631.57,631.06,630.59,630.13,629.62,629.27,628.92,628.49,627.91,627.24,626.52,625.74,624.87,624.15,623.19,622.06,620.77,618.88,613.03,609.51,608.13,607.02,606.18,605.56,605.26,605.35,605.55,605.83,606.05,606.07,605.69,605.17,602.90,600.23,598.87,599.81,600.51,601.04,601.52,601.98,602.84,603.80,604.96,606.63,608.60,609.96,610.67,610.85,611.03,611.37,611.84,612.40,613.03,613.70,614.14,614.08,613.28,612.09,610.89,609.64,608.32,606.98
642.05,640.12,638.01,635.94,634.14,632.65,631.62,630.73,629.92,629.38,629.10,628.90,628.68,628.37,628.36,628.48,628.59,628.66,628.58,628.38,628.10,627.83,627.87,627.86,627.82,627.78,627.81,627.84,627.74,627.66,627.74,627.99,627.90,627.57,627.03,626.24,625.39,624.76,624.26,623.85,623.67,623.58,623.79,624.35,625.10,625.82,626.57,627.12,627.17,626.96,626.71,626.48,626.24,626.04,626.24,626.68,627.26,627.88,628.26,628.72,629.08,629.15,629.15,628.92,628.60,628.18,627.55,626.56,625.01,623.15,621.35,619.53,618.16,616.71,614.81,612.54,610.53,608.93,608.10,608.71,609.29,609.73,609.90,609.72,609.46,609.00,608.80,609.11,609.91,610.83,611.53,611.91,611.90,611.39,610.19,607.92,604.62,601.87,600.67,600.04,600.29,602.85,605.32,607.60,609.27,609.91,610.04,609.86,609.66,609.45,609.00,608.23,607.44,606.57,605.29,603.53,601.70,600.36,599.78,599.30,597.78,595.62,594.11,595.84,599.11,601.11,602.21,603.07,602.71,602.12,601.49,600.59,598.56,594.95,592.17,590.61,590.09,590.95,592.61,594.51,596.32,597.70,598.84,599.77,600.52,601.10,601.23,601.25,601.12,600.72,600.34,599.73,598.46,596.46,594.33,592.27,590.94,590.37,590.37,590.12,588.58,584.95,580.54,582.75,586.73,589.77,591.52,593.02,594.41,595.81,597.27,598.79,600.44,602.15,603.88,605.65,607.46,609.23,612.07,615.65,619.15,623.35,627.06,629.37,629.85,630.23,631.06,631.98,632.88,633.75,634.23,634.35,634.12,633.55,632.89,632.50,632.19,631.82,631.35,630.76,630.11,629.44,628.77,628.08,627.29,626.26,624.93,623.90,622.75,621.54,620.03,617.46,613.14,610.17,608.61,607.79,607.22,606.59,606.19,606.17,606.28,606.50,606.53,606.28,605.72,605.17,602.97,600.57,599.60,600.22,600.88,601.50,602.13,602.65,603.37,604.16,605.30,607.19,609.24,610.68,611.49,611.77,612.05,612.37,612.81,613.38,614.06,614.64,614.88,614.63,613.74,612.54,611.27,609.97,608.68,607.47
644.00,642.10,640.11,638.16,636.44,634.96,633.90,633.04,632.39,632.28,631.92,631.49,631.09,630.75,630.91,630.95,630.91,630.89,630.91,630.84,630.68,630.53,630.52,630.49,630.45,630.41,630.38,630.44,630.32,630.14,629.99,629.94,629.44,628.84,628.24,627.54,626.79,626.26,625.83,625.45,625.27,625.13,625.26,625.76,626.48,627.12,627.60,627.87,627.89,627.82,627.70,627.53,627.31,627.13,627.34,627.75,628.31,629.00,629.71,630.07,630.27,630.46,630.47,630.26,629.95,629.59,629.14,628.20,626.70,624.91,623.14,621.18,619.51,617.87,615.92,613.30,610.78,609.29,609.03,610.00,610.91,611.40,611.51,611.27,610.82,610.32,610.18,610.56,611.36,612.31,613.04,613.25,612.54,611.60,610.30,608.29,605.46,602.88,601.92,601.86,602.78,605.53,607.90,609.80,611.07,611.53,611.62,611.37,611.08,610.81,610.38,609.63,608.83,607.91,606.62,604.81,603.17,602.16,601.85,601.38,600.22,598.35,596.58,596.86,599.46,601.30,602.46,603.50,603.76,603.20,602.41,601.52,600.18,597.53,594.93,593.09,592.71,593.64,595.47,597.47,599.17,600.48,601.55,602.45,603.20,603.70,603.72,603.65,603.44,602.94,602.42,601.43,599.92,598.01,596.15,594.09,592.62,591.90,591.80,591.33,590.03,586.51,581.84,584.60,588.70,591.56,593.04,594.40,595.75,597.10,598.50,599.98,601.56,603.23,604.95,606.71,608.58,611.16,614.75,618.87,622.74,626.80,629.60,631.13,631.56,631.71,632.43,633.32,634.13,634.65,634.94,634.99,634.81,634.44,634.07,633.88,633.71,633.44,632.91,632.13,631.26,630.33,629.35,628.40,627.34,626.04,624.57,623.38,622.22,620.90,619.14,616.43,613.43,611.05,609.43,608.55,608.06,607.57,607.19,607.05,607.05,607.06,606.83,606.33,605.67,604.96,602.90,600.83,600.12,600.71,601.43,602.14,602.81,603.39,603.91,604.59,605.69,607.54,609.50,610.94,611.98,612.66,613.03,613.38,613.80,614.31,614.82,615.24,615.28,614.88,613.97,612.77,611.47,610.17,608.92,607.75
646.05,644.15,642.26,640.43,638.73,637.36,636.36,635.68,635.48,635.95,635.62,635.03,634.43,633.99,634.17,634.02,633.73,633.56,633.59,633.47,633.35,633.28,633.26,633.20,633.17,633.14,633.11,633.24,633.16,632.95,632.68,632.41,631.66,630.90,630.18,629.25,628.43,627.84,627.40,627.06,626.89,626.68,626.73,627.15,627.79,628.29,628.50,628.51,628.52,628.58,628.59,628.51,628.34,628.22,628.49,628.96,629.56,630.33,631.33,631.51,631.42,631.57,631.56,631.40,631.18,630.95,630.72,629.94,628.67,627.13,625.36,623.20,621.12,619.15,617.07,614.20,611.23,609.86,610.18,611.45,612.68,613.26,613.31,612.97,612.31,611.82,611.77,612.22,612.98,613.87,614.45,614.22,612.68,611.35,609.86,608.03,605.89,603.98,603.43,604.09,605.82,608.50,610.66,612.03,612.88,613.34,613.37,613.09,612.74,612.38,611.88,611.14,610.26,609.27,608.03,606.32,604.94,604.12,603.81,603.26,602.50,600.97,598.95,597.74,599.57,601.25,602.50,603.74,604.79,604.38,603.45,602.42,601.30,599.84,597.79,595.98,595.79,596.73,598.45,600.29,601.83,603.06,604.06,604.95,605.71,606.10,606.04,605.84,605.47,604.77,603.88,602.36,600.72,599.21,597.69,595.78,594.22,593.28,592.98,592.07,590.97,587.80,583.35,586.67,590.51,593.16,594.67,595.93,597.28,598.66,600.04,601.47,602.94,604.55,606.23,608.00,610.15,613.75,618.05,622.46,626.42,629.71,631.30,632.09,632.67,632.96,633.61,634.37,634.97,635.08,635.17,635.16,635.08,635.01,634.97,634.96,634.92,634.75,634.21,633.33,632.27,631.09,629.73,628.45,627.04,625.53,624.03,622.75,621.62,620.25,618.38,615.93,613.96,612.13,610.50,609.37,608.81,608.46,608.13,607.83,607.67,607.42,606.92,606.24,605.52,604.58,602.73,601.03,600.56,601.18,602.00,602.79,603.50,604.13,604.52,605.12,606.17,607.85,609.59,611.03,612.36,613.50,613.95,614.31,614.72,615.13,615.44,615.66,615.51,614.98,614.06,612.85,611.57,610.30,609.08,607.90
648.38,646.59,644.71,642.90,641.24,639.88,639.03,638.76,639.11,639.68,639.85,639.64,639.21,638.68,638.25,637.67,637.10,636.71,636.58,636.40,636.25,636.18,636.12,636.04,635.98,635.95,636.01,636.15,636.27,636.28,636.25,636.56,636.29,635.81,634.82,632.52,630.76,629.60,628.91,628.62,628.50,628.26,628.21,628.48,628.91,629.10,629.16,629.16,629.17,629.23,629.25,629.28,629.32,629.32,629.84,630.64,631.57,632.51,633.52,633.51,633.06,632.76,632.57,632.53,632.55,632.55,632.35,631.61,630.57,629.28,627.56,625.39,623.15,620.86,618.38,615.42,612.41,611.16,611.71,613.21,614.54,615.14,615.12,614.60,613.82,613.45,613.49,613.89,614.55,615.38,615.24,614.04,612.12,610.73,609.08,607.49,606.30,605.66,605.41,606.44,608.58,610.86,612.73,613.90,614.65,615.14,615.09,614.81,614.43,613.98,613.38,612.55,611.61,610.56,609.37,607.96,606.83,606.09,605.74,605.34,604.61,603.11,601.04,599.39,599.87,601.03,602.38,603.85,605.25,605.37,604.69,603.57,602.51,601.65,600.27,598.93,598.86,599.70,601.08,602.62,604.10,605.49,606.57,607.48,608.21,608.52,608.39,607.96,607.28,606.26,604.69,602.78,600.95,599.41,598.24,596.98,595.69,594.54,593.71,592.54,591.33,588.37,584.52,588.37,591.91,594.56,596.46,597.72,599.04,600.54,602.02,603.29,604.74,606.20,607.75,609.74,613.13,617.39,622.13,626.61,629.67,631.46,632.34,633.01,633.78,634.16,634.54,634.86,635.09,635.17,635.25,635.23,635.17,635.14,635.09,635.08,635.07,635.01,634.77,634.07,632.94,631.47,629.77,628.21,626.65,625.06,623.49,622.07,620.91,619.75,618.39,616.70,615.16,613.63,612.02,610.45,609.51,609.10,608.72,608.19,607.70,607.18,606.56,605.87,605.11,603.92,602.36,601.16,600.97,601.54,602.35,603.20,604.06,604.82,605.31,605.95,606.94,608.37,609.62,611.22,612.87,614.16,614.71,614.98,615.27,615.61,615.88,615.98,615.64,614.97,614.00,612.80,611.55,610.30,609.09,607.92
649.82,648.62,647.13,645.56,644.16,643.19,642.57,642.43,642.80,643.19,643.51,643.58,643.35,642.80,642.17,641.53,640.87,640.23,639.90,639.72,639.60,639.50,639.41,639.31,639.34,639.49,639.73,640.03,640.44,640.69,640.72,640.90,640.89,640.41,639.23,637.01,634.81,632.70,631.06,630.25,630.02,629.79,629.63,629.64,629.85,629.88,629.96,630.21,630.69,630.93,631.05,631.34,631.83,632.21,632.96,633.74,634.47,635.21,635.86,635.63,634.98,634.33,633.76,633.93,634.22,634.29,633.96,633.18,632.16,630.94,629.36,627.25,624.93,622.48,619.86,616.96,614.02,612.82,613.45,615.09,616.46,617.00,616.84,616.12,615.35,615.12,615.22,615.56,616.15,616.82,616.10,614.22,612.00,610.35,609.07,608.17,607.72,607.50,607.39,608.58,610.89,613.11,614.80,615.91,616.62,616.95,616.79,616.46,616.04,615.53,614.82,613.95,612.96,611.86,610.67,609.50,608.64,608.03,607.66,607.47,606.62,605.03,602.95,601.03,600.40,601.15,602.57,604.08,605.59,606.28,606.07,605.13,604.25,603.57,602.64,601.80,601.81,602.44,603.55,604.90,606.36,607.79,609.01,610.01,610.73,610.98,610.68,609.87,608.80,607.55,605.67,603.55,601.49,599.75,598.68,597.72,596.62,595.44,594.31,593.03,591.72,588.91,585.49,589.32,593.00,595.91,598.15,599.70,601.21,602.83,604.34,605.45,606.65,607.98,609.79,612.51,616.57,621.32,625.92,629.79,632.15,633.19,633.63,634.03,634.56,634.85,635.01,635.12,635.19,635.27,635.33,635.31,635.27,635.23,635.16,635.14,635.13,635.09,634.98,634.42,633.13,631.28,629.30,627.43,625.76,624.18,622.63,621.17,620.08,619.08,618.03,616.73,615.36,613.93,612.42,610.87,609.93,609.49,609.01,608.29,607.56,606.86,606.18,605.44,604.54,603.34,602.27,601.56,601.42,601.83,602.59,603.48,604.38,605.22,605.88,606.57,607.44,608.56,609.52,611.09,612.88,614.46,615.14,615.50,615.79,616.10,616.36,616.22,615.73,614.99,613.98,612.74,611.50,610.28,609.09,607.99
650.63,650.18,649.28,648.16,647.21,646.79,646.44,646.29,646.39,646.50,646.74,646.92,646.87,646.37,645.86,645.39,644.79,644.03,643.53,643.42,643.36,643.25,643.18,643.07,643.24,643.59,644.00,644.46,645.08,645.48,645.47,645.20,645.20,644.50,643.19,641.70,639.32,636.24,633.50,632.00,631.50,631.26,630.97,630.69,630.69,630.77,631.02,631.67,632.80,633.39,633.76,634.37,635.29,636.05,636.92,637.45,637.70,638.05,638.19,637.74,636.94,636.02,635.03,635.46,636.03,636.11,635.54,634.66,633.53,632.25,630.81,628.85,626.49,623.98,621.38,618.60,615.75,614.60,615.26,617.03,618.40,618.80,618.44,617.60,616.91,616.80,616.95,617.25,617.74,618.18,617.04,614.74,612.33,610.51,609.87,609.83,609.93,609.71,609.63,610.82,613.13,615.44,616.90,617.95,618.60,618.68,618.43,618.04,617.59,617.05,616.22,615.35,614.31,613.13,611.92,610.94,610.32,609.85,609.50,609.45,608.46,606.76,604.64,602.57,601.09,601.55,603.02,604.51,606.00,607.17,607.48,606.92,606.34,605.64,605.02,604.64,604.69,605.10,605.97,607.18,608.62,610.03,611.41,612.52,613.26,613.49,612.93,611.69,610.21,608.74,606.79,604.56,602.32,600.36,599.18,598.25,597.24,596.10,594.86,593.53,592.11,589.37,586.23,589.82,593.87,597.21,599.77,601.78,603.62,605.36,606.84,607.86,608.74,609.96,612.20,615.74,620.06,625.05,629.12,632.02,633.90,634.68,634.89,634.96,635.08,635.17,635.21,635.26,635.33,635.40,635.41,635.40,635.37,635.29,635.22,635.19,635.15,635.08,634.98,634.38,632.84,630.65,628.45,626.31,624.54,623.00,621.54,620.13,619.14,618.28,617.37,616.23,614.90,613.51,612.13,610.87,610.17,609.71,609.12,608.27,607.37,606.57,605.83,605.03,604.01,602.98,602.44,602.14,601.91,602.09,602.79,603.66,604.55,605.37,606.19,606.94,607.69,608.50,609.34,610.73,612.54,614.42,615.31,615.84,616.23,616.57,616.80,616.40,615.81,615.05,614.02,612.73,611.46,610.24,609.12,608.10
651.13,650.79,650.36,649.96,649.73,649.58,649.45,649.42,649.49,649.51,649.60,649.66,649.62,649.35,649.03,648.75,648.46,648.08,647.76,647.77,647.83,647.84,647.87,647.92,648.09,648.30,648.50,648.71,648.98,649.15,649.13,648.91,648.64,647.68,646.06,644.07,641.17,638.07,635.53,634.05,633.05,632.55,632.11,631.71,631.64,632.12,632.86,633.84,635.10,636.35,637.41,638.25,638.86,639.29,639.75,640.04,640.18,640.28,640.22,639.52,638.40,637.16,636.15,636.89,637.74,637.87,637.07,636.03,634.76,633.34,631.82,630.09,627.78,625.22,622.59,619.82,617.02,616.03,616.98,619.03,620.33,620.40,619.82,619.10,618.60,618.55,618.72,619.00,619.26,619.33,617.98,615.63,613.35,612.35,612.24,612.50,612.88,613.18,613.12,614.11,616.17,618.26,619.14,619.70,620.01,619.93,619.75,619.47,619.09,618.54,617.70,616.72,615.62,614.40,613.11,612.13,611.57,611.18,610.88,610.73,609.81,608.11,605.93,603.80,601.97,602.32,603.86,605.44,607.00,608.19,608.71,608.62,608.46,607.99,607.66,607.55,607.59,607.90,608.53,609.51,610.85,612.33,613.79,614.98,615.80,616.04,615.19,613.69,611.90,610.00,607.91,605.69,603.53,601.62,600.11,599.00,597.88,596.70,595.47,593.94,592.19,589.33,586.46,590.28,594.57,598.34,601.45,603.83,605.98,607.86,609.41,610.52,611.31,612.60,614.85,618.32,622.74,627.17,630.46,632.76,634.52,635.00,635.11,635.17,635.25,635.33,635.38,635.42,635.46,635.53,635.54,635.48,635.38,635.30,635.22,635.16,635.10,635.03,634.91,633.57,631.64,629.49,627.31,625.14,623.25,621.60,620.20,619.08,618.13,617.31,616.54,615.63,614.45,613.09,611.79,610.85,610.34,609.81,609.13,608.26,607.35,606.50,605.66,604.81,604.01,603.34,603.01,602.76,602.45,602.40,603.05,603.83,604.53,605.23,606.01,606.81,607.60,608.37,609.12,610.26,611.93,613.91,615.14,615.79,616.32,616.80,617.06,616.61,615.96,615.21,614.24,612.91,611.52,610.24,609.13,608.16
651.63,651.42,651.34,651.38,651.53,651.48,651.50,651.56,651.63,651.63,651.63,651.64,651.62,651.43,651.23,651.04,650.88,650.75,650.61,650.64,650.72,650.77,650.83,650.97,651.13,651.24,651.26,651.23,651.27,651.32,651.29,651.10,650.67,649.76,648.23,645.79,642.55,639.45,637.02,635.52,634.49,633.86,633.32,632.87,632.92,633.77,634.88,636.06,637.29,638.60,639.80,640.68,641.15,641.45,641.71,641.91,642.04,642.07,641.88,640.96,639.60,638.16,637.20,638.12,639.21,639.48,638.48,637.21,635.77,634.22,632.62,631.01,628.81,626.25,623.46,620.56,617.86,617.23,618.52,620.40,621.68,621.68,621.05,620.44,620.10,620.09,620.32,620.63,620.69,620.33,618.86,616.71,614.84,614.64,614.95,615.39,615.88,616.47,616.56,617.25,618.62,620.04,620.54,620.83,620.98,620.86,620.69,620.49,620.19,619.72,619.01,618.03,616.88,615.62,614.28,613.30,612.75,612.41,612.11,611.72,610.75,609.15,607.09,604.93,602.86,603.23,604.94,606.61,608.21,609.29,610.00,610.40,610.60,610.50,610.42,610.41,610.39,610.59,611.03,611.81,613.00,614.50,616.08,617.33,618.10,618.25,617.21,615.46,613.39,611.22,609.03,606.87,604.86,603.07,601.44,600.13,598.88,597.69,596.51,594.92,592.92,590.12,587.60,590.53,595.08,599.33,602.76,605.46,607.91,610.05,611.83,613.09,613.90,615.16,617.26,620.39,624.33,628.05,630.76,632.69,634.26,634.89,635.09,635.16,635.24,635.35,635.47,635.55,635.58,635.62,635.59,635.47,635.34,635.26,635.19,635.13,635.07,634.91,634.36,632.48,630.34,628.24,626.10,623.97,622.00,620.33,619.06,618.05,617.13,616.32,615.59,614.83,613.85,612.68,611.59,610.90,610.45,609.90,609.20,608.33,607.41,606.55,605.67,604.83,604.20,603.87,603.66,603.40,603.04,602.78,603.21,603.84,604.44,605.05,605.79,606.61,607.44,608.20,608.93,609.85,611.30,613.26,614.80,615.64,616.30,616.93,617.33,616.88,616.20,615.42,614.47,613.03,611.50,610.17,609.14,608.26
652.23,652.21,652.36,652.57,652.76,652.71,652.80,652.91,652.98,652.99,652.99,653.03,653.02,652.81,652.64,652.44,652.27,652.20,652.17,652.18,652.19,652.19,652.21,652.33,652.48,652.56,652.46,652.27,652.26,652.29,652.25,652.01,651.52,650.89,649.74,647.10,643.70,640.53,638.02,636.50,635.81,635.22,634.60,634.14,634.35,635.49,636.82,638.08,639.20,640.06,640.93,641.71,642.29,642.71,643.04,643.27,643.44,643.52,643.22,642.11,640.58,639.08,638.20,639.18,640.44,640.93,639.71,638.17,636.57,634.93,633.25,631.62,629.61,627.10,624.08,620.99,618.47,618.27,619.85,621.24,622.55,622.68,622.17,621.64,621.43,621.43,621.71,622.09,621.95,621.15,619.67,617.92,616.71,617.11,617.73,618.23,618.66,619.21,619.52,619.87,620.32,620.83,621.18,621.44,621.60,621.56,621.36,621.17,620.93,620.58,620.13,619.25,618.08,616.74,615.40,614.46,613.93,613.60,613.25,612.51,611.39,609.95,608.19,606.02,603.77,604.22,606.14,607.92,609.53,610.54,611.42,612.29,612.79,613.15,613.29,613.24,613.12,613.15,613.45,614.07,615.10,616.53,618.19,619.42,620.03,619.98,618.87,616.94,614.65,612.35,610.12,608.05,606.20,604.57,603.00,601.49,600.15,599.00,597.94,596.42,594.29,591.71,589.52,590.48,595.26,600.03,603.63,606.63,609.39,611.91,614.04,615.52,616.44,617.55,619.35,622.00,625.04,628.00,630.27,631.89,633.16,634.22,634.67,634.85,635.03,635.25,635.47,635.63,635.69,635.69,635.56,635.41,635.28,635.20,635.12,635.08,635.02,634.64,633.31,631.23,629.08,627.01,624.95,622.86,620.88,619.26,618.14,617.07,616.15,615.37,614.66,613.99,613.25,612.40,611.60,611.05,610.58,610.04,609.35,608.50,607.59,606.73,605.89,605.11,604.57,604.50,604.33,604.01,603.62,603.21,603.33,603.75,604.32,604.88,605.61,606.42,607.25,608.02,608.79,609.54,610.75,612.60,614.36,615.41,616.22,616.98,617.60,617.21,616.50,615.69,614.71,613.12,611.43,610.09,609.17,608.38
653.10,653.27,653.50,653.75,653.98,653.94,654.04,654.18,654.29,654.34,654.35,654.40,654.40,654.22,654.02,653.86,653.75,653.69,653.68,653.68,653.66,653.61,653.57,653.69,653.82,653.83,653.65,653.42,653.30,653.26,653.21,652.92,652.27,651.45,650.23,647.88,644.44,641.04,638.61,637.70,637.21,636.63,635.96,635.33,635.09,636.26,637.74,639.09,640.13,640.81,641.60,642.43,643.22,643.85,644.30,644.63,644.86,644.94,644.50,643.22,641.51,639.90,639.10,640.11,641.46,642.00,640.44,638.74,637.04,635.37,633.68,632.04,630.25,627.83,624.69,621.66,619.52,619.39,620.77,622.13,623.45,623.66,623.30,622.96,622.79,622.70,622.87,623.12,622.68,621.65,620.32,619.13,618.74,619.27,619.90,620.23,620.20,620.40,620.57,620.78,621.07,621.45,621.77,622.06,622.25,622.21,622.05,621.81,621.53,621.22,620.86,620.13,619.00,617.60,616.23,615.58,615.15,614.77,614.26,613.23,612.07,610.81,609.29,607.18,604.93,605.11,606.89,609.06,610.99,612.18,613.28,614.47,615.37,615.97,616.17,616.08,615.88,615.70,615.85,616.37,617.33,618.61,619.68,620.51,620.98,620.69,619.78,617.93,615.59,613.25,611.04,609.06,607.27,605.60,603.96,602.48,601.24,600.25,599.41,598.08,595.95,593.41,590.95,589.65,594.41,599.77,603.80,607.12,610.29,613.25,615.86,617.82,618.80,619.57,620.94,623.14,625.50,627.84,629.31,630.09,630.81,631.57,632.47,633.41,634.26,635.01,635.40,635.63,635.76,635.75,635.58,635.40,635.26,635.13,635.00,634.94,634.67,633.86,631.94,629.93,628.01,626.18,624.31,622.21,620.22,618.57,617.40,616.26,615.32,614.68,614.31,613.96,613.59,612.86,612.04,611.51,611.04,610.41,609.67,608.87,608.05,607.24,606.47,605.80,605.42,605.30,604.92,604.40,603.95,603.68,603.72,603.94,604.30,604.80,605.49,606.29,607.11,607.88,608.66,609.41,610.55,612.21,613.88,615.11,616.08,616.95,617.70,617.56,616.88,616.01,615.04,613.50,611.72,610.24,609.25,608.58
654.09,654.40,654.67,654.93,655.19,655.19,655.30,655.46,655.60,655.69,655.71,655.76,655.77,655.61,655.41,655.30,655.25,655.17,655.15,655.14,655.11,655.02,654.94,655.05,655.12,655.05,654.82,654.61,654.43,654.30,654.15,653.71,652.92,651.96,650.76,648.85,645.39,641.84,639.50,639.01,638.60,638.02,637.31,636.50,635.86,636.88,638.39,639.80,640.79,641.41,642.18,643.07,643.97,644.78,645.43,645.92,646.26,646.39,645.99,644.64,642.87,641.29,640.62,641.54,642.64,642.83,640.94,639.10,637.38,635.70,634.03,632.40,630.74,628.44,625.36,622.62,620.76,620.61,621.75,623.07,624.37,624.70,624.51,624.31,624.15,623.99,624.05,624.13,623.38,622.30,621.25,620.58,620.71,621.20,621.80,621.99,621.62,621.41,621.32,621.40,621.66,622.03,622.36,622.68,622.90,622.89,622.74,622.46,622.15,621.83,621.47,620.75,619.64,618.34,617.20,616.75,616.35,615.85,615.15,614.02,612.86,611.69,610.34,608.46,606.36,605.93,607.14,609.56,611.72,613.37,614.94,616.50,617.69,618.38,618.59,618.49,618.30,618.07,618.11,618.48,619.20,620.15,620.81,621.39,621.73,621.20,620.33,618.60,616.37,614.07,611.91,609.95,608.15,606.49,604.89,603.48,602.29,601.36,600.66,599.59,597.77,595.34,592.42,589.66,593.53,598.90,603.49,607.03,610.49,613.77,616.80,619.28,620.43,621.11,622.25,624.03,625.70,627.22,628.01,628.29,628.66,629.21,630.46,632.05,633.61,634.84,635.35,635.62,635.79,635.78,635.57,635.36,635.14,634.80,634.28,634.01,633.58,632.55,630.59,628.73,627.00,625.32,623.61,621.64,619.83,618.25,616.94,615.84,615.23,614.93,614.81,614.64,614.36,613.62,612.73,612.12,611.62,610.93,610.15,609.38,608.62,607.88,607.21,606.63,606.24,605.88,605.28,604.67,604.29,604.16,604.19,604.35,604.65,605.15,605.81,606.57,607.34,608.01,608.68,609.43,610.52,612.02,613.60,614.92,616.03,617.00,617.86,617.91,617.26,616.34,615.33,613.89,612.13,610.61,609.56,608.94
655.18,655.55,655.83,656.10,656.37,656.46,656.60,656.75,656.90,657.04,657.07,657.12,657.13,656.99,656.83,656.77,656.74,656.66,656.59,656.57,656.53,656.44,656.31,656.41,656.38,656.22,656.00,655.83,655.62,655.39,655.06,654.35,653.47,652.52,651.47,649.98,646.53,643.05,640.84,640.42,639.97,639.37,638.59,637.64,636.78,637.53,638.94,640.35,641.31,641.98,642.76,643.64,644.57,645.48,646.36,647.09,647.61,647.87,647.69,646.46,644.81,643.43,642.94,643.62,644.06,643.42,641.25,639.33,637.61,635.98,634.35,632.73,631.10,628.92,626.15,623.90,622.15,621.90,622.88,624.08,625.31,625.81,625.81,625.65,625.50,625.35,625.31,625.16,624.19,623.23,622.59,622.34,622.57,622.94,623.49,623.66,623.17,622.57,622.16,622.06,622.25,622.62,622.94,623.29,623.56,623.59,623.39,623.10,622.80,622.47,622.03,621.12,620.02,619.02,618.40,617.98,617.49,616.81,615.91,614.89,613.78,612.60,611.33,609.89,608.03,606.74,606.96,609.30,611.53,613.84,616.12,618.16,619.47,620.12,620.33,620.32,620.22,620.12,620.11,620.25,620.58,621.05,621.63,622.20,622.44,621.70,620.63,619.00,617.01,614.85,612.74,610.72,608.89,607.30,605.88,604.54,603.33,602.34,601.63,600.87,599.65,597.48,594.17,591.04,592.96,597.52,602.70,606.33,609.88,613.31,616.66,619.67,621.12,622.04,623.18,624.58,625.52,626.05,626.41,626.71,627.09,627.79,629.22,631.17,633.33,634.80,635.36,635.63,635.80,635.77,635.53,635.27,634.89,634.11,632.84,632.21,631.66,630.76,629.32,627.68,626.02,624.39,622.76,621.12,619.69,618.28,616.83,615.89,616.04,616.27,616.23,616.03,615.46,614.60,613.64,612.86,612.29,611.58,610.80,610.03,609.27,608.60,608.03,607.51,606.90,606.17,605.40,604.85,604.68,604.66,604.74,605.01,605.46,606.00,606.67,607.38,608.03,608.53,608.99,609.72,610.77,612.13,613.63,614.99,616.16,617.21,618.15,618.28,617.65,616.67,615.57,614.25,612.63,611.19,610.13,609.49
656.27,656.66,656.98,657.26,657.54,657.69,657.87,658.04,658.20,658.35,658.42,658.48,658.51,658.40,658.29,658.25,658.23,658.15,658.07,658.02,657.94,657.80,657.67,657.69,657.60,657.40,657.22,657.02,656.76,656.40,655.86,655.01,654.10,652.92,651.51,649.79,646.50,643.81,642.24,641.80,641.33,640.54,639.56,638.50,637.62,638.26,639.50,640.77,641.74,642.53,643.35,644.23,645.15,646.09,647.01,647.87,648.62,649.13,649.13,648.37,647.20,646.04,645.67,645.95,645.48,643.84,641.62,639.65,637.92,636.29,634.67,633.05,631.43,629.58,627.46,625.52,623.80,623.34,624.06,625.26,626.50,626.99,627.00,626.85,626.70,626.57,626.45,626.13,625.22,624.48,624.24,624.37,624.63,624.76,625.20,625.34,624.82,624.11,623.47,623.02,622.88,623.21,623.52,623.88,624.17,624.25,624.04,623.75,623.47,623.12,622.46,621.56,620.73,620.06,619.55,618.99,618.38,617.61,616.64,615.69,614.82,613.77,612.54,611.27,609.69,608.08,607.48,608.83,610.92,613.43,616.01,618.37,619.96,620.72,621.14,621.34,621.27,621.19,621.20,621.30,621.52,621.90,622.43,622.96,623.18,622.45,621.22,619.61,617.74,615.67,613.58,611.45,609.57,608.04,606.69,605.37,604.32,603.50,602.71,601.88,600.91,599.52,597.38,594.34,593.49,596.37,601.63,605.21,608.76,612.27,615.78,619.05,620.89,622.07,622.99,623.69,624.13,624.41,624.66,625.17,626.40,627.87,629.59,631.73,634.05,635.03,635.47,635.74,635.88,635.74,635.50,635.23,634.61,633.22,631.57,630.63,629.99,629.27,628.25,626.94,625.43,623.81,622.27,620.97,619.73,618.38,617.03,616.54,617.06,617.55,617.62,617.30,616.52,615.57,614.59,613.68,612.97,612.23,611.45,610.68,609.91,609.19,608.54,607.94,607.30,606.56,605.80,605.24,605.10,605.21,605.54,605.99,606.51,607.07,607.77,608.46,609.09,609.70,610.40,611.17,612.10,613.22,614.49,615.86,617.02,617.96,618.79,618.73,618.01,617.00,615.88,614.59,613.18,611.84,610.74,610.16
657.35,657.74,658.09,658.40,658.69,658.86,659.10,659.32,659.47,659.60,659.71,659.78,659.81,659.75,659.67,659.65,659.62,659.54,659.46,659.38,659.26,659.12,658.99,658.92,658.78,658.58,658.41,658.15,657.81,657.32,656.59,655.64,654.49,652.97,651.19,649.26,646.41,644.59,643.65,643.16,642.57,641.53,640.36,639.24,638.46,639.02,640.07,641.18,642.15,643.07,643.93,644.82,645.74,646.67,647.60,648.51,649.35,649.93,650.06,649.74,649.11,648.32,648.06,647.90,646.71,644.41,642.18,640.12,638.34,636.72,635.14,633.53,631.89,630.27,628.66,626.99,625.35,624.76,625.30,626.49,627.67,628.13,628.13,627.99,627.84,627.70,627.50,627.09,626.33,625.97,626.11,626.49,626.74,626.73,626.99,627.02,626.50,625.75,624.95,624.13,623.57,623.81,624.13,624.48,624.78,624.91,624.72,624.44,624.14,623.74,623.00,622.27,621.72,621.26,620.76,620.05,619.27,618.41,617.44,616.58,616.02,615.20,614.07,612.87,611.32,609.55,608.35,608.61,610.20,612.63,615.39,618.09,620.02,620.96,621.58,622.02,622.09,622.03,622.08,622.19,622.37,622.72,623.22,623.71,623.93,623.33,622.00,620.37,618.55,616.52,614.41,612.14,610.16,608.62,607.32,606.15,605.38,604.83,604.02,603.11,602.22,601.38,600.25,597.67,594.83,595.92,600.48,604.05,607.65,611.20,614.74,618.11,620.30,621.56,622.20,622.39,622.50,622.70,623.20,624.28,626.41,628.55,630.55,632.67,634.75,635.27,635.59,635.85,635.96,635.72,635.47,635.17,634.39,632.68,630.89,629.73,628.89,628.17,627.30,626.20,624.87,623.40,622.02,620.95,619.79,618.48,617.30,617.23,618.00,618.75,618.99,618.44,617.49,616.45,615.43,614.49,613.71,612.84,611.97,611.16,610.37,609.59,608.88,608.22,607.59,606.92,606.20,605.68,605.61,605.89,606.44,607.05,607.63,608.20,609.01,609.87,610.72,611.58,612.51,613.32,614.12,615.01,615.99,617.21,618.16,618.84,619.39,619.22,618.46,617.40,616.18,614.81,613.60,612.37,611.26,610.83
658.38,658.77,659.14,659.49,659.78,659.95,660.27,660.55,660.69,660.78,660.91,660.98,660.99,660.97,660.90,660.88,660.85,660.77,660.69,660.56,660.44,660.35,660.26,660.08,659.90,659.74,659.55,659.21,658.74,658.09,657.23,656.18,654.44,652.50,650.57,648.71,646.70,645.63,645.07,644.52,643.61,642.30,640.99,639.89,639.34,639.83,640.70,641.65,642.60,643.63,644.53,645.40,646.32,647.25,648.17,649.06,649.77,650.06,650.22,650.16,649.99,649.78,649.66,649.10,647.62,645.33,643.08,640.82,638.94,637.35,635.86,634.31,632.61,630.97,629.49,628.05,626.62,626.12,626.63,627.73,628.77,629.17,629.19,629.09,628.93,628.68,628.42,628.08,627.49,627.74,628.23,628.65,628.87,628.88,628.88,628.69,628.17,627.41,626.52,625.37,624.36,624.43,624.75,625.09,625.40,625.61,625.43,625.19,624.83,624.34,623.84,623.43,623.04,622.63,622.11,621.27,620.28,619.29,618.39,617.68,617.46,616.98,616.08,614.83,612.96,611.05,609.55,608.94,609.48,611.52,614.41,617.56,619.82,620.98,621.75,622.39,622.84,622.86,622.95,623.08,623.21,623.51,624.00,624.47,624.71,624.33,622.99,621.30,619.46,617.41,615.21,612.78,610.62,608.97,607.74,606.94,606.60,606.36,605.68,604.80,603.87,602.98,601.97,600.22,597.13,596.64,599.30,603.02,606.77,610.31,613.73,616.99,619.36,620.36,620.75,620.88,620.88,621.10,622.31,624.48,627.27,629.64,631.82,633.69,635.00,635.41,635.72,635.96,636.02,635.73,635.43,635.08,634.33,632.80,631.17,629.87,628.73,627.64,626.53,625.38,624.26,623.16,622.03,621.01,619.85,618.59,617.53,617.75,618.75,619.81,620.31,619.39,618.29,617.15,616.11,615.28,614.56,613.41,612.28,611.38,610.52,609.73,609.03,608.40,607.78,607.16,606.52,606.14,606.28,606.80,607.41,608.09,608.80,609.42,610.43,611.77,613.18,614.38,615.40,616.18,616.88,617.58,618.27,619.03,619.52,619.74,619.82,619.74,619.07,617.93,616.42,614.86,613.75,612.65,611.65,611.45
659.36,659.72,660.04,660.33,660.58,660.75,661.23,661.64,661.82,661.94,662.06,662.11,662.10,662.05,662.02,661.98,661.94,661.88,661.74,661.58,661.44,661.34,661.24,661.04,660.85,660.69,660.46,660.10,659.57,658.85,657.85,656.39,654.50,652.47,650.54,648.98,647.76,647.07,646.49,645.61,644.40,643.01,641.74,640.86,640.80,641.26,642.02,642.90,643.75,644.70,645.37,646.03,646.86,647.78,648.67,649.45,650.00,650.15,650.30,650.38,650.37,650.25,650.13,649.74,648.52,646.46,644.15,641.94,639.99,638.29,636.77,635.24,633.58,631.93,630.44,629.29,627.86,627.40,628.00,629.10,630.01,630.29,630.24,630.17,629.91,629.58,629.30,629.11,628.96,629.40,629.88,630.23,630.38,630.30,630.18,629.95,629.49,628.68,627.49,626.16,625.12,625.04,625.35,625.71,626.06,626.32,626.14,625.91,625.67,625.41,625.11,624.77,624.39,623.97,623.44,622.75,621.66,620.53,619.64,619.14,619.04,618.80,618.11,616.59,614.70,612.67,610.87,609.76,609.79,611.20,613.79,617.01,619.26,620.57,621.50,622.30,623.00,623.46,623.78,623.98,624.09,624.35,624.80,625.22,625.48,625.31,623.90,622.22,620.40,618.31,616.01,613.55,611.25,609.42,608.46,608.12,608.00,607.85,607.35,606.52,605.60,604.58,603.30,601.60,598.90,597.60,598.72,602.48,606.27,609.71,612.56,614.59,616.40,617.48,618.12,618.46,618.68,619.85,621.93,624.63,627.58,630.17,632.40,634.13,635.16,635.50,635.80,636.05,636.13,635.83,635.49,635.06,634.27,632.80,631.34,630.05,628.79,627.51,626.23,624.98,623.92,622.98,621.98,620.97,619.92,618.81,617.90,618.29,619.43,620.75,621.45,620.04,618.82,617.66,616.75,616.33,615.77,614.61,613.31,612.14,611.01,610.00,609.22,608.60,607.99,607.41,606.83,606.56,606.88,607.54,608.21,609.04,610.11,611.34,612.51,613.98,615.58,616.95,618.01,618.64,619.09,619.49,619.86,620.23,620.41,620.43,620.37,620.23,619.50,618.21,616.45,614.86,613.78,612.92,612.29,612.19
660.40,660.66,660.87,661.08,661.29,661.53,662.15,662.70,662.94,663.11,663.19,663.22,663.19,663.13,663.12,663.05,663.00,662.94,662.72,662.54,662.39,662.26,662.17,661.95,661.75,661.57,661.33,660.94,660.37,659.58,658.45,656.69,654.93,653.06,651.23,649.89,649.18,648.59,647.78,646.57,645.13,643.74,642.68,642.20,642.57,643.01,643.68,644.48,645.27,646.07,646.50,646.91,647.56,648.42,649.20,649.79,650.14,650.24,650.38,650.54,650.59,650.44,650.27,650.12,649.29,647.57,645.23,643.10,641.15,639.38,637.83,636.27,634.64,632.97,631.43,630.46,629.04,628.64,629.35,630.47,631.31,631.45,631.32,631.25,630.91,630.57,630.36,630.34,630.53,630.95,631.32,631.58,631.65,631.47,631.27,631.01,630.57,629.66,628.23,626.84,625.85,625.65,625.93,626.34,626.74,627.01,626.85,626.63,626.52,626.50,626.39,626.11,625.75,625.33,624.78,624.25,623.14,621.96,621.11,620.75,620.65,620.53,619.94,618.16,616.24,614.08,612.03,610.62,610.43,611.22,613.31,616.36,618.51,620.02,621.12,622.01,622.85,623.71,624.30,624.67,624.92,625.19,625.59,625.96,626.22,626.24,625.04,623.46,621.66,619.49,617.08,614.66,612.34,610.47,609.83,609.85,609.88,609.70,609.22,608.32,607.29,606.05,604.42,602.45,600.10,598.48,598.71,602.29,605.89,608.99,611.11,611.92,612.99,614.14,615.19,616.06,616.91,619.08,621.79,624.64,627.47,630.08,632.38,634.17,635.21,635.53,635.84,636.12,636.23,635.94,635.55,635.05,634.14,632.60,631.22,629.98,628.71,627.33,625.96,624.68,623.67,622.82,621.87,620.91,619.99,619.04,618.30,618.77,619.95,621.58,622.60,620.79,619.38,618.23,617.52,617.47,617.08,615.95,614.54,613.11,611.67,610.36,609.44,608.82,608.22,607.67,607.14,606.95,607.38,608.11,608.79,609.71,611.04,612.91,614.40,616.01,617.67,619.07,620.05,620.53,620.77,620.94,621.10,621.18,621.15,621.04,620.87,620.57,619.74,618.31,616.40,614.88,613.87,613.25,612.96,612.92
661.63,661.63,661.65,661.77,661.99,662.49,663.15,663.74,664.11,664.27,664.36,664.36,664.30,664.23,664.22,664.16,664.06,663.92,663.70,663.47,663.32,663.23,663.14,662.88,662.63,662.43,662.22,661.80,661.13,660.22,659.01,657.46,656.27,654.90,653.33,651.84,650.99,650.00,648.79,647.37,645.91,644.55,643.99,644.26,644.70,645.10,645.66,646.38,647.19,647.87,648.17,648.38,648.71,649.35,649.86,650.12,650.22,650.36,650.51,650.67,650.73,650.62,650.41,650.25,649.72,648.46,646.14,644.05,642.27,640.67,639.06,637.45,635.74,634.00,632.43,631.34,630.10,629.86,630.65,631.77,632.66,632.68,632.41,632.36,632.07,631.90,631.91,632.05,632.10,632.24,632.52,632.77,632.71,632.56,632.27,631.88,631.31,630.18,628.85,627.56,626.55,626.31,626.54,626.98,627.43,627.67,627.55,627.38,627.30,627.32,627.40,627.38,627.12,626.68,626.14,625.61,624.65,623.64,622.90,622.45,622.26,621.98,621.24,619.42,617.20,614.86,612.71,611.24,611.17,611.50,612.94,615.47,617.57,619.44,620.70,621.54,622.35,623.24,624.06,624.83,625.55,626.00,626.35,626.64,626.88,627.05,626.77,625.57,623.69,621.36,618.80,616.50,614.47,612.97,612.63,612.74,612.80,612.51,611.62,610.27,608.83,607.23,605.26,602.81,600.19,598.97,599.75,602.62,605.55,607.75,609.06,609.51,609.87,610.87,612.40,614.39,616.68,619.28,621.88,624.36,626.65,628.80,631.33,633.63,635.05,635.46,635.81,636.12,636.24,635.99,635.57,634.98,633.88,631.97,630.41,629.25,628.08,626.75,625.44,624.33,623.47,622.67,621.70,620.86,620.06,619.25,618.64,619.05,620.13,622.18,623.93,622.06,620.22,619.10,618.63,618.64,618.36,617.25,615.77,614.17,612.53,610.87,609.74,609.09,608.54,608.00,607.50,607.32,607.70,608.38,608.98,609.72,610.91,613.06,615.29,617.37,619.07,620.16,620.84,621.24,621.51,621.73,621.93,621.94,621.84,621.62,621.14,620.54,619.58,618.14,616.29,614.96,614.19,613.75,613.55,613.56
662.77,662.63,662.45,662.48,662.83,663.45,664.13,664.76,665.22,665.39,665.49,665.48,665.39,665.32,665.28,665.22,665.09,664.90,664.67,664.44,664.26,664.16,664.06,663.79,663.53,663.31,663.06,662.54,661.78,660.94,660.02,659.05,658.32,657.13,655.48,653.78,652.33,650.77,649.19,647.76,646.55,645.65,645.40,645.79,646.39,646.93,647.56,648.26,648.92,649.39,649.59,649.74,650.00,650.52,650.94,651.11,651.12,651.16,651.21,651.25,651.12,650.71,650.49,650.30,649.91,649.01,647.03,645.12,643.39,641.75,640.06,638.47,636.77,635.05,633.51,632.65,632.00,632.03,632.70,633.54,634.02,633.84,633.51,633.48,633.31,633.32,633.46,633.66,633.73,633.72,633.80,633.88,633.76,633.61,633.32,632.88,632.18,631.03,629.82,628.58,627.47,626.92,627.14,627.63,628.09,628.33,628.26,628.16,628.12,628.15,628.26,628.34,628.30,628.08,627.64,627.11,626.30,625.44,624.74,624.15,623.59,622.80,621.66,619.94,617.72,615.37,613.28,611.96,611.94,612.15,613.05,614.79,616.85,618.81,620.16,621.06,621.91,622.79,623.68,624.60,625.52,626.26,626.86,627.29,627.58,627.80,627.93,627.29,625.87,623.72,621.32,619.00,617.28,616.42,616.35,616.52,616.51,616.08,614.94,613.42,611.10,608.56,606.12,603.41,600.79,599.66,600.37,602.44,604.50,606.11,607.21,607.83,608.50,609.56,611.20,613.45,616.05,618.53,620.85,623.01,625.07,627.15,629.50,631.90,633.95,635.08,635.71,636.13,636.32,636.00,635.44,634.20,632.51,630.77,629.50,628.46,627.41,626.22,624.97,624.03,623.25,622.48,621.64,620.92,620.22,619.54,619.04,619.30,620.32,622.41,624.56,624.02,622.48,621.34,620.90,621.01,620.31,618.69,616.89,615.23,613.58,612.03,610.60,609.45,608.91,608.37,607.85,607.63,607.93,608.51,609.07,609.82,611.12,613.53,615.91,618.10,619.84,620.77,621.45,621.91,622.25,622.50,622.71,622.43,622.04,621.62,621.07,620.43,619.44,618.10,616.54,615.31,614.70,614.39,614.23,614.25
663.91,663.64,663.30,663.24,663.74,664.41,665.12,665.79,666.32,666.50,666.59,666.57,666.50,666.42,666.33,666.24,666.10,665.87,665.64,665.41,665.22,665.08,664.97,664.71,664.44,664.20,663.88,663.24,662.45,661.72,661.15,660.68,660.20,658.99,657.17,655.25,653.21,651.22,649.49,648.24,647.33,646.93,646.87,647.13,647.85,648.54,649.27,649.97,650.47,650.73,650.89,651.07,651.37,651.79,652.17,652.34,652.31,652.25,652.17,652.03,651.60,650.80,650.52,650.30,649.98,649.28,647.70,645.96,644.22,642.51,640.83,639.31,637.67,636.06,634.79,634.38,634.35,634.61,635.06,635.51,635.43,635.00,634.64,634.65,634.66,634.86,635.12,635.36,635.54,635.42,635.24,635.05,634.86,634.69,634.40,633.91,633.15,632.02,630.91,629.70,628.46,627.58,627.77,628.28,628.75,629.00,628.98,628.97,628.96,628.97,629.05,629.18,629.32,629.35,629.06,628.62,627.93,627.17,626.43,625.61,624.56,623.23,621.69,620.09,617.96,615.67,613.76,612.82,612.85,613.02,613.43,614.38,616.28,618.17,619.56,620.58,621.52,622.41,623.34,624.30,625.31,626.29,627.17,627.80,628.20,628.49,628.80,628.74,628.01,626.34,624.38,622.05,620.42,619.89,619.86,620.01,619.93,619.40,618.24,616.85,613.86,610.40,607.36,604.50,602.01,600.88,601.21,602.38,603.41,604.57,605.70,606.65,607.82,609.00,610.59,612.75,615.15,617.33,619.34,621.26,623.22,625.37,627.50,629.83,632.37,634.32,635.41,636.11,636.43,635.97,635.00,633.03,630.85,629.47,628.54,627.65,626.74,625.79,624.74,624.01,623.35,622.70,622.18,621.58,620.92,620.22,619.63,619.61,620.64,622.69,625.10,626.16,625.33,624.39,624.00,624.12,622.86,620.48,618.17,616.43,614.88,613.53,611.75,609.97,609.29,608.74,608.22,607.94,608.13,608.63,609.17,610.01,611.52,614.15,616.52,618.68,620.35,621.19,621.97,622.55,622.98,623.27,623.31,622.73,622.03,621.40,620.84,620.21,619.26,618.06,616.81,615.85,615.43,615.23,615.13,615.22
665.10,664.63,664.24,664.16,664.71,665.38,666.13,666.85,667.43,667.66,667.71,667.67,667.60,667.52,667.38,667.25,667.08,666.85,666.61,666.38,666.19,666.04,665.89,665.66,665.38,665.08,664.67,664.02,663.30,662.67,662.15,661.51,660.64,659.21,657.30,655.15,653.05,651.37,650.16,649.44,648.80,648.48,648.35,648.46,649.05,649.73,650.43,651.09,651.58,651.80,652.07,652.43,652.82,653.11,653.43,653.54,653.50,653.46,653.34,652.93,652.13,651.03,650.46,650.21,649.82,649.01,647.57,645.90,644.16,642.49,641.04,639.77,638.20,637.01,636.68,637.03,637.23,637.41,637.60,637.59,636.93,636.26,635.88,635.94,636.30,636.71,637.10,637.47,637.86,637.62,637.10,636.53,636.11,635.92,635.49,634.93,634.24,633.12,631.98,630.74,629.48,628.47,628.44,628.93,629.44,629.66,629.79,629.81,629.78,629.75,629.83,629.91,630.05,630.15,630.12,629.96,629.36,628.55,627.59,626.25,624.65,623.05,621.51,619.90,617.82,615.55,614.04,614.06,614.19,614.18,614.20,614.58,615.97,617.56,618.97,620.16,621.20,622.23,623.23,624.25,625.29,626.24,627.12,627.88,628.52,628.98,629.42,629.79,629.83,629.24,628.35,626.14,623.90,622.35,621.61,621.51,621.39,621.01,620.33,619.72,617.36,613.81,609.86,606.93,604.74,603.61,603.33,603.23,603.10,603.86,605.11,606.26,607.43,608.64,610.13,611.94,613.83,615.75,617.61,619.43,621.35,623.58,625.77,627.98,630.28,632.60,634.59,635.99,636.57,635.83,633.73,631.42,629.55,628.51,627.64,626.82,626.14,625.64,625.24,624.89,624.55,624.37,624.59,624.10,623.29,622.14,620.79,620.14,621.37,623.59,626.12,628.08,628.50,628.51,628.50,628.27,626.57,623.24,620.11,618.12,616.85,615.38,613.25,610.94,609.66,609.05,608.61,608.34,608.39,608.83,609.36,610.40,612.21,614.88,617.50,619.47,620.81,621.65,622.43,623.15,623.74,623.97,623.41,622.67,621.88,621.12,620.46,619.78,618.91,617.83,616.79,616.71,616.71,616.63,616.62,617.07
666.14,665.64,665.24,665.04,665.32,666.11,667.02,667.85,668.47,668.80,668.87,668.80,668.69,668.58,668.43,668.25,668.05,667.82,667.58,667.35,667.16,667.00,666.84,666.60,666.30,665.95,665.47,664.83,664.10,663.36,662.64,661.81,660.81,659.28,657.28,655.16,653.65,652.62,651.91,651.42,650.86,650.55,650.39,650.41,650.75,651.23,651.74,652.25,652.71,653.01,653.40,653.84,654.24,654.39,654.67,654.77,654.70,654.64,654.42,653.75,652.69,651.45,650.51,650.11,649.52,648.50,647.15,645.70,644.10,642.55,641.28,640.16,638.99,638.47,638.90,639.44,639.67,639.74,639.66,639.30,638.33,637.54,637.17,637.30,637.75,638.31,638.84,639.29,639.70,639.40,638.78,638.09,637.54,637.10,636.45,635.74,635.01,633.90,632.46,631.02,629.82,629.25,629.46,630.00,630.49,630.72,630.90,630.92,630.83,630.68,630.66,630.72,630.81,630.87,630.85,630.64,630.12,629.36,628.28,626.59,624.60,622.82,621.25,619.55,617.35,615.40,614.52,615.24,615.64,615.63,615.52,615.57,616.12,617.28,618.67,620.01,621.09,622.17,623.20,624.24,625.29,626.23,627.07,627.88,628.64,629.27,629.85,630.46,630.88,630.82,630.33,628.80,626.95,625.21,623.98,623.19,622.85,622.73,622.43,622.05,620.32,617.34,613.42,609.85,607.46,606.13,605.46,604.67,603.95,604.04,604.79,605.94,607.13,608.30,609.52,610.82,612.28,614.13,616.10,618.08,620.10,622.40,624.85,627.21,629.42,631.84,634.20,636.06,636.87,635.67,632.76,630.40,628.97,628.32,627.72,627.22,626.82,626.55,626.37,626.25,626.10,626.11,626.66,626.72,626.46,625.59,623.90,622.09,622.54,624.47,627.09,629.22,630.03,630.33,630.43,630.20,629.02,626.68,623.99,621.44,619.40,617.31,614.79,612.10,610.04,609.32,608.91,608.66,608.73,609.13,609.77,611.14,613.30,615.83,618.37,620.07,621.14,622.03,622.90,623.75,624.30,624.26,623.44,622.60,621.75,620.92,620.17,619.43,618.60,617.81,617.36,617.69,618.00,618.17,618.36,618.95
