816.16,816.38,816.49,816.80,817.88,819.19,820.04,820.52,820.68,820.46,820.05,819.29,818.35,817.59,817.24,817.33,817.42,817.24,817.16,817.12,816.90,816.34,815.28,814.20,813.05,811.99,811.34,811.42,811.96,812.55,812.83,812.26,811.58,811.05,810.77,810.80,810.86,810.83,810.67,810.43,810.42,810.42,810.43,810.43,810.43,810.44,810.62,810.90,811.06,810.49,810.03,809.36,808.17,806.44,804.65,802.98,801.47,800.12,799.00,798.03,797.11,796.20,795.33,794.54,793.94,793.56,793.22,792.14,790.94,789.85,788.90,787.63,784.92,781.90,779.44,777.97,777.07,776.94,777.33,777.69,778.05,776.45,774.05,772.44,772.75,773.66,774.50,775.13,775.56,775.10,774.00,772.63,771.48,771.39,771.49,771.45,771.16,770.61,769.64,769.72,770.78,771.60,771.19,770.13,768.46,766.04,763.29,762.37,762.56,762.99,762.26,761.68,761.06,760.43,759.96,759.70,759.88,759.76,758.91,757.71,755.85,753.85,752.00,750.80,751.77,753.06,754.21,755.12,755.37,754.32,752.91,751.56,750.25,748.40,747.64,748.20,749.83,750.98,751.24,751.12,750.99,750.97,750.96,750.93,750.84,750.60,749.85,749.09,748.37,747.62,747.04,746.91,747.28,748.09,748.98,750.16,750.75,750.70,750.33,750.02,749.66,749.34,749.24,749.80,750.75,751.75,752.43,752.15,751.46,750.74,750.13,749.66,749.24,748.85,748.47,748.05,747.51,747.00,746.55,746.20,745.89,745.59,745.33,745.10,744.85,744.57,744.52,744.38,744.03,743.63,743.24,742.76,742.18,741.45,740.61,739.71,738.68,737.50,736.28,735.10,734.19,733.67,733.67,733.68,733.73,733.75,733.67,733.37,732.52,731.52,730.25,727.97,724.72,721.84,719.94,719.44,719.34,718.66,717.57,716.17,714.51,713.39,712.66,712.01,711.07,710.14,708.45,706.38,704.38,702.75,703.36,705.28,707.90,710.46,711.14,710.12,708.24,706.29,704.38,704.51,705.90,707.95,710.14,711.75,713.06,713.92,713.82,713.49,713.20,713.01,713.09,713.89,713.90,712.97,711.15,708.53
818.71,819.02,818.96,819.00,819.88,821.00,821.72,822.20,822.44,822.22,821.85,821.14,820.27,819.66,819.46,819.47,819.49,819.39,819.05,818.56,817.84,816.88,815.75,814.66,813.63,812.80,812.43,812.72,813.21,813.63,813.74,813.11,812.42,811.89,811.64,811.75,811.78,811.78,811.70,811.55,811.58,811.60,811.60,811.60,811.60,811.65,811.79,812.00,812.14,811.72,811.38,810.84,809.77,808.05,806.35,804.84,803.38,801.71,800.00,798.82,797.91,797.08,796.44,795.96,795.66,795.46,795.04,793.91,792.63,791.39,790.05,787.59,784.51,781.51,779.32,778.94,779.01,779.23,779.49,779.60,778.98,776.91,775.04,774.80,775.12,775.80,776.56,777.14,777.12,776.37,775.13,774.02,773.75,773.94,773.90,773.58,773.00,772.39,771.64,771.47,771.97,772.67,772.41,771.52,770.14,768.26,766.05,765.52,765.74,765.94,765.32,764.80,764.03,763.01,761.98,761.39,761.59,761.30,759.89,758.42,756.66,754.82,753.18,752.33,753.20,754.35,755.49,756.38,755.81,754.30,752.59,750.97,749.60,748.86,749.11,750.05,751.22,752.21,752.36,752.16,751.98,751.96,751.92,751.85,751.64,751.00,750.14,749.33,748.57,747.91,747.86,747.95,748.24,748.78,749.51,751.02,751.82,751.83,751.50,751.19,750.88,750.51,750.21,750.40,751.10,751.96,752.72,752.97,752.37,751.65,751.01,750.48,749.92,749.54,749.18,748.76,748.24,747.79,747.42,747.10,746.80,746.54,746.31,746.05,745.76,745.52,745.34,745.04,744.60,744.16,743.72,743.07,742.29,741.46,740.56,739.68,738.69,737.53,736.35,735.18,734.61,734.51,734.52,734.57,734.60,734.54,734.27,733.60,732.66,731.66,730.57,729.09,726.54,723.80,721.76,721.24,721.11,720.51,719.46,718.05,716.54,715.30,714.25,713.30,712.28,711.00,708.78,706.11,703.83,703.56,705.34,707.76,710.13,711.83,711.12,709.22,707.22,705.94,704.79,705.44,706.88,708.54,710.35,711.89,713.32,714.60,715.42,715.28,714.98,714.75,714.76,715.46,714.94,713.50,711.34,708.39
821.04,821.39,821.28,821.17,821.79,822.81,823.42,823.87,824.18,823.97,823.56,822.88,822.07,821.43,821.16,821.07,821.04,820.89,820.25,819.45,818.48,817.39,816.38,815.24,814.21,813.59,813.65,814.04,814.49,814.75,814.62,813.95,813.27,812.76,812.54,812.67,812.70,812.74,812.75,812.69,812.75,812.76,812.76,812.77,812.81,812.88,812.99,813.12,813.21,812.88,812.53,811.91,810.86,809.53,808.17,806.86,805.43,803.55,801.59,800.21,799.20,798.39,797.98,797.70,797.52,797.34,796.87,795.72,794.32,792.73,790.65,787.73,784.77,782.41,781.18,781.41,781.69,781.87,781.82,781.21,779.84,777.93,776.82,777.42,777.76,778.19,778.71,779.05,778.52,777.47,776.59,776.13,776.20,776.28,776.00,775.47,774.82,774.20,773.60,773.33,773.47,773.86,773.33,772.36,771.14,769.80,768.68,768.48,768.60,768.61,768.15,767.74,766.88,765.64,764.31,763.28,763.37,763.03,761.41,759.80,758.29,756.56,754.89,754.25,755.12,756.24,757.19,757.62,756.62,754.83,752.84,751.00,749.89,749.99,750.68,751.60,752.49,753.33,753.42,753.19,752.99,752.94,752.88,752.66,752.19,751.32,750.35,749.51,748.88,748.55,748.80,749.12,749.49,749.94,750.61,751.99,752.84,752.98,752.66,752.29,751.92,751.50,751.11,751.19,751.63,752.22,752.85,753.42,753.16,752.56,751.91,751.37,750.79,750.36,749.97,749.53,749.07,748.66,748.32,748.02,747.75,747.51,747.24,746.92,746.59,746.28,745.96,745.56,745.10,744.62,743.99,743.19,742.31,741.43,740.53,739.63,738.64,737.56,736.40,735.58,735.30,735.36,735.39,735.44,735.41,735.17,734.56,733.59,732.68,731.78,730.81,729.65,727.76,725.48,723.63,722.97,722.30,721.25,720.00,718.68,717.40,716.08,714.81,713.63,712.50,711.17,708.74,705.85,703.82,705.20,707.58,709.92,711.66,711.95,710.29,708.50,707.21,706.54,705.80,706.39,707.68,709.22,710.75,712.18,713.59,715.03,716.36,716.81,716.75,716.52,716.43,716.73,715.60,713.71,711.31,708.22
823.26,823.60,823.51,823.34,823.69,824.63,825.14,825.55,825.91,825.71,825.24,824.56,823.78,823.05,822.59,822.39,822.28,821.98,821.06,820.07,819.02,817.97,817.10,815.88,814.88,814.49,814.98,815.39,815.80,815.88,815.48,814.80,814.10,813.63,813.44,813.58,813.62,813.73,813.83,813.86,813.92,813.94,813.94,813.96,814.03,814.11,814.19,814.27,814.29,814.01,813.58,812.84,811.82,810.97,810.00,808.89,807.52,805.64,803.78,802.32,801.15,800.26,800.01,799.77,799.52,799.22,798.66,797.42,795.79,793.72,790.90,788.04,785.71,784.36,784.21,784.64,784.70,784.54,784.00,782.51,780.61,779.23,778.96,779.94,780.29,780.51,780.77,780.81,779.88,778.65,778.30,778.55,778.66,778.44,777.89,777.26,776.63,776.01,775.53,775.24,775.11,775.02,774.07,772.96,771.90,771.07,771.06,771.09,771.05,770.93,770.62,770.29,769.41,768.10,766.65,765.25,765.20,764.86,763.26,761.62,760.33,758.56,756.70,756.32,757.31,758.38,759.01,758.84,757.73,755.76,753.48,751.48,750.87,751.50,752.32,753.04,753.80,754.44,754.47,754.23,754.02,753.93,753.80,753.36,752.58,751.58,750.53,749.74,749.35,749.50,749.96,750.49,751.00,751.49,752.14,753.17,753.90,754.12,753.76,753.32,752.86,752.37,751.96,752.07,752.31,752.60,753.03,753.72,753.86,753.45,752.83,752.29,751.75,751.26,750.79,750.35,749.96,749.57,749.22,748.92,748.65,748.39,748.05,747.66,747.29,746.91,746.48,746.02,745.54,745.00,744.15,743.22,742.30,741.38,740.52,739.56,738.59,737.62,736.55,736.18,736.15,736.22,736.28,736.27,736.06,735.52,734.52,733.32,732.49,731.76,730.93,729.85,728.49,726.77,725.23,724.36,723.00,721.38,719.89,718.71,717.61,716.23,714.81,713.45,712.21,710.96,708.48,705.68,704.32,707.16,709.81,711.73,712.55,711.36,709.21,708.16,707.98,707.77,707.18,707.38,708.33,709.82,711.18,712.53,713.92,715.39,716.94,718.09,718.39,718.25,718.04,717.80,716.12,713.85,711.26,708.15
825.51,825.78,825.75,825.63,825.78,826.46,826.92,827.29,827.56,827.44,826.94,826.25,825.46,824.65,824.01,823.69,823.35,822.69,821.67,820.70,819.75,818.81,817.79,816.53,815.90,815.94,816.46,816.92,817.13,816.97,816.39,815.65,814.95,814.50,814.34,814.45,814.60,814.76,814.92,815.06,815.09,815.14,815.17,815.19,815.27,815.34,815.42,815.48,815.45,815.13,814.61,813.95,813.18,812.41,811.54,810.61,809.57,808.30,807.16,806.07,804.81,803.48,803.15,802.60,801.86,801.08,800.35,798.65,796.37,793.71,790.86,788.63,787.95,787.87,787.87,787.90,787.52,786.65,785.22,783.12,781.04,780.51,780.95,781.59,781.78,782.02,782.28,782.29,781.43,780.54,780.38,780.67,780.78,780.26,779.66,779.07,778.44,777.78,777.45,777.14,776.66,775.83,774.73,773.79,773.11,772.76,772.73,772.69,772.60,772.44,772.18,771.79,771.01,769.86,768.47,767.15,767.07,766.75,765.34,763.86,762.30,759.97,757.78,758.22,759.51,760.26,760.39,760.03,759.26,757.14,754.51,752.41,752.52,753.28,754.06,754.75,755.41,755.67,755.57,755.31,755.05,754.90,754.50,753.80,752.85,751.79,750.76,750.19,750.26,751.04,751.78,752.46,753.02,753.53,754.20,754.95,755.27,755.12,754.65,754.18,753.68,753.17,752.81,752.97,753.20,753.44,753.73,754.13,754.47,754.26,753.75,753.26,752.72,752.20,751.68,751.20,750.86,750.48,750.11,749.72,749.27,748.91,748.50,748.08,747.71,747.37,746.93,746.47,745.95,745.18,744.20,743.22,742.30,741.38,740.52,739.56,738.59,737.72,737.12,737.00,737.02,737.06,737.11,736.98,736.22,735.09,733.81,732.48,731.68,731.22,730.78,729.85,728.59,727.16,725.75,724.45,722.91,721.35,720.01,718.90,717.62,716.18,714.70,713.24,711.90,710.65,708.10,705.77,705.61,708.70,711.47,712.75,712.28,710.41,708.71,708.87,709.73,709.47,708.81,708.45,708.78,709.91,711.32,712.83,714.38,715.96,717.55,718.95,719.57,719.67,719.45,718.72,716.84,714.40,711.64,708.63
827.74,827.95,827.96,827.90,827.96,828.30,828.62,828.91,829.13,829.10,828.57,827.83,826.98,826.12,825.35,824.79,824.20,823.36,822.33,821.46,820.59,819.59,818.38,817.22,816.99,817.40,817.94,818.31,818.30,817.93,817.26,816.47,815.68,815.29,815.24,815.33,815.51,815.74,815.98,816.19,816.28,816.34,816.37,816.38,816.46,816.54,816.60,816.63,816.58,816.27,815.82,815.28,814.60,813.83,813.00,812.20,811.39,810.51,809.87,809.11,808.01,806.61,805.89,804.96,803.91,802.72,801.11,799.05,796.50,793.85,791.64,790.07,790.03,790.32,790.29,790.14,789.48,788.13,786.17,783.81,782.30,782.13,782.64,783.18,783.34,783.54,783.75,783.77,783.15,782.56,782.47,782.69,782.68,781.99,781.30,780.67,780.08,779.48,779.02,778.48,777.70,776.60,775.71,775.00,774.52,774.36,774.27,774.22,774.11,773.90,773.63,773.16,772.36,771.29,770.05,769.04,768.90,768.59,767.44,765.86,763.63,760.88,758.78,759.76,761.12,761.87,761.87,761.16,760.27,758.03,755.58,753.95,754.37,755.06,755.78,756.44,756.87,756.83,756.63,756.38,756.09,755.73,755.07,754.19,753.15,752.12,751.30,751.00,751.43,752.74,753.75,754.51,755.11,755.63,756.18,756.61,756.64,756.32,755.75,755.20,754.64,754.09,753.70,753.88,754.11,754.34,754.57,754.81,755.14,755.05,754.65,754.16,753.62,753.08,752.55,752.08,751.75,751.34,750.88,750.37,749.79,749.35,748.93,748.53,748.20,747.83,747.39,746.93,746.37,745.48,744.43,743.43,742.46,741.49,740.57,739.62,738.73,738.07,737.89,737.90,737.94,737.96,737.89,737.17,735.79,734.25,732.90,731.60,730.81,730.41,730.12,729.25,727.99,726.68,725.43,724.24,722.97,721.57,720.24,719.02,717.58,716.12,714.61,713.10,711.67,710.24,707.67,705.81,706.57,709.63,712.56,713.32,711.76,709.65,708.86,709.80,711.16,711.27,710.57,709.91,709.80,710.48,711.77,713.34,714.94,716.54,718.14,719.55,720.37,720.69,720.51,719.67,717.84,715.34,712.42,709.51
829.80,829.98,830.03,830.02,830.03,830.07,830.20,830.40,830.59,830.61,830.04,829.21,828.28,827.37,826.53,825.71,824.89,824.05,823.09,822.33,821.47,820.34,819.02,818.08,818.13,818.77,819.37,819.62,819.35,818.80,818.06,817.22,816.35,816.03,816.14,816.23,816.38,816.67,816.99,817.25,817.47,817.53,817.54,817.56,817.63,817.70,817.73,817.73,817.68,817.41,817.15,816.72,816.04,815.27,814.45,813.73,813.05,812.30,811.87,811.32,810.47,809.28,808.08,806.84,805.63,804.05,801.18,798.89,796.47,794.30,793.10,792.11,791.88,791.86,791.72,791.55,790.70,789.12,786.98,784.71,784.22,784.08,784.22,784.80,785.01,785.12,785.23,785.28,784.99,784.63,784.55,784.63,784.45,783.70,782.86,782.14,781.59,781.07,780.30,779.40,778.43,777.47,776.99,776.51,776.08,775.87,775.77,775.75,775.63,775.38,775.06,774.49,773.61,772.54,771.53,770.88,770.66,770.34,769.42,767.57,764.49,761.52,759.87,761.09,762.34,763.26,763.34,762.15,760.80,758.49,756.63,755.94,756.37,756.88,757.51,758.05,758.15,757.92,757.65,757.39,757.06,756.40,755.55,754.56,753.51,752.60,752.11,752.06,752.77,754.48,755.74,756.58,757.19,757.65,758.01,758.12,758.01,757.66,757.05,756.37,755.71,755.08,754.61,754.77,755.00,755.23,755.46,755.68,755.84,755.79,755.51,755.00,754.46,753.92,753.42,752.98,752.63,752.13,751.55,750.92,750.26,749.78,749.37,749.03,748.74,748.31,747.84,747.38,746.82,745.88,744.83,743.80,742.77,741.72,740.74,739.80,739.05,738.65,738.79,738.84,738.87,738.86,738.49,736.96,735.01,733.23,731.87,730.67,729.85,729.38,729.00,728.12,726.81,725.50,724.39,723.63,722.89,721.75,720.41,718.96,717.46,716.00,714.50,712.97,711.48,709.77,707.26,705.82,707.15,710.05,713.17,713.59,711.22,709.16,709.42,710.75,712.22,713.03,712.45,711.72,711.32,711.52,712.52,713.99,715.55,717.11,718.68,719.99,720.92,721.41,721.30,720.62,719.04,716.69,713.81,711.07
831.14,831.31,831.37,831.37,831.37,831.37,831.45,831.58,831.72,831.66,830.93,829.96,828.97,828.10,827.24,826.39,825.60,824.89,824.10,823.20,822.24,821.27,820.35,819.65,819.40,819.73,820.66,821.00,820.41,819.53,818.68,817.84,817.13,816.92,817.06,817.14,817.29,817.53,817.87,818.28,818.57,818.68,818.73,818.77,818.80,818.83,818.84,818.82,818.75,818.56,818.33,818.02,817.51,816.76,816.05,815.37,814.67,813.92,813.33,812.47,811.42,810.34,809.32,808.24,806.79,804.61,801.26,798.90,797.00,795.54,794.79,794.07,793.55,793.26,793.08,792.58,791.35,789.68,787.80,786.14,786.37,786.45,786.34,786.39,786.66,786.80,786.81,786.78,786.82,786.72,786.64,786.53,786.22,785.45,784.56,783.75,783.07,782.43,781.42,780.39,779.52,778.93,778.53,778.12,777.74,777.48,777.33,777.26,777.10,776.81,776.48,775.79,774.89,773.95,773.11,772.48,772.18,771.73,770.72,768.89,765.40,762.59,761.50,762.63,763.81,764.51,764.27,762.73,761.10,758.78,757.67,758.19,758.69,759.02,759.29,759.44,759.31,758.98,758.60,758.19,757.68,756.86,755.95,754.97,754.03,753.42,753.17,753.26,754.08,755.95,757.60,758.61,759.15,759.35,759.48,759.50,759.34,758.98,758.38,757.62,756.80,756.03,755.51,755.58,755.79,756.02,756.25,756.46,756.45,756.37,756.19,755.83,755.31,754.77,754.31,753.92,753.40,752.78,752.12,751.45,750.78,750.33,749.94,749.57,749.21,748.76,748.30,747.86,747.30,746.29,745.26,744.21,743.16,742.16,741.29,740.46,739.83,739.56,739.71,739.82,739.83,739.50,738.38,736.52,734.45,732.49,730.79,729.44,728.49,727.89,727.44,726.56,725.17,723.74,722.53,721.72,721.19,720.65,719.71,718.30,716.91,715.59,714.14,712.61,711.06,709.27,707.05,705.92,707.24,709.94,713.36,713.81,711.13,709.20,709.80,711.32,713.00,714.38,714.52,713.93,713.27,713.00,713.54,714.70,716.11,717.62,719.11,720.38,721.45,722.11,722.06,721.34,720.27,718.85,717.02,714.85
832.40,832.58,832.63,832.63,832.60,832.60,832.64,832.74,832.80,832.47,831.59,830.57,829.60,828.77,827.94,827.17,826.47,825.82,825.06,824.15,823.28,822.54,821.91,821.30,820.76,820.82,821.90,822.27,821.45,820.29,819.25,818.43,817.93,817.81,817.93,818.02,818.18,818.37,818.69,819.22,819.59,819.74,819.87,820.03,820.03,820.01,820.00,819.99,819.91,819.75,819.53,819.29,818.95,818.32,817.68,816.97,816.19,815.37,814.55,813.49,812.33,811.27,810.42,809.51,807.96,805.49,802.21,799.75,798.01,796.84,796.22,795.68,795.10,794.61,794.16,793.27,791.78,790.11,788.62,787.96,788.64,788.85,788.59,788.27,788.36,788.39,788.32,788.25,788.43,788.57,788.58,788.41,787.99,787.20,786.30,785.39,784.54,783.77,782.68,781.66,780.87,780.35,779.96,779.66,779.38,779.09,778.90,778.78,778.57,778.24,777.90,777.15,776.30,775.47,774.74,774.08,773.52,772.74,771.48,769.65,765.98,763.75,763.65,764.66,765.63,765.91,765.24,763.51,761.73,759.50,758.96,760.30,760.85,760.96,760.88,760.70,760.44,759.96,759.42,758.84,758.16,757.26,756.34,755.50,754.85,754.59,754.38,754.42,755.21,757.15,758.99,760.36,761.05,761.11,761.09,761.07,760.84,760.36,759.63,758.73,757.77,756.91,756.37,756.38,756.56,756.80,757.01,757.12,757.01,756.90,756.80,756.59,756.11,755.59,755.13,754.67,754.01,753.30,752.62,751.99,751.41,750.98,750.59,750.17,749.71,749.22,748.75,748.32,747.75,746.69,745.67,744.66,743.70,742.84,742.15,741.44,740.93,740.76,740.87,740.88,740.61,739.86,738.28,736.20,734.07,731.95,729.97,728.46,727.24,726.39,725.76,724.85,723.50,722.01,720.64,719.63,719.02,718.63,717.96,716.87,715.75,714.57,713.27,711.88,710.49,708.74,706.90,706.20,707.70,710.21,713.72,714.14,711.29,709.52,710.39,712.10,713.95,715.65,716.48,716.12,715.33,714.70,714.86,715.61,716.73,718.08,719.48,720.74,721.89,722.73,722.94,722.22,721.44,720.64,719.63,718.07
833.67,833.87,833.93,833.91,833.85,833.84,833.84,833.89,833.83,833.09,832.14,831.17,830.28,829.50,828.73,828.11,827.51,826.83,825.98,825.25,824.65,824.14,823.62,822.91,822.21,822.14,823.15,823.41,822.50,821.17,819.89,819.09,818.75,818.70,818.78,818.88,819.08,819.22,819.51,820.08,820.53,820.71,820.97,821.31,821.33,821.27,821.25,821.24,821.20,821.00,820.78,820.57,820.34,819.91,819.27,818.46,817.55,816.62,815.60,814.52,813.41,812.32,811.50,810.69,809.19,806.88,804.22,801.65,799.59,798.11,797.30,796.90,796.51,795.89,794.94,793.72,792.16,790.58,789.55,790.07,790.99,791.19,790.89,790.46,790.16,789.99,789.84,789.74,789.87,790.17,790.33,790.20,789.70,788.90,788.00,787.02,786.03,785.17,784.14,783.21,782.41,781.64,781.24,781.11,780.98,780.69,780.47,780.31,780.06,779.69,779.34,778.59,777.81,777.09,776.37,775.67,774.68,773.39,771.77,769.93,766.29,765.04,766.28,767.13,767.73,767.45,766.37,764.59,762.78,760.70,760.50,762.22,762.74,762.60,762.25,761.87,761.57,760.89,760.13,759.37,758.57,757.65,756.76,756.20,756.03,756.08,755.74,755.53,756.16,758.11,759.95,761.86,762.93,762.98,762.91,762.83,762.48,761.79,760.74,759.68,758.61,757.72,757.21,757.17,757.35,757.57,757.72,757.67,757.53,757.42,757.37,757.28,756.87,756.39,755.85,755.22,754.47,753.73,753.09,752.58,752.16,751.71,751.30,750.84,750.25,749.70,749.21,748.74,748.14,747.09,746.10,745.19,744.41,743.78,743.27,742.69,742.30,742.23,742.20,741.88,741.10,739.88,738.21,736.06,733.84,731.63,729.53,727.87,726.29,725.04,724.11,723.13,721.93,720.52,719.10,717.91,717.03,716.34,715.70,715.04,714.22,713.09,711.93,710.85,709.76,708.17,706.83,706.75,708.61,711.00,714.34,714.64,711.80,710.14,711.28,713.19,715.15,716.93,718.27,718.17,717.38,716.54,716.44,716.73,717.47,718.57,719.90,721.14,722.31,723.34,723.92,723.26,722.46,721.77,721.10,720.07
834.85,835.09,835.20,835.20,835.13,835.08,835.06,834.97,834.62,833.80,832.89,832.00,831.14,830.35,829.73,829.21,828.59,827.81,827.17,826.78,826.39,825.90,825.32,824.51,823.77,823.69,824.64,824.69,823.74,822.47,821.25,820.30,819.80,819.64,819.70,819.87,820.01,820.17,820.48,820.98,821.40,821.67,822.06,822.52,822.66,822.66,822.62,822.57,822.51,822.34,822.12,821.88,821.59,821.16,820.44,819.57,818.63,817.65,816.59,815.53,814.47,813.40,812.51,811.57,810.36,808.88,807.26,805.05,802.26,799.68,798.41,798.02,797.63,796.85,795.62,794.47,793.27,792.05,791.34,792.14,793.03,793.28,793.06,792.63,792.42,792.25,792.05,791.82,791.67,791.92,791.90,791.56,790.98,790.24,789.30,788.33,787.46,786.64,785.69,784.77,783.90,783.04,782.48,782.40,782.39,782.16,782.06,781.95,781.71,781.33,780.94,780.14,779.31,778.52,777.72,776.89,775.59,773.95,772.11,770.27,767.34,767.08,769.02,769.36,769.31,768.84,767.81,766.02,763.95,762.02,762.13,764.09,764.35,764.01,763.53,763.06,762.63,761.82,760.92,759.99,759.02,758.07,757.46,757.35,757.59,757.78,757.42,756.96,757.27,759.11,761.26,763.53,764.79,764.81,764.77,764.54,763.93,762.98,761.79,760.58,759.42,758.53,758.08,757.96,758.13,758.28,758.32,758.19,758.00,757.91,757.89,757.85,757.56,756.99,756.31,755.60,754.88,754.26,753.73,753.27,752.88,752.47,752.07,751.60,750.97,750.29,749.71,749.17,748.55,747.59,746.79,746.09,745.46,744.91,744.47,744.01,743.73,743.58,742.91,741.93,740.69,739.26,737.70,735.95,733.91,731.78,729.75,728.00,726.21,724.60,723.24,721.98,720.82,719.99,719.43,718.98,718.48,717.80,716.91,715.80,714.50,712.51,711.02,710.01,708.78,707.44,707.17,707.94,709.67,712.13,715.07,715.57,713.43,711.62,712.55,714.50,716.62,718.45,719.66,719.76,719.15,718.26,717.97,718.09,718.61,719.53,720.92,722.14,723.22,724.18,724.75,723.91,722.83,721.81,720.86,719.86
836.03,836.31,836.45,836.48,836.42,836.35,836.26,835.98,835.38,834.56,833.71,832.86,832.01,831.21,830.75,830.31,829.69,828.93,828.52,828.38,828.15,827.68,826.98,826.16,825.40,825.28,826.19,826.17,825.24,824.10,823.02,821.89,821.17,820.92,820.98,821.13,821.17,821.26,821.50,821.90,822.29,822.67,823.19,823.74,824.00,824.05,824.00,823.93,823.84,823.67,823.46,823.18,822.82,822.31,821.51,820.60,819.63,818.58,817.50,816.47,815.45,814.41,813.45,812.42,811.52,810.77,809.97,808.25,805.05,801.63,799.75,799.18,798.70,797.92,796.81,795.70,794.83,793.97,793.48,794.30,795.17,795.43,795.22,794.82,794.73,794.64,794.45,794.12,793.76,793.68,793.35,792.79,792.16,791.49,790.54,789.63,788.90,788.13,787.24,786.30,785.36,784.46,783.79,783.74,783.84,783.70,783.68,783.64,783.41,783.01,782.59,781.75,780.81,779.87,778.92,777.97,776.47,774.63,772.68,770.86,768.64,769.06,771.26,771.27,770.78,770.22,769.32,767.62,765.13,763.53,764.05,766.10,766.11,765.58,764.90,764.29,763.86,762.99,761.99,760.94,759.89,758.98,758.82,759.19,759.80,760.13,759.42,758.50,758.53,760.50,763.00,765.39,766.67,766.67,766.58,766.10,765.19,764.01,762.75,761.47,760.25,759.37,759.00,758.83,758.90,758.94,758.87,758.69,758.49,758.37,758.32,758.28,758.08,757.47,756.72,756.00,755.38,754.89,754.44,754.01,753.62,753.24,752.84,752.35,751.70,750.95,750.30,749.74,749.15,748.34,747.70,747.13,746.60,746.08,745.69,745.30,744.91,744.37,743.14,741.72,740.23,738.73,737.22,735.59,733.75,731.83,729.97,728.13,726.22,724.39,722.80,721.64,720.73,720.41,720.44,720.43,720.21,719.68,718.78,717.34,715.19,712.21,710.27,709.25,708.04,707.37,707.96,709.12,710.48,712.90,715.38,716.25,715.31,714.13,714.86,716.43,718.23,719.87,720.91,721.10,720.69,719.94,719.63,719.79,720.31,721.19,722.50,723.60,724.58,725.24,725.18,724.04,722.71,721.41,720.20,719.02
837.25,837.54,837.68,837.73,837.70,837.63,837.39,836.90,836.16,835.38,834.55,833.70,832.86,832.08,831.74,831.35,830.82,830.24,830.00,829.95,829.81,829.42,828.57,827.89,827.10,826.84,827.77,827.93,827.11,826.10,825.16,823.86,822.99,822.69,822.74,822.75,822.65,822.54,822.57,822.84,823.22,823.75,824.38,824.99,825.35,825.41,825.37,825.29,825.19,824.98,824.75,824.46,824.03,823.42,822.57,821.60,820.56,819.43,818.35,817.31,816.31,815.30,814.31,813.38,812.72,812.32,811.81,810.52,807.54,803.95,801.49,800.55,799.85,799.32,798.83,797.53,796.83,796.20,795.87,796.67,797.58,797.74,797.41,797.02,796.97,797.01,796.89,796.56,796.12,795.42,794.68,793.97,793.35,792.71,791.81,790.99,790.38,789.61,788.70,787.74,786.76,785.86,785.22,785.20,785.38,785.36,785.37,785.36,785.14,784.71,784.26,783.37,782.29,781.15,779.98,778.96,777.39,775.53,773.61,771.78,770.14,770.76,772.75,772.80,772.24,771.60,770.77,769.27,766.24,765.28,766.35,768.31,768.14,767.37,766.39,765.61,765.39,764.54,763.50,762.43,761.42,760.72,761.15,762.04,762.96,763.47,761.94,760.30,760.14,762.55,765.29,767.46,768.55,768.56,768.31,767.40,766.22,764.92,763.63,762.38,761.16,760.30,760.00,759.82,759.66,759.51,759.36,759.15,758.98,758.79,758.63,758.55,758.39,757.84,757.14,756.50,756.06,755.60,755.17,754.79,754.40,754.01,753.58,753.07,752.42,751.66,751.01,750.50,750.05,749.42,748.85,748.31,747.76,747.25,746.89,746.44,745.63,744.35,742.88,741.41,739.96,738.50,736.88,734.88,733.12,731.53,729.92,727.99,726.09,724.30,722.87,722.39,722.03,721.93,721.89,721.63,721.34,721.02,720.50,719.18,715.90,712.05,709.66,708.58,707.78,708.31,709.25,710.07,710.89,713.06,715.03,716.36,717.09,717.71,718.36,719.05,719.90,721.02,722.04,722.24,721.99,721.61,721.51,721.94,722.73,723.73,724.75,725.58,726.44,726.48,725.02,723.52,722.06,720.70,719.40,717.92
838.39,838.74,838.94,838.99,838.89,838.69,838.25,837.62,836.85,836.12,835.32,834.52,833.72,833.03,832.84,832.49,832.00,831.51,831.21,831.08,830.94,830.63,829.96,829.51,828.80,828.50,829.31,829.55,829.06,828.24,827.19,825.77,824.75,824.37,824.38,824.34,824.23,824.10,824.00,824.07,824.39,824.95,825.59,826.19,826.64,826.76,826.75,826.68,826.51,826.33,826.04,825.68,825.20,824.49,823.58,822.52,821.38,820.23,819.13,818.13,817.16,816.17,815.25,814.69,814.30,813.79,812.50,810.63,807.78,805.10,804.12,803.39,802.29,801.31,800.60,799.41,798.72,798.30,798.29,799.22,800.37,800.11,799.35,799.06,799.03,799.09,799.03,798.65,797.78,797.00,796.21,795.42,794.67,793.92,793.14,792.42,791.75,790.90,789.89,788.86,787.86,786.96,786.58,786.66,786.85,786.90,787.02,787.05,786.92,786.54,785.84,784.78,783.59,782.33,781.08,779.96,778.67,777.03,774.90,772.44,771.89,773.12,774.79,774.38,773.69,772.78,771.61,769.88,766.84,766.81,768.47,770.17,769.35,768.34,767.54,767.09,767.04,766.66,765.77,764.76,763.90,763.34,764.49,766.12,767.45,767.60,766.45,764.82,764.06,765.42,767.80,769.36,770.11,770.12,769.58,768.55,767.32,766.05,764.79,763.59,762.57,761.87,761.52,761.17,760.31,759.75,759.65,759.53,759.31,759.10,758.94,758.81,758.66,758.24,757.71,757.21,756.77,756.32,755.89,755.52,755.17,754.79,754.35,753.83,753.18,752.43,751.84,751.41,751.04,750.60,750.11,749.50,748.89,748.38,747.82,746.88,745.61,744.12,742.74,741.33,739.75,738.01,736.09,733.97,732.19,730.61,729.01,727.22,725.97,725.00,724.25,723.89,723.57,723.38,723.22,722.90,722.56,722.13,721.49,719.99,716.23,711.83,709.22,708.42,708.50,709.24,710.00,710.60,711.27,713.02,714.56,715.88,717.06,718.09,718.97,719.74,720.59,721.71,722.77,723.41,723.66,723.61,723.73,724.31,725.36,726.59,727.39,727.70,727.44,726.47,724.71,723.03,721.48,720.00,718.50,716.88
839.52,839.89,840.14,840.21,840.03,839.65,839.01,838.26,837.51,836.80,836.06,835.31,834.60,834.05,833.98,833.69,833.24,832.79,832.40,832.14,831.95,831.72,831.24,830.92,830.34,830.03,830.67,831.01,830.79,830.07,828.91,827.45,826.42,826.01,825.98,825.92,825.85,825.71,825.55,825.44,825.59,826.15,826.81,827.42,827.93,828.10,828.13,828.05,827.84,827.64,827.31,826.90,826.36,825.53,824.55,823.46,822.31,821.18,820.02,818.99,818.01,817.08,816.38,816.15,815.98,815.24,813.00,810.65,808.31,806.85,807.15,806.45,804.92,803.61,802.90,801.99,801.61,801.61,801.91,802.55,803.18,802.22,800.99,800.79,800.77,800.83,800.76,800.31,799.17,798.50,797.80,796.96,796.06,795.22,794.53,793.86,793.10,792.13,791.01,789.92,788.89,788.01,787.94,788.12,788.28,788.38,788.56,788.64,788.59,788.27,787.29,786.09,784.79,783.47,782.19,781.09,780.02,778.44,776.06,773.61,774.22,775.74,776.72,775.88,774.97,773.71,772.15,770.22,767.50,768.29,770.36,771.81,770.54,769.37,768.80,768.71,768.79,768.85,768.27,767.45,766.73,766.26,767.74,769.87,771.48,771.24,770.61,769.31,768.19,768.34,770.03,771.00,771.44,771.40,770.63,769.60,768.45,767.26,766.06,764.94,764.15,763.61,763.17,762.53,761.13,760.34,760.32,760.17,759.70,759.41,759.25,759.10,758.94,758.67,758.34,757.95,757.50,757.04,756.63,756.27,755.97,755.58,755.12,754.59,753.95,753.22,752.73,752.36,752.06,751.70,751.19,750.52,749.84,749.27,748.40,747.01,745.42,743.86,742.54,741.21,739.48,737.41,735.19,732.99,731.19,729.69,728.33,727.05,726.52,726.25,726.00,725.59,725.12,724.78,724.49,724.12,723.58,722.88,721.98,720.20,715.81,711.40,709.01,708.64,709.37,710.03,710.60,711.14,711.79,712.89,714.06,715.29,716.54,717.63,718.70,719.69,720.70,721.84,722.93,723.98,724.77,725.25,725.86,726.62,727.75,728.96,729.46,729.22,727.96,726.19,724.39,722.58,720.95,719.34,717.69,715.98
840.68,840.97,841.20,841.32,841.14,840.50,839.71,838.91,838.15,837.46,836.75,836.08,835.50,835.13,835.18,834.96,834.53,834.08,833.69,833.28,833.00,832.78,832.38,831.95,831.47,831.25,831.70,832.19,831.94,831.18,830.03,828.68,827.91,827.60,827.55,827.53,827.46,827.34,827.15,826.93,826.67,827.28,828.06,828.71,829.23,829.43,829.45,829.36,829.17,828.90,828.54,828.12,827.55,826.55,825.49,824.51,823.57,822.50,821.15,819.93,818.90,818.14,817.88,817.78,817.62,816.73,813.73,811.74,810.77,810.55,810.55,809.16,807.22,806.22,806.47,806.05,806.68,807.53,807.99,807.36,805.85,803.73,802.16,801.96,801.94,802.00,801.81,801.23,800.37,799.91,799.38,798.58,797.52,796.69,795.98,795.26,794.43,793.33,792.18,791.03,789.95,789.14,789.33,789.58,789.70,789.79,789.88,790.01,790.03,789.71,788.55,787.27,785.93,784.57,783.32,782.47,781.35,779.35,776.73,776.00,777.63,778.54,778.09,777.19,775.91,774.20,772.36,770.59,768.56,769.79,771.88,773.13,772.16,770.98,770.49,770.55,770.70,770.89,770.84,770.46,769.78,769.31,770.33,772.20,773.82,773.37,772.87,772.24,771.50,770.90,771.53,772.20,772.49,772.24,771.44,770.55,769.57,768.51,767.43,766.45,765.81,765.36,764.83,763.71,762.38,761.84,761.92,761.40,760.30,759.74,759.58,759.42,759.27,759.18,759.01,758.66,758.21,757.80,757.41,757.06,756.79,756.37,755.87,755.30,754.68,754.05,753.64,753.35,753.06,752.59,751.86,751.12,750.42,749.66,748.37,746.83,745.22,743.62,742.14,740.88,739.05,736.72,734.36,732.01,730.25,729.11,728.62,728.52,728.46,728.23,727.80,727.32,726.60,726.07,725.67,725.13,724.10,722.97,721.83,719.71,714.01,710.52,709.25,709.42,710.04,710.56,711.21,711.99,712.67,712.68,713.59,714.82,716.02,717.11,718.13,719.13,720.10,721.02,722.08,723.20,724.45,725.92,727.60,728.69,729.52,730.11,730.07,729.38,727.89,726.03,724.12,722.22,720.49,718.80,717.10,715.34
841.67,841.97,842.20,842.23,841.79,841.09,840.33,839.60,838.91,838.29,837.64,836.99,836.43,836.22,836.34,836.17,835.79,835.37,834.99,834.54,834.17,833.88,833.53,833.05,832.57,832.37,832.75,833.30,832.95,832.08,831.01,830.03,829.43,829.15,829.06,829.06,829.02,828.93,828.73,828.36,827.93,828.38,829.18,829.95,830.42,830.51,830.43,830.32,830.18,829.93,829.63,829.26,828.70,827.76,826.83,825.94,825.01,823.79,822.50,821.37,820.41,819.72,819.58,819.53,819.34,818.31,815.18,814.17,814.16,813.93,812.40,810.39,809.09,808.89,809.68,810.09,810.77,811.31,811.17,809.51,807.34,805.04,803.43,803.14,803.11,803.14,802.84,802.16,801.43,801.07,800.54,799.79,798.93,798.21,797.46,796.62,795.64,794.46,793.30,792.12,791.08,790.61,790.69,790.84,790.93,791.01,791.09,791.08,790.99,790.59,789.36,788.11,786.83,785.48,784.05,782.84,781.47,779.47,777.42,778.20,779.63,780.01,779.27,778.19,776.54,774.56,772.53,770.77,769.87,771.27,773.27,774.62,774.12,773.29,772.89,773.00,773.44,773.70,773.85,773.75,773.38,773.29,774.23,775.40,776.14,775.70,775.24,774.60,773.69,772.68,772.83,773.28,773.47,773.14,772.32,771.50,770.64,769.75,768.84,768.05,767.46,767.01,766.53,765.64,764.63,764.20,764.05,762.90,761.39,760.59,760.24,759.89,759.58,759.47,759.42,759.28,758.91,758.56,758.19,757.84,757.58,757.11,756.59,756.01,755.42,754.95,754.42,753.84,753.20,752.50,751.70,750.97,750.15,749.03,747.51,746.10,744.68,743.17,741.67,740.23,738.23,735.80,733.46,731.73,730.45,729.70,729.64,730.02,730.20,729.95,729.31,728.58,727.84,727.08,726.24,725.23,723.99,722.77,721.58,719.31,713.15,710.33,710.34,711.56,711.94,712.59,713.38,714.00,714.08,713.48,713.73,714.49,715.52,716.63,717.62,718.51,719.32,720.08,720.95,722.03,723.47,725.37,727.55,729.21,730.24,730.64,730.33,729.44,727.90,726.04,724.11,722.18,720.36,718.57,716.72,714.76
842.46,842.89,843.14,843.04,842.36,841.68,840.99,840.35,839.77,839.22,838.60,837.93,837.38,837.32,837.50,837.38,837.05,836.65,836.27,835.82,835.39,835.01,834.69,834.19,833.68,833.46,833.80,834.38,833.94,833.03,832.09,831.44,830.91,830.59,830.48,830.48,830.48,830.44,830.22,829.75,829.21,829.51,830.29,831.17,831.56,831.48,831.31,831.15,831.06,830.83,830.59,830.26,829.74,829.00,828.27,827.48,826.50,825.21,824.07,823.10,822.28,821.66,821.48,821.43,821.05,819.76,816.91,816.97,817.40,816.67,813.92,811.70,811.25,811.88,813.05,814.08,814.39,814.13,813.08,810.65,808.35,806.16,804.65,804.33,804.29,804.25,803.87,803.13,802.48,802.11,801.53,800.82,800.22,799.62,798.85,797.91,796.78,795.56,794.37,793.18,792.24,792.10,792.03,792.04,792.11,792.19,792.24,792.09,791.82,791.29,789.99,788.78,787.50,786.08,784.42,782.78,781.13,779.44,778.37,780.04,780.95,780.96,780.26,779.03,777.05,774.90,772.74,770.99,771.25,772.76,774.64,776.16,776.22,775.83,775.51,775.58,776.28,776.64,776.91,777.00,776.94,777.20,778.03,778.48,778.34,778.00,777.57,776.73,775.51,774.20,774.06,774.33,774.42,774.05,773.24,772.47,771.70,770.92,770.17,769.56,769.02,768.58,768.21,767.74,767.11,766.70,766.17,764.44,762.67,761.68,761.14,760.58,759.96,759.74,759.84,760.04,759.73,759.37,759.00,758.64,758.34,757.84,757.29,756.67,756.04,755.59,754.88,753.98,753.00,752.07,751.26,750.43,749.39,747.93,746.30,745.01,743.77,742.41,740.99,739.36,737.31,735.04,733.07,732.04,731.20,730.75,730.98,731.56,731.81,731.46,730.56,729.56,728.78,727.78,726.50,725.05,723.70,722.47,721.21,718.85,712.82,710.98,712.34,714.57,714.71,715.26,715.94,716.19,715.58,714.64,714.25,714.46,715.17,716.17,717.09,717.88,718.58,719.23,719.89,720.89,722.45,724.65,727.13,729.30,730.60,730.98,730.45,729.45,727.91,726.10,724.20,722.31,720.53,718.74,716.84,714.71
842.79,843.68,843.99,843.77,843.14,842.51,841.87,841.30,840.80,840.25,839.60,838.88,838.35,838.46,838.67,838.62,838.33,837.89,837.50,837.06,836.60,836.18,835.85,835.35,834.82,834.54,834.84,835.41,835.05,834.31,833.55,832.87,832.21,831.80,831.64,831.65,831.70,831.67,831.47,831.03,830.41,830.72,831.55,832.42,832.62,832.43,832.15,831.94,831.83,831.56,831.27,830.93,830.52,830.11,829.65,828.94,828.00,827.00,826.07,825.27,824.63,824.19,823.86,823.69,822.67,820.69,818.83,819.59,819.27,817.69,815.89,814.69,814.77,815.76,817.23,817.95,817.56,816.12,813.88,811.23,809.01,806.94,805.61,805.53,805.52,805.33,804.89,804.25,803.62,803.00,802.34,801.69,801.19,800.64,799.97,799.04,797.83,796.60,795.37,794.21,793.36,793.33,793.31,793.27,793.29,793.40,793.37,793.19,792.78,791.98,790.53,789.21,787.66,785.91,784.11,782.36,780.61,779.67,780.04,780.92,781.61,781.59,780.86,779.65,777.52,775.29,773.13,771.51,772.58,774.28,776.11,777.74,778.44,778.38,778.05,777.97,778.66,779.28,779.67,779.83,779.83,779.95,780.20,780.31,780.21,780.05,779.69,778.75,777.28,775.62,775.22,775.36,775.37,774.97,774.21,773.48,772.74,771.96,771.23,770.70,770.30,770.01,769.81,769.63,769.38,768.83,767.75,765.77,763.96,763.00,762.48,761.77,760.52,760.13,760.57,761.33,760.91,760.36,759.90,759.51,759.08,758.55,757.93,757.16,756.24,755.37,754.48,753.53,752.53,751.55,750.70,749.45,747.93,746.36,744.84,743.37,742.05,740.90,739.72,738.12,736.41,734.98,734.34,733.52,732.55,732.09,732.58,733.22,733.22,732.52,731.32,730.13,729.01,727.75,726.37,724.91,723.46,722.10,720.59,718.11,713.17,713.54,716.32,718.97,718.97,718.45,718.16,717.77,716.91,715.93,715.38,715.20,715.31,715.75,716.48,717.30,718.09,718.80,719.34,720.23,721.94,724.59,727.28,729.49,730.88,731.29,730.49,729.35,727.85,726.14,724.35,722.66,721.22,719.83,718.27,716.22
843.16,844.29,844.74,844.58,843.97,843.42,842.84,842.32,841.82,841.21,840.50,839.85,839.45,839.61,839.77,839.74,839.50,839.07,838.65,838.14,837.64,837.24,837.01,836.58,836.05,835.70,835.93,836.46,836.21,835.61,834.95,834.29,833.60,833.08,832.82,832.86,832.89,832.88,832.72,832.38,832.08,832.37,833.01,833.63,833.61,833.35,833.02,832.74,832.57,832.28,832.00,831.72,831.44,831.17,830.88,830.34,829.59,828.85,828.19,827.58,827.08,826.73,826.37,825.69,824.12,821.93,820.71,821.37,820.48,818.80,818.29,817.55,817.63,818.54,819.92,820.34,819.55,817.51,814.63,811.68,809.50,807.75,806.72,806.75,806.75,806.41,805.88,805.25,804.60,803.88,803.17,802.54,802.06,801.47,800.80,799.98,798.95,797.76,796.48,795.40,794.72,794.61,794.57,794.53,794.53,794.58,794.45,793.95,793.20,792.22,790.95,789.47,787.67,785.70,783.80,782.07,780.95,780.70,781.31,781.84,782.41,782.25,781.35,780.14,778.15,775.88,773.81,772.75,774.19,775.96,777.70,779.19,780.01,780.32,780.20,780.10,780.67,781.31,781.73,781.83,781.65,781.62,781.70,781.71,781.63,781.47,780.92,779.84,778.30,776.66,776.38,776.47,776.38,775.91,775.25,774.53,773.80,773.05,772.30,771.74,771.39,771.17,771.06,770.97,770.59,769.90,768.72,766.72,765.21,764.40,763.75,762.66,761.08,761.10,761.94,762.76,762.27,761.72,761.22,760.59,759.56,758.88,758.12,757.17,756.03,754.92,753.85,752.84,751.90,750.91,749.75,748.10,746.33,744.99,743.81,742.49,741.26,740.20,739.06,738.08,737.18,736.38,735.75,734.47,733.80,733.79,734.25,734.68,734.17,733.08,731.72,730.40,729.01,727.57,726.12,724.68,723.21,721.80,719.92,717.02,713.00,714.94,718.35,720.94,721.36,720.73,719.93,719.07,718.03,716.97,716.42,716.11,715.93,715.98,716.61,717.48,718.38,719.25,720.06,721.14,722.88,725.39,727.87,729.81,731.16,731.62,730.61,729.38,727.96,726.52,725.17,723.83,722.59,721.33,719.95,718.23
843.69,844.87,845.47,845.44,844.86,844.38,843.85,843.35,842.81,842.13,841.40,840.85,840.59,840.73,840.82,840.77,840.56,840.15,839.69,839.14,838.63,838.28,838.16,837.84,837.29,836.88,837.03,837.50,837.38,836.91,836.29,835.67,834.99,834.39,834.01,834.06,834.07,834.07,833.98,833.79,833.89,834.15,834.52,834.79,834.53,834.23,833.88,833.56,833.38,833.12,832.87,832.66,832.49,832.27,832.08,831.68,831.13,830.61,830.18,829.76,829.39,829.11,828.69,827.41,825.39,823.25,822.49,822.79,821.60,820.19,820.69,820.16,820.06,820.72,821.84,821.96,820.95,818.76,815.75,812.54,810.31,808.83,808.05,808.00,807.94,807.46,806.83,806.18,805.48,804.74,804.02,803.38,802.85,802.18,801.48,800.77,799.98,798.89,797.57,796.64,796.17,795.94,795.84,795.81,795.77,795.63,795.26,794.35,793.24,792.13,791.11,789.57,787.60,785.50,783.64,782.16,781.87,782.12,782.50,782.87,783.23,782.83,781.74,780.54,778.78,776.47,774.57,774.30,775.93,777.69,779.25,780.52,781.25,781.89,782.07,782.09,782.51,783.08,783.48,783.48,783.09,782.90,782.93,782.94,782.83,782.52,781.68,780.47,779.01,777.60,777.52,777.60,777.37,776.82,776.26,775.56,774.85,774.14,773.40,772.76,772.42,772.23,772.08,771.89,771.21,770.41,769.36,767.52,766.46,765.81,764.97,763.43,761.77,762.39,763.60,764.26,763.75,763.25,762.67,761.70,760.03,759.12,758.17,757.03,755.73,754.44,753.17,752.10,751.18,750.15,748.75,746.92,745.21,744.23,743.46,742.39,741.28,740.21,739.06,738.83,738.71,738.25,737.03,735.37,735.18,735.65,735.94,735.95,734.87,733.40,731.92,730.49,728.92,727.34,725.83,724.39,722.93,721.52,719.23,715.83,713.02,715.95,719.46,721.81,722.82,722.43,721.36,720.12,718.95,717.91,717.43,717.12,716.80,716.55,717.08,717.97,718.96,720.01,721.30,722.74,724.49,726.58,728.64,730.22,731.45,731.96,730.82,729.60,728.38,727.30,726.41,725.41,724.28,723.04,721.76,720.41
844.65,845.64,846.27,846.38,845.88,845.36,844.86,844.34,843.73,843.05,842.43,841.92,841.64,841.77,841.81,841.69,841.40,840.95,840.49,840.04,839.67,839.43,839.33,839.10,838.47,837.94,838.12,838.51,838.50,838.15,837.53,836.91,836.28,835.66,835.22,835.24,835.25,835.25,835.26,835.31,835.46,835.69,835.88,835.85,835.36,835.01,834.66,834.43,834.51,834.40,834.20,834.00,833.85,833.66,833.36,832.92,832.40,831.92,831.52,831.24,831.09,830.92,830.10,828.49,826.39,824.43,823.93,824.15,823.42,822.41,822.38,822.10,822.00,822.46,823.32,823.15,822.02,820.40,818.23,815.13,812.52,810.91,809.92,809.31,808.98,808.40,807.69,806.97,806.27,805.56,804.85,804.16,803.47,802.77,802.03,801.28,800.52,799.69,798.47,797.79,797.63,797.31,797.20,797.13,796.91,796.28,795.13,793.93,792.76,791.63,790.56,789.34,787.45,785.37,784.01,783.46,783.50,783.75,784.02,784.26,783.89,783.02,781.91,780.79,779.06,776.69,775.12,775.84,777.76,779.31,780.54,781.54,782.31,783.09,783.62,783.98,784.38,784.86,785.23,785.23,784.79,784.46,784.24,784.13,783.96,783.24,782.12,780.94,779.78,778.80,778.62,778.57,778.25,777.62,777.06,776.48,775.86,775.19,774.49,773.86,773.55,773.27,772.81,772.17,771.41,770.63,769.72,768.47,767.81,767.18,766.08,764.25,762.97,763.92,765.22,765.78,765.34,764.87,763.93,762.52,760.85,759.61,758.45,757.19,755.78,754.22,752.77,751.53,750.41,749.16,748.13,747.01,746.00,745.39,744.89,743.87,742.70,741.57,740.47,740.51,740.33,739.37,737.56,736.98,737.24,737.63,737.58,736.86,735.39,733.67,731.98,730.45,728.85,727.24,725.63,724.03,722.55,721.14,718.45,714.89,714.56,717.42,720.38,722.58,723.99,723.56,722.23,720.71,719.42,718.87,718.53,718.19,717.78,717.33,717.63,718.36,719.33,720.54,722.33,724.31,726.17,727.82,729.43,730.71,731.81,732.31,731.28,730.36,729.60,728.89,728.13,727.20,726.04,724.84,723.64,722.46
846.01,846.83,847.28,847.32,846.90,846.38,845.89,845.34,844.70,844.06,843.46,842.93,842.63,842.77,842.76,842.56,842.20,841.75,841.44,841.16,840.90,840.70,840.64,840.35,839.60,839.00,839.24,839.61,839.61,839.30,838.75,838.11,837.46,836.84,836.41,836.41,836.44,836.45,836.52,836.70,836.86,837.05,837.11,836.88,836.21,835.78,835.42,835.27,835.57,835.70,835.58,835.39,835.20,835.01,834.64,834.17,833.67,833.21,832.79,832.55,832.35,831.91,830.81,829.24,827.31,825.56,825.40,825.65,825.32,824.70,824.44,824.26,824.24,824.51,824.92,824.41,823.26,821.95,820.39,818.17,816.29,815.14,814.14,812.74,811.07,809.60,808.50,807.75,807.05,806.33,805.55,804.73,803.90,803.17,802.43,801.69,800.96,800.25,799.48,799.13,799.08,798.70,798.45,798.20,797.72,796.74,795.23,793.84,792.52,791.16,789.66,788.44,787.10,785.88,785.36,785.18,785.20,785.33,785.38,784.80,783.82,782.68,781.54,780.49,778.85,776.84,775.89,777.31,779.20,780.52,781.55,782.46,783.32,784.20,784.96,785.60,786.18,786.67,787.00,786.99,786.56,786.11,785.68,785.28,784.77,783.79,782.72,781.75,780.89,780.19,779.89,779.61,779.12,778.43,777.85,777.30,776.74,776.13,775.47,774.85,774.36,773.85,773.18,772.35,771.61,770.94,770.28,769.52,769.14,768.49,767.13,765.03,764.35,765.55,766.85,767.32,766.91,766.37,765.38,763.97,762.39,761.04,759.38,757.69,756.15,754.50,752.96,751.55,750.29,749.26,748.74,747.85,747.08,747.07,746.51,745.46,744.29,743.16,742.10,742.00,741.32,739.87,738.41,738.63,739.13,739.29,738.81,737.80,736.16,734.36,732.56,730.75,728.97,727.26,725.60,723.92,722.34,720.62,717.58,714.33,716.52,719.77,722.47,724.34,725.29,724.50,723.06,721.49,720.20,719.90,719.55,719.11,718.58,718.05,718.06,718.62,719.55,720.88,722.97,725.24,727.30,728.96,730.25,731.31,732.25,732.72,731.88,731.16,730.61,730.12,729.54,728.81,727.81,726.69,725.56,724.55
847.56,848.19,848.38,848.25,847.91,847.41,846.91,846.35,845.70,845.13,844.47,843.90,843.61,843.74,843.68,843.39,842.99,842.62,842.50,842.41,842.21,841.99,841.98,841.51,840.64,840.02,840.34,840.73,840.66,840.35,839.89,839.25,838.58,837.98,837.58,837.58,837.65,837.68,837.78,837.99,838.15,838.31,838.27,837.89,837.10,836.54,836.18,836.13,836.56,836.94,836.95,836.79,836.57,836.31,835.90,835.42,834.96,834.50,834.04,833.75,833.32,832.40,831.15,829.83,828.22,826.77,826.88,827.21,827.14,826.83,826.61,826.48,826.54,826.66,826.60,825.78,824.68,823.47,822.27,821.20,820.50,820.06,819.13,816.96,813.63,810.98,809.33,808.52,807.80,807.04,806.13,805.16,804.25,803.45,802.73,802.03,801.36,800.72,800.54,800.52,800.44,800.05,799.59,799.08,798.32,797.08,795.50,793.93,792.37,790.71,788.82,787.61,787.06,787.04,787.32,787.09,786.88,786.73,786.31,784.67,783.23,781.96,780.82,779.83,778.35,777.02,776.88,778.68,780.31,781.43,782.37,783.32,784.32,785.26,786.14,787.00,787.86,788.40,788.71,788.67,788.21,787.67,787.07,786.32,785.40,784.37,783.54,782.84,782.22,781.67,781.27,780.71,780.01,779.25,778.62,778.05,777.50,776.92,776.28,775.64,774.89,774.10,773.34,772.55,771.90,771.40,770.99,770.59,770.37,769.68,768.09,765.74,765.79,767.21,768.44,768.81,768.42,767.79,766.90,765.76,764.32,762.95,760.67,758.38,756.74,755.14,753.61,752.10,750.79,750.17,750.00,749.07,748.35,748.90,748.10,747.00,745.90,744.83,743.78,743.26,741.93,740.19,739.56,740.25,740.81,740.70,739.79,738.77,737.14,735.35,733.46,731.24,729.19,727.38,725.67,723.94,722.22,720.00,716.80,714.34,718.68,722.68,725.30,726.60,726.60,725.35,723.87,722.40,721.17,720.93,720.47,719.86,719.24,718.73,718.49,718.86,719.75,721.14,723.35,725.71,727.98,729.91,731.03,731.94,732.75,733.16,732.54,731.91,731.37,730.93,730.57,730.07,729.26,728.20,727.02,726.08
848.90,849.16,849.22,849.12,848.84,848.42,847.88,847.31,846.72,846.12,845.44,844.88,844.58,844.70,844.56,844.20,843.86,843.69,843.65,843.59,843.42,843.20,843.05,842.32,841.36,840.80,841.21,841.60,841.49,841.14,840.69,840.21,839.68,839.14,838.73,838.70,838.80,838.92,839.07,839.29,839.45,839.61,839.46,838.93,838.10,837.39,837.04,837.09,837.54,837.99,838.19,838.17,837.97,837.63,837.15,836.66,836.20,835.74,835.32,834.83,834.09,832.95,831.70,830.48,829.30,828.39,828.35,828.57,828.50,828.23,828.08,828.11,828.20,828.25,828.09,827.40,826.33,825.19,824.11,823.19,822.51,821.83,820.71,818.59,815.21,812.36,810.38,809.24,808.47,807.61,806.66,805.64,804.63,803.78,803.05,802.40,801.83,801.37,801.44,801.57,801.51,801.10,800.47,799.81,798.88,797.42,795.76,793.76,791.74,790.06,789.27,789.08,789.11,789.20,789.23,788.84,788.40,787.45,785.74,784.08,782.39,781.03,780.00,779.09,777.90,777.50,778.11,779.68,781.06,782.14,783.12,784.12,785.22,786.23,787.16,788.09,789.03,789.75,790.08,789.90,789.20,788.55,787.89,787.02,786.10,785.52,784.86,784.23,783.62,783.04,782.54,781.79,780.91,780.02,779.30,778.68,778.05,777.38,776.66,775.93,775.12,774.30,773.58,773.09,772.62,772.20,771.83,771.50,771.23,770.53,768.81,766.22,767.11,768.75,769.80,769.96,769.75,769.16,768.28,767.22,765.97,764.35,761.60,759.04,757.57,756.16,754.77,753.36,752.13,751.56,750.63,749.98,749.91,750.32,749.35,748.31,747.35,746.39,745.32,744.21,742.77,741.38,741.03,741.73,742.14,741.87,740.88,739.82,738.35,736.47,734.19,731.63,729.42,727.57,725.80,723.88,721.97,719.36,716.70,715.85,720.76,725.64,728.08,728.31,727.45,726.11,724.65,723.24,722.10,721.72,721.07,720.39,719.84,719.42,719.25,719.47,720.20,721.65,723.69,725.89,728.14,730.22,731.53,732.47,733.19,733.53,733.05,732.41,731.77,731.23,730.79,730.27,729.34,727.95,726.24,724.68
850.47,850.52,850.40,850.21,849.88,849.46,848.91,848.33,847.74,847.10,846.44,845.88,845.57,845.63,845.40,845.09,844.86,844.81,844.81,844.75,844.62,844.38,843.90,842.97,842.07,841.65,842.08,842.45,842.30,841.91,841.45,841.03,840.56,840.08,839.72,839.67,839.79,840.02,840.30,840.59,840.80,840.97,840.70,839.93,838.94,838.25,837.98,838.07,838.50,838.98,839.39,839.54,839.31,838.91,838.39,837.88,837.40,836.93,836.47,835.95,835.22,834.12,832.94,831.76,830.74,830.03,829.83,829.88,829.74,829.53,829.50,829.59,829.67,829.68,829.52,828.98,827.99,826.91,825.82,824.61,823.43,822.37,821.12,819.22,816.39,813.76,811.69,810.20,809.13,808.13,807.12,806.07,805.00,804.17,803.48,802.88,802.39,802.12,802.30,802.51,802.51,802.06,801.27,800.51,799.54,798.03,795.88,793.45,791.44,790.29,790.22,790.54,790.80,790.88,790.71,790.13,789.23,787.54,785.02,783.07,781.37,780.13,779.35,778.81,778.08,778.26,779.30,780.93,782.19,783.02,783.89,784.97,786.21,787.28,788.20,789.09,790.05,790.89,791.27,791.02,790.13,789.36,788.64,787.90,787.20,786.82,786.24,785.63,784.99,784.30,783.56,782.66,781.67,780.68,779.83,779.12,778.42,777.68,776.91,776.14,775.40,774.72,774.14,773.80,773.43,773.04,772.62,772.08,771.53,770.68,769.01,766.79,768.35,769.84,770.61,770.74,770.77,770.37,769.65,768.75,767.63,765.73,762.87,760.19,758.50,757.17,755.88,754.57,753.37,752.55,751.29,750.99,751.33,751.46,750.40,749.33,748.43,747.65,746.78,745.59,744.23,743.11,742.89,743.31,743.43,742.98,741.92,740.86,739.57,737.60,734.94,732.07,729.52,727.46,725.59,723.59,721.65,718.80,716.67,717.29,723.03,728.35,730.10,729.12,728.03,726.79,725.41,724.09,723.04,722.37,721.57,720.88,720.45,720.29,720.37,720.62,721.24,722.55,724.28,726.23,728.31,730.36,731.85,732.97,733.65,733.77,733.11,732.35,731.63,731.02,730.52,729.81,728.57,726.90,724.93,722.97
852.22,852.24,851.94,851.54,851.05,850.51,849.97,849.40,848.77,848.09,847.45,846.91,846.58,846.54,846.24,846.06,845.99,845.98,845.98,845.92,845.81,845.50,844.56,843.50,842.80,842.61,842.99,843.30,843.10,842.67,842.20,841.74,841.22,840.80,840.54,840.50,840.64,840.99,841.44,841.86,842.18,842.38,842.00,840.97,839.75,839.25,839.13,839.25,839.61,840.04,840.63,840.89,840.60,840.14,839.61,839.07,838.55,838.05,837.48,837.11,836.65,835.85,834.80,833.62,832.52,831.68,831.32,831.14,830.94,830.83,830.93,830.94,831.01,831.03,830.89,830.43,829.52,828.46,827.20,825.41,823.46,822.01,820.72,819.11,817.10,814.97,812.98,811.24,809.72,808.55,807.48,806.41,805.38,804.63,804.02,803.47,803.01,802.92,803.15,803.39,803.38,802.80,801.91,801.09,800.18,798.72,795.78,793.13,791.63,791.36,791.47,791.75,791.96,792.01,791.75,791.00,789.54,787.33,784.48,781.85,780.31,779.73,779.76,779.78,779.39,779.80,781.07,782.86,783.93,784.25,784.78,785.87,787.28,788.46,789.34,790.10,791.03,791.95,792.35,792.07,791.10,790.21,789.49,789.01,788.66,788.19,787.59,786.97,786.29,785.45,784.36,783.32,782.29,781.24,780.25,779.42,778.65,777.89,777.11,776.37,775.81,775.36,774.96,774.63,774.25,773.81,773.23,772.26,771.30,770.18,768.75,767.54,769.48,770.53,770.98,771.23,771.40,771.26,770.85,770.23,769.26,767.19,764.51,761.76,759.44,758.08,756.83,755.60,754.35,753.14,752.12,752.13,752.55,752.40,751.31,750.16,749.26,748.66,748.19,747.35,746.23,745.24,745.06,745.00,744.71,744.03,742.91,741.86,740.68,738.64,735.71,732.58,729.53,727.19,725.25,723.26,721.36,718.36,716.65,718.45,725.16,730.28,731.05,729.12,728.29,727.30,726.07,724.88,723.93,722.92,722.03,721.39,721.13,721.35,721.79,722.21,722.76,723.79,725.16,726.79,728.61,730.50,732.09,733.48,734.11,733.86,732.78,731.82,731.02,730.38,729.77,728.75,727.16,725.35,723.43,721.41
853.59,853.85,853.53,852.93,852.22,851.48,850.93,850.38,849.76,849.11,848.45,847.89,847.53,847.42,847.25,847.16,847.15,847.16,847.20,847.11,846.84,846.26,845.17,844.04,843.53,843.56,843.88,844.11,843.85,843.38,842.87,842.35,841.86,841.44,841.18,841.24,841.54,841.97,842.45,842.95,843.36,843.73,843.43,842.46,841.48,841.12,841.22,841.55,841.88,841.80,842.15,842.28,841.84,841.32,840.75,840.19,839.62,838.97,838.43,838.10,837.85,837.48,836.64,835.60,834.58,833.64,832.83,832.39,832.19,832.14,832.14,832.10,832.17,832.26,832.12,831.33,830.32,828.92,827.08,824.76,822.47,820.80,819.50,818.20,816.42,814.64,812.95,811.32,809.69,808.47,807.43,806.55,805.93,805.29,804.68,804.09,803.64,803.77,804.09,804.15,803.68,802.49,801.74,801.04,800.06,798.33,795.10,793.41,792.75,792.65,792.72,792.94,793.08,792.97,792.44,791.67,790.49,788.35,784.97,781.39,779.98,782.18,785.97,786.07,784.20,785.01,786.90,787.47,787.16,786.47,786.26,786.92,788.39,789.83,790.78,791.45,792.34,793.26,793.50,793.07,792.15,791.37,790.81,790.42,790.07,789.50,788.86,788.19,787.42,786.39,785.08,783.94,782.90,781.86,780.76,779.72,778.88,778.13,777.35,776.82,776.46,776.13,775.79,775.43,774.89,774.08,773.00,771.72,770.63,769.34,768.44,768.83,770.25,771.21,771.66,771.63,771.27,770.91,770.89,770.96,770.50,768.98,766.38,763.22,760.21,758.64,757.39,756.21,755.01,753.82,753.26,753.38,753.62,753.28,752.20,751.22,750.44,749.87,749.46,748.91,748.17,747.45,747.14,746.73,746.00,745.04,743.90,742.66,741.29,739.19,736.29,732.99,729.78,727.65,726.05,724.04,721.50,718.17,716.75,719.13,725.18,728.74,729.50,728.63,727.85,727.00,726.15,725.31,724.45,723.43,722.50,722.09,722.26,722.78,723.36,723.80,724.31,725.23,726.43,727.83,729.46,731.26,732.71,734.11,734.40,733.64,732.44,731.26,730.27,729.34,728.31,727.14,725.63,723.90,722.10,720.51
855.23,855.42,854.93,854.14,853.28,852.44,851.85,851.29,850.68,850.08,849.44,848.88,848.50,848.40,848.33,848.32,848.32,848.33,848.39,848.26,847.78,846.94,845.79,844.63,844.29,844.51,844.81,844.92,844.59,844.07,843.51,842.97,842.47,842.06,841.84,842.05,842.48,842.94,843.43,843.97,844.46,844.92,844.95,844.52,844.09,843.85,844.03,844.37,844.44,843.92,843.82,843.64,843.10,842.56,841.97,841.37,840.72,839.97,839.40,839.06,838.90,838.81,838.31,837.54,836.66,835.68,834.54,833.75,833.43,833.37,833.31,833.24,833.31,833.28,832.84,831.69,830.53,828.83,826.55,823.99,821.54,819.66,818.24,817.07,815.48,813.96,812.51,811.08,809.58,808.46,807.61,806.99,806.58,806.00,805.38,804.78,804.40,804.70,805.07,804.77,803.65,801.96,801.20,800.45,799.33,797.59,795.18,794.39,794.17,794.01,794.01,794.15,794.10,793.75,793.05,792.29,791.35,789.51,786.18,781.88,781.30,785.11,790.39,790.75,788.72,789.50,791.14,790.77,789.55,788.25,787.65,788.16,789.74,791.40,792.43,793.06,793.85,794.67,794.72,794.20,793.37,792.71,792.29,791.91,791.44,790.73,789.96,789.26,788.45,787.29,785.86,784.61,783.50,782.45,781.26,780.03,779.10,778.40,777.80,777.48,777.23,776.94,776.59,776.11,775.27,774.07,772.60,771.15,770.02,768.95,768.69,770.02,771.05,771.98,772.28,771.75,770.88,769.84,770.08,771.10,771.34,770.38,767.97,764.70,761.28,759.26,757.93,756.76,755.60,754.56,754.36,754.55,754.65,754.22,753.25,752.39,751.68,751.12,750.70,750.32,749.81,749.26,748.80,748.13,747.13,745.96,744.67,743.12,741.49,739.23,736.28,733.04,730.15,728.68,727.52,725.08,721.83,718.16,716.86,719.58,725.09,727.48,728.21,728.13,727.58,727.00,726.41,725.71,724.82,723.84,723.10,723.02,723.60,724.29,724.93,725.40,725.88,726.72,727.79,729.08,730.65,732.39,733.79,734.71,734.45,733.25,731.87,730.55,729.35,728.14,726.82,725.60,724.44,723.26,722.05,720.93
857.25,856.98,856.14,855.14,854.22,853.41,852.76,852.16,851.56,851.00,850.45,849.90,849.51,849.49,849.48,849.48,849.48,849.50,849.55,849.32,848.65,847.59,846.43,845.29,845.08,845.44,845.75,845.74,845.33,844.77,844.17,843.63,843.09,842.68,842.57,843.00,843.46,843.92,844.42,844.95,845.48,845.98,846.54,847.13,847.47,847.31,847.39,847.48,847.02,846.30,845.59,844.95,844.40,843.86,843.31,842.65,841.89,841.14,840.45,840.02,839.83,839.81,839.72,839.35,838.68,837.68,836.43,835.24,834.65,834.50,834.48,834.40,834.41,834.03,832.96,831.50,830.15,828.28,825.90,823.42,820.97,818.91,817.26,815.97,814.62,813.28,811.98,810.74,809.55,808.72,808.22,807.84,807.31,806.71,806.07,805.54,805.32,805.71,806.09,805.29,803.40,801.49,800.48,799.46,798.21,796.90,796.43,796.13,795.75,795.38,795.35,795.34,794.98,794.34,793.62,792.83,791.88,790.47,787.91,783.31,784.40,787.87,791.21,792.15,791.94,792.18,792.42,791.84,790.59,789.34,788.92,789.68,791.45,793.19,794.26,794.86,795.50,796.14,796.04,795.50,794.81,794.25,793.88,793.40,792.74,791.81,790.85,790.14,789.38,788.19,786.76,785.33,784.09,783.02,781.74,780.40,779.39,778.77,778.54,778.36,778.09,777.75,777.32,776.63,775.36,773.84,772.26,770.79,769.73,769.31,769.71,771.00,772.00,772.88,772.83,771.65,770.41,768.28,768.60,770.69,771.75,771.15,769.14,766.19,762.73,760.04,758.53,757.32,756.18,755.39,755.36,755.60,755.68,755.25,754.48,753.65,752.94,752.41,751.94,751.55,751.07,750.53,749.95,749.10,748.03,746.73,745.07,743.15,741.21,738.68,735.60,732.76,730.76,730.25,729.44,726.11,722.22,718.31,717.01,719.85,725.46,727.51,727.94,727.85,727.75,727.59,727.01,726.14,725.10,724.11,723.83,724.23,725.06,725.77,726.47,727.01,727.52,728.22,729.19,730.53,732.13,733.87,735.33,735.19,734.15,732.64,730.99,729.62,728.28,726.94,725.66,724.55,723.95,723.77,723.69,723.01
858.95,858.56,857.69,856.56,855.41,854.47,853.81,853.24,852.66,852.08,851.53,850.99,850.58,850.54,850.58,850.62,850.67,850.69,850.63,850.17,849.32,848.18,847.00,846.10,846.01,846.40,846.71,846.60,846.16,845.58,844.98,844.43,843.82,843.45,843.46,844.01,844.53,845.03,845.53,846.04,846.58,847.24,848.02,848.82,849.25,849.29,849.35,849.33,848.89,848.05,847.15,846.39,845.81,845.26,844.69,843.95,843.13,842.40,841.70,841.23,840.99,840.94,840.85,840.60,840.02,838.97,837.41,836.45,835.99,835.80,835.70,835.54,835.25,834.47,833.05,831.51,829.90,827.90,825.60,823.31,820.98,819.05,817.50,816.25,815.02,813.79,812.57,811.38,810.37,809.53,809.03,808.62,808.03,807.42,806.64,806.14,806.20,806.63,806.89,805.91,803.89,801.96,800.81,800.02,799.34,798.75,798.43,797.63,796.99,796.70,796.50,796.17,795.62,794.88,794.01,792.96,791.84,790.40,788.05,783.98,785.85,789.12,791.74,793.21,793.70,793.89,793.76,793.06,792.11,791.21,791.02,791.87,793.69,795.16,795.93,796.33,796.86,797.39,797.35,796.92,796.30,795.79,795.34,794.71,793.81,792.59,791.51,790.78,790.06,788.94,787.55,786.13,784.82,783.62,782.35,781.13,780.22,779.66,779.42,779.18,778.85,778.47,777.94,776.96,775.57,774.03,772.50,771.25,770.57,770.56,771.10,772.14,773.24,774.22,774.09,772.55,770.66,768.37,768.61,770.68,771.98,771.53,769.79,767.17,763.97,761.10,759.28,757.92,756.89,756.44,756.49,756.71,756.80,756.43,755.71,754.95,754.28,753.74,753.20,752.78,752.30,751.75,751.11,750.08,748.59,746.78,744.74,742.60,740.17,737.60,735.26,733.88,732.87,731.69,729.68,726.16,722.22,718.46,717.28,720.37,727.13,729.03,729.04,728.75,728.71,728.37,727.54,726.47,725.37,724.38,724.59,725.39,726.37,727.20,727.95,728.55,729.09,729.76,730.68,732.10,733.78,735.41,736.36,734.97,733.10,731.38,729.89,728.56,727.61,726.96,726.47,725.95,725.69,725.82,726.17,726.21
860.31,859.83,858.95,857.74,856.38,855.52,854.90,854.35,853.80,853.21,852.64,852.10,851.68,851.58,851.63,851.70,851.76,851.74,851.43,850.72,849.76,848.63,847.50,846.90,846.96,847.34,847.63,847.46,847.00,846.43,845.82,845.22,844.51,844.17,844.32,844.97,845.58,846.14,846.67,847.15,847.74,848.49,849.27,849.95,850.31,850.52,850.59,850.50,850.15,849.36,848.57,847.86,847.24,846.67,846.02,845.23,844.38,843.67,842.98,842.51,842.25,842.13,841.86,841.49,840.87,839.82,838.25,837.65,837.37,837.14,836.93,836.63,835.98,834.81,833.16,831.53,829.73,827.69,825.53,823.44,821.29,819.52,818.07,816.88,815.74,814.57,813.41,812.35,811.48,810.64,810.07,809.55,808.76,808.05,807.20,806.80,807.12,807.57,807.70,806.71,804.82,803.01,801.89,801.31,801.05,800.88,800.23,798.95,798.07,797.83,797.47,796.89,796.22,795.36,794.11,792.80,791.54,790.01,787.80,784.85,787.03,790.00,792.25,794.06,795.01,795.35,795.23,794.73,794.19,793.61,793.60,794.48,796.13,797.18,797.64,797.86,798.23,798.60,798.63,798.34,797.81,797.32,796.69,795.83,794.70,793.29,792.13,791.35,790.62,789.56,788.25,786.92,785.65,784.44,783.25,782.18,781.40,780.88,780.45,780.05,779.61,779.13,778.48,777.24,775.82,774.46,773.28,772.45,772.09,772.22,772.74,773.58,774.69,775.69,775.71,774.32,771.90,769.53,769.42,771.04,772.35,771.73,770.05,767.68,764.81,762.02,760.05,758.64,757.75,757.56,757.66,757.83,757.88,757.59,756.93,756.26,755.64,755.09,754.49,754.03,753.52,752.85,751.89,750.65,748.76,746.49,744.10,741.83,739.24,737.27,736.16,735.40,734.59,732.40,729.23,725.73,722.05,718.64,717.62,720.82,728.49,730.50,730.35,729.88,729.65,729.03,727.97,726.76,725.67,724.89,725.50,726.54,727.58,728.55,729.58,730.32,730.83,731.35,732.24,733.62,735.17,736.58,737.16,735.01,732.50,730.54,729.34,728.30,727.85,727.82,727.99,728.04,727.98,728.18,728.68,729.16
861.17,860.54,859.55,858.26,856.89,856.53,856.03,855.45,854.91,854.36,853.76,853.23,852.81,852.57,852.60,852.67,852.69,852.49,851.73,850.84,849.88,848.86,847.92,847.68,847.88,848.24,848.48,848.31,847.85,847.27,846.62,845.88,845.07,844.78,845.06,845.82,846.56,847.21,847.76,848.28,848.98,849.65,850.14,850.46,850.78,851.02,851.10,850.99,850.61,850.14,849.77,849.30,848.64,848.03,847.25,846.45,845.67,844.91,844.21,843.80,843.57,843.33,842.75,841.97,841.10,840.16,839.19,838.95,838.79,838.51,838.13,837.65,836.59,835.11,833.33,831.53,829.69,827.74,825.74,823.84,821.93,820.17,818.70,817.60,816.50,815.32,814.28,813.48,812.81,812.05,811.45,810.72,809.48,808.50,807.81,807.65,808.10,808.59,808.65,807.78,806.20,804.75,803.88,803.28,802.85,802.44,801.38,800.00,799.05,798.66,798.21,797.57,796.88,795.77,793.75,792.31,791.03,789.46,787.57,786.40,788.43,790.87,792.84,794.67,796.14,796.74,796.91,797.09,797.02,796.60,796.66,797.51,798.67,799.19,799.43,799.58,799.71,799.84,799.87,799.71,799.33,798.79,797.88,796.71,795.37,793.98,792.80,791.91,791.08,790.05,788.83,787.68,786.65,785.69,784.61,783.63,782.98,782.45,781.69,781.03,780.38,779.72,778.92,777.54,776.14,775.20,774.77,774.66,774.33,774.26,774.62,775.46,776.36,777.19,777.65,777.14,774.57,771.91,771.06,771.86,773.02,771.77,769.82,767.58,765.05,762.62,760.84,759.58,758.82,758.71,758.82,758.90,758.87,758.64,758.12,757.56,757.00,756.45,755.84,755.30,754.66,753.69,751.97,750.49,748.38,745.85,743.22,740.95,738.91,738.53,739.00,736.91,734.90,731.85,728.22,724.87,721.77,718.89,718.03,721.02,728.72,731.24,731.42,730.90,730.25,729.35,728.21,727.01,726.04,725.85,726.63,727.67,728.71,729.85,731.50,732.54,732.93,733.07,733.90,734.96,736.04,737.05,737.78,735.83,733.12,730.84,729.96,729.67,729.62,729.74,730.04,730.39,730.35,730.46,730.84,731.18
861.65,860.88,859.86,858.77,857.85,857.63,857.17,856.59,856.00,855.38,854.84,854.36,853.95,853.61,853.58,853.62,853.44,852.84,851.95,851.02,850.12,849.32,848.85,848.83,849.02,849.26,849.38,849.20,848.65,847.96,847.20,846.39,845.55,845.37,845.84,846.61,847.38,848.10,848.75,849.29,849.82,850.29,850.63,850.88,851.19,851.46,851.54,851.40,851.00,850.58,850.30,849.99,849.59,849.19,848.47,847.70,846.96,846.19,845.45,844.86,844.33,843.72,842.92,842.02,841.15,840.47,840.20,840.19,839.94,839.49,838.97,838.44,837.22,835.61,833.80,832.02,830.28,828.49,826.63,824.73,822.81,821.02,819.53,818.41,817.29,816.27,815.42,814.74,814.12,813.44,812.43,811.10,809.69,808.88,808.61,808.75,809.18,809.51,809.49,808.87,807.79,806.66,805.92,805.23,804.53,803.73,802.58,801.31,800.28,799.60,799.05,798.48,797.84,796.65,794.35,792.37,790.67,789.21,788.17,788.17,789.94,792.00,793.90,795.79,797.29,798.00,798.35,798.69,798.88,798.85,799.05,799.60,800.19,800.47,800.63,800.77,800.85,800.92,801.00,800.91,800.50,799.80,798.71,797.41,796.02,794.64,793.41,792.51,791.74,790.88,789.95,788.99,788.04,787.09,786.06,785.18,784.43,783.68,782.74,781.97,781.26,780.48,779.49,778.11,776.94,776.49,776.77,777.21,776.60,776.11,776.14,776.86,777.69,778.54,779.15,778.91,776.64,773.84,772.40,772.42,773.02,771.64,769.75,767.73,765.65,763.67,762.09,760.95,760.25,759.91,759.88,759.89,759.84,759.65,759.30,758.87,758.37,757.81,757.19,756.40,755.17,753.53,751.66,749.92,747.70,745.13,742.54,740.42,740.21,739.87,738.36,735.41,733.26,730.64,727.63,724.71,721.95,719.27,718.42,721.29,729.02,731.82,732.06,731.30,730.28,729.27,728.17,727.16,726.60,726.88,727.67,728.65,729.87,731.68,733.69,735.13,735.79,735.62,735.40,736.04,736.99,737.87,738.48,737.67,735.64,733.53,733.34,733.40,733.34,733.36,733.62,733.47,732.94,732.61,732.69,732.99
862.08,861.19,860.21,859.38,858.96,858.76,858.31,857.71,857.06,856.42,855.92,855.50,855.08,854.66,854.56,854.45,854.01,853.11,852.21,851.30,850.49,849.94,849.89,850.03,850.21,850.36,850.36,850.06,849.36,848.54,847.70,846.86,846.01,845.95,846.56,847.35,848.12,848.89,849.58,850.11,850.46,850.78,851.06,851.32,851.63,851.92,851.98,851.78,851.37,850.92,850.62,850.42,850.26,850.06,849.45,848.73,847.99,847.20,846.40,845.60,844.76,843.83,842.90,842.02,841.31,840.96,841.22,841.25,840.88,840.28,839.69,839.15,837.89,836.26,834.50,832.82,831.16,829.46,827.67,825.74,823.82,822.05,820.54,819.33,818.18,817.34,816.66,816.04,815.40,814.60,813.12,811.31,809.90,809.43,809.59,809.94,810.25,810.42,810.35,809.97,809.34,808.51,807.80,806.97,806.01,804.94,803.79,802.65,801.61,800.72,800.07,799.52,798.87,797.63,795.17,792.65,790.60,789.36,789.20,789.98,791.54,793.34,795.19,797.07,798.43,799.18,799.62,800.00,800.31,800.61,800.90,801.17,801.33,801.48,801.64,801.79,801.87,801.94,802.06,801.91,801.27,800.38,799.12,797.82,796.60,795.39,794.24,793.38,792.69,791.99,791.27,790.43,789.50,788.51,787.50,786.65,785.75,784.76,783.72,782.88,782.13,781.28,780.17,778.86,777.92,777.90,778.70,779.45,778.63,777.83,777.61,778.17,778.98,779.85,780.33,779.93,778.08,775.46,773.66,772.93,772.81,771.53,769.91,768.21,766.51,764.89,763.50,762.46,761.72,761.12,760.92,760.88,760.83,760.67,760.40,760.04,759.59,759.07,758.41,757.33,755.51,753.30,751.42,749.53,747.39,745.12,742.94,741.19,741.84,740.72,737.30,734.59,731.98,729.59,727.25,724.77,722.28,719.70,718.87,721.71,729.39,732.41,732.57,731.44,730.09,729.02,728.11,727.46,727.34,727.95,728.82,729.91,731.46,733.86,736.05,737.72,738.57,738.15,736.91,737.14,737.98,738.74,739.16,739.38,738.30,736.78,737.10,737.31,737.15,737.05,737.19,736.60,735.59,734.86,734.65,734.74
862.63,861.71,860.88,860.32,860.15,859.95,859.44,858.77,858.08,857.56,857.09,856.63,856.18,855.75,855.52,854.98,854.24,853.44,852.64,851.79,851.13,850.79,850.86,851.09,851.38,851.58,851.47,850.76,849.84,848.95,848.15,847.31,846.51,846.50,847.16,847.99,848.77,849.50,850.11,850.52,850.90,851.27,851.61,851.90,852.21,852.46,852.44,852.15,851.70,851.24,850.94,850.75,850.57,850.28,849.81,849.13,848.30,847.46,846.57,845.66,844.76,843.83,842.91,842.18,841.87,841.99,842.23,841.93,841.43,840.89,840.40,839.86,838.64,837.16,835.66,834.03,832.31,830.48,828.58,826.68,825.01,823.42,821.88,820.46,819.34,818.59,817.95,817.34,816.64,815.13,813.37,811.68,810.47,810.50,810.92,811.20,811.20,811.39,811.37,811.10,810.64,810.06,809.24,808.17,807.08,806.10,804.96,803.90,803.00,802.25,801.50,800.73,799.88,798.48,795.82,793.10,791.20,790.38,790.75,791.75,793.32,795.04,796.76,798.38,799.54,800.22,800.65,801.03,801.34,801.61,801.85,802.08,802.24,802.39,802.58,802.76,802.84,802.91,803.00,802.51,801.22,800.15,798.69,797.61,797.01,796.42,795.67,794.94,794.25,793.53,792.72,791.78,790.82,789.85,788.80,787.82,786.80,785.74,784.67,783.75,782.90,782.03,781.03,779.87,779.04,779.17,780.06,780.62,780.02,779.39,779.20,779.67,780.42,781.17,781.02,779.75,778.31,776.62,774.92,773.46,772.60,771.58,770.55,769.33,767.79,766.19,765.00,763.95,763.00,762.29,762.00,761.92,761.87,761.68,761.28,760.84,760.44,760.02,759.31,757.90,755.90,753.67,751.72,749.94,748.36,747.05,746.09,745.13,743.08,740.22,737.81,737.90,733.17,729.46,727.14,724.90,722.61,720.12,719.48,722.52,729.88,733.14,733.09,731.37,729.74,728.64,728.22,728.19,728.41,729.07,730.31,732.03,734.15,736.52,738.62,740.04,740.59,739.97,738.58,738.51,739.02,739.50,739.73,739.94,739.86,739.65,739.77,739.82,739.75,739.64,739.55,739.29,738.26,737.45,737.10,736.52
863.21,862.41,861.73,861.31,861.25,860.91,860.33,859.66,859.00,858.49,858.02,857.56,857.10,856.63,856.21,855.53,854.73,853.96,853.18,852.41,851.85,851.59,851.64,851.90,852.25,852.49,852.28,851.32,850.21,849.27,848.54,847.84,847.23,847.12,847.55,848.37,849.24,850.20,850.93,851.24,851.56,851.86,852.14,852.39,852.70,853.01,852.94,852.57,852.04,851.57,851.27,851.05,850.83,850.45,850.03,849.34,848.42,847.53,846.65,845.76,844.84,843.91,843.16,842.82,842.82,843.00,842.98,842.54,842.00,841.47,840.97,840.47,839.56,838.32,836.82,835.13,833.31,831.46,829.63,827.92,826.50,825.02,823.50,822.07,820.82,819.95,819.22,818.56,817.91,816.20,814.11,812.24,811.34,811.79,812.35,812.52,812.29,812.35,812.36,812.16,811.75,811.22,810.21,809.06,807.99,807.03,805.97,804.94,804.02,803.14,802.17,801.35,800.23,798.49,795.86,793.22,792.09,792.00,792.63,793.69,795.14,796.77,798.44,799.93,800.92,801.45,801.75,802.02,802.30,802.56,802.80,803.00,803.18,803.35,803.52,803.70,803.81,803.92,803.71,802.87,801.38,800.14,799.23,798.69,798.39,797.97,797.30,796.52,795.74,794.98,794.08,793.06,792.01,790.93,789.82,788.79,787.74,786.67,785.64,784.66,783.68,782.64,781.48,780.19,779.52,779.82,780.82,781.56,781.15,780.68,780.66,781.31,781.97,781.89,781.01,779.51,778.15,776.76,775.34,774.01,773.01,772.10,771.24,770.25,768.99,767.55,766.26,765.20,764.34,763.59,763.12,762.96,762.87,762.58,762.13,761.65,761.20,760.75,760.03,758.68,756.82,754.74,752.89,751.39,749.94,748.59,747.32,745.55,743.14,741.07,739.71,738.61,733.44,729.50,727.05,724.85,722.64,720.27,720.01,723.53,730.53,733.98,733.73,731.45,729.71,728.92,728.85,729.16,729.78,730.84,732.36,734.34,736.62,738.72,740.45,741.68,742.11,741.29,740.20,740.00,740.28,740.67,740.93,740.97,741.00,741.07,741.11,741.05,740.94,740.82,740.64,740.38,739.65,738.93,738.25,737.16
863.86,863.21,862.65,862.31,862.23,861.74,861.09,860.43,859.82,859.27,858.79,858.33,857.88,857.39,856.79,856.08,855.30,854.53,853.77,853.08,852.59,852.35,852.37,852.65,853.07,853.32,852.98,851.87,850.66,849.66,848.97,848.45,848.04,847.81,847.94,848.73,849.77,851.03,851.95,852.17,852.40,852.63,852.83,853.02,853.31,853.62,853.47,852.97,852.39,851.89,851.58,851.33,851.03,850.59,850.17,849.46,848.50,847.61,846.75,845.87,844.96,844.11,843.63,843.68,843.88,843.95,843.61,843.11,842.57,842.03,841.49,841.00,840.42,839.45,837.95,836.19,834.31,832.49,830.79,829.32,828.13,826.73,825.24,823.84,822.45,821.42,820.58,819.86,819.20,817.45,814.98,812.85,812.43,813.20,813.80,813.87,813.48,813.35,813.36,813.18,812.74,812.07,810.85,809.67,808.63,807.66,806.62,805.60,804.57,803.46,802.24,801.49,800.15,798.12,795.65,793.45,793.24,793.88,794.64,795.70,797.00,798.53,800.16,801.56,802.47,802.86,803.02,803.19,803.38,803.60,803.80,803.98,804.18,804.35,804.50,804.64,804.79,804.93,804.36,803.24,801.77,800.47,800.15,800.10,799.96,799.56,798.90,798.07,797.21,796.36,795.33,794.25,793.10,791.88,790.71,789.63,788.57,787.51,786.47,785.41,784.27,783.04,781.73,780.34,779.84,780.27,781.34,782.35,782.16,781.87,782.04,782.87,783.32,782.32,780.80,779.28,777.95,776.68,775.56,774.57,773.65,772.78,771.92,771.03,770.04,768.80,767.44,766.41,765.69,764.94,764.29,764.02,763.85,763.43,762.93,762.38,761.83,761.28,760.55,759.39,757.78,755.94,754.25,752.94,751.47,749.88,748.10,745.55,743.55,742.55,741.66,738.31,733.38,729.61,726.96,724.69,722.51,720.28,720.57,724.79,731.27,734.81,734.42,731.82,730.17,729.79,729.98,730.54,731.53,732.97,734.67,736.68,738.84,740.59,741.94,743.04,743.45,742.54,741.81,741.57,741.68,742.02,742.32,742.15,742.01,741.98,741.93,741.77,741.58,741.38,741.14,740.77,740.37,739.74,738.73,737.19
864.73,864.11,863.65,863.30,862.92,862.35,861.68,861.02,860.40,859.81,859.32,858.89,858.47,857.98,857.34,856.60,855.82,855.06,854.35,853.79,853.37,853.12,853.10,853.49,854.00,854.21,853.66,852.56,851.47,850.47,849.65,849.26,848.93,848.64,848.62,849.36,850.73,852.25,853.26,853.39,853.62,853.85,854.04,854.22,854.44,854.46,854.00,853.33,852.82,852.25,851.87,851.53,851.11,850.65,850.20,849.51,848.66,847.90,847.01,846.03,845.13,844.60,844.54,844.71,844.80,844.64,844.16,843.63,843.10,842.53,841.94,841.41,840.86,840.14,839.02,837.24,835.47,833.77,832.20,830.92,829.84,828.50,827.03,825.59,824.20,823.16,822.31,821.52,820.55,818.70,815.77,813.43,813.89,814.72,815.22,815.25,814.86,814.55,814.40,814.15,813.57,812.37,810.92,809.70,808.61,807.48,806.25,805.19,804.02,802.63,801.24,800.69,799.46,797.47,795.36,794.42,794.96,795.90,796.70,797.72,798.88,800.32,801.89,803.21,804.22,804.66,804.81,804.95,805.01,804.94,804.99,805.18,805.30,805.44,805.56,805.68,805.82,805.87,805.12,803.97,802.75,801.67,801.12,800.95,800.91,800.63,800.13,799.47,798.63,797.58,796.37,795.20,794.01,792.77,791.50,790.25,789.13,788.06,786.86,785.58,784.26,782.97,781.81,780.82,780.46,780.83,781.80,782.85,783.04,783.04,783.31,783.97,783.85,782.47,780.75,779.21,778.15,777.13,776.16,775.22,774.29,773.38,772.47,771.58,770.68,769.62,768.61,767.76,767.06,766.30,765.60,765.15,764.79,764.26,763.58,762.86,762.13,761.37,760.59,759.58,758.23,756.65,755.06,753.53,752.06,750.81,749.80,748.47,746.58,744.51,741.96,737.80,733.30,729.68,726.83,724.39,722.20,720.19,721.35,726.65,732.16,735.46,735.18,732.90,731.96,731.78,732.21,733.04,734.17,735.52,737.15,738.85,740.48,741.91,743.18,744.31,744.82,744.12,743.48,743.25,743.27,743.40,743.48,743.30,743.09,742.91,742.72,742.40,742.04,741.62,741.18,740.79,740.40,739.73,738.53,736.59
865.51,864.96,864.49,864.06,863.54,862.90,862.25,861.62,861.03,860.45,859.94,859.48,859.04,858.52,857.83,857.09,856.36,855.66,854.97,854.53,854.17,853.90,853.93,854.38,854.94,855.17,854.63,853.66,852.69,851.75,850.92,850.47,849.86,849.37,849.32,850.20,851.73,853.43,854.52,854.63,854.85,855.05,855.25,855.42,855.47,855.07,854.31,853.54,853.06,852.52,852.02,851.59,851.18,850.75,850.30,849.69,848.93,848.06,847.09,846.19,845.58,845.45,845.58,845.67,845.55,845.19,844.65,844.11,843.55,842.97,842.39,841.85,841.28,840.65,839.79,838.34,836.71,835.08,833.58,832.35,831.17,829.81,828.37,826.98,825.48,824.19,823.03,821.82,820.16,817.92,815.42,814.02,815.30,816.19,816.64,816.66,816.28,815.89,815.56,814.98,814.01,812.56,811.03,809.67,808.44,807.21,805.93,804.84,803.64,802.26,800.89,799.91,798.49,796.82,795.65,795.83,796.83,797.93,798.85,799.85,801.00,802.34,803.77,805.10,805.97,806.43,806.62,806.60,806.31,806.05,806.13,806.48,806.58,806.68,806.80,806.89,806.90,806.79,806.05,804.99,803.87,802.93,802.27,801.92,801.76,801.54,801.12,800.52,799.70,798.52,797.20,795.94,794.68,793.37,792.03,790.68,789.44,788.25,787.02,785.76,784.50,783.34,782.40,781.70,781.35,781.60,782.39,783.36,783.88,784.16,784.48,784.86,784.35,782.89,781.23,779.80,778.75,777.75,776.79,775.88,774.98,774.06,773.11,772.16,771.23,770.24,769.38,768.63,767.92,767.18,766.45,765.82,765.21,764.52,763.72,762.92,762.10,761.26,760.48,759.55,758.38,757.07,755.71,754.32,753.00,751.86,750.88,749.46,747.09,744.41,741.45,737.67,733.44,729.83,726.87,724.35,721.97,720.24,722.43,728.90,733.39,736.39,736.69,735.37,734.83,734.64,734.98,735.75,736.88,738.15,739.53,740.90,742.19,743.32,744.51,745.58,746.07,745.49,744.93,744.54,744.23,743.95,743.69,743.48,743.23,742.93,742.62,742.22,741.80,741.36,740.92,740.53,739.87,738.81,737.27,735.22
866.21,865.73,865.21,864.68,864.12,863.46,862.83,862.25,861.71,861.16,860.63,860.14,859.65,859.07,858.34,857.62,856.94,856.31,855.66,855.33,855.01,854.72,854.80,855.27,855.86,856.16,855.73,854.94,854.12,853.28,852.49,851.88,850.88,850.16,850.14,851.26,852.84,854.59,855.75,855.87,856.08,856.25,856.42,856.54,856.34,855.51,854.51,853.68,853.20,852.71,852.07,851.52,851.17,850.79,850.37,849.83,849.12,848.11,847.12,846.48,846.28,846.50,846.65,846.53,846.17,845.64,845.10,844.55,843.97,843.38,842.84,842.30,841.70,841.08,840.38,839.35,837.87,836.30,834.83,833.55,832.18,830.72,829.31,827.95,826.21,824.54,822.95,821.30,819.21,816.76,814.95,814.72,816.81,817.75,818.12,818.07,817.65,817.22,816.69,815.71,814.30,812.77,811.24,809.77,808.39,807.11,805.87,804.75,803.60,802.34,801.00,799.39,797.68,796.38,796.35,797.48,798.80,800.03,801.13,802.17,803.34,804.55,805.82,807.12,807.73,808.16,808.36,808.07,807.38,807.03,807.24,807.81,807.93,807.99,808.08,808.11,807.94,807.67,807.07,806.15,805.06,804.21,803.54,803.00,802.60,802.38,801.97,801.37,800.49,799.21,797.84,796.51,795.16,793.77,792.39,791.01,789.64,788.33,787.13,786.02,784.97,784.03,783.32,782.82,782.42,782.49,783.07,783.92,784.69,785.20,785.53,785.63,784.91,783.50,782.01,780.69,779.52,778.42,777.43,776.51,775.63,774.70,773.73,772.74,771.74,770.74,769.89,769.14,768.44,767.72,766.96,766.15,765.33,764.49,763.64,762.79,761.94,761.10,760.30,759.39,758.36,757.25,756.12,754.99,753.82,752.65,751.32,749.14,746.52,743.87,741.14,737.83,733.68,730.00,726.94,724.34,721.74,720.82,724.14,731.25,734.92,737.52,738.46,738.24,737.98,737.77,737.98,738.61,739.66,740.84,741.88,742.93,744.00,744.88,745.85,746.59,746.81,746.23,745.73,745.13,744.45,743.76,743.22,742.98,742.73,742.39,742.00,741.58,741.18,740.73,740.19,739.63,738.65,737.19,735.33,733.36
866.86,866.34,865.81,865.27,864.71,864.08,863.54,863.02,862.48,861.94,861.44,860.94,860.38,859.73,859.02,858.32,857.63,857.00,856.56,856.24,855.91,855.59,855.56,856.08,856.71,857.06,856.78,856.14,855.50,854.80,854.01,853.23,852.14,851.36,851.37,852.82,854.35,855.87,856.91,857.14,857.32,857.48,857.54,857.38,856.78,855.80,854.74,853.85,853.33,852.75,851.97,851.28,850.83,850.50,850.19,849.58,848.72,847.95,847.38,847.28,847.41,847.54,847.58,847.18,846.64,846.10,845.56,844.97,844.39,843.84,843.29,842.75,842.12,841.47,840.81,839.95,838.58,837.08,835.62,834.20,832.72,831.13,829.56,827.97,825.74,823.74,821.93,820.50,819.96,818.70,816.60,815.85,818.88,819.88,819.81,819.38,818.81,818.20,817.47,816.32,814.81,813.27,811.82,810.43,809.13,807.93,806.69,805.58,804.45,803.16,801.50,799.88,798.12,796.89,797.42,799.14,800.89,802.44,803.76,804.94,806.03,807.10,808.16,809.12,809.58,809.83,809.76,809.17,808.32,808.01,808.35,809.07,809.27,809.23,809.12,808.97,808.76,808.51,808.09,807.32,806.25,805.53,804.86,804.21,803.64,803.26,802.90,802.10,800.92,799.52,798.13,796.76,795.38,793.99,792.60,791.25,789.95,788.71,787.60,786.56,785.73,785.04,784.45,783.98,783.58,783.47,783.78,784.62,785.45,786.00,786.32,786.35,785.61,784.30,782.87,781.46,780.14,779.01,777.99,777.01,776.05,775.07,774.11,773.14,772.13,771.13,770.18,769.37,768.64,767.85,767.06,766.25,765.39,764.54,763.70,762.80,761.92,761.07,760.18,759.22,758.18,757.06,755.81,754.56,753.30,752.07,750.63,748.04,747.44,746.32,743.38,738.35,733.83,730.02,726.75,723.95,721.31,723.26,727.83,733.19,736.95,738.86,739.60,739.77,739.91,740.14,740.76,741.64,742.65,743.66,744.41,745.18,746.05,746.79,747.02,746.53,745.67,744.84,744.28,743.72,743.07,742.42,742.01,741.86,741.75,741.57,741.19,740.88,740.53,739.66,738.02,736.62,735.73,734.60,733.02,731.16
867.46,866.93,866.39,865.87,865.38,864.85,864.35,863.85,863.33,862.79,862.29,861.75,861.15,860.45,859.73,859.01,858.29,857.66,857.44,857.14,856.76,856.41,856.32,856.87,857.54,857.94,857.77,857.21,856.65,856.06,855.37,854.57,853.48,852.76,852.92,854.59,856.16,857.49,858.31,858.47,858.54,858.57,858.44,858.04,857.15,856.11,855.02,854.09,853.46,852.79,851.93,851.12,850.52,850.12,849.85,849.49,848.99,848.42,847.95,848.19,848.55,848.51,848.27,847.70,847.09,846.55,845.98,845.39,844.83,844.29,843.74,843.15,842.53,841.91,841.26,840.37,839.02,837.49,835.91,834.35,832.92,831.41,829.74,827.71,825.07,823.31,822.06,821.26,821.19,819.76,817.61,816.97,820.13,821.52,821.36,820.65,819.88,819.04,818.15,816.90,815.38,813.92,812.52,811.22,809.99,808.77,807.41,806.00,804.59,803.07,801.24,800.04,799.04,798.26,798.23,799.81,802.38,804.76,806.37,807.59,808.46,809.25,810.02,810.64,811.01,811.06,810.74,809.97,809.11,809.16,809.81,810.67,811.09,811.04,810.75,810.34,809.90,809.48,809.06,808.41,807.49,806.84,806.16,805.39,804.66,804.25,803.83,802.80,801.36,799.84,798.43,797.06,795.70,794.33,792.98,791.68,790.44,789.27,788.23,787.27,786.70,786.25,785.71,785.17,784.75,784.49,784.56,785.31,786.15,786.73,787.06,787.09,786.30,785.03,783.62,782.18,780.75,779.53,778.45,777.44,776.44,775.44,774.47,773.49,772.48,771.45,770.44,769.55,768.76,767.91,767.10,766.29,765.46,764.61,763.73,762.82,761.92,761.06,760.13,759.02,757.86,756.67,755.38,754.07,752.76,751.50,750.20,748.34,748.87,747.95,744.14,738.31,733.57,729.60,726.12,723.30,722.37,725.72,730.44,734.89,738.68,740.52,741.29,741.68,742.23,742.87,743.76,744.76,745.73,746.53,747.02,747.33,747.48,747.39,746.85,745.69,744.33,743.31,742.63,742.06,741.46,740.84,740.54,740.40,740.32,740.19,739.79,739.13,738.12,736.54,734.42,733.00,732.26,731.23,729.54,727.32
868.06,867.52,866.98,866.50,866.13,865.73,865.22,864.72,864.23,863.70,863.16,862.57,861.93,861.24,860.46,859.68,858.93,858.32,858.30,858.01,857.59,857.19,857.09,857.65,858.35,858.83,858.77,858.21,857.65,857.15,856.64,855.91,854.84,854.26,854.65,856.41,858.10,859.30,859.88,859.83,859.76,859.54,859.17,858.54,857.49,856.42,855.34,854.36,853.59,852.81,851.93,851.05,850.30,849.78,849.56,849.69,849.82,849.34,848.73,849.10,849.60,849.35,848.75,848.13,847.54,846.99,846.38,845.83,845.29,844.74,844.18,843.51,842.93,842.37,841.70,840.62,839.17,837.48,835.69,833.98,832.67,831.32,829.64,827.43,824.78,823.67,823.37,823.25,822.47,819.81,817.97,818.12,820.83,822.78,822.75,821.87,820.87,819.82,818.79,817.50,816.02,814.68,813.31,812.03,810.80,809.48,807.82,805.95,804.13,802.40,800.62,800.15,800.33,800.13,798.86,799.94,803.49,806.93,808.81,809.98,810.55,811.00,811.46,811.81,812.12,811.97,811.44,810.64,809.90,810.47,811.52,812.56,813.28,813.33,812.90,812.22,811.45,810.71,810.13,809.51,808.76,808.07,807.35,806.49,805.67,805.34,804.76,803.51,801.88,800.23,798.79,797.44,796.13,794.81,793.50,792.25,791.05,789.94,788.98,788.15,787.87,787.61,787.03,786.37,785.92,785.56,785.42,786.00,786.80,787.41,787.80,787.84,786.98,785.69,784.29,782.85,781.34,779.97,778.83,777.83,776.81,775.81,774.80,773.80,772.78,771.71,770.69,769.74,768.84,768.00,767.15,766.35,765.52,764.63,763.72,762.79,761.89,761.02,760.05,758.78,757.46,756.17,754.91,753.61,752.32,751.13,750.20,749.84,750.39,748.31,743.13,737.49,732.78,728.79,725.21,722.70,724.45,727.90,732.01,736.34,740.04,742.28,743.40,744.02,744.93,745.88,746.84,747.79,748.65,749.12,749.27,748.96,748.12,746.85,745.64,744.33,742.96,741.77,740.89,740.24,739.61,738.97,738.63,738.44,738.31,738.14,737.70,736.40,734.36,732.07,730.07,729.19,728.56,727.35,725.27,722.47
868.71,868.17,867.63,867.20,866.99,866.63,866.13,865.62,865.14,864.60,864.02,863.38,862.74,862.10,861.18,860.34,859.64,859.19,859.20,858.88,858.40,857.96,857.83,858.41,859.16,859.76,859.92,859.32,858.80,858.44,858.07,857.23,856.14,855.61,856.07,857.88,859.60,860.78,861.35,861.29,861.06,860.52,859.76,858.84,857.76,856.69,855.61,854.59,853.71,852.84,851.93,851.10,850.43,849.93,850.16,850.59,850.68,849.88,849.42,849.84,850.23,849.82,849.15,848.55,847.97,847.39,846.82,846.28,845.74,845.18,844.59,843.95,843.38,842.77,841.95,840.63,838.70,836.59,834.51,832.68,831.20,829.41,828.05,827.72,827.07,826.39,825.96,825.25,822.64,819.34,818.33,819.58,822.11,824.08,823.93,822.90,821.79,820.65,819.46,818.15,816.78,815.46,814.08,812.64,811.20,809.65,807.31,805.24,803.74,802.70,801.60,801.91,802.17,801.50,799.80,801.34,805.19,808.74,810.61,811.57,811.99,812.32,812.67,813.02,813.25,812.88,812.24,811.70,811.19,811.88,813.10,814.42,815.45,815.69,815.37,814.65,813.65,812.80,811.91,810.99,810.05,808.94,807.91,807.16,806.74,806.56,805.76,804.36,802.66,800.93,799.33,797.94,796.65,795.39,794.13,792.89,791.73,790.69,789.89,789.44,789.25,788.93,788.27,787.55,787.16,786.83,786.56,786.72,787.45,788.12,788.56,788.56,787.69,786.43,785.00,783.45,781.91,780.39,779.16,778.14,777.09,776.09,775.04,774.01,772.99,771.92,770.90,769.93,769.03,768.23,767.38,766.55,765.60,764.44,763.53,762.62,761.70,760.76,759.68,758.39,757.07,755.75,754.42,753.14,751.99,751.19,751.05,751.53,750.80,746.55,739.68,734.78,730.94,727.57,724.73,723.39,725.77,729.23,733.15,737.28,740.75,743.33,745.20,746.55,747.58,748.63,749.41,750.00,750.34,749.99,749.25,748.31,747.15,745.75,744.36,742.93,741.48,740.01,738.65,737.71,736.89,736.03,735.17,734.87,734.79,734.70,734.20,732.70,730.74,728.78,727.16,726.16,725.17,723.62,721.37,718.87
869.37,868.81,868.32,867.98,867.86,867.53,867.04,866.51,866.02,865.48,864.85,864.24,863.62,862.91,861.89,861.05,860.48,860.22,860.23,859.78,859.19,858.70,858.54,859.13,859.98,860.82,861.33,860.76,860.34,860.00,859.50,858.51,857.38,856.84,857.25,858.89,860.50,861.76,862.49,862.48,861.87,860.95,859.93,858.87,857.84,856.85,855.90,855.00,854.12,853.20,852.34,851.59,850.99,850.61,851.12,851.53,851.35,850.37,850.14,850.55,850.86,850.45,849.62,848.98,848.40,847.82,847.27,846.73,846.18,845.56,844.83,844.11,843.41,842.67,841.76,840.47,838.23,835.74,833.35,831.36,830.23,829.02,828.47,829.19,829.44,828.92,828.27,826.82,822.38,818.95,818.83,820.98,823.51,825.38,825.14,824.05,822.91,821.74,820.30,818.85,817.45,816.05,814.61,813.05,811.49,809.79,807.22,805.82,805.14,804.59,803.42,804.23,804.09,802.62,800.96,802.76,806.48,809.92,811.90,812.92,813.33,813.62,813.93,814.24,814.35,813.93,813.36,812.99,812.64,813.35,814.63,816.13,817.41,817.92,817.70,816.92,815.74,814.69,813.52,812.33,811.13,809.75,808.63,808.06,807.94,807.77,806.79,805.27,803.51,801.70,799.95,798.52,797.25,796.01,794.77,793.56,792.45,791.53,790.96,790.79,790.63,790.22,789.46,788.77,788.43,788.11,787.74,787.57,788.14,788.82,789.30,789.31,788.43,787.16,785.68,784.07,782.47,780.83,779.51,778.43,777.35,776.32,775.29,774.26,773.25,772.23,771.22,770.25,769.35,768.54,767.64,766.66,765.52,764.19,763.17,762.24,761.32,760.35,759.16,757.85,756.53,755.28,754.17,753.27,752.58,752.25,752.37,752.24,748.79,742.78,736.02,731.99,729.04,726.33,724.41,724.58,726.99,730.43,734.33,738.28,741.47,744.28,746.70,748.62,749.78,750.84,751.10,750.95,750.59,749.61,748.34,747.06,745.83,744.53,743.13,741.61,739.88,737.89,736.12,734.94,734.00,732.98,731.63,731.00,730.74,730.54,730.08,728.90,727.43,725.93,724.53,723.37,722.03,720.22,717.97,715.74
870.08,869.47,869.08,868.84,868.73,868.43,867.94,867.40,866.87,866.32,865.68,865.14,864.57,863.65,862.60,861.85,861.46,861.42,861.40,860.73,859.99,859.47,859.32,859.86,860.86,862.02,862.94,862.57,862.28,861.86,861.02,859.77,858.54,857.97,858.25,859.50,860.90,862.31,863.31,863.34,862.13,860.84,859.73,858.77,857.86,857.05,856.37,855.70,854.88,853.95,853.21,852.55,851.99,851.81,852.32,852.40,851.82,850.90,850.91,851.30,851.59,851.33,850.20,849.41,848.82,848.27,847.73,847.19,846.58,845.80,844.80,843.88,842.94,842.01,841.08,840.03,837.70,835.06,832.55,830.56,830.33,830.68,831.24,831.78,831.44,830.80,829.99,827.88,821.86,818.81,819.51,822.28,824.97,826.67,826.41,825.38,824.27,823.06,821.32,819.58,817.98,816.44,814.84,813.25,811.67,809.95,807.76,807.79,808.22,807.80,805.93,806.82,805.93,803.58,802.37,804.01,807.23,810.40,812.68,814.13,814.67,814.96,815.25,815.47,815.41,815.14,814.80,814.48,814.17,814.85,816.12,817.65,819.10,819.90,819.74,818.81,817.50,816.16,814.80,813.41,811.98,810.55,809.63,809.29,809.29,808.96,807.82,806.22,804.39,802.49,800.64,799.18,797.89,796.66,795.43,794.25,793.23,792.47,792.17,792.11,791.94,791.45,790.62,790.02,789.71,789.36,788.91,788.56,788.88,789.50,790.02,790.06,789.19,787.85,786.31,784.66,782.98,781.28,779.85,778.67,777.60,776.53,775.56,774.59,773.60,772.65,771.66,770.70,769.78,768.91,767.86,766.62,765.27,763.90,762.67,761.66,760.75,759.80,758.53,757.22,755.99,754.94,754.34,754.12,754.11,754.13,753.73,751.37,744.29,737.43,732.66,729.57,727.37,725.27,724.31,725.98,728.15,731.67,735.67,739.46,742.35,745.21,747.88,750.09,751.44,752.30,751.75,750.57,749.44,748.16,746.80,745.52,744.36,743.23,741.93,740.26,738.10,735.41,733.33,732.03,731.03,729.91,728.20,727.07,726.34,725.85,725.53,725.12,724.38,723.29,721.93,720.69,719.10,717.19,715.05,712.93
871.11,870.38,870.01,869.85,869.72,869.36,868.85,868.31,867.77,867.23,866.72,866.12,865.36,864.33,863.30,862.77,862.59,862.59,862.52,861.87,861.14,860.67,860.70,861.16,862.08,863.25,864.32,864.50,864.39,864.12,863.39,861.49,859.68,858.92,859.28,860.51,861.92,863.35,864.22,863.95,862.60,861.29,860.38,859.81,859.12,858.45,857.76,857.01,856.08,855.07,854.21,853.62,853.33,853.19,853.56,853.34,852.50,851.82,851.99,852.37,852.58,852.26,851.09,850.03,849.26,848.72,848.19,847.68,846.81,845.52,843.99,842.94,841.98,841.03,839.98,838.37,835.86,834.12,833.33,832.89,832.96,833.23,833.52,833.60,833.04,832.33,831.31,828.55,821.27,819.16,820.56,823.55,826.49,827.99,827.71,826.76,825.68,824.21,822.26,820.28,818.42,816.73,814.94,813.21,811.52,809.90,808.52,808.89,809.36,809.12,808.42,808.76,807.20,804.79,804.30,805.49,807.67,810.28,813.00,815.28,815.99,816.23,816.45,816.65,816.63,816.48,816.23,815.92,815.62,816.26,817.54,819.10,820.35,821.26,821.08,820.03,818.62,817.18,815.71,814.24,812.78,811.38,810.76,810.76,810.89,810.22,808.90,807.21,805.35,803.43,801.52,799.89,798.50,797.30,796.08,794.98,794.11,793.54,793.43,793.41,793.16,792.62,791.85,791.17,790.81,790.43,789.96,789.52,789.67,790.21,790.70,790.64,789.84,788.41,786.75,785.03,783.28,781.50,780.00,778.79,777.80,776.82,775.87,774.93,773.97,773.00,772.04,771.10,770.14,769.09,767.82,766.45,765.05,763.63,762.28,761.15,760.13,759.13,757.91,757.11,756.48,755.98,755.70,755.54,755.21,754.43,752.27,746.45,739.61,734.02,730.34,728.27,726.59,725.16,724.81,726.56,728.63,733.09,737.54,740.74,743.38,746.06,748.65,751.01,752.67,752.30,751.00,749.51,748.15,746.66,745.25,743.93,742.72,741.65,740.27,738.20,735.61,732.80,730.48,728.94,727.64,726.22,724.33,722.84,721.89,721.41,721.22,721.16,720.88,720.16,718.94,717.62,716.09,714.19,712.10,710.47
872.14,871.47,871.16,871.02,870.86,870.41,869.84,869.26,868.71,868.21,867.75,867.06,866.11,865.03,864.21,863.90,863.85,863.84,863.70,863.07,862.47,862.18,862.41,862.82,863.58,864.58,865.63,866.32,866.54,866.50,865.92,863.69,861.19,860.27,860.83,861.93,863.21,864.53,865.18,864.55,863.18,862.17,861.68,861.46,860.91,860.24,859.34,858.30,857.23,856.12,855.22,854.74,854.66,854.55,854.67,854.19,853.28,852.87,853.07,853.40,853.50,853.05,851.90,850.73,849.83,849.23,848.69,848.14,846.95,845.21,843.30,841.99,840.83,839.72,838.58,837.32,835.68,835.13,835.59,836.04,836.00,835.81,835.56,835.17,834.31,833.30,831.98,828.82,821.04,821.01,823.38,826.07,828.46,829.39,829.03,828.16,827.03,825.25,822.94,820.58,818.40,816.53,814.58,812.80,811.25,810.09,809.60,810.28,810.52,810.11,810.49,810.20,808.14,805.98,806.33,807.36,808.58,810.54,813.56,816.54,817.33,817.48,817.60,817.78,817.81,817.74,817.58,817.34,817.04,817.62,818.83,820.32,821.44,822.45,822.21,820.98,819.47,818.00,816.48,814.97,813.56,812.46,812.13,812.32,812.42,811.38,809.92,808.19,806.33,804.39,802.46,800.66,799.12,797.88,796.76,795.77,795.08,794.75,794.75,794.75,794.40,793.83,793.10,792.35,791.89,791.48,791.00,790.57,790.56,790.97,791.36,791.18,790.34,788.82,787.06,785.24,783.42,781.54,780.01,778.84,777.90,776.97,776.04,775.12,774.17,773.17,772.23,771.33,770.41,769.33,767.91,766.46,765.01,763.51,762.08,760.80,759.76,758.91,758.01,757.64,757.43,757.27,757.15,756.75,755.62,753.83,750.48,742.62,736.19,731.66,728.87,727.51,726.12,725.36,725.59,727.15,729.01,734.72,739.84,742.27,744.35,746.75,749.29,751.71,753.33,751.81,749.99,748.40,746.95,745.36,743.89,742.46,741.08,739.81,738.17,735.75,732.91,730.21,727.83,726.27,724.88,723.25,721.43,720.01,719.10,718.55,718.21,718.05,717.77,717.20,716.21,715.11,713.90,712.31,710.57,709.64
873.14,872.77,872.60,872.42,872.15,871.66,870.97,870.29,869.72,869.29,868.72,867.90,866.85,865.76,865.45,865.28,865.21,865.24,864.97,864.31,863.92,864.02,864.44,864.84,865.37,866.05,866.90,867.93,868.66,868.93,868.41,866.44,863.30,862.28,863.15,863.88,864.72,865.79,866.20,865.24,863.90,863.62,863.70,863.65,863.10,862.26,860.89,859.37,858.13,856.93,856.22,855.92,855.89,855.80,855.54,854.89,854.13,853.96,854.09,854.27,854.22,853.66,852.50,851.48,850.59,849.83,849.26,848.53,847.01,845.00,843.02,841.23,839.63,838.13,837.08,837.67,838.42,839.08,839.49,839.34,838.76,838.05,837.35,836.59,835.22,833.56,831.82,828.66,821.63,824.97,828.60,830.31,831.03,830.89,830.35,829.52,828.24,826.09,823.18,820.27,817.72,815.72,813.70,812.05,811.00,810.78,811.16,812.35,812.34,811.27,811.92,811.07,808.83,807.08,808.25,809.72,810.32,811.63,814.63,817.92,818.70,818.73,818.76,818.85,818.86,818.85,818.82,818.74,818.47,818.95,819.97,821.29,822.44,823.55,823.18,821.71,820.13,818.64,817.12,815.62,814.37,813.87,813.82,813.93,813.73,812.34,810.82,809.12,807.28,805.36,803.44,801.53,799.79,798.37,797.50,796.65,796.20,796.12,796.17,796.12,795.74,795.11,794.35,793.58,793.00,792.51,792.08,791.77,791.62,791.83,792.03,791.67,790.63,789.02,787.18,785.26,783.35,781.38,779.89,778.82,777.84,776.90,775.98,775.05,774.11,773.12,772.17,771.32,770.54,769.72,768.31,766.79,765.24,763.66,762.13,760.75,759.82,759.45,759.22,758.99,758.73,758.49,758.30,757.41,755.08,752.35,749.06,741.77,734.81,730.33,728.38,727.22,725.85,725.69,726.57,728.01,729.63,736.69,742.60,744.24,745.26,747.31,749.88,752.27,753.21,751.07,749.08,747.49,745.96,744.41,742.88,741.26,739.52,737.71,735.59,732.98,730.23,727.85,725.72,724.63,723.51,721.88,720.45,719.71,719.07,718.28,717.37,716.54,715.72,714.95,714.32,713.86,713.26,712.39,711.49,711.38
874.38,874.16,874.02,873.80,873.41,872.89,872.21,871.53,870.94,870.44,869.61,868.55,867.42,866.60,866.76,866.51,866.33,866.61,866.23,865.61,865.39,865.70,866.23,866.64,867.21,867.79,868.27,869.26,870.28,870.77,870.29,868.49,865.25,864.53,865.89,866.61,866.50,867.05,867.18,866.06,865.46,865.73,865.99,865.87,865.33,864.23,862.53,860.59,858.88,857.84,857.28,857.04,857.02,856.88,856.38,855.62,854.94,854.85,854.93,855.07,854.94,854.28,853.30,852.38,851.52,850.70,849.93,848.68,846.83,844.66,842.54,840.46,839.43,838.88,838.68,839.39,840.22,840.85,841.14,840.94,840.30,839.55,838.76,837.80,836.20,834.26,832.30,829.86,826.15,828.51,830.87,832.03,832.55,832.15,831.43,830.47,828.85,825.55,822.19,819.34,817.23,816.03,814.52,813.07,812.22,812.44,813.06,814.07,814.05,813.15,813.50,812.20,810.21,808.69,809.00,811.07,812.40,813.40,815.09,818.95,820.12,820.21,820.12,820.11,820.10,820.10,820.10,820.08,819.92,820.46,821.46,822.67,823.84,824.55,823.90,822.33,820.72,819.15,817.61,816.35,815.65,815.47,815.50,815.33,814.65,813.11,811.49,809.80,808.03,806.23,804.39,802.54,800.78,799.27,798.36,797.70,797.46,797.49,797.59,797.54,797.14,796.49,795.68,794.87,794.16,793.62,793.25,793.02,792.83,792.88,792.78,791.96,790.73,788.88,786.84,784.81,782.87,780.99,779.63,778.69,777.76,776.84,775.91,774.98,774.05,773.05,772.20,771.44,770.72,769.96,768.59,767.03,765.49,764.05,762.67,761.44,760.63,760.34,760.28,760.16,759.90,759.56,759.10,757.47,754.56,751.08,747.07,741.22,734.05,729.42,727.89,726.96,726.05,726.22,727.20,728.85,732.62,739.71,745.35,747.25,747.64,748.71,750.85,752.98,752.83,750.43,748.47,746.95,745.45,743.94,742.44,740.76,738.73,736.13,733.43,730.89,728.95,728.11,727.57,727.23,726.42,724.94,723.70,723.14,722.63,721.81,720.35,718.94,717.88,717.16,716.75,716.55,716.32,716.04,715.84,716.00
875.74,875.59,875.43,875.15,874.66,874.13,873.48,872.82,872.17,871.42,870.29,869.08,868.05,867.62,868.15,867.78,867.49,867.95,867.50,866.94,866.84,867.25,867.81,868.31,869.09,869.79,870.10,870.99,872.03,872.41,871.69,869.96,866.97,866.58,868.32,869.27,868.43,868.34,868.06,866.94,867.27,867.96,868.27,868.04,867.51,866.23,864.32,862.06,859.89,858.89,858.38,858.14,858.06,857.85,857.20,856.41,855.76,855.70,855.75,855.86,855.69,855.00,854.17,853.31,852.45,851.57,850.54,848.82,846.72,844.47,842.24,840.22,839.82,840.18,840.72,841.19,841.65,842.03,842.21,841.98,841.38,840.68,839.92,838.91,837.26,835.22,833.13,831.38,830.69,831.48,832.42,833.16,833.59,832.97,832.01,830.79,828.74,824.52,821.18,818.93,817.67,817.20,816.07,814.66,813.86,814.34,815.02,815.68,815.67,815.12,815.05,813.47,811.73,810.28,809.70,812.21,814.60,815.49,815.60,819.57,821.16,821.57,821.60,821.52,821.50,821.50,821.47,821.43,821.37,822.02,823.05,824.22,825.37,825.55,824.58,822.96,821.35,819.73,818.29,817.37,817.13,817.11,817.12,816.64,815.55,813.93,812.28,810.61,808.90,807.17,805.38,803.58,801.86,800.34,799.34,798.87,798.76,798.85,799.00,798.96,798.57,797.91,797.06,796.13,795.31,794.73,794.41,794.23,794.01,793.81,793.30,792.10,790.75,788.73,786.50,784.31,782.28,780.51,779.31,778.47,777.65,776.76,775.84,774.91,773.97,773.03,772.28,771.58,770.88,770.12,768.86,767.38,765.92,764.65,763.41,762.40,761.71,761.39,761.31,761.24,760.97,760.53,759.84,757.90,754.17,749.63,744.97,740.15,733.25,728.72,727.39,726.76,726.35,726.76,727.72,729.56,735.27,742.23,747.57,749.95,750.27,750.64,752.28,753.90,752.49,749.93,748.02,746.53,745.04,743.54,742.05,740.35,738.12,735.00,732.09,730.09,729.27,729.84,730.59,730.73,730.12,728.90,727.96,727.59,727.33,726.69,725.08,723.46,722.38,721.73,721.41,721.28,721.28,721.38,721.59,721.75
