944.43,945.38,946.17,946.80,947.23,947.85,948.33,948.55,948.54,948.49,948.34,948.14,948.26,949.26,950.27,950.58,950.38,949.85,949.16,947.99,947.61,948.46,950.26,951.41,951.57,951.12,950.52,950.01,949.20,947.90,946.09,944.24,942.45,939.76,934.86,926.21,920.98,920.45,922.61,925.75,928.01,925.85,923.74,923.95,927.25,931.99,937.39,942.68,945.97,942.09,935.01,927.80,921.86,917.43,913.91,915.02,920.65,928.46,933.27,932.72,930.12,929.07,932.05,933.73,933.94,933.03,931.44,929.59,929.82,932.97,939.60,946.64,950.63,950.55,946.06,939.53,932.82,926.55,920.54,914.28,908.57,904.10,903.71,909.88,918.20,926.93,934.09,939.13,942.72,943.76,941.44,936.74,930.95,926.13,920.98,915.95,911.56,908.10,907.77,911.41,918.25,926.10,929.72,930.22,929.19,927.61,926.16,924.20,921.88,919.50,917.80,919.17,922.71,927.72,933.80,939.29,944.22,948.63,952.49,955.93,961.93,970.67,980.48,987.94,995.47,1004.36,1010.08,1007.95,1003.16,998.36,994.01,990.48,988.49,987.73,987.56,986.79,983.44,977.04,972.72,974.36,983.12,991.50,992.87,991.87,991.89,996.50,1004.36,1012.61,1017.20,1014.98,1012.36,1014.66,1019.24,1024.35,1028.38,1027.71,1022.47,1014.88,1007.70,1000.65,994.70,990.67,988.92,987.89,992.53,999.96,1008.27,1015.96,1022.90,1029.59,1035.84,1041.47,1047.88,1062.53,1076.07,1083.26,1084.16,1078.38,1071.45,1065.37,1060.48,1054.85,1048.96,1042.97,1036.40,1027.60,1019.83,1013.62,1009.94,1010.88,1013.33,1016.41,1020.10,1024.87,1030.97,1031.99,1028.00,1020.87,1017.03,1018.55,1022.77,1027.23,1028.80,1025.75,1019.51,1014.98,1016.02,1021.47,1028.61,1035.49,1041.15,1044.33,1042.65,1037.99,1032.96,1030.45,1031.86,1035.90,1041.29,1045.88,1044.42,1041.03,1038.25,1035.73,1031.33,1025.29,1018.69,1011.05,1002.69,998.11,998.42,1001.12,1006.67,1018.21,1027.84,1035.50,1041.01,1044.15,1048.58,1053.12,1060.01,1069.41,1075.92,1080.85,1082.18,1079.53,1072.99,1066.68,1060.44,1054.20,1047.91,1041.63,1035.76,1030.70,1026.70,1023.85
943.07,943.75,944.52,945.29,946.02,946.96,947.61,947.89,947.85,947.73,947.51,947.28,947.37,948.34,949.38,949.57,949.18,948.52,947.84,946.71,946.77,948.29,950.18,951.25,951.13,950.41,949.77,949.37,948.91,948.01,946.53,944.75,942.98,941.07,937.81,930.94,923.25,919.66,919.45,921.69,925.06,923.99,922.36,922.59,926.33,931.30,936.71,941.88,945.08,941.81,934.85,927.79,922.20,917.57,913.16,913.75,919.37,927.35,932.09,931.50,928.51,926.31,927.93,928.87,928.75,927.92,927.24,927.29,930.21,935.59,942.40,949.04,952.42,951.45,945.94,939.15,932.61,926.65,920.94,914.82,908.90,903.39,901.57,906.66,915.39,924.50,931.99,937.41,941.50,942.80,940.87,936.13,929.28,924.07,919.05,914.13,909.58,906.08,907.19,912.25,919.49,925.65,926.81,925.62,923.67,921.66,919.60,917.80,916.42,915.70,916.25,920.27,925.76,931.55,936.92,941.88,946.47,950.55,954.02,957.47,965.22,973.87,982.02,989.45,996.58,1003.80,1007.16,1002.98,997.73,991.96,986.78,982.86,980.66,980.15,980.45,979.91,976.24,970.50,968.07,971.49,980.58,986.65,986.32,985.66,987.80,994.67,1002.98,1010.06,1013.07,1009.97,1007.29,1009.62,1014.15,1019.22,1023.42,1023.35,1019.28,1012.81,1005.73,998.58,991.95,986.78,983.93,983.24,988.70,996.94,1005.88,1013.93,1021.65,1028.69,1035.07,1041.19,1049.04,1062.87,1075.08,1081.64,1082.94,1076.77,1069.66,1063.62,1058.46,1053.03,1047.81,1042.50,1036.55,1029.21,1022.02,1015.60,1010.68,1008.76,1009.22,1011.79,1015.82,1020.95,1026.61,1029.30,1026.94,1020.16,1015.73,1015.30,1018.67,1023.11,1023.73,1019.50,1012.97,1009.27,1012.05,1018.46,1025.77,1032.30,1037.48,1040.82,1039.79,1035.30,1030.00,1027.01,1027.88,1031.97,1037.89,1043.32,1042.38,1038.58,1035.12,1032.20,1028.35,1022.87,1017.05,1010.48,1002.99,997.03,995.96,998.24,1004.59,1017.64,1027.34,1034.18,1038.52,1040.61,1044.66,1049.96,1056.84,1064.92,1071.35,1076.37,1079.25,1078.99,1073.74,1068.00,1061.63,1054.94,1048.27,1041.95,1035.90,1030.54,1026.06,1022.35
941.14,941.83,942.71,943.78,945.02,946.11,946.88,947.22,947.11,946.90,946.67,946.43,946.50,947.39,948.51,948.53,947.87,947.02,946.35,945.38,946.00,948.21,950.04,950.90,950.64,949.80,948.98,948.59,948.20,947.70,946.87,945.29,943.60,941.95,939.71,935.20,927.51,921.67,918.59,918.68,921.48,921.81,920.89,920.88,925.33,930.86,936.55,941.59,944.26,941.51,934.53,927.52,922.29,917.49,912.86,912.74,917.60,925.77,930.65,930.26,926.90,923.35,923.80,924.63,924.91,924.81,925.35,927.52,932.38,938.62,944.48,949.92,953.42,952.10,945.13,937.76,931.12,925.58,920.55,914.74,908.70,902.94,900.30,903.97,912.86,921.72,929.45,935.76,940.41,942.09,940.67,936.31,929.17,923.51,918.06,912.78,907.94,904.17,906.68,913.00,919.88,922.42,921.40,919.41,917.31,915.19,912.74,911.47,911.98,914.47,918.54,923.95,929.46,934.68,939.49,943.99,948.30,952.23,955.70,959.28,967.73,976.62,984.62,992.39,998.94,1002.63,1002.56,997.97,992.28,985.10,979.14,975.59,973.81,973.73,974.33,973.97,970.35,964.49,963.30,967.88,976.48,979.57,978.57,979.70,984.65,992.49,1001.35,1007.33,1008.95,1005.60,1002.62,1004.77,1009.14,1013.95,1017.71,1017.84,1015.27,1010.71,1004.36,997.39,990.59,984.48,980.06,979.44,984.75,993.40,1003.35,1012.27,1021.15,1028.51,1034.94,1041.75,1051.04,1063.65,1074.40,1080.55,1082.01,1075.83,1068.29,1061.66,1056.31,1051.19,1047.22,1043.39,1038.57,1031.97,1025.38,1019.13,1013.51,1009.20,1006.41,1007.54,1011.66,1017.45,1023.39,1027.24,1026.20,1020.17,1015.10,1011.82,1014.03,1018.74,1018.68,1013.38,1007.56,1005.58,1009.95,1016.42,1023.32,1029.33,1034.09,1037.34,1036.35,1032.38,1027.26,1023.29,1024.24,1028.58,1035.13,1041.59,1041.42,1037.20,1032.64,1028.71,1025.03,1019.97,1014.71,1008.84,1002.03,995.94,993.70,995.61,1002.37,1014.67,1024.13,1029.72,1032.82,1035.16,1038.94,1045.30,1052.06,1058.37,1065.43,1071.19,1075.67,1077.66,1074.22,1069.22,1062.73,1055.85,1049.62,1044.68,1039.77,1035.20,1030.76,1025.50
939.87,940.43,941.63,943.08,944.27,945.37,946.20,946.51,946.29,946.06,945.79,945.54,945.59,946.49,947.68,947.56,946.70,945.72,944.92,944.80,946.05,948.32,949.98,950.64,950.34,949.31,947.88,947.31,946.94,946.68,946.39,945.64,944.17,942.65,941.01,938.14,931.50,925.02,920.02,917.64,919.07,920.25,919.60,918.72,922.87,929.19,935.55,940.79,943.33,941.31,935.15,928.36,922.62,917.57,912.89,911.50,914.66,923.10,928.65,928.63,925.37,921.60,920.91,921.27,922.24,923.86,926.30,929.45,934.62,940.56,945.38,949.74,952.66,951.08,944.06,936.84,930.59,925.31,920.36,914.56,908.43,902.54,899.47,902.29,910.72,919.99,928.18,934.74,939.59,941.16,939.69,935.67,929.42,923.63,917.75,911.98,906.71,902.83,905.81,911.21,915.78,916.14,914.51,912.81,911.40,910.21,909.30,910.28,912.92,917.08,922.31,927.61,932.55,937.19,941.65,945.83,949.78,953.50,957.26,962.35,970.55,978.71,986.32,994.47,1000.22,1000.97,998.12,992.85,985.76,978.96,973.53,969.88,967.82,967.84,968.45,967.86,963.79,957.58,957.69,963.23,971.21,973.50,973.25,976.13,982.98,991.49,1000.19,1004.63,1004.55,1000.70,997.79,999.58,1003.83,1008.70,1011.57,1011.99,1010.60,1007.60,1002.55,996.14,989.38,983.15,978.60,977.67,981.60,989.94,1000.73,1009.96,1018.94,1026.43,1032.86,1039.90,1052.45,1063.93,1073.02,1079.08,1081.25,1075.71,1067.83,1060.16,1053.91,1048.31,1043.98,1040.47,1037.18,1033.00,1028.93,1023.35,1016.75,1011.84,1007.42,1005.66,1007.72,1014.40,1020.88,1024.91,1024.74,1020.20,1015.08,1010.62,1010.44,1013.15,1014.00,1008.70,1003.52,1002.32,1007.16,1014.41,1021.37,1027.40,1031.88,1033.46,1031.66,1027.98,1023.60,1020.21,1022.01,1026.91,1033.74,1040.42,1040.76,1036.16,1030.82,1026.06,1021.87,1016.98,1011.38,1005.39,999.30,993.48,990.43,993.33,1002.10,1012.46,1019.37,1023.46,1026.40,1029.87,1034.32,1040.01,1046.31,1052.89,1059.64,1065.62,1070.83,1074.25,1073.43,1070.32,1064.41,1057.65,1051.64,1046.64,1042.11,1037.91,1033.86,1029.47
938.99,939.57,940.93,942.51,943.59,944.63,945.51,945.83,945.54,945.29,945.01,944.72,944.74,945.63,946.87,946.58,945.51,944.45,943.57,944.29,946.06,948.26,949.84,950.37,950.06,948.94,947.03,946.03,945.57,945.44,945.50,945.39,944.44,943.18,941.83,939.95,934.74,928.64,922.62,917.88,917.39,918.26,917.72,916.79,920.56,926.82,933.49,939.18,942.23,941.01,935.55,928.78,922.38,917.32,912.83,910.42,911.97,920.06,925.83,926.76,924.47,920.84,919.08,918.98,920.61,923.88,928.11,932.11,936.91,941.87,945.78,949.31,951.60,949.89,943.29,936.48,930.60,925.38,920.22,914.16,907.83,901.82,898.59,901.08,909.18,918.79,927.24,933.69,938.32,939.80,938.27,934.57,929.25,923.52,917.19,910.75,904.94,901.42,904.28,908.21,910.58,909.84,908.15,907.38,907.33,907.68,908.92,912.13,916.23,920.79,925.86,930.79,935.38,939.71,943.89,947.74,951.34,954.81,958.84,965.49,973.29,980.66,987.80,995.62,999.80,998.36,993.60,987.36,979.60,973.35,968.36,964.44,961.68,961.98,962.64,961.63,956.97,951.03,952.15,957.67,964.05,966.29,968.47,973.95,982.52,991.42,999.36,1001.99,1000.29,996.13,993.07,994.14,998.07,1002.94,1004.53,1004.60,1004.13,1002.84,999.50,993.84,987.19,980.92,976.59,976.47,980.51,988.76,999.39,1008.17,1017.21,1024.64,1030.93,1038.49,1053.82,1064.18,1071.85,1077.96,1080.50,1075.66,1067.84,1059.64,1052.79,1046.74,1041.72,1037.73,1034.78,1032.11,1030.01,1025.61,1019.19,1014.10,1008.68,1004.38,1004.28,1011.30,1018.16,1022.12,1022.73,1019.89,1015.09,1010.09,1007.36,1007.37,1009.12,1004.91,1000.55,999.80,1004.70,1012.07,1019.10,1025.20,1029.31,1028.98,1026.31,1022.79,1019.45,1017.77,1020.74,1026.00,1032.80,1039.39,1040.15,1035.11,1029.18,1023.85,1019.01,1013.91,1007.50,1001.07,995.58,989.79,986.30,990.25,1000.71,1009.18,1013.63,1016.64,1019.95,1024.73,1030.06,1035.26,1041.12,1047.96,1054.78,1061.04,1066.68,1071.12,1072.84,1072.01,1066.56,1059.49,1053.44,1047.99,1043.34,1039.15,1035.30,1031.67
938.47,939.40,940.61,941.87,942.92,943.88,944.80,945.20,944.95,944.65,944.40,944.05,943.95,944.85,946.04,945.53,944.26,943.16,942.36,943.61,945.67,947.84,949.53,950.04,949.75,948.69,946.71,944.93,944.26,944.13,944.18,944.19,944.20,943.44,942.06,940.35,936.76,932.14,926.25,919.63,916.72,915.56,914.95,915.39,918.96,923.76,930.02,936.49,940.88,940.51,935.23,928.08,921.14,916.49,912.48,909.71,910.12,916.88,921.91,924.64,924.49,921.22,918.55,918.11,920.23,924.67,930.20,935.25,939.23,942.57,945.83,948.86,950.71,949.04,943.11,936.87,931.13,925.69,920.05,913.43,906.71,900.54,897.43,900.29,908.49,918.08,926.34,932.35,936.24,937.79,936.45,933.00,928.26,922.77,915.92,908.59,902.17,899.66,901.76,904.14,905.23,904.73,903.48,904.26,906.34,908.87,912.49,917.22,921.51,924.99,928.58,933.20,937.99,942.52,946.45,949.95,953.23,956.45,960.54,968.28,975.79,982.68,989.26,995.58,996.98,994.36,988.89,981.35,974.42,968.31,963.14,958.83,955.07,956.06,956.91,955.29,950.03,945.47,947.13,951.12,954.49,957.20,963.93,973.28,983.56,992.39,998.78,999.37,996.33,992.22,988.53,988.38,991.65,996.29,996.07,994.76,994.88,995.65,994.41,989.67,983.19,976.80,972.84,975.58,982.59,991.37,1000.25,1007.54,1016.95,1024.06,1030.10,1038.73,1055.30,1064.54,1071.29,1077.53,1079.62,1075.31,1068.19,1060.47,1053.79,1047.75,1042.12,1036.82,1032.14,1028.84,1027.00,1024.29,1020.04,1014.76,1008.85,1003.22,1001.62,1007.92,1014.79,1018.63,1020.00,1018.91,1014.91,1009.93,1004.92,1001.98,1003.87,1002.09,998.87,998.32,1003.03,1009.15,1016.01,1022.12,1025.67,1023.74,1020.37,1016.90,1014.87,1016.22,1020.50,1025.74,1032.11,1038.43,1039.49,1033.91,1027.59,1022.06,1016.58,1010.74,1003.14,996.01,990.82,984.52,981.12,985.69,996.60,1003.77,1006.81,1009.63,1013.77,1019.79,1026.00,1031.63,1037.29,1043.67,1051.46,1058.30,1064.22,1069.26,1072.98,1074.59,1069.10,1061.05,1054.58,1048.55,1043.28,1038.68,1034.60,1030.66
937.98,938.92,940.06,941.18,942.17,943.11,944.04,944.50,944.35,944.06,943.74,943.27,943.09,944.05,945.21,944.45,942.94,941.86,941.53,943.01,945.11,947.22,948.91,949.30,949.14,948.29,946.33,944.43,943.14,942.47,942.41,942.81,943.31,943.05,942.06,940.61,937.78,933.90,929.14,923.78,919.58,916.87,914.59,913.53,916.61,920.60,927.46,935.13,939.90,939.66,934.39,927.32,920.57,916.13,912.18,908.94,908.50,914.58,919.46,922.64,923.33,920.89,917.72,917.05,919.37,924.42,930.89,936.91,940.82,943.51,946.30,948.64,950.10,948.51,943.07,937.07,931.10,925.43,919.60,912.61,905.43,899.01,896.14,899.64,907.37,916.93,925.23,931.04,934.34,935.80,934.57,931.33,926.78,921.11,913.88,906.28,899.99,897.92,899.07,900.28,900.97,902.04,903.33,905.63,909.10,913.80,918.62,923.39,927.60,930.84,932.84,936.08,940.69,945.70,949.85,953.55,956.90,960.02,963.78,971.00,978.36,985.17,991.35,996.16,995.06,990.80,984.45,976.34,968.86,962.33,956.92,952.72,949.78,951.35,951.95,949.62,944.14,941.32,943.27,946.86,950.33,954.88,963.35,973.88,984.46,991.96,995.74,995.24,991.90,987.11,983.06,982.66,985.17,988.37,986.67,984.65,985.33,987.40,987.21,983.29,977.42,971.92,969.85,976.31,985.46,994.45,1002.09,1007.95,1017.10,1024.49,1030.84,1039.52,1055.82,1064.49,1070.63,1076.25,1077.57,1073.12,1066.32,1059.26,1053.50,1048.83,1043.82,1038.49,1033.18,1028.54,1025.27,1022.13,1018.17,1012.47,1007.57,1002.37,999.84,1003.93,1010.70,1014.51,1016.13,1016.22,1015.02,1011.04,1005.72,1001.09,999.80,999.24,997.02,996.81,1001.37,1006.24,1011.54,1017.63,1022.19,1019.47,1015.33,1011.97,1011.30,1015.16,1020.18,1025.60,1031.96,1038.10,1038.61,1032.62,1026.02,1020.27,1014.47,1007.89,999.67,991.63,985.07,978.56,975.90,980.42,990.25,996.71,999.68,1003.56,1009.02,1015.58,1021.98,1028.29,1034.58,1041.30,1049.57,1056.66,1062.80,1068.22,1072.56,1074.34,1069.44,1061.83,1055.06,1048.72,1043.28,1038.54,1034.32,1030.15
937.53,938.56,939.68,940.71,941.60,942.48,943.36,943.83,943.75,943.43,943.02,942.43,942.19,943.24,944.37,943.47,941.79,940.71,940.81,942.43,944.52,946.56,948.08,948.33,948.27,947.68,945.98,944.15,942.35,941.03,940.64,941.44,942.26,942.46,941.99,940.79,938.56,935.34,931.79,928.14,923.53,919.39,915.09,912.01,914.27,918.09,925.65,934.14,938.91,938.36,933.50,927.02,920.63,916.14,911.78,907.84,906.60,912.25,916.97,920.43,921.83,920.20,916.66,915.92,918.56,924.21,931.39,938.00,941.84,944.03,946.33,948.26,949.30,947.74,942.85,936.89,930.58,924.66,918.76,911.65,904.02,897.36,894.83,899.19,906.25,915.38,923.53,929.31,932.49,933.90,932.75,929.58,924.90,918.80,911.41,904.01,898.10,896.01,896.38,897.32,898.66,901.46,905.06,909.05,913.81,919.60,924.78,929.36,933.49,936.61,937.38,939.33,943.53,948.82,953.41,957.57,961.18,964.33,967.77,974.06,981.42,988.05,993.28,996.12,993.07,987.30,979.95,971.31,963.15,956.32,950.94,947.16,945.19,946.88,947.05,944.29,939.18,938.02,940.31,944.09,948.68,954.81,963.98,974.44,984.20,989.92,991.50,990.46,987.24,981.93,977.69,977.00,978.47,979.91,976.78,974.51,975.62,978.34,978.72,975.83,970.93,966.94,967.48,977.15,987.81,996.86,1003.61,1008.39,1016.66,1024.34,1031.37,1040.06,1055.51,1063.80,1069.63,1074.72,1075.20,1070.30,1063.40,1056.65,1051.95,1048.65,1044.76,1040.34,1035.46,1029.59,1024.68,1020.37,1015.86,1010.03,1006.18,1001.86,998.74,1000.05,1005.86,1009.47,1011.31,1012.38,1013.91,1011.76,1007.32,1002.03,997.66,996.83,995.04,995.07,999.25,1003.12,1007.45,1013.61,1018.93,1015.76,1010.90,1007.94,1008.58,1013.99,1019.32,1024.96,1031.44,1037.37,1037.23,1031.11,1024.38,1018.42,1012.43,1005.50,997.06,988.19,979.90,972.86,970.77,974.87,983.18,989.13,993.57,999.35,1006.13,1012.70,1019.01,1025.95,1032.84,1039.71,1047.95,1055.09,1061.41,1067.13,1071.88,1073.41,1069.22,1062.35,1055.35,1048.69,1043.12,1038.30,1033.96,1029.60
937.20,938.70,939.88,940.73,941.46,942.19,942.92,943.27,943.09,942.72,942.18,941.50,941.25,942.38,943.47,942.69,941.11,939.96,940.14,941.86,943.98,945.87,946.97,947.07,946.98,946.65,945.70,944.01,942.18,940.36,939.15,940.26,941.24,941.85,941.88,940.88,939.48,937.14,934.37,931.42,927.73,922.13,916.07,911.61,912.46,917.20,925.06,933.17,937.64,936.23,932.81,927.88,921.78,916.71,911.12,905.99,903.93,909.25,913.41,917.66,920.24,919.10,915.27,914.79,918.18,924.79,932.33,938.73,942.00,943.42,945.02,947.38,947.87,946.18,942.08,935.95,929.23,923.05,917.19,910.42,902.39,895.54,893.58,899.08,905.42,913.18,920.54,926.54,930.63,932.21,931.09,927.77,922.41,915.52,908.44,901.88,896.57,893.74,893.84,896.36,900.34,904.39,908.32,914.48,920.73,924.96,929.31,934.12,938.36,941.09,941.55,943.13,946.66,951.54,956.80,961.70,965.74,969.14,972.57,978.00,985.61,991.49,994.41,994.15,990.27,983.64,975.16,965.58,957.31,950.90,946.26,943.26,941.38,942.12,941.76,939.38,935.70,935.88,938.73,943.41,949.50,955.63,964.88,974.03,981.24,984.93,985.99,985.13,982.33,977.40,973.15,971.40,971.29,970.96,966.37,964.48,965.70,968.06,968.58,967.27,963.88,962.20,966.07,977.20,988.43,997.36,1003.68,1008.26,1014.56,1022.14,1030.33,1039.61,1053.81,1061.79,1067.89,1073.16,1072.81,1067.21,1059.40,1052.10,1048.25,1045.41,1043.01,1040.93,1038.28,1031.93,1025.96,1020.13,1014.34,1009.18,1005.47,1001.96,998.68,996.87,999.71,1002.64,1004.96,1006.96,1009.63,1010.68,1008.72,1004.40,999.33,995.49,992.88,992.79,996.02,999.48,1005.15,1011.67,1016.07,1012.69,1007.40,1005.44,1007.26,1012.18,1017.20,1023.05,1029.64,1035.29,1034.81,1029.14,1022.59,1016.42,1010.34,1004.01,995.89,986.56,976.84,968.24,965.85,969.12,975.84,981.37,990.05,999.02,1006.76,1012.52,1018.55,1025.83,1032.71,1038.77,1046.02,1052.99,1059.38,1065.39,1070.93,1072.71,1069.14,1062.76,1055.61,1048.49,1042.60,1037.61,1033.15,1028.63
936.68,938.79,940.11,940.81,941.48,942.17,942.67,942.80,942.52,942.03,941.53,940.83,940.43,941.29,942.40,942.15,941.12,939.95,939.16,940.73,943.20,945.23,945.20,945.08,945.27,945.53,945.30,943.73,942.09,940.28,938.60,938.54,939.93,941.01,941.26,940.62,939.53,937.54,935.09,932.46,929.39,923.18,916.38,911.29,911.15,916.72,924.98,932.64,936.14,934.50,931.72,927.66,922.07,916.36,909.93,904.08,901.00,904.33,908.42,913.23,916.22,915.20,912.20,914.11,919.66,927.24,934.16,938.89,940.70,941.37,943.24,946.12,946.31,944.37,940.33,933.46,926.92,920.96,915.24,909.00,901.47,894.45,891.93,896.89,903.15,909.73,916.56,923.12,927.73,929.99,928.63,924.56,918.82,911.84,905.25,899.28,894.37,891.85,893.98,898.33,903.36,907.95,913.03,918.70,923.85,927.62,931.51,935.81,939.59,942.30,943.87,946.13,949.80,954.41,959.32,964.58,969.78,974.51,978.85,984.01,989.55,993.03,993.72,991.46,986.53,978.37,968.82,959.66,951.54,945.26,940.84,938.06,936.00,935.98,935.15,932.90,930.18,931.78,936.91,943.30,949.78,956.51,966.05,973.47,977.38,978.77,980.08,979.76,977.47,973.05,968.02,965.45,964.31,962.88,958.18,957.16,958.54,960.55,961.32,960.61,959.10,960.61,968.15,980.11,989.87,997.36,1003.19,1008.32,1014.44,1021.87,1030.08,1039.24,1052.01,1059.53,1065.88,1071.52,1070.67,1064.30,1056.31,1049.33,1045.70,1042.64,1040.15,1038.21,1036.26,1031.96,1027.53,1022.11,1015.93,1010.69,1006.98,1003.76,1000.67,998.00,997.26,997.61,998.65,1000.40,1002.92,1005.61,1006.82,1005.62,1000.99,996.30,992.55,991.08,992.87,996.21,1002.09,1008.77,1012.93,1008.47,1003.31,1002.46,1005.22,1009.80,1014.86,1020.95,1027.70,1033.36,1033.00,1027.50,1020.86,1014.37,1008.09,1001.89,994.10,984.70,974.26,965.39,961.34,963.21,969.38,974.96,986.78,999.28,1008.97,1013.54,1018.33,1024.49,1030.50,1035.82,1041.86,1049.22,1056.05,1062.25,1068.43,1072.12,1069.98,1064.00,1056.12,1048.52,1042.56,1037.42,1032.63,1027.94
935.84,938.59,940.18,940.90,941.54,942.17,942.46,942.39,941.98,941.39,940.91,940.20,939.62,940.06,941.29,941.68,941.27,940.12,938.27,939.67,942.42,944.48,943.25,943.00,943.54,944.39,944.84,943.49,942.13,940.54,938.60,937.02,938.35,939.67,940.13,939.83,938.94,937.29,935.16,932.70,930.08,923.49,916.34,911.00,910.15,916.29,924.94,932.22,934.52,932.81,930.11,926.45,921.43,915.28,908.38,902.18,898.32,899.57,903.56,908.56,911.58,910.69,909.27,914.35,922.08,929.94,935.69,938.49,938.87,939.06,941.52,944.91,944.83,942.44,938.07,930.66,924.40,918.63,913.02,907.40,900.82,893.83,890.41,894.01,900.35,906.21,912.78,919.90,924.94,927.49,925.66,920.81,914.79,907.99,901.87,896.42,892.06,890.45,895.08,901.13,906.59,911.15,916.78,921.10,924.64,928.24,931.86,935.43,938.68,941.63,944.78,948.22,952.42,957.02,961.54,966.94,973.25,979.32,984.55,989.43,992.46,993.30,991.92,988.05,981.77,972.34,962.26,953.81,945.88,939.75,935.38,932.47,929.97,928.82,927.15,925.00,924.01,927.73,935.53,943.53,949.96,957.50,967.07,972.40,972.83,972.16,974.19,974.68,972.80,968.42,962.71,959.70,957.88,955.56,950.75,950.60,952.15,953.92,955.12,954.71,955.36,960.10,970.70,983.50,992.02,998.12,1003.30,1008.87,1015.16,1022.41,1030.28,1038.99,1050.53,1057.55,1064.11,1070.28,1069.10,1062.02,1054.21,1047.88,1044.18,1040.67,1037.64,1035.13,1033.08,1030.84,1028.26,1024.06,1018.44,1013.23,1009.49,1006.39,1003.63,1000.95,997.40,995.07,994.14,994.60,996.02,999.42,1003.43,1005.63,1002.38,997.79,993.08,989.94,989.92,993.10,998.69,1005.11,1009.00,1003.98,999.43,999.70,1003.24,1007.65,1012.86,1019.15,1026.01,1031.68,1031.46,1025.93,1019.08,1012.34,1005.86,999.42,991.60,982.25,971.88,963.20,957.34,957.81,963.73,969.36,982.25,997.72,1010.01,1013.99,1017.62,1022.33,1027.28,1032.00,1036.97,1044.72,1052.09,1058.57,1065.18,1071.04,1070.80,1065.62,1057.22,1049.10,1043.16,1037.93,1032.78,1027.87
934.15,937.47,939.75,940.92,941.56,941.99,942.20,942.04,941.47,940.85,940.18,939.39,938.67,938.60,940.25,941.14,941.10,940.07,937.99,939.41,941.92,943.37,941.51,941.33,942.13,943.28,944.18,943.54,942.48,941.18,939.38,936.77,936.17,936.89,937.86,937.74,937.11,936.43,935.14,932.78,930.30,923.17,915.84,910.74,909.64,915.55,924.44,931.65,932.74,930.82,927.25,923.19,918.70,912.82,906.27,900.43,896.68,897.36,900.65,904.95,907.56,907.20,908.60,917.01,925.56,931.47,935.30,936.82,936.91,937.49,940.56,944.29,943.68,940.33,935.21,928.50,922.15,916.02,910.29,905.44,900.23,893.98,889.77,891.12,897.40,903.81,910.76,918.08,923.65,924.65,921.92,916.86,910.50,904.03,898.08,893.21,890.19,890.14,896.40,903.46,909.04,912.52,915.82,918.92,921.96,925.13,928.65,931.64,934.71,938.39,943.15,948.15,953.34,958.58,963.74,968.94,975.45,981.75,986.74,990.73,992.35,991.52,988.48,983.15,974.69,965.54,956.66,948.40,940.49,934.88,930.61,927.05,923.54,919.90,916.11,914.19,917.88,926.01,935.90,944.29,950.38,958.71,967.27,969.85,967.02,965.29,968.83,970.63,968.64,962.68,957.45,954.96,953.03,949.74,943.40,943.54,945.30,947.18,949.25,949.26,952.58,959.74,971.02,985.36,995.58,1001.91,1005.97,1010.75,1016.50,1023.53,1031.10,1039.08,1050.25,1056.70,1063.43,1070.46,1069.09,1061.63,1054.34,1048.82,1044.73,1040.81,1037.47,1034.40,1031.37,1028.46,1025.99,1023.46,1020.49,1016.68,1012.82,1009.89,1007.56,1005.11,1001.91,998.72,995.46,992.42,991.04,993.88,998.73,1002.95,1002.92,999.15,994.45,990.07,987.55,990.12,995.02,999.99,1002.76,999.86,996.94,998.13,1002.17,1006.92,1012.18,1018.51,1025.29,1030.71,1030.19,1024.17,1017.13,1010.45,1003.86,996.54,987.46,978.12,969.67,961.21,954.57,954.25,959.74,964.96,973.43,989.59,1005.64,1011.25,1015.07,1018.83,1022.98,1027.54,1032.16,1039.70,1047.52,1054.66,1061.13,1068.28,1070.51,1067.57,1059.93,1051.19,1045.34,1040.22,1034.85,1029.50
932.53,936.35,939.30,940.83,941.32,941.66,941.90,941.80,941.26,940.68,940.08,939.04,937.79,937.26,939.06,940.41,940.60,939.38,937.42,939.18,941.38,941.95,939.80,940.30,941.38,942.47,943.34,942.91,942.10,941.19,939.87,937.20,934.84,934.12,934.50,934.54,934.65,934.63,934.07,932.54,929.88,922.55,915.19,910.30,909.60,915.52,924.23,930.96,931.07,928.16,923.87,919.41,914.87,909.18,902.87,897.38,894.09,895.22,898.49,902.02,904.70,906.44,910.09,919.59,927.69,932.00,934.61,935.10,935.04,936.07,939.70,943.48,942.71,938.87,933.11,926.62,920.20,913.65,907.45,902.81,898.38,892.95,888.96,889.60,895.69,902.70,910.26,917.80,923.01,922.71,919.00,913.34,906.53,900.22,894.74,890.81,889.33,890.83,897.13,903.52,908.18,910.83,913.67,917.20,920.74,923.65,926.47,928.88,932.21,936.95,942.52,947.87,953.18,958.52,964.00,969.94,976.84,983.29,988.16,991.37,991.74,989.16,984.23,977.75,968.94,960.16,951.52,942.88,935.37,929.84,925.12,920.55,915.62,911.13,908.37,908.98,915.68,925.70,936.17,944.83,951.35,959.80,965.94,965.73,960.94,958.91,963.48,965.37,963.07,957.36,952.57,950.23,947.85,943.75,937.41,936.55,937.78,939.70,941.98,943.17,949.10,958.36,970.34,986.29,996.06,1002.36,1007.27,1012.41,1017.81,1024.54,1031.68,1038.89,1049.89,1056.15,1062.77,1070.11,1069.81,1062.59,1055.73,1050.75,1046.67,1042.84,1039.37,1036.02,1032.60,1028.98,1026.16,1023.41,1020.41,1017.17,1014.55,1012.69,1010.96,1008.64,1005.90,1002.39,998.26,993.85,990.36,990.58,994.49,999.80,1002.30,999.98,995.65,990.81,986.98,987.54,991.41,995.53,997.91,996.63,994.66,996.25,1000.75,1006.46,1011.90,1018.19,1024.85,1029.99,1028.88,1022.53,1015.27,1008.24,1000.94,993.11,984.12,975.35,967.68,959.31,952.62,952.08,957.24,962.12,968.32,983.73,1000.57,1007.45,1011.80,1015.09,1018.73,1023.23,1028.02,1035.20,1043.17,1050.89,1057.60,1064.83,1069.00,1068.51,1062.29,1053.94,1047.65,1042.06,1036.40,1030.63
930.14,934.10,938.16,940.63,940.95,941.26,941.55,941.57,941.20,940.71,940.28,939.04,937.24,936.14,937.75,939.45,939.81,938.34,936.85,939.09,940.86,940.39,938.24,939.49,940.84,941.75,942.39,941.95,941.24,940.55,939.64,937.41,933.84,931.54,930.84,931.13,932.06,932.41,932.41,931.87,928.97,921.72,914.43,909.67,909.70,915.82,923.99,929.89,929.27,925.25,920.38,915.51,910.62,904.93,898.74,893.82,891.44,893.44,897.05,900.12,903.21,907.31,912.71,921.83,928.78,931.90,933.58,933.30,933.15,934.61,938.75,942.55,941.79,937.73,931.50,924.96,918.50,911.49,904.65,899.86,895.81,891.12,887.89,888.98,894.96,902.66,910.87,918.38,922.49,921.02,916.38,910.02,902.78,896.57,891.75,889.04,889.26,892.37,897.84,902.76,906.22,908.41,911.93,916.59,920.91,923.63,925.66,927.81,931.60,937.21,942.91,947.82,952.71,957.84,963.52,970.47,977.74,984.26,989.08,991.49,990.47,986.16,979.52,972.08,963.73,955.35,946.63,937.51,930.38,924.61,919.15,913.53,907.56,903.55,903.40,907.33,915.67,925.93,936.10,945.09,952.73,960.78,963.89,961.07,955.01,952.69,957.79,959.28,956.68,951.99,947.67,945.46,942.63,937.90,932.19,929.93,930.33,932.15,934.41,937.53,945.78,956.65,969.30,986.66,995.08,1001.42,1008.14,1013.82,1018.98,1025.38,1032.12,1038.74,1049.56,1055.76,1062.08,1069.35,1071.03,1064.63,1058.14,1053.40,1049.48,1045.75,1042.13,1038.63,1035.11,1031.00,1027.59,1023.76,1019.53,1016.27,1014.88,1014.11,1013.05,1011.13,1008.98,1005.42,1001.11,996.38,991.35,988.54,990.87,996.56,1000.94,1000.36,996.64,991.78,987.30,985.18,987.86,991.43,993.80,993.64,992.23,994.12,999.15,1005.91,1011.70,1017.86,1024.20,1028.96,1027.38,1020.94,1013.45,1005.84,997.51,989.40,981.17,973.20,965.62,957.25,950.91,950.52,955.50,960.10,965.30,978.63,994.25,1002.87,1007.87,1011.10,1014.59,1019.14,1024.29,1031.03,1038.94,1047.16,1054.37,1061.18,1066.71,1068.49,1064.16,1056.62,1049.80,1043.60,1037.60,1031.37
924.51,927.34,934.39,940.24,940.50,940.81,941.07,941.22,941.15,940.80,940.41,939.52,937.87,935.68,936.29,937.91,938.48,937.16,936.88,939.44,940.46,938.92,937.18,938.34,939.80,940.87,941.38,941.01,939.92,938.58,937.14,935.48,932.46,929.63,928.09,928.95,930.14,930.41,930.39,930.13,927.33,920.61,913.52,908.71,909.43,915.99,923.15,927.63,926.72,922.62,917.41,912.12,906.76,900.39,894.21,890.73,890.40,893.13,897.13,901.08,904.98,909.43,915.67,922.97,928.48,931.22,931.79,931.16,931.05,932.75,937.32,941.57,940.81,936.61,930.30,923.70,917.11,909.71,902.27,896.96,892.86,888.40,886.22,889.25,895.65,904.34,912.93,919.47,921.22,918.61,913.38,906.65,899.21,893.31,889.34,888.12,890.45,895.42,899.62,903.19,906.26,909.01,913.84,919.19,923.56,925.96,928.04,931.11,935.45,940.67,945.28,948.98,953.00,957.82,963.79,971.14,978.17,984.50,989.34,990.58,987.39,981.66,974.44,966.31,957.92,950.00,941.85,932.97,925.40,919.05,912.75,906.50,901.87,900.23,902.86,908.75,916.64,925.69,934.92,944.68,954.62,961.59,961.94,957.25,950.24,946.19,950.71,952.24,949.89,945.50,941.90,940.47,937.93,933.00,927.42,924.63,924.36,925.72,928.45,934.94,944.51,955.61,968.63,986.55,994.33,1001.55,1010.04,1014.72,1019.66,1025.81,1032.46,1039.39,1049.51,1055.53,1061.21,1068.04,1072.85,1068.42,1062.30,1057.13,1053.07,1048.54,1044.46,1040.70,1037.01,1033.19,1029.08,1024.45,1019.64,1015.73,1012.74,1011.44,1011.15,1010.88,1009.66,1006.09,1001.52,996.44,990.59,987.14,988.70,993.83,998.83,999.98,997.17,992.61,987.70,982.97,984.37,987.46,989.78,989.97,988.84,991.64,997.59,1004.54,1011.05,1016.91,1022.31,1026.22,1025.27,1019.27,1011.63,1003.26,993.84,985.65,978.15,970.74,962.95,954.49,948.65,948.79,953.98,958.29,963.10,971.90,984.12,997.04,1002.65,1006.55,1010.76,1015.71,1020.96,1027.17,1034.76,1043.22,1051.33,1058.09,1063.65,1066.63,1064.82,1057.88,1051.17,1044.84,1038.44,1031.59
917.87,918.07,923.64,930.27,934.59,939.22,940.58,940.75,940.81,940.63,940.43,939.92,938.41,935.19,934.63,935.73,936.39,935.80,936.76,939.36,939.77,937.53,935.53,936.55,938.08,939.34,940.07,939.61,937.87,935.80,934.00,932.83,930.67,927.92,925.81,926.27,927.35,927.85,928.31,928.51,925.30,919.28,912.58,907.60,908.62,914.99,921.31,924.98,924.07,920.08,914.69,908.98,902.95,895.75,890.84,889.27,890.60,894.02,898.12,902.39,906.69,911.34,917.58,923.39,927.53,929.49,929.25,928.44,928.97,931.48,936.20,940.51,939.61,935.43,929.38,922.66,916.03,908.54,900.90,895.25,890.55,886.27,885.34,890.50,897.53,906.25,914.07,919.06,919.13,915.72,909.70,902.55,895.88,890.48,888.07,888.83,892.91,898.63,902.29,905.14,907.94,911.37,916.95,922.75,927.38,930.05,932.64,936.26,940.55,944.94,948.45,951.25,954.39,958.62,964.81,972.47,979.25,985.04,988.95,987.96,983.06,976.27,968.46,960.04,952.47,945.38,937.72,928.84,920.64,913.84,907.45,901.72,898.70,899.41,904.00,910.98,918.62,925.98,935.90,946.63,956.16,962.22,959.84,953.00,944.82,939.47,942.35,943.85,942.26,938.52,936.24,935.30,932.82,927.84,922.24,918.85,918.04,919.73,924.67,933.82,944.37,955.57,968.48,985.97,994.44,1002.40,1011.14,1015.46,1019.85,1025.77,1032.76,1040.44,1049.63,1055.34,1060.58,1066.84,1072.66,1070.39,1065.13,1059.24,1053.58,1048.11,1043.47,1039.43,1035.83,1032.63,1028.54,1023.87,1019.02,1014.53,1010.10,1007.27,1006.15,1006.37,1005.75,1003.36,999.92,995.58,990.01,986.00,986.60,990.85,995.78,998.41,996.95,993.04,987.79,981.68,981.38,983.19,984.91,985.48,986.84,991.37,997.83,1004.34,1010.44,1015.55,1020.10,1023.53,1023.41,1017.74,1010.07,1001.38,991.20,981.81,973.90,966.55,958.98,951.07,946.65,947.44,952.28,956.50,961.03,966.99,977.10,992.73,998.94,1003.11,1007.59,1012.78,1018.07,1023.96,1031.11,1039.37,1048.01,1055.18,1060.75,1064.66,1065.38,1059.16,1052.77,1046.48,1039.78,1032.33
911.51,908.49,909.69,914.66,923.85,933.62,936.61,937.24,937.86,938.38,939.04,939.29,938.13,934.36,932.91,933.31,933.96,934.31,936.26,938.63,938.72,936.28,933.65,934.40,935.89,937.35,938.46,937.88,935.48,932.79,930.78,929.91,928.62,926.32,923.88,923.25,924.05,925.03,926.29,927.05,923.23,917.94,911.66,906.38,907.26,912.87,918.55,922.00,921.36,917.49,912.06,906.01,899.34,891.58,888.70,889.12,891.64,895.58,899.52,903.68,908.10,912.98,918.76,923.45,926.20,926.89,926.16,925.59,927.23,930.80,935.39,939.40,938.27,934.25,928.67,921.86,915.24,907.87,900.34,894.45,888.77,884.57,884.90,892.02,899.68,907.83,914.22,917.39,916.38,912.34,905.58,898.22,892.78,887.92,887.49,890.48,895.91,901.64,905.44,908.24,910.98,915.10,920.99,927.02,932.04,935.37,938.72,942.41,946.11,949.50,952.05,954.35,956.85,960.50,966.70,974.40,980.77,985.58,987.73,984.12,977.92,970.29,961.90,953.67,947.47,941.35,934.01,924.85,916.14,909.07,903.13,898.67,897.38,900.11,905.87,913.35,921.10,927.07,938.59,950.11,957.39,962.33,957.45,948.58,939.28,932.97,933.45,934.67,934.14,931.36,930.38,929.59,927.09,922.34,916.76,912.80,911.92,914.84,922.84,933.55,945.23,956.95,969.37,985.65,995.50,1003.87,1011.74,1016.21,1020.07,1025.80,1033.18,1041.51,1049.71,1055.12,1060.14,1065.87,1071.20,1070.91,1066.64,1059.91,1051.96,1045.44,1040.22,1035.90,1032.48,1029.95,1026.35,1022.12,1017.56,1012.79,1007.50,1002.98,1000.20,999.82,999.29,998.57,997.08,994.26,989.80,985.30,984.61,987.51,992.07,996.01,996.20,993.22,987.66,981.11,979.00,979.16,980.17,981.43,986.33,992.63,998.99,1004.60,1009.54,1013.76,1017.70,1021.02,1021.77,1016.36,1008.78,1000.07,989.36,978.19,969.07,961.35,954.22,947.18,944.67,946.14,950.28,954.38,958.63,963.17,972.12,988.76,996.09,1000.40,1004.76,1010.00,1015.42,1021.18,1027.93,1035.75,1044.50,1052.38,1058.03,1062.63,1065.53,1060.41,1054.60,1048.51,1041.67,1033.77
909.35,904.93,903.45,904.53,907.99,911.72,915.07,918.67,922.72,926.50,930.92,933.88,934.41,932.09,931.55,931.86,932.29,932.79,934.46,936.29,936.83,935.52,932.71,932.51,933.63,935.19,936.48,936.21,933.88,931.08,928.77,927.51,926.54,924.77,922.38,920.57,921.44,922.97,924.71,925.69,922.20,917.23,910.92,905.13,905.04,909.26,914.55,918.43,918.37,914.52,909.12,903.12,896.69,890.12,888.52,889.96,892.97,896.55,900.26,904.44,909.12,914.38,920.00,923.85,924.81,923.43,922.67,924.12,927.12,930.94,934.92,938.16,936.95,933.23,928.08,921.66,914.96,907.70,900.37,894.06,887.24,882.77,883.67,891.70,899.39,907.41,912.97,914.75,912.91,908.03,901.62,895.18,890.04,885.27,886.55,891.31,897.54,903.58,908.30,912.05,915.62,920.47,926.53,932.42,937.43,941.32,945.39,948.24,950.85,953.49,955.64,957.96,961.05,965.13,970.52,977.01,982.08,984.92,984.53,979.92,972.64,964.11,955.50,948.54,943.30,937.61,930.08,920.29,912.14,905.25,899.70,896.40,897.12,900.77,906.78,914.45,922.98,930.22,942.03,952.88,958.44,960.38,954.21,945.09,935.74,928.33,925.88,926.09,926.33,924.77,922.84,921.70,919.83,916.32,911.37,907.44,908.44,914.22,923.56,933.13,947.70,962.19,973.86,988.24,998.29,1006.27,1012.93,1017.52,1022.13,1027.81,1034.36,1041.50,1049.12,1054.60,1059.80,1065.52,1070.60,1070.99,1066.74,1059.36,1050.78,1042.92,1037.17,1032.64,1028.92,1026.48,1023.08,1019.08,1014.84,1010.67,1006.23,1002.22,999.12,997.26,995.57,994.81,994.24,993.07,990.23,986.19,983.38,983.42,988.15,993.32,995.40,993.52,987.54,980.99,977.80,977.39,979.07,982.23,988.15,993.64,998.32,1002.65,1006.93,1011.05,1015.13,1018.75,1020.12,1015.20,1007.87,999.08,987.76,976.04,965.67,956.98,949.93,943.03,941.73,943.79,947.39,950.65,954.35,957.92,965.33,980.75,991.93,997.41,1001.41,1006.33,1012.51,1018.30,1025.13,1032.97,1041.00,1049.63,1055.53,1060.11,1063.62,1061.16,1056.52,1050.98,1044.53,1036.70
908.08,903.24,900.62,899.63,899.44,899.28,901.36,904.64,908.45,912.36,917.03,921.13,924.33,926.83,929.74,930.93,931.22,931.57,932.55,933.96,934.82,934.42,932.16,930.91,931.56,933.18,934.38,934.27,932.52,930.00,927.33,925.34,924.27,923.05,921.19,918.75,919.17,920.95,923.08,924.26,921.56,916.92,910.67,904.32,902.03,905.15,909.97,913.90,914.59,911.49,906.49,900.67,894.58,889.17,888.33,890.32,893.67,897.14,901.03,905.87,911.25,916.63,921.24,923.36,922.63,920.45,921.01,923.70,927.15,930.69,933.90,936.61,935.55,932.18,927.39,921.50,914.70,907.17,899.66,893.26,885.51,881.15,882.48,890.35,897.99,905.78,910.81,911.78,909.05,903.92,898.05,892.24,887.02,882.74,885.97,892.16,898.39,904.85,910.27,914.76,919.06,924.61,931.21,936.84,941.39,945.23,949.26,952.07,954.59,957.24,959.90,962.78,966.33,970.46,974.89,979.32,982.72,983.89,981.64,975.96,967.50,958.01,948.97,942.36,937.64,932.50,925.34,915.70,908.21,902.02,897.08,894.46,896.52,900.20,906.09,914.12,924.07,933.48,944.38,953.70,958.46,957.96,950.80,941.80,932.80,924.37,919.44,918.49,918.69,917.32,914.90,913.88,912.56,909.84,905.73,904.38,908.09,915.94,925.91,933.99,949.95,966.10,977.29,989.97,999.62,1007.21,1013.23,1017.70,1022.71,1028.25,1034.29,1040.92,1048.20,1053.76,1058.99,1064.58,1069.85,1070.87,1066.74,1059.18,1050.66,1042.23,1036.35,1031.87,1027.89,1024.79,1021.46,1018.12,1014.93,1011.89,1008.14,1004.57,1001.13,997.71,994.90,993.06,991.83,990.78,988.92,985.60,982.12,980.77,985.16,991.14,994.58,993.54,987.34,980.79,976.85,976.33,978.98,983.53,988.75,992.38,995.21,998.81,1003.22,1007.34,1011.29,1015.02,1017.52,1013.74,1007.00,998.18,986.43,974.57,963.69,954.50,947.27,940.20,939.00,941.11,944.56,947.45,950.75,953.89,959.68,972.27,988.05,995.28,999.07,1003.44,1010.07,1016.10,1023.00,1030.63,1037.97,1046.87,1053.13,1057.80,1061.55,1061.83,1058.13,1052.75,1046.44,1039.01
907.05,902.80,900.50,899.64,899.28,898.99,898.73,898.47,898.42,899.12,900.35,903.52,909.34,918.34,926.35,929.58,930.28,930.42,930.62,931.83,932.79,932.87,931.76,929.65,929.71,931.13,932.07,931.95,931.06,929.12,926.16,923.36,921.87,921.15,920.13,917.60,917.08,918.81,921.26,922.76,921.13,916.89,910.91,904.09,898.79,900.79,904.94,908.64,910.12,908.51,904.23,898.63,892.71,888.25,887.89,890.32,894.10,897.92,902.35,908.18,914.34,919.43,922.18,921.80,919.80,918.31,921.15,923.98,926.94,929.82,932.31,934.77,934.07,931.10,926.51,921.08,914.14,906.09,898.13,891.96,883.65,879.84,881.42,888.17,895.80,903.17,907.92,908.70,905.09,900.26,894.87,889.21,883.76,880.58,885.83,893.00,898.63,905.48,911.24,916.07,920.78,926.83,934.03,939.35,943.21,946.50,949.90,953.56,957.07,960.48,964.45,968.23,971.92,975.59,979.04,981.01,982.63,982.57,979.31,972.36,962.58,952.18,942.50,935.10,930.32,925.80,919.63,911.03,904.26,899.25,895.12,892.79,895.44,898.53,904.22,912.88,924.44,936.21,945.31,952.61,957.38,955.38,947.37,938.52,930.04,920.81,914.14,911.91,911.19,909.12,906.99,906.49,905.57,903.23,900.38,903.77,910.51,919.25,929.30,936.07,951.71,967.97,978.84,990.07,998.99,1006.38,1012.39,1016.65,1021.59,1026.97,1032.96,1039.91,1047.07,1052.69,1057.76,1063.04,1068.90,1070.62,1066.86,1059.55,1051.68,1043.73,1038.18,1033.88,1029.74,1025.55,1022.23,1019.90,1018.25,1016.42,1012.86,1009.31,1005.47,1000.74,997.06,993.52,990.41,988.04,986.31,983.65,980.85,979.68,983.16,989.53,993.80,993.35,987.16,980.51,976.00,975.62,979.22,984.32,987.55,988.88,990.13,993.55,998.67,1002.86,1006.46,1010.04,1013.93,1011.91,1006.00,997.14,985.25,973.56,962.94,953.78,946.21,938.72,936.55,938.15,941.81,944.95,948.07,951.21,955.57,964.52,984.24,993.74,997.89,1001.68,1008.11,1014.47,1021.34,1028.49,1035.36,1044.03,1050.76,1055.78,1059.64,1062.30,1059.25,1053.68,1047.22,1040.43
905.60,903.98,903.28,903.03,903.08,903.83,903.54,902.41,900.66,898.70,897.34,897.68,900.35,906.51,915.29,922.63,926.97,927.81,928.14,929.60,930.66,930.89,930.69,929.06,927.90,927.82,928.78,928.85,928.12,926.51,924.06,921.53,919.88,919.01,918.00,915.59,914.56,916.10,918.88,921.23,920.55,916.76,911.32,904.92,898.46,896.83,899.72,903.99,906.09,905.89,902.31,896.54,890.04,886.40,887.64,891.84,897.22,902.04,906.75,911.52,916.15,919.90,921.09,919.24,917.66,918.07,921.05,923.08,925.47,928.18,930.69,932.96,932.69,929.96,925.04,919.19,911.86,904.00,896.53,890.33,882.55,879.19,880.38,885.70,893.41,900.34,905.02,906.22,902.47,897.45,891.85,886.08,881.15,880.13,885.99,892.99,898.45,905.36,911.07,915.81,920.27,925.54,931.19,936.32,940.62,944.03,947.68,952.01,956.57,961.27,966.36,970.43,974.02,977.24,979.74,981.06,981.77,980.83,976.84,969.10,958.29,947.43,937.50,928.67,922.51,917.67,912.33,905.58,900.35,896.44,893.17,891.45,894.21,897.59,904.29,913.84,924.82,936.38,944.35,950.70,955.38,952.91,944.16,934.85,926.31,917.23,910.31,906.14,903.78,902.29,900.37,899.88,899.36,898.43,898.78,905.30,913.29,921.72,931.05,937.89,953.19,968.51,977.81,987.21,996.23,1004.08,1010.42,1015.18,1020.59,1026.19,1032.11,1038.75,1046.19,1052.02,1056.90,1061.84,1068.28,1070.41,1066.92,1060.13,1053.81,1048.42,1043.45,1038.66,1034.15,1030.49,1027.54,1025.47,1023.77,1020.91,1016.67,1013.01,1009.46,1005.02,1000.55,996.57,993.04,989.92,986.99,983.63,980.45,978.84,981.47,988.07,993.27,993.63,987.58,980.50,975.38,974.76,978.31,982.47,984.34,985.07,986.17,989.26,994.16,999.11,1003.23,1006.49,1009.84,1009.59,1004.24,994.86,983.59,972.31,962.06,953.20,945.62,937.33,933.55,934.43,938.54,942.21,945.29,948.46,952.95,961.44,977.95,990.13,997.55,1001.57,1006.03,1012.12,1018.80,1025.61,1032.58,1040.62,1048.03,1053.98,1058.02,1061.38,1059.26,1054.06,1047.51,1041.20
907.28,907.58,908.33,908.98,909.55,910.82,910.43,908.75,905.96,902.21,899.01,896.78,895.88,897.64,904.55,912.63,919.73,924.33,925.50,927.24,928.60,929.20,929.46,928.51,926.78,925.47,925.59,925.27,924.50,923.27,921.52,919.50,917.87,916.78,915.66,913.56,912.18,913.15,915.88,919.15,919.60,916.19,911.30,905.68,899.05,894.54,895.12,898.77,902.25,903.42,900.29,894.50,888.08,885.42,888.10,893.68,900.08,905.16,909.69,913.34,916.52,919.12,919.56,917.07,915.72,916.94,919.56,920.93,923.02,925.85,928.74,931.17,931.31,928.70,923.36,917.13,909.67,902.18,895.17,888.78,881.71,878.59,879.18,883.29,890.95,897.88,902.66,904.02,900.15,894.91,888.86,882.90,878.96,880.33,886.27,892.65,897.88,904.39,909.88,914.37,918.38,922.72,926.98,931.67,936.16,939.96,944.22,949.46,955.06,960.85,966.96,971.26,974.54,976.95,978.24,979.42,980.17,978.99,974.42,966.27,954.93,943.59,933.12,923.30,915.67,910.16,905.39,900.45,896.49,893.05,890.22,889.26,893.03,897.39,905.19,915.30,925.18,935.43,942.77,948.84,953.29,950.45,941.47,932.14,923.75,914.95,908.10,902.63,898.72,896.75,894.79,894.18,894.49,895.79,899.00,906.51,915.00,923.73,933.13,941.27,955.67,969.52,977.90,985.62,994.44,1002.42,1008.80,1013.77,1019.10,1024.64,1030.63,1037.55,1045.71,1051.67,1056.31,1060.96,1067.58,1070.18,1067.47,1061.67,1056.56,1053.07,1048.93,1044.25,1039.71,1036.59,1033.97,1031.74,1029.36,1025.58,1020.42,1016.31,1012.88,1009.02,1004.48,1000.52,996.80,992.97,988.72,984.62,980.91,978.54,979.84,986.09,992.03,993.50,988.21,980.93,975.15,973.63,976.16,979.38,980.37,980.94,982.32,985.60,990.46,995.78,1000.15,1003.16,1005.99,1006.75,1001.89,992.48,981.78,970.91,961.13,952.72,945.30,936.36,931.29,931.10,934.83,938.91,942.06,945.58,950.67,959.06,971.37,984.24,993.91,998.99,1002.79,1009.05,1016.03,1023.11,1030.43,1037.90,1045.53,1052.04,1056.39,1060.20,1058.81,1054.04,1047.62,1041.81
913.61,914.30,915.87,917.58,918.54,919.21,917.98,915.56,912.15,907.63,903.40,899.59,896.23,894.10,896.68,900.55,908.34,920.03,922.83,924.84,926.69,928.00,928.14,927.73,926.50,924.76,922.95,921.49,920.54,919.70,918.64,917.17,915.69,914.48,913.34,911.77,910.10,910.09,912.30,916.36,918.11,915.07,910.70,906.03,900.12,894.45,891.62,892.86,898.51,901.03,898.05,892.61,887.33,885.79,889.36,895.42,901.75,905.95,909.77,912.73,915.20,917.25,918.00,915.70,913.89,914.12,916.20,917.35,919.58,922.83,926.34,929.38,929.87,927.27,921.63,915.33,908.16,901.05,894.22,887.54,881.09,877.87,877.76,881.06,888.39,895.91,900.98,902.01,897.86,892.49,885.90,879.77,877.36,880.97,886.60,892.05,896.86,902.43,907.52,911.67,915.13,918.61,922.30,926.25,930.40,934.81,939.90,946.35,952.93,959.40,966.40,971.02,973.71,974.83,974.63,975.93,977.73,977.11,972.13,963.96,952.71,940.75,929.28,919.21,910.42,904.09,899.53,896.05,892.71,888.89,885.92,885.85,891.92,898.03,906.68,916.70,925.40,933.69,940.88,947.25,951.33,947.91,939.46,930.90,923.09,914.41,907.65,901.90,896.82,892.71,890.41,889.81,891.56,895.72,900.73,906.89,915.34,925.48,936.13,946.61,959.47,971.43,979.88,986.31,994.30,1001.74,1007.73,1012.39,1016.87,1021.95,1028.18,1036.21,1045.50,1051.49,1055.89,1060.33,1066.56,1069.86,1068.66,1064.41,1059.80,1056.72,1053.60,1049.95,1045.89,1042.80,1040.38,1037.61,1034.23,1030.28,1024.32,1019.48,1015.80,1012.48,1008.73,1005.05,1001.03,996.35,990.99,986.45,982.27,978.89,978.22,983.31,989.69,992.62,989.01,981.97,975.53,972.27,972.66,975.28,975.89,976.46,978.29,982.46,987.71,992.79,996.85,999.75,1002.59,1003.31,998.92,990.25,979.90,969.38,960.15,952.32,945.23,935.93,930.18,928.55,930.66,934.92,938.26,942.51,948.37,956.30,965.15,975.93,985.71,992.77,998.17,1005.35,1013.27,1021.34,1029.19,1036.28,1043.45,1049.86,1054.64,1058.91,1057.99,1053.65,1047.66,1042.40
922.93,923.91,925.06,926.26,926.77,925.47,923.15,920.39,916.95,911.81,906.98,902.74,898.88,895.32,893.73,895.87,903.35,915.38,920.88,923.42,925.21,926.50,926.32,925.85,925.31,924.33,922.45,920.79,918.87,917.27,916.15,914.74,913.28,912.29,911.55,910.26,908.03,907.75,909.78,913.63,916.06,914.19,910.58,906.24,900.96,894.77,890.52,889.99,894.37,897.99,896.13,891.65,887.06,885.43,889.39,895.49,901.45,905.29,908.84,911.30,913.36,915.44,916.64,914.43,912.00,911.04,912.19,913.43,916.24,920.07,923.77,926.89,927.80,925.82,920.80,914.69,907.84,900.89,894.07,887.49,881.22,877.20,876.20,879.19,885.57,893.16,898.64,899.94,895.52,889.60,882.99,877.94,877.84,881.76,886.53,891.24,895.75,900.25,904.68,908.34,911.14,913.44,916.81,920.92,925.48,930.55,936.65,943.61,950.63,957.64,965.12,970.22,972.06,971.73,971.04,972.41,975.00,975.20,970.54,962.13,950.95,938.49,926.10,915.71,906.78,900.52,896.12,892.69,889.01,884.81,882.05,882.98,890.57,898.59,907.27,916.18,924.44,932.34,939.57,945.97,949.58,944.93,937.85,930.40,922.66,913.83,906.32,900.12,894.70,889.99,886.97,888.31,891.92,896.79,902.38,909.04,918.05,928.69,939.47,949.58,961.66,972.13,978.56,984.40,991.36,998.10,1004.05,1009.19,1014.22,1019.62,1025.89,1033.69,1042.80,1049.48,1054.43,1058.75,1064.30,1068.71,1069.27,1066.55,1062.43,1059.28,1055.86,1052.34,1048.94,1045.23,1042.36,1039.41,1036.10,1032.62,1028.31,1024.16,1020.53,1017.41,1013.85,1009.65,1004.77,999.13,992.94,987.84,983.31,979.23,976.65,980.09,986.56,991.20,990.22,984.12,977.19,972.09,969.93,971.07,971.37,972.02,974.04,978.34,983.56,989.14,993.62,996.50,998.97,999.61,995.56,987.61,978.16,967.98,959.32,951.97,944.91,935.53,929.56,926.48,926.52,930.83,934.72,939.03,944.64,952.26,959.86,969.58,979.53,988.26,995.33,1003.25,1011.48,1019.80,1028.06,1034.84,1041.39,1047.46,1052.39,1056.15,1056.60,1053.65,1048.30,1043.34
931.02,932.15,932.88,933.65,933.94,930.87,927.33,924.01,920.45,915.00,909.80,905.43,901.52,897.32,892.87,893.54,899.46,909.69,918.93,922.35,924.00,925.09,924.42,923.65,923.60,923.50,922.30,920.79,918.20,915.81,914.17,912.52,910.89,909.93,909.35,908.04,905.44,905.22,907.29,910.86,913.69,913.14,910.41,906.31,901.52,895.10,890.13,888.26,890.85,894.96,894.39,891.05,886.88,884.68,888.74,894.81,900.53,904.32,907.69,909.84,911.54,913.45,915.16,913.65,911.08,908.96,908.78,909.97,912.99,917.05,921.05,924.30,925.77,924.58,920.27,914.37,907.79,900.99,894.20,887.70,881.64,876.86,874.85,877.23,882.61,890.18,896.03,897.68,893.23,886.62,880.14,876.48,878.65,882.49,886.42,890.43,894.58,898.29,901.87,904.92,907.28,908.97,912.09,916.63,921.88,927.54,934.40,941.61,948.73,955.80,963.14,968.78,970.17,968.86,967.97,969.48,972.44,973.20,969.13,960.60,949.17,936.34,923.48,912.65,903.74,897.68,893.33,889.57,885.47,881.11,878.78,880.67,888.97,898.65,907.16,914.76,922.73,930.94,938.38,944.48,947.22,941.94,935.93,929.29,921.58,912.57,904.62,898.09,892.52,887.69,884.18,887.38,892.60,897.80,903.84,911.17,920.47,931.12,941.89,951.10,961.70,970.50,975.52,981.05,987.45,994.15,1000.69,1006.46,1012.01,1017.61,1023.64,1030.52,1038.02,1045.39,1051.54,1056.34,1061.34,1066.56,1068.63,1067.27,1063.32,1059.47,1055.43,1051.80,1048.73,1044.65,1041.21,1038.01,1034.86,1031.88,1029.18,1026.10,1022.96,1020.16,1016.79,1012.50,1007.34,1001.30,994.68,989.01,984.16,979.67,975.74,977.30,983.00,988.80,990.94,986.83,980.33,974.08,969.62,968.56,967.97,968.31,970.13,974.15,979.23,985.18,990.12,993.17,995.16,995.62,992.00,984.95,976.43,966.45,958.25,951.31,944.22,934.80,928.73,924.64,923.10,927.19,931.79,936.21,941.41,948.74,956.66,966.39,976.81,986.81,995.04,1002.97,1011.07,1019.26,1026.95,1033.08,1038.97,1044.57,1049.26,1052.34,1054.02,1052.93,1049.14,1044.67
935.42,936.50,937.42,938.58,939.41,935.61,930.70,926.19,922.09,916.85,911.57,907.05,903.01,898.57,893.66,892.26,894.72,902.24,916.48,921.37,923.09,924.01,922.66,921.40,921.31,921.80,921.81,920.65,918.38,915.68,913.00,910.85,908.73,907.29,906.18,904.41,901.94,902.03,904.33,907.95,910.94,911.62,909.89,906.20,901.62,895.25,889.99,887.34,888.68,892.28,892.88,890.69,886.64,883.48,887.35,893.47,899.33,903.45,906.63,908.70,910.03,911.13,913.28,913.73,912.04,908.93,906.92,907.58,909.87,913.42,918.12,921.78,924.11,923.74,919.87,914.10,907.71,901.13,894.47,887.85,882.27,877.15,874.00,874.87,879.48,887.15,893.24,895.08,891.04,883.68,877.43,875.11,879.06,883.02,886.42,889.75,893.32,896.88,899.37,901.71,904.11,906.44,909.37,914.45,920.51,926.61,933.64,940.91,947.72,953.95,960.18,966.41,968.21,966.87,965.90,967.71,970.30,971.03,967.73,959.46,947.15,934.12,921.62,910.18,901.13,895.07,890.60,886.49,882.20,878.05,876.50,879.22,887.00,897.71,906.05,912.54,920.19,929.27,937.14,942.45,943.57,939.08,933.21,926.64,919.11,910.04,902.64,896.14,890.33,885.58,882.21,886.21,892.28,898.16,904.88,912.39,921.18,931.26,942.22,950.83,958.30,964.95,970.73,976.18,983.06,991.04,999.16,1005.47,1010.77,1015.96,1021.33,1026.63,1030.56,1038.30,1046.39,1052.82,1057.69,1062.90,1065.88,1065.56,1061.10,1055.54,1050.94,1047.11,1043.64,1039.97,1036.07,1032.35,1029.04,1026.29,1023.93,1021.90,1019.96,1017.82,1015.04,1011.83,1007.79,1002.53,996.13,989.95,984.80,980.30,976.07,975.56,978.98,984.73,990.40,989.99,985.62,979.67,973.66,969.49,966.91,966.04,966.99,970.32,975.33,980.99,986.05,989.61,991.05,991.20,988.26,982.47,974.61,964.64,956.69,950.03,942.95,933.38,927.25,922.99,921.01,924.49,929.93,934.92,939.97,946.95,957.08,968.40,979.81,990.43,998.79,1005.35,1012.81,1020.57,1025.77,1030.62,1035.81,1040.75,1044.61,1047.18,1049.37,1050.55,1049.93,1046.57
943.74,944.81,945.80,946.13,944.42,939.38,933.52,928.08,923.24,918.16,913.04,908.45,904.10,899.26,894.16,891.43,891.83,896.90,908.49,917.33,921.93,922.81,921.87,920.39,919.64,919.70,920.18,919.73,918.17,915.86,913.13,910.92,909.11,907.54,905.86,903.50,900.98,900.32,901.64,904.71,907.80,909.25,908.45,905.59,901.67,896.29,891.10,887.36,886.69,889.77,891.34,890.10,886.12,882.28,885.61,891.63,897.82,902.49,905.80,907.48,908.29,909.00,910.71,912.23,911.90,909.54,906.80,905.91,907.26,910.29,914.39,918.58,921.72,922.37,919.55,914.06,907.93,901.40,894.61,887.94,882.82,877.72,873.56,872.45,876.72,884.50,890.81,892.76,888.37,881.26,875.60,874.08,878.77,882.61,885.79,888.89,892.15,895.28,897.85,900.61,903.67,906.76,910.59,915.89,921.76,927.61,934.53,941.29,947.46,953.05,958.53,964.15,965.98,964.89,963.63,965.06,967.46,968.35,965.65,958.20,945.32,932.03,919.85,908.50,899.65,893.17,888.11,883.67,878.91,874.64,873.78,877.61,885.13,895.43,903.77,910.79,919.25,928.49,936.59,941.16,940.38,935.60,930.36,924.60,917.69,908.87,901.71,894.64,888.28,883.82,880.54,884.60,891.06,897.57,904.30,911.75,919.92,928.93,938.88,947.03,953.64,959.76,966.08,972.82,980.90,989.26,996.83,1002.04,1006.53,1011.27,1016.67,1022.71,1027.57,1034.83,1042.64,1049.77,1055.77,1061.35,1064.35,1063.68,1058.11,1051.49,1045.89,1041.21,1037.19,1033.78,1030.28,1026.89,1023.63,1020.50,1017.80,1015.55,1013.56,1011.63,1009.72,1008.04,1005.66,1001.91,996.60,990.52,985.34,980.90,976.41,973.95,975.96,980.87,986.75,990.03,988.73,984.65,979.03,973.34,968.77,965.68,964.89,967.75,972.83,978.64,983.30,985.83,986.67,986.89,984.60,979.75,972.75,963.34,955.63,948.84,941.24,931.23,924.20,919.64,918.32,922.94,929.48,935.73,941.52,948.05,959.04,970.25,981.30,991.87,1000.19,1005.87,1013.07,1020.55,1023.46,1027.21,1031.32,1035.34,1038.78,1041.00,1043.11,1045.13,1046.63,1046.47
951.87,952.89,953.87,953.17,948.65,942.26,935.86,929.97,924.67,919.52,914.53,909.85,905.18,900.01,894.81,891.09,889.96,892.76,899.85,912.10,919.76,921.05,920.91,919.76,918.47,917.76,918.13,918.27,917.50,915.96,913.88,911.86,910.40,908.69,906.40,903.44,900.71,899.11,899.27,901.63,904.56,906.48,906.58,904.78,901.66,897.41,892.46,887.80,885.22,887.35,889.43,889.00,885.39,881.24,883.77,889.66,896.41,901.72,905.26,906.35,906.38,906.64,907.90,910.11,911.19,910.20,907.23,904.66,904.83,907.13,910.52,914.99,918.83,920.58,919.05,914.07,908.38,901.90,894.87,888.19,883.44,878.46,873.50,870.52,873.92,881.50,888.12,890.41,885.28,878.61,873.91,873.25,878.25,881.95,885.05,888.04,891.08,893.99,896.98,900.37,904.05,907.79,912.75,918.12,923.37,928.54,935.02,941.25,946.99,952.28,957.39,962.25,963.98,963.03,961.29,962.07,964.32,965.51,963.46,956.65,943.45,930.02,918.13,907.15,898.40,891.23,885.40,880.81,875.60,871.37,871.15,875.88,883.49,893.05,901.58,909.54,918.76,927.89,935.89,939.73,937.41,932.13,927.37,922.22,915.89,907.75,900.80,893.37,886.62,882.21,878.87,882.76,889.37,896.24,902.58,909.78,917.27,925.12,933.64,941.35,948.22,954.98,962.23,970.38,979.51,987.90,994.61,998.90,1002.96,1007.54,1013.10,1019.92,1026.73,1033.28,1040.13,1047.44,1054.59,1060.47,1063.22,1061.84,1055.12,1047.92,1041.48,1035.85,1031.17,1027.78,1024.66,1021.51,1018.21,1014.69,1011.56,1008.73,1006.23,1004.25,1003.11,1002.75,1001.98,999.97,996.35,990.83,985.81,981.39,976.63,972.51,973.40,977.26,982.35,988.14,990.01,988.38,983.84,977.31,971.16,966.06,963.41,965.28,970.44,976.49,980.79,982.25,982.23,982.56,981.02,977.20,971.09,962.40,954.78,947.54,939.14,928.71,920.45,915.74,915.69,921.72,929.28,936.77,943.54,949.98,960.66,970.92,981.06,991.16,999.41,1004.41,1010.96,1017.83,1019.80,1023.10,1026.45,1029.75,1032.90,1034.87,1036.76,1039.06,1041.86,1044.64
956.06,956.94,957.70,956.52,951.10,943.50,937.25,932.11,927.32,921.49,916.35,911.50,906.61,901.42,896.14,891.77,889.43,890.25,894.15,906.08,914.90,917.72,918.63,919.18,918.23,916.66,915.84,915.90,915.78,915.63,915.28,913.77,912.16,909.92,906.97,903.46,900.23,898.05,897.60,899.27,901.39,903.22,904.21,903.87,901.53,898.07,893.50,888.67,885.11,885.02,886.48,886.66,884.25,880.59,881.96,887.71,895.47,901.60,905.36,905.54,904.21,903.46,905.01,907.56,909.78,910.46,907.72,904.00,902.45,903.48,906.93,910.88,915.13,918.01,917.97,914.03,909.23,902.92,895.59,888.92,884.35,879.46,874.21,870.00,870.71,877.18,884.38,887.75,881.38,874.89,871.80,872.75,877.63,881.41,884.53,887.36,890.20,893.78,897.16,900.72,904.47,908.39,914.22,919.48,923.78,927.58,932.90,939.04,945.22,951.11,956.59,961.32,962.82,961.48,958.90,958.86,960.88,962.63,961.59,954.43,941.32,928.09,916.48,906.07,896.89,888.55,881.89,877.57,872.21,868.81,869.13,873.96,882.41,891.59,900.62,909.41,918.20,927.01,934.15,937.23,934.68,929.28,924.06,918.36,912.06,905.58,899.06,892.32,885.94,880.74,876.90,880.64,887.11,893.59,898.97,905.53,912.39,919.23,926.12,933.28,941.70,951.01,960.60,969.26,978.34,986.59,993.40,998.65,1003.88,1009.22,1014.64,1020.44,1028.23,1034.13,1039.97,1046.80,1054.07,1059.76,1062.15,1060.23,1052.77,1045.88,1039.33,1033.06,1027.49,1023.70,1020.02,1016.20,1012.37,1009.00,1005.82,1002.43,999.18,996.81,995.84,995.89,996.05,995.85,994.87,990.71,986.13,981.65,976.55,971.39,971.26,974.25,978.53,983.39,987.88,989.04,985.87,979.08,972.60,966.93,962.79,961.98,967.10,973.28,977.87,979.46,977.87,978.03,977.63,975.39,970.06,962.00,954.12,945.89,936.28,925.74,916.07,911.67,913.75,920.42,928.54,936.62,944.32,951.78,959.95,968.38,977.15,986.15,994.41,998.89,1003.32,1008.46,1013.23,1017.78,1021.62,1024.98,1027.91,1029.76,1031.56,1033.71,1036.40,1039.58
960.05,960.71,961.03,959.55,954.30,946.19,939.79,934.74,930.13,924.34,918.81,913.69,908.71,903.42,898.10,893.06,889.66,889.08,890.70,898.65,907.66,914.42,916.36,917.81,917.69,916.43,914.85,913.97,913.69,913.80,914.05,913.71,912.44,910.07,906.85,903.20,899.88,897.47,896.44,897.20,898.85,900.48,901.69,902.04,900.75,897.88,893.91,889.49,885.46,883.07,883.29,883.75,882.83,880.02,881.01,886.93,895.38,901.54,905.24,904.75,902.51,901.04,902.28,904.86,907.57,909.27,907.93,904.24,901.29,900.59,903.26,906.93,911.02,914.25,915.53,914.25,910.78,904.95,897.73,891.15,886.22,881.12,875.60,870.49,868.80,873.08,879.06,882.56,877.76,872.44,870.34,871.90,876.75,880.76,883.85,886.48,889.11,892.37,896.11,899.89,903.54,907.13,911.95,916.63,920.72,924.60,930.57,937.61,944.44,950.60,956.19,960.54,961.48,959.44,955.87,954.69,956.27,958.55,958.79,952.07,939.81,927.13,915.72,905.58,896.05,886.63,878.92,874.38,869.56,867.28,868.46,873.57,882.03,891.23,900.10,908.58,916.89,925.38,932.19,935.22,933.01,927.65,921.69,915.18,908.54,902.87,897.00,890.58,884.20,878.83,875.37,878.48,883.88,889.13,893.04,898.08,904.03,911.38,921.18,930.82,940.92,951.33,961.53,970.11,979.08,987.31,994.35,1000.14,1005.53,1010.73,1015.83,1021.16,1028.13,1033.39,1038.64,1045.02,1052.61,1058.72,1061.24,1059.17,1051.48,1044.56,1038.14,1032.06,1026.38,1021.32,1016.39,1011.76,1007.58,1003.97,1000.39,996.64,993.21,990.85,989.86,989.85,990.23,990.75,991.19,989.38,986.00,981.62,976.49,970.90,969.40,971.27,975.35,979.38,983.90,986.71,986.09,980.18,973.85,967.75,962.48,959.78,963.80,969.06,973.70,976.41,975.34,974.20,973.83,972.90,968.29,961.39,953.56,944.32,933.36,923.46,913.98,909.63,911.74,918.11,926.38,934.65,942.61,950.38,957.56,965.05,973.04,981.40,989.27,994.16,997.99,1001.86,1006.47,1011.75,1016.26,1020.12,1023.38,1025.47,1027.23,1028.82,1030.66,1033.82
964.17,964.46,964.10,962.24,957.58,949.63,943.13,937.87,933.07,927.33,921.48,916.12,911.05,905.65,900.33,894.79,890.52,888.77,888.61,891.80,899.97,910.22,913.93,916.03,916.88,916.44,914.50,912.59,911.73,911.51,911.82,912.65,912.08,910.00,906.84,903.18,899.91,897.40,895.80,895.45,896.57,897.89,899.01,899.65,899.29,897.09,893.92,890.22,886.09,881.98,880.65,880.78,880.89,879.09,880.40,886.81,895.73,901.51,904.94,903.99,901.20,899.23,899.88,902.20,904.98,907.33,907.77,904.83,901.06,898.67,899.82,903.09,906.80,910.08,912.53,913.99,912.10,907.15,900.45,894.07,888.73,883.25,877.39,871.60,867.90,869.58,873.55,876.71,874.35,870.54,869.22,871.08,875.83,880.01,883.01,885.50,887.93,890.58,894.44,898.35,901.88,905.11,908.60,912.68,916.98,921.68,929.00,937.05,944.38,950.58,955.96,959.31,959.27,956.48,952.21,950.09,951.27,953.94,955.29,949.54,938.55,926.58,915.32,905.29,895.56,885.27,876.52,871.47,867.30,866.04,868.11,873.67,881.78,891.00,899.43,907.10,914.86,923.19,930.05,933.47,931.95,926.88,920.41,913.34,906.44,900.88,895.33,888.92,882.34,876.85,873.78,876.07,880.09,883.87,886.63,890.56,896.01,904.40,917.91,930.33,941.64,952.36,962.39,970.75,979.41,987.49,994.63,1000.87,1006.18,1011.00,1015.84,1021.13,1026.84,1031.68,1036.65,1042.70,1050.57,1057.41,1060.36,1058.42,1050.82,1043.72,1037.60,1032.10,1026.69,1020.29,1014.13,1008.83,1004.34,1000.13,995.91,991.75,988.16,985.82,984.59,984.29,984.51,985.18,986.29,986.83,985.12,981.32,976.26,970.60,967.65,968.23,972.19,975.57,979.14,982.94,985.00,980.81,974.86,968.44,962.31,958.15,960.62,964.74,969.39,973.49,973.76,971.18,970.25,970.08,966.32,960.73,953.13,943.06,930.88,921.68,912.98,908.52,909.66,915.28,923.32,931.56,939.46,946.95,953.75,960.71,968.03,975.68,983.12,988.97,993.34,996.78,1000.39,1005.99,1010.95,1015.08,1018.43,1020.56,1022.53,1023.76,1024.75,1027.61
968.99,968.54,966.94,964.17,960.10,953.69,947.73,942.07,936.22,929.61,924.01,918.68,913.32,907.93,902.64,897.23,892.57,889.60,888.21,888.97,894.04,902.80,910.89,913.93,915.54,916.07,914.59,912.56,910.80,909.74,909.72,910.74,911.52,910.66,908.13,904.47,901.07,898.48,896.26,894.42,894.26,895.11,896.01,896.51,896.30,895.36,893.42,890.61,887.05,883.39,880.37,878.39,877.47,876.78,879.84,887.35,896.43,901.50,904.37,903.34,900.64,898.52,898.40,899.86,902.15,904.77,906.65,905.41,902.43,899.11,897.22,899.36,902.66,906.19,909.50,911.63,911.61,908.54,903.19,897.35,892.15,886.16,879.68,873.49,868.74,867.80,869.57,872.10,871.22,868.73,868.47,870.85,875.18,879.02,881.92,884.40,886.77,889.10,892.31,895.89,899.55,903.11,906.60,910.74,915.64,921.79,930.41,938.41,945.44,951.38,955.77,956.30,954.32,950.95,947.22,945.31,946.56,949.11,950.57,946.69,937.32,926.11,914.93,904.93,895.39,884.84,875.38,869.49,865.47,864.35,867.00,873.33,880.98,889.75,897.53,904.33,911.26,920.04,927.61,931.95,931.62,927.52,921.64,915.32,908.89,902.17,895.44,888.48,881.49,875.24,871.42,872.87,875.62,878.21,881.85,887.31,894.04,903.25,916.97,928.91,939.74,949.91,959.43,967.86,975.74,982.87,989.57,996.54,1002.25,1007.19,1012.28,1018.20,1023.60,1028.68,1033.94,1040.03,1047.89,1055.59,1059.34,1057.98,1050.86,1043.59,1037.95,1033.26,1028.42,1021.63,1015.32,1009.91,1005.02,999.63,994.30,989.25,984.94,981.97,980.06,979.23,979.00,979.28,980.08,981.65,982.19,980.54,975.45,970.09,965.87,964.94,968.35,971.41,974.34,978.22,981.82,980.79,975.29,968.72,962.23,957.07,957.84,961.40,966.35,971.36,972.94,970.12,968.01,967.02,964.65,960.19,953.09,942.85,930.01,920.75,912.70,907.83,907.43,912.08,919.08,927.07,934.70,940.87,947.26,953.92,960.20,966.19,973.58,981.07,987.81,993.24,996.89,1002.25,1006.58,1009.57,1011.31,1012.38,1015.24,1017.42,1018.56,1020.76
972.86,970.99,968.34,965.12,961.38,956.13,950.59,944.99,939.10,932.26,926.76,921.47,915.97,910.32,904.95,899.71,895.02,891.45,888.97,887.76,890.00,896.48,906.30,911.47,914.12,915.20,914.63,912.69,910.50,908.65,907.68,908.36,909.84,910.25,909.00,905.91,902.88,900.29,897.76,895.09,893.13,892.64,892.82,893.13,893.12,892.85,891.79,889.61,886.04,882.30,878.76,876.32,875.64,876.80,881.54,889.69,898.25,901.79,903.79,902.76,900.42,898.39,897.18,897.77,899.61,902.19,904.63,905.26,903.67,900.34,896.48,896.41,898.82,902.19,905.67,908.27,909.52,908.28,904.71,899.63,894.73,888.97,882.38,875.42,869.80,866.79,866.66,868.41,868.61,867.01,867.46,870.14,874.02,877.79,881.05,883.88,886.30,888.54,891.85,895.67,899.67,903.65,907.26,912.04,917.81,924.47,932.67,940.36,946.89,951.74,953.99,952.65,949.39,945.43,941.88,940.48,942.30,945.26,947.06,944.12,936.15,925.69,914.57,904.73,895.36,884.60,874.57,867.87,863.21,862.08,865.30,872.32,879.46,887.51,894.78,901.29,908.02,916.56,924.66,930.00,930.68,927.06,922.01,916.52,910.65,903.97,896.88,889.65,882.15,874.51,868.62,869.11,871.99,875.58,880.40,887.24,894.61,903.36,915.41,926.41,936.23,945.53,954.49,962.62,970.27,976.96,983.29,991.00,997.68,1003.48,1009.34,1016.01,1022.12,1027.61,1033.04,1039.05,1046.64,1053.85,1057.43,1056.59,1050.97,1044.52,1039.28,1034.74,1029.91,1023.28,1017.02,1011.48,1006.29,1000.37,994.15,988.31,983.09,978.77,975.66,973.98,973.21,973.18,973.82,975.46,977.05,977.29,974.15,969.42,964.27,961.70,963.59,966.39,969.23,973.06,977.35,979.11,974.83,968.73,962.33,956.72,955.67,958.68,964.11,970.08,971.99,969.24,966.26,964.42,963.31,959.66,952.93,943.00,930.61,921.64,913.92,908.33,906.12,909.04,914.90,922.43,929.78,935.29,941.11,946.96,952.78,958.79,965.70,973.64,981.73,988.76,993.04,998.28,1001.92,1003.90,1004.61,1005.24,1008.08,1010.76,1012.55,1014.45
975.65,972.22,968.76,965.36,961.76,957.23,951.99,946.78,941.51,935.05,929.59,924.32,918.84,912.99,907.45,902.24,897.58,893.73,890.35,887.59,887.49,891.53,900.91,908.63,912.55,914.04,914.48,912.83,910.59,908.15,906.09,905.97,907.26,908.57,908.84,906.91,904.75,902.51,900.01,896.97,893.19,890.92,889.94,889.84,890.00,890.01,889.65,888.03,884.09,879.81,876.37,874.65,875.41,878.70,884.75,892.88,900.30,902.14,903.22,902.33,900.54,898.70,896.43,896.02,897.23,899.53,901.90,904.11,904.26,901.81,896.91,894.18,895.26,898.07,901.33,904.28,906.31,906.59,904.85,900.86,896.48,891.46,885.15,877.38,871.01,866.45,864.68,865.43,866.26,865.47,866.45,869.14,872.53,876.57,880.61,884.12,886.86,889.32,893.10,897.34,901.65,905.99,910.00,915.48,921.75,928.09,934.98,942.11,947.99,951.42,951.19,948.66,944.61,940.04,936.43,935.63,938.26,942.00,944.38,941.89,935.03,925.21,914.21,904.63,895.38,884.53,874.04,866.38,860.85,859.75,863.46,870.90,877.53,884.73,891.63,898.22,905.02,912.87,921.29,927.47,928.90,925.39,921.11,916.29,910.94,905.04,898.31,891.16,883.15,873.91,865.67,865.38,869.15,874.69,880.49,888.37,896.06,903.86,913.34,923.14,931.70,939.86,948.17,955.98,963.81,970.65,977.18,985.74,993.64,1000.56,1007.33,1014.71,1021.91,1027.87,1033.41,1039.32,1046.51,1052.43,1055.20,1054.66,1050.83,1045.80,1041.05,1036.40,1031.24,1024.88,1018.63,1012.91,1007.49,1001.47,994.44,988.08,982.22,976.51,971.89,968.97,967.43,967.17,967.77,969.06,970.93,972.55,972.13,968.31,962.69,958.48,958.12,960.64,963.82,967.70,972.21,976.18,973.58,968.34,962.21,956.32,953.74,956.33,962.31,969.16,970.94,968.35,964.73,962.12,961.85,958.81,952.56,943.40,932.14,923.60,915.96,909.56,905.52,906.14,910.76,917.71,924.82,930.21,935.46,940.36,945.99,952.68,959.20,966.99,975.73,983.91,988.95,994.01,996.99,998.29,998.59,999.32,1001.50,1004.09,1006.44,1008.20
976.26,972.20,968.42,964.88,961.19,956.60,951.56,946.88,942.57,937.45,932.23,926.97,921.76,916.60,910.82,905.01,899.76,895.48,891.75,888.38,887.21,889.40,895.95,905.10,910.50,912.75,913.69,912.76,910.85,908.54,906.23,904.62,903.57,904.13,905.52,905.82,905.49,904.78,903.13,899.91,895.59,891.61,888.83,887.53,887.51,887.55,888.07,887.35,883.08,877.81,874.11,874.01,877.98,882.82,888.90,895.39,900.63,901.90,902.57,902.40,901.43,899.60,897.15,895.04,894.76,896.38,898.31,900.44,902.59,902.61,897.90,893.19,892.13,893.69,896.83,899.85,901.95,902.68,902.07,900.08,896.88,892.88,887.26,879.51,872.55,867.33,864.25,863.35,863.90,864.51,866.01,868.20,870.94,875.94,881.43,886.31,890.15,893.63,897.58,901.57,905.52,909.77,915.24,920.29,924.93,929.73,935.81,941.77,946.73,949.46,947.92,944.67,939.97,934.89,931.29,930.70,934.08,938.77,942.10,940.45,933.90,924.34,913.67,904.45,895.35,884.84,874.02,864.80,859.18,858.64,862.44,869.30,875.49,881.91,888.71,895.55,901.98,909.00,917.31,923.62,925.02,921.43,917.05,912.24,907.13,902.00,896.62,890.18,881.94,871.67,863.06,863.13,867.66,873.84,879.13,887.35,895.75,903.53,910.90,919.19,926.35,933.07,940.29,948.67,956.98,965.35,974.21,984.09,992.88,1000.34,1007.47,1015.16,1022.57,1028.90,1034.78,1040.79,1047.55,1052.14,1053.76,1052.75,1049.57,1045.94,1042.37,1038.21,1032.69,1025.80,1019.11,1013.05,1007.45,1001.41,993.42,987.32,982.40,976.87,970.68,965.50,962.49,962.03,962.63,964.00,965.79,967.52,968.08,965.68,960.69,955.22,951.74,953.77,957.84,962.38,967.13,971.86,971.04,966.88,960.71,953.87,951.29,954.20,960.51,967.71,970.00,967.18,963.12,959.97,959.07,956.43,951.57,944.13,934.25,925.80,917.98,911.07,905.70,903.31,906.43,912.83,919.94,925.63,930.88,935.56,940.53,946.56,954.15,962.27,971.33,979.95,985.03,989.20,991.71,993.19,994.30,995.70,996.84,998.04,999.41,1000.78
975.88,971.63,967.70,963.97,960.13,955.46,950.64,946.28,942.25,937.18,931.87,927.01,922.62,918.34,913.05,907.19,901.54,896.68,892.55,888.84,886.94,887.70,891.97,899.89,906.99,911.59,912.77,912.54,911.06,909.10,906.95,904.60,902.26,901.31,901.80,903.17,903.83,903.94,903.20,901.25,898.42,894.03,889.96,887.14,885.94,885.45,886.19,886.10,882.20,875.63,872.04,873.55,880.05,886.25,891.67,896.39,899.91,901.00,901.38,901.54,901.29,900.28,898.47,895.53,893.53,893.38,895.05,897.52,900.84,902.43,898.82,893.25,890.10,889.87,892.29,895.22,897.62,898.80,898.85,898.08,896.29,893.34,888.62,881.55,874.09,868.21,864.05,861.94,862.47,864.12,866.00,867.85,870.09,875.00,880.97,886.70,891.60,895.91,899.91,903.76,907.58,911.62,916.89,921.27,925.13,929.41,934.97,940.36,944.85,947.17,944.89,940.76,935.63,930.59,927.10,925.96,929.91,935.50,939.38,937.99,932.00,923.13,913.14,904.27,895.34,885.28,874.45,864.12,858.03,857.68,861.41,867.80,873.92,879.87,886.35,892.89,898.69,905.66,913.57,919.22,919.98,916.15,911.85,907.25,902.49,898.06,893.22,886.54,877.67,867.29,860.79,861.72,866.84,873.66,878.63,885.43,893.26,900.92,907.30,914.27,920.78,927.13,934.18,943.51,952.66,962.09,971.98,982.01,991.19,999.44,1007.54,1016.07,1023.82,1030.29,1036.23,1042.17,1048.42,1051.66,1052.13,1050.69,1048.17,1045.47,1042.68,1038.67,1032.58,1025.57,1019.13,1013.24,1007.48,1000.97,993.58,987.88,983.15,977.88,971.51,965.55,961.21,959.02,958.29,958.78,960.20,962.15,963.78,962.53,957.95,951.87,946.85,947.99,952.48,957.53,962.40,967.17,967.90,964.43,958.31,951.71,949.26,952.30,958.47,965.43,968.45,965.47,961.17,957.62,955.68,953.80,950.19,944.32,936.09,927.74,919.74,912.55,906.49,902.30,903.25,908.81,916.04,922.00,927.21,931.86,936.55,942.05,949.65,957.32,965.34,973.31,979.99,984.37,986.89,988.64,990.36,992.28,992.04,991.58,992.00,993.70
974.89,970.71,966.70,962.74,958.63,953.88,949.28,945.07,940.83,935.02,929.46,925.18,921.80,918.22,913.84,908.42,902.68,897.31,892.72,888.86,886.46,886.19,889.05,894.00,902.38,909.95,911.74,912.20,911.21,909.73,908.00,905.56,902.98,900.30,898.54,899.58,900.38,900.64,900.76,901.03,900.98,897.36,892.65,888.29,885.28,883.70,884.04,884.34,881.37,873.39,870.11,872.95,881.01,888.39,892.86,896.04,898.42,899.53,899.82,899.96,900.24,900.54,899.83,896.88,893.29,890.85,892.36,895.57,899.34,901.58,899.54,894.04,889.19,886.88,887.83,890.53,893.38,895.06,895.54,895.28,894.84,892.93,889.20,883.23,875.49,868.97,863.95,861.08,861.93,864.22,866.27,867.86,869.68,873.63,879.24,885.26,890.92,895.69,899.65,903.44,907.26,911.07,915.01,918.83,922.85,927.53,932.85,938.22,942.66,944.77,942.09,936.97,931.67,927.06,923.73,921.64,925.93,932.22,936.33,934.84,929.55,921.72,912.63,904.03,895.23,885.66,875.11,864.23,857.30,856.70,860.19,866.30,872.71,878.36,884.19,889.94,895.22,902.80,910.22,914.72,914.33,910.16,906.11,901.94,897.66,893.68,888.47,880.79,871.24,861.85,859.01,861.13,866.80,874.44,879.69,884.25,890.35,897.28,903.19,909.07,915.56,922.44,930.15,940.75,950.90,960.74,970.39,979.76,989.04,998.25,1007.69,1017.30,1025.42,1031.80,1037.56,1043.27,1048.85,1050.75,1050.22,1048.52,1046.68,1044.48,1041.97,1037.79,1031.16,1024.53,1018.80,1013.29,1007.32,1000.17,994.52,989.21,984.00,978.91,973.47,968.07,962.74,957.92,955.05,953.89,954.51,956.57,959.20,958.88,954.63,948.61,943.49,943.50,947.93,953.28,958.27,962.76,964.63,961.47,955.51,950.06,947.60,950.51,956.21,962.60,966.44,963.36,958.83,954.87,951.96,951.05,948.52,944.02,937.50,929.37,921.46,914.26,907.91,902.81,901.25,905.71,913.07,919.18,924.28,928.90,933.52,938.74,945.59,952.34,958.40,964.83,973.43,978.79,981.99,984.27,986.32,988.42,986.79,984.85,984.59,986.93
973.95,969.68,965.50,961.22,956.59,951.46,946.83,942.77,938.90,934.07,929.09,924.76,920.87,916.64,911.95,906.95,901.88,896.86,892.06,888.34,885.87,885.28,887.90,891.73,897.90,904.98,910.50,911.74,911.28,910.34,908.99,906.44,903.74,900.82,898.14,896.84,897.41,897.78,898.40,899.87,901.18,899.03,894.85,889.90,885.80,882.46,881.99,882.62,880.69,871.74,868.25,871.11,879.19,887.36,891.81,894.54,896.47,897.61,898.48,898.85,899.17,899.64,899.52,896.84,893.08,890.05,890.87,894.45,898.56,901.10,899.63,894.79,889.97,885.96,883.86,886.18,889.01,891.19,892.41,892.52,892.49,891.36,888.51,883.27,876.26,869.66,864.05,860.64,862.02,864.85,866.57,867.28,868.26,871.52,876.68,882.43,887.92,892.42,896.03,899.30,902.63,906.47,910.86,915.22,919.75,924.80,930.23,935.83,940.38,942.35,939.26,933.48,928.34,924.26,920.91,918.95,922.94,929.14,933.74,932.73,927.57,920.37,912.12,903.39,894.43,885.27,875.30,864.56,856.75,855.51,858.44,864.27,871.38,876.33,880.75,885.56,891.69,900.16,907.78,911.48,909.55,905.06,901.09,897.37,893.52,888.88,882.50,874.15,865.55,859.33,858.55,861.94,868.63,877.54,885.15,890.31,894.42,898.04,901.41,906.28,912.81,920.28,929.09,941.39,951.78,961.28,970.66,980.33,990.23,999.94,1009.57,1019.05,1026.78,1032.75,1038.34,1043.78,1047.88,1048.86,1048.02,1046.40,1044.76,1042.82,1039.91,1035.58,1029.67,1023.76,1017.89,1011.72,1005.15,998.45,993.64,988.56,983.24,978.37,973.71,969.03,963.80,958.38,954.77,952.13,950.88,951.18,953.08,954.02,951.25,946.31,941.53,940.84,944.85,950.32,955.91,961.04,962.87,959.69,953.94,948.87,945.91,948.36,953.79,960.25,964.68,961.29,955.75,950.91,948.52,948.02,946.70,943.62,938.11,930.61,924.08,917.50,910.45,903.68,900.46,903.89,910.78,916.83,921.83,925.83,929.73,934.64,942.20,948.99,954.24,958.60,963.43,968.88,974.31,978.62,980.91,982.11,980.46,978.79,978.46,979.76
974.07,969.89,965.50,960.74,955.47,949.93,944.62,939.99,936.11,932.18,927.96,923.85,919.78,915.41,910.65,905.68,900.77,896.04,891.26,887.65,885.44,885.17,887.98,891.60,896.06,902.20,909.84,911.19,910.82,909.97,908.68,906.69,904.28,901.51,898.38,895.25,895.03,895.55,896.73,898.78,900.68,899.55,895.95,890.79,885.79,881.38,880.42,881.30,880.04,870.37,866.13,868.66,876.84,885.19,889.97,892.71,894.40,895.61,896.86,897.45,897.74,898.07,898.23,895.89,892.34,889.29,889.89,893.77,898.07,900.62,899.29,895.26,891.04,886.11,881.44,882.11,884.28,886.42,887.99,888.62,889.18,888.96,887.13,882.77,876.58,870.01,864.08,860.28,861.47,864.71,865.75,865.13,865.35,868.63,873.81,879.37,884.45,888.59,891.78,894.65,897.76,901.98,907.10,912.22,917.36,922.76,928.60,934.26,938.32,939.42,935.83,930.33,925.63,921.84,918.38,916.40,920.20,926.40,931.36,930.54,925.45,918.84,911.35,902.43,893.84,884.93,875.22,864.73,855.85,853.90,856.45,862.15,869.42,873.76,877.39,881.88,888.82,897.91,905.49,908.29,904.93,900.30,896.44,892.77,888.68,883.28,876.17,868.12,861.14,857.72,858.51,863.37,871.12,880.77,889.75,895.90,899.38,901.31,903.29,907.17,913.28,920.54,929.55,944.00,954.04,963.02,972.58,982.73,993.11,1002.62,1011.68,1020.60,1027.92,1033.64,1038.83,1043.57,1046.72,1046.98,1045.90,1044.32,1042.69,1040.81,1037.73,1033.52,1028.27,1022.46,1016.29,1009.47,1002.41,996.52,991.96,986.88,981.52,976.66,972.20,967.49,962.58,957.85,954.21,951.00,948.53,947.29,948.13,949.39,948.09,944.65,940.45,939.17,942.72,948.22,954.31,960.06,961.70,958.37,952.54,947.20,944.02,946.32,951.56,957.95,962.95,959.43,953.30,947.82,945.32,944.75,944.62,942.99,938.30,931.17,925.23,919.01,911.81,904.30,899.83,902.21,908.44,914.22,918.82,922.23,926.20,931.90,939.40,945.72,950.19,952.99,954.93,959.58,965.26,969.95,972.24,973.21,972.77,972.29,972.33,972.97
975.59,971.71,967.07,961.75,955.86,949.99,943.45,937.54,932.97,929.38,925.88,922.32,918.66,914.77,910.35,904.99,899.64,894.98,890.46,886.90,885.21,885.87,889.14,893.29,897.47,902.88,909.86,910.37,909.49,908.14,906.63,905.92,904.43,902.05,898.80,894.84,893.27,893.95,895.74,897.88,899.71,898.96,895.79,890.69,884.94,880.36,879.41,880.43,879.44,869.27,863.83,865.76,874.26,882.12,887.41,890.53,892.29,893.66,895.00,895.70,895.90,895.86,896.08,894.18,891.00,888.23,889.27,893.43,897.67,899.99,898.60,895.42,892.09,887.22,881.12,878.90,879.57,880.91,882.22,883.52,884.98,885.79,885.13,881.99,876.46,869.98,863.98,859.90,860.15,863.62,863.77,861.63,861.22,865.00,870.69,876.29,880.88,884.70,887.63,890.46,893.88,898.86,904.67,910.48,916.16,921.88,928.27,933.70,936.58,935.97,931.86,927.50,923.44,919.59,915.93,913.65,917.51,923.93,929.03,928.01,923.02,916.95,910.08,901.12,893.52,884.76,874.93,864.66,854.61,851.94,854.31,860.08,866.86,870.91,874.61,879.47,886.85,896.21,903.22,904.90,900.35,895.71,891.96,887.87,882.93,876.93,869.81,863.09,858.18,856.76,858.95,865.37,873.95,883.46,892.20,899.14,903.54,906.23,908.64,911.81,917.05,923.39,931.96,948.23,957.49,966.00,976.14,986.78,997.22,1005.86,1013.72,1021.89,1028.92,1034.59,1039.15,1042.73,1045.54,1045.25,1043.86,1042.24,1040.54,1038.57,1035.71,1031.94,1027.03,1020.62,1014.20,1006.99,999.68,994.74,989.86,984.60,979.26,974.28,969.46,964.01,959.46,956.34,953.25,950.48,947.64,945.32,944.86,945.28,945.13,943.42,940.02,938.23,941.36,946.82,953.22,959.43,960.89,957.33,951.06,944.89,941.83,944.30,949.42,955.53,961.10,957.79,951.70,945.95,942.44,941.38,942.27,942.03,938.03,930.92,924.52,918.27,911.63,904.52,899.20,900.51,905.91,911.21,915.17,918.38,923.41,930.82,936.99,942.10,945.57,947.59,948.91,952.09,955.68,958.77,960.84,962.44,963.96,965.09,965.81,966.62
978.86,974.92,970.31,965.09,959.31,953.58,947.22,940.58,934.31,929.73,925.98,922.45,918.53,913.51,908.62,903.36,898.28,893.87,890.00,886.34,884.91,886.40,890.46,895.47,901.52,907.06,909.67,908.05,905.60,903.38,902.03,902.59,903.11,902.00,899.01,894.54,891.85,892.28,894.18,896.23,897.96,897.42,894.67,889.92,883.87,879.33,878.60,879.95,879.27,868.91,862.42,863.08,870.44,877.56,882.97,887.10,890.24,892.33,893.95,894.48,894.05,893.16,893.44,892.46,889.66,886.77,888.75,892.86,896.61,898.77,898.19,895.52,892.71,889.19,884.70,880.49,878.32,877.52,877.79,879.23,881.10,882.35,882.68,881.23,876.09,869.78,863.80,859.49,859.26,862.43,862.79,860.68,859.16,861.51,867.36,873.28,877.49,881.03,884.92,889.19,894.13,900.36,906.41,911.83,917.06,922.64,928.77,933.62,935.19,933.05,928.93,924.82,920.60,916.30,912.29,910.26,914.49,920.94,925.70,924.84,920.02,913.91,907.15,899.33,892.73,884.25,874.54,864.61,854.14,850.59,852.58,858.52,865.08,869.86,874.04,878.92,886.16,895.53,901.04,901.14,895.98,890.94,886.25,881.77,877.06,871.27,864.64,859.33,856.45,857.26,861.26,868.30,876.24,884.09,891.39,897.92,903.32,907.87,912.10,916.82,921.65,929.16,940.85,952.78,961.75,970.73,980.85,991.70,1000.87,1008.52,1015.82,1023.60,1030.34,1035.90,1040.07,1042.65,1043.87,1042.89,1041.34,1039.80,1038.36,1036.77,1034.29,1030.88,1026.24,1019.85,1013.50,1006.43,999.36,994.74,989.09,983.80,979.06,974.68,970.38,965.58,961.29,958.13,956.08,953.73,950.05,945.67,942.41,941.64,941.63,940.93,938.87,936.80,939.66,945.10,951.86,958.78,959.96,955.90,949.17,942.55,938.89,941.04,945.99,952.18,958.45,956.03,950.38,944.53,940.55,939.13,940.01,940.14,936.71,929.70,923.22,917.23,911.17,904.40,898.94,899.22,903.28,907.88,912.29,917.32,923.20,929.38,933.43,937.01,939.53,941.49,944.20,947.43,950.46,953.12,955.25,956.73,957.08,957.34,958.09,959.76
981.25,977.26,972.86,967.98,962.56,957.19,951.39,944.61,937.30,931.91,927.51,923.60,919.32,913.52,908.00,902.52,897.44,893.15,889.50,885.69,884.46,886.60,891.17,896.70,904.01,909.40,908.33,905.13,901.91,899.37,898.19,899.41,901.22,901.19,898.80,894.27,890.85,890.78,892.35,894.09,895.81,895.78,893.61,889.15,882.79,878.30,877.79,879.45,879.16,869.21,861.83,860.70,866.13,872.77,878.07,882.76,887.14,890.87,892.88,893.42,892.73,891.19,890.94,890.92,888.59,885.41,887.90,891.82,895.09,897.14,897.49,895.63,893.35,891.07,888.36,883.85,879.13,876.00,874.83,875.57,877.26,878.63,879.64,879.63,875.28,869.33,863.41,858.96,858.44,861.41,862.15,860.30,857.86,858.92,864.22,869.99,874.36,878.81,884.06,889.94,896.29,902.90,908.72,913.62,918.39,923.75,929.34,933.13,933.51,930.44,926.26,921.97,917.40,912.66,908.39,906.69,911.21,917.68,922.17,921.31,916.45,910.13,903.33,896.42,890.47,882.69,873.72,864.40,854.24,849.54,850.88,857.20,863.72,869.06,873.59,878.51,885.67,894.69,898.72,897.51,891.94,886.26,880.90,876.12,871.51,865.97,860.26,856.50,855.45,857.98,863.20,870.01,876.80,883.00,888.85,894.73,900.67,906.59,912.38,918.71,925.91,936.16,949.41,957.80,966.50,975.89,985.92,996.35,1004.10,1010.97,1018.00,1025.48,1031.77,1037.04,1040.61,1042.02,1041.73,1040.31,1038.68,1037.22,1036.03,1034.91,1033.06,1030.15,1025.80,1019.95,1013.88,1007.32,1000.99,996.69,990.77,985.47,981.02,977.07,973.18,969.23,965.43,962.26,960.53,957.88,952.97,946.80,942.00,940.04,939.35,938.60,937.08,935.29,938.05,943.35,950.00,956.77,957.99,953.96,947.25,940.58,936.27,938.17,943.00,948.96,955.05,954.11,949.36,943.45,939.06,937.11,937.79,938.09,935.13,928.48,922.03,916.23,910.62,904.14,898.74,898.00,900.82,905.38,910.79,916.95,922.45,926.32,928.50,931.15,933.69,936.52,940.78,944.20,947.03,949.50,951.43,952.06,950.63,949.87,950.88,953.32
981.45,977.61,973.60,969.23,964.33,959.51,954.36,948.18,941.26,935.86,930.51,925.74,921.15,915.70,909.62,903.29,897.60,893.12,888.89,884.88,883.84,886.28,890.78,896.17,903.02,907.53,905.22,901.85,899.43,897.55,896.38,897.30,898.79,899.24,897.89,894.01,890.46,889.61,890.28,891.48,893.29,894.31,892.96,888.61,881.75,877.26,876.89,878.76,878.97,870.37,862.29,858.83,861.54,868.15,873.12,877.46,882.41,888.88,891.44,892.46,892.23,890.53,888.84,889.58,887.83,884.28,886.46,890.13,893.09,895.11,896.22,895.70,894.16,892.44,890.75,888.21,881.96,876.75,873.80,872.67,873.46,874.57,875.84,876.69,873.88,868.54,862.75,858.22,857.58,860.68,861.71,859.96,857.04,857.75,861.56,866.39,871.70,878.85,885.59,892.75,899.91,905.41,910.43,914.94,919.57,924.77,929.64,931.84,931.25,928.10,923.58,918.79,913.85,908.89,904.55,903.08,907.68,914.16,918.63,917.40,912.15,905.57,898.70,891.98,886.09,879.54,872.14,863.89,855.00,848.77,849.13,856.02,862.71,868.02,872.61,877.73,885.01,893.21,896.16,894.20,888.29,881.70,876.29,871.36,866.38,861.01,856.75,854.78,855.23,858.53,863.85,869.44,874.87,880.00,884.85,890.12,895.91,902.12,908.75,916.32,929.73,944.04,955.15,963.39,971.77,981.15,991.15,1000.23,1006.76,1013.28,1020.31,1027.44,1033.01,1037.64,1040.19,1040.18,1039.01,1037.56,1035.99,1034.52,1033.46,1032.82,1031.82,1029.65,1025.77,1021.08,1015.49,1009.88,1004.89,1001.11,995.87,990.54,985.74,981.78,977.88,974.53,971.59,968.88,966.14,962.04,955.51,948.46,944.62,941.61,939.36,937.11,934.72,933.86,936.73,941.64,947.44,952.69,954.44,951.35,945.43,939.18,934.35,936.29,941.06,946.26,950.79,952.01,948.71,942.75,937.87,935.12,935.60,936.10,933.56,927.71,921.29,915.46,910.04,903.79,898.50,896.77,898.74,904.29,911.10,916.58,919.81,920.81,921.79,924.67,928.71,933.57,938.99,942.30,945.01,947.27,948.44,947.39,944.35,943.19,944.92,947.70
978.40,975.47,971.94,968.04,964.03,959.67,954.47,948.95,943.55,938.61,932.65,927.11,922.07,916.85,911.30,904.87,898.82,894.09,889.64,885.33,883.67,885.33,889.46,894.56,900.11,903.46,901.78,899.55,897.68,895.99,894.53,894.02,894.16,894.86,895.28,893.77,890.57,888.75,888.38,889.32,891.22,892.81,891.96,887.82,880.84,876.16,875.66,877.61,878.57,872.26,864.30,858.84,858.42,863.68,868.46,872.93,877.99,884.66,889.51,891.49,891.49,890.01,887.02,887.23,885.71,882.63,884.36,888.58,891.59,893.32,894.66,895.29,894.43,893.08,891.72,889.94,883.66,877.73,873.50,870.69,870.35,871.02,872.20,873.38,872.65,868.07,862.30,857.55,856.83,859.93,861.19,859.60,856.34,856.98,860.49,865.13,870.88,879.65,887.04,894.19,900.92,905.74,910.39,914.74,919.27,924.31,928.91,930.20,928.68,924.90,920.16,915.15,910.28,905.61,901.50,900.15,904.64,910.78,914.74,913.15,907.69,901.31,894.91,888.36,881.83,875.37,869.10,862.91,855.53,847.99,847.34,854.44,860.90,867.00,872.23,877.35,883.76,891.25,893.58,890.92,883.95,875.53,868.28,863.11,859.46,855.89,853.69,853.80,855.70,859.07,863.84,868.89,873.87,878.70,883.52,888.89,894.91,902.25,912.51,925.97,939.50,950.96,959.60,968.46,976.95,986.37,996.05,1003.29,1009.30,1015.74,1022.54,1028.92,1033.50,1036.26,1037.38,1037.00,1036.09,1034.83,1033.33,1031.80,1030.60,1030.06,1029.44,1027.98,1025.21,1021.82,1017.53,1012.95,1008.59,1004.91,1000.70,996.03,991.58,988.03,984.74,981.40,978.06,974.57,970.29,963.90,957.20,951.45,947.92,944.73,941.69,938.40,934.98,933.04,935.48,939.83,944.82,949.53,951.56,949.00,943.64,937.74,932.32,933.43,937.88,943.23,947.37,949.93,947.70,941.98,936.70,933.03,933.06,934.02,932.88,928.06,921.41,915.30,909.90,903.61,898.10,896.00,897.63,903.08,909.79,913.61,915.05,915.00,915.63,919.87,925.26,931.02,937.17,941.07,943.84,945.45,945.30,943.43,940.17,938.50,939.35,941.78
973.23,970.82,967.92,964.84,961.92,958.03,953.03,948.32,944.29,939.69,933.43,927.51,922.26,917.28,912.46,906.26,900.07,895.06,890.48,885.77,883.26,883.98,887.96,892.82,897.30,899.83,898.90,897.67,896.13,894.49,892.79,891.11,890.15,890.84,892.51,893.13,890.56,887.92,886.60,887.28,889.24,891.19,890.60,886.58,879.90,875.17,874.42,876.28,877.86,873.79,867.07,860.52,856.75,859.56,863.77,868.35,873.44,879.87,886.69,889.98,890.48,888.83,885.01,884.53,883.27,881.03,882.61,887.46,890.58,892.02,893.34,894.65,894.33,893.27,892.07,890.65,885.18,879.26,874.13,869.99,868.51,868.26,868.73,869.82,870.81,867.06,861.57,856.87,856.13,859.23,860.69,859.18,855.46,856.07,859.74,864.60,870.62,879.96,887.33,893.92,899.85,904.25,908.68,913.06,917.67,922.63,927.04,927.61,925.37,921.22,916.46,911.56,907.03,902.77,898.91,897.59,901.85,907.55,910.93,908.75,902.97,896.52,890.22,883.71,876.92,870.78,865.53,860.90,854.66,846.41,845.32,852.81,859.04,866.02,871.78,876.63,881.92,888.44,890.27,887.10,879.17,869.24,860.53,855.20,852.87,851.43,851.49,853.42,856.32,859.59,863.90,868.71,873.57,878.42,883.54,889.34,897.05,907.35,921.34,937.56,948.90,957.03,964.27,973.29,982.13,991.48,1000.42,1006.20,1012.08,1018.20,1024.29,1029.59,1032.71,1033.62,1033.60,1033.24,1032.77,1031.97,1030.63,1028.99,1027.59,1027.04,1026.67,1025.86,1024.23,1022.21,1019.51,1016.13,1012.30,1008.55,1005.05,1001.11,997.18,994.00,991.17,987.67,983.41,978.50,973.22,965.85,959.64,955.17,951.73,948.09,944.18,939.96,935.59,932.18,933.86,937.63,942.06,946.55,948.85,946.93,942.21,936.45,930.66,930.37,933.85,939.27,943.58,947.40,946.36,941.24,935.63,931.14,930.49,931.74,932.29,928.87,922.36,915.97,910.23,903.58,897.89,895.26,896.18,900.99,906.81,909.08,909.50,909.54,910.73,916.24,922.52,928.68,935.21,939.94,942.74,943.62,942.28,939.58,936.32,934.21,934.09,936.26
965.17,961.99,959.99,958.54,956.89,953.61,949.82,946.19,942.56,937.69,931.65,926.16,921.36,916.69,912.34,906.67,900.72,895.44,890.69,885.40,882.02,882.08,886.60,891.41,895.90,898.51,897.52,896.15,894.58,892.96,891.33,889.79,888.85,889.15,890.44,891.60,889.97,887.02,884.93,885.25,887.22,889.34,888.60,884.45,878.81,874.43,873.40,874.82,876.55,874.07,870.63,864.80,857.48,856.20,858.90,863.17,868.43,875.17,882.14,887.28,888.95,886.11,882.41,881.70,880.91,879.88,882.01,887.25,890.42,891.68,892.75,893.82,893.71,892.92,891.83,890.64,886.94,881.88,876.40,871.67,869.16,866.96,865.55,865.94,867.47,864.66,860.12,856.12,855.42,858.65,860.29,858.62,854.08,854.57,858.78,864.28,870.48,878.67,885.09,890.61,895.62,899.96,904.27,908.99,914.04,919.07,923.21,923.02,920.60,916.98,912.57,908.38,904.46,900.60,896.86,895.43,899.29,904.58,907.50,904.25,897.75,890.36,882.99,876.20,870.48,865.87,861.61,856.84,850.76,843.02,842.82,851.25,857.54,865.11,870.82,874.91,879.11,883.97,885.31,882.06,873.86,863.70,855.43,850.26,848.13,848.59,850.98,853.89,856.87,860.07,864.50,869.32,874.27,879.41,884.99,891.52,904.03,920.94,937.06,946.16,953.81,961.79,970.25,977.93,987.35,996.36,1003.80,1009.27,1015.42,1020.60,1025.01,1028.66,1029.48,1029.25,1029.03,1029.00,1028.67,1028.81,1027.86,1026.02,1024.43,1023.81,1023.67,1023.39,1022.67,1022.01,1021.09,1019.18,1016.11,1012.21,1008.55,1005.01,1001.58,998.31,995.31,991.60,986.02,979.05,974.33,969.39,964.31,959.72,956.28,951.00,945.62,940.44,935.44,930.89,931.39,934.61,939.02,943.38,946.15,945.39,941.57,935.55,929.95,927.43,928.69,933.46,938.47,943.88,944.55,940.62,934.81,929.79,928.06,929.09,931.33,930.04,924.67,918.15,911.36,903.85,898.23,894.33,893.35,897.02,901.00,902.60,903.52,905.13,908.45,914.26,920.47,926.59,932.92,938.61,941.29,941.51,939.59,935.51,931.94,929.64,929.26,931.83
955.81,953.32,952.04,951.24,950.24,948.01,946.00,943.61,939.94,934.06,928.76,923.91,919.19,914.25,909.32,904.08,899.03,894.49,889.83,884.37,880.91,881.13,886.01,891.02,895.14,897.21,896.11,894.88,893.45,891.94,890.41,888.82,887.54,887.59,888.70,889.70,888.42,885.32,882.86,883.00,884.95,887.00,886.28,882.39,877.34,872.99,871.78,872.98,874.81,874.13,872.08,867.07,859.34,854.57,856.15,860.20,865.42,872.23,879.71,885.47,887.46,884.49,880.84,879.69,878.89,878.40,880.84,886.14,889.67,891.30,892.25,893.15,893.04,892.36,891.43,890.38,887.09,883.08,878.98,875.00,871.96,868.62,865.23,862.84,863.61,861.98,858.48,854.83,854.61,857.87,859.30,857.22,852.12,852.87,857.48,863.21,869.08,875.83,881.55,886.45,890.89,895.45,900.93,906.38,911.50,915.95,918.85,918.29,915.93,912.67,909.05,905.41,901.65,897.73,894.10,893.01,897.33,902.37,904.20,900.82,893.63,885.16,876.95,870.61,865.65,860.78,855.68,850.21,843.97,838.00,839.43,848.82,856.70,864.23,869.65,873.14,875.64,878.98,880.27,878.26,871.86,861.80,853.34,847.52,845.07,847.44,850.70,853.91,857.03,860.47,865.26,870.15,875.07,880.20,886.00,893.73,910.91,931.75,944.12,951.65,959.11,967.16,975.44,983.00,992.31,1000.51,1006.87,1012.40,1017.90,1021.89,1024.37,1025.28,1024.42,1023.31,1022.92,1023.48,1024.28,1025.34,1025.05,1023.49,1021.61,1021.31,1021.73,1022.22,1022.52,1022.77,1022.53,1021.30,1019.00,1015.79,1012.04,1008.68,1005.52,1002.12,998.72,994.53,989.09,982.95,978.74,974.41,969.59,964.75,960.50,954.59,948.38,942.44,936.92,931.34,929.72,931.55,935.79,940.34,943.51,943.90,941.02,934.65,929.15,925.34,925.30,929.68,935.16,941.30,943.09,940.11,934.06,928.91,925.76,925.34,927.75,929.23,926.07,920.60,913.75,905.50,899.43,894.92,892.42,893.14,895.58,898.44,901.27,904.15,907.85,913.13,918.91,924.80,930.71,936.30,938.78,938.15,934.74,930.83,927.58,925.26,924.65,927.64
946.44,944.78,943.80,943.06,942.31,941.11,940.63,939.32,935.88,929.79,925.37,921.24,916.73,911.54,905.81,900.85,896.68,892.91,888.18,882.90,879.84,880.58,886.06,891.17,894.59,895.81,894.57,893.67,892.45,891.09,889.66,888.01,886.41,886.13,886.94,887.59,886.64,883.60,880.92,880.74,882.64,884.38,883.67,880.20,875.53,871.40,870.18,871.18,872.97,873.84,872.53,868.37,861.18,853.50,854.32,858.25,863.35,870.18,877.97,883.83,886.14,883.93,880.29,878.51,877.32,876.89,879.46,884.46,888.49,890.85,891.73,892.48,892.31,891.71,890.96,890.01,886.99,884.02,881.45,878.51,875.22,871.16,866.13,860.93,859.84,858.71,856.14,853.14,853.68,856.94,857.94,855.42,850.26,851.12,855.86,861.58,867.02,872.33,877.47,882.05,886.41,891.59,898.27,904.28,909.30,912.97,914.17,913.12,910.93,908.20,905.48,902.32,898.59,894.57,891.11,890.69,895.53,900.34,901.24,897.95,890.74,881.88,873.21,866.93,861.45,855.50,849.19,842.83,836.24,832.53,835.71,845.63,854.96,861.87,866.70,869.75,871.16,873.63,875.20,874.48,869.82,860.13,851.28,844.91,842.54,846.59,850.37,853.77,857.06,860.75,865.96,870.95,875.78,880.82,886.98,896.77,917.46,939.84,947.45,955.11,963.34,971.67,979.68,987.25,995.91,1003.30,1009.12,1014.78,1019.46,1022.19,1022.81,1021.17,1019.05,1017.31,1016.80,1017.86,1019.94,1021.88,1022.16,1020.76,1018.55,1019.06,1020.34,1021.64,1022.75,1023.64,1023.81,1023.01,1021.31,1018.94,1015.41,1012.18,1009.13,1005.67,1001.85,997.19,992.31,987.69,983.81,979.44,974.56,969.39,964.13,957.99,951.31,944.87,939.02,932.81,929.11,929.13,932.54,937.30,940.97,942.46,940.48,933.88,928.33,923.69,922.72,926.63,932.48,939.00,941.74,939.75,933.48,928.24,923.81,921.65,923.24,926.80,926.21,922.63,916.55,907.94,901.23,896.23,892.44,890.14,891.25,895.59,900.29,904.01,907.50,911.97,917.25,922.93,928.45,933.57,935.69,934.31,929.71,926.27,923.35,921.10,920.60,924.39
