912.99,911.47,909.61,907.30,904.52,901.42,897.01,892.46,888.06,882.82,877.61,872.64,868.39,865.67,863.06,861.33,859.85,858.47,858.78,866.43,874.84,880.44,881.38,881.42,880.94,880.24,879.56,878.90,878.32,877.37,875.86,874.06,871.57,868.28,864.80,862.52,862.55,863.18,863.99,864.71,864.54,864.24,863.96,863.53,862.41,860.87,857.03,854.85,858.05,853.70,848.85,844.86,841.75,839.47,844.71,852.90,860.42,863.81,867.15,870.86,874.63,877.97,880.37,881.50,881.38,880.47,880.18,880.18,880.14,880.01,879.44,876.58,871.88,867.07,862.73,857.86,855.91,857.19,861.23,867.12,870.64,872.86,874.60,875.77,874.60,872.10,868.74,864.17,857.27,849.59,841.09,830.83,818.31,810.66,808.09,808.74,811.70,815.47,815.99,818.19,824.93,837.58,843.11,846.74,850.51,855.03,859.85,864.69,869.07,872.82,876.14,879.25,880.18,878.62,874.48,869.39,863.10,855.96,848.32,840.95,833.67,827.56,822.47,817.30,811.46,807.15,804.23,802.25,800.57,799.68,799.56,800.96,805.57,809.46,812.70,815.75,819.21,823.13,827.35,831.76,836.76,843.92,855.67,864.06,868.25,873.07,879.96,886.43,891.74,896.07,901.93,908.16,915.01,922.84,931.70,938.80,943.40,946.17,947.93,948.61,949.43,950.38,951.02,950.41,948.26,944.95,942.37,944.77,950.35,956.92,963.33,968.17,968.45,965.90,963.37,962.90,966.56,970.72,974.84,978.98,983.46,988.26,992.62,995.89,996.79,993.23,989.69,986.51,984.20,984.37,988.39,992.00,991.93,985.59,977.42,970.24,963.51,957.15,951.95,945.61,938.39,931.53,926.94,922.98,919.68,917.27,916.02,915.24,913.94,912.29,909.83,905.35,901.23,898.06,897.16,900.69,908.10,909.20,905.09,898.11,893.84,896.53,901.45,907.04,913.58,919.87,923.87,926.33,927.65,927.16,925.34,922.80,919.70,915.79,910.85,905.88,900.77,895.13,889.66,884.62,880.43,877.85,877.86,878.78,881.17,884.95,890.03,897.23,903.17,907.44,910.06,911.49,912.71,914.12,915.90,918.14
905.82,904.59,903.30,901.82,900.12,898.23,895.47,892.39,889.01,884.58,879.69,874.33,869.52,867.01,864.51,862.26,860.16,858.33,857.83,863.11,871.31,878.91,880.49,880.59,879.76,878.57,877.57,877.13,876.80,876.12,874.81,873.00,870.60,867.09,863.28,861.12,861.38,862.21,863.10,863.78,863.57,863.27,863.00,862.61,861.55,859.08,854.99,851.93,852.29,849.07,845.60,842.00,839.09,840.36,846.70,854.05,860.20,863.54,866.76,870.03,873.42,876.82,879.47,880.89,881.01,880.12,879.19,878.54,878.26,878.19,877.98,876.74,873.43,869.10,864.16,858.45,855.21,854.93,857.33,861.89,865.43,868.32,871.16,873.88,874.64,873.28,870.76,866.76,859.64,851.37,843.48,835.26,825.51,817.08,811.16,808.10,808.46,811.71,813.31,816.75,823.42,833.17,839.37,842.94,846.14,850.63,855.69,860.51,864.94,869.05,873.12,876.47,877.75,876.68,872.88,867.78,860.45,851.79,842.58,834.20,827.36,822.06,817.74,813.28,808.24,804.12,801.14,799.29,798.01,798.47,800.32,803.63,808.60,812.03,814.81,817.68,821.33,825.74,829.64,833.56,838.32,845.02,854.66,861.84,865.86,869.67,875.60,882.32,889.07,895.56,902.20,909.29,917.03,925.21,932.59,937.20,939.40,940.44,941.62,942.07,943.01,944.24,945.17,944.70,942.28,939.38,938.51,944.14,950.76,956.79,961.32,963.11,961.60,958.53,956.52,957.22,961.57,966.07,970.57,975.15,979.93,984.81,989.49,993.25,994.64,991.43,987.87,984.36,981.46,981.01,984.87,989.37,990.49,984.70,977.07,970.19,963.93,957.91,951.59,945.18,938.49,932.05,927.02,922.67,918.35,914.58,912.01,910.37,909.15,908.05,906.78,904.64,900.89,897.06,895.65,899.40,905.39,905.88,902.13,896.05,891.73,893.85,898.74,904.56,910.67,917.24,921.47,924.07,925.57,925.33,924.72,923.52,921.50,918.47,913.70,908.47,902.97,897.07,891.75,886.08,881.13,877.85,876.60,877.51,880.09,884.05,889.62,897.12,901.93,904.93,907.46,909.80,911.46,913.23,915.49,918.24
898.19,897.26,896.46,895.61,894.66,893.61,892.13,890.31,887.99,884.75,880.85,875.85,870.94,868.29,865.82,863.17,860.59,858.38,856.88,859.59,867.23,876.53,878.88,879.26,878.17,876.50,875.22,875.08,875.15,874.82,873.78,872.09,869.68,865.92,861.87,859.99,860.56,861.53,862.34,862.80,862.58,862.24,861.93,861.42,859.94,856.19,851.81,847.93,845.43,843.72,841.60,839.14,837.99,842.72,849.45,855.57,860.32,863.51,866.62,869.41,872.37,875.72,878.46,880.18,880.73,880.11,878.63,877.23,876.39,875.99,875.73,875.53,873.95,870.77,865.77,859.31,855.02,853.18,853.69,856.70,860.03,863.38,866.99,870.90,873.62,873.76,872.31,869.00,862.09,853.69,845.96,838.99,832.02,824.00,815.67,809.22,806.54,808.19,810.81,815.00,820.68,827.21,834.06,838.06,841.12,845.50,850.66,855.70,860.31,864.73,869.79,873.51,875.46,875.22,871.89,866.93,859.09,849.45,839.00,829.64,822.85,817.79,813.67,809.50,805.10,801.23,798.33,796.87,796.56,798.36,801.98,806.93,811.68,814.65,817.42,820.61,824.47,828.92,832.35,835.66,839.98,846.31,854.27,860.65,864.83,868.08,872.84,879.37,887.10,895.34,902.62,910.31,918.49,926.38,931.66,933.58,933.83,933.84,934.83,935.58,936.77,938.08,938.94,938.46,936.02,934.38,936.06,944.10,951.04,955.81,957.97,956.84,954.13,950.77,949.46,951.64,956.78,961.66,966.60,971.66,976.70,981.68,986.69,990.86,992.64,989.74,986.02,982.25,979.09,978.17,981.49,986.47,988.70,983.90,976.90,970.18,964.12,958.25,951.09,944.52,938.49,932.82,927.52,923.17,918.46,913.74,909.77,907.20,905.13,903.54,902.72,902.92,900.09,896.01,894.10,897.67,902.00,902.13,898.99,893.86,889.73,891.17,895.99,902.18,908.02,914.47,918.99,921.87,923.29,922.68,922.99,923.13,922.40,920.35,916.01,910.60,904.62,898.47,893.61,887.60,881.91,877.77,875.39,876.39,879.09,883.03,888.84,896.03,899.64,901.67,904.49,907.87,910.25,912.52,915.04,917.55
891.84,891.64,891.27,890.48,889.54,888.53,887.29,885.77,883.85,881.46,879.45,876.64,873.13,869.80,867.10,864.30,861.49,858.79,856.15,857.54,864.06,872.81,875.75,876.66,875.64,873.81,872.49,872.70,873.32,873.41,872.61,871.24,868.73,864.93,861.04,859.47,860.43,861.36,861.79,861.76,861.53,861.08,860.60,859.58,856.62,851.60,846.63,842.32,838.99,836.77,835.77,837.46,842.28,847.46,852.54,857.14,860.98,863.77,866.81,869.11,871.48,874.57,877.24,879.26,880.33,880.30,879.11,877.37,875.61,874.07,872.97,872.52,872.62,871.75,868.22,860.56,855.70,852.35,850.72,852.71,855.42,858.18,861.80,866.86,871.23,873.22,872.91,870.16,864.67,857.24,849.46,842.05,835.31,828.53,821.10,813.93,808.18,805.50,807.61,811.95,817.09,822.24,827.76,832.16,836.01,840.26,845.47,851.01,855.89,860.41,866.41,870.97,873.78,874.39,871.68,866.85,859.31,850.23,840.31,830.27,822.25,816.07,811.03,806.19,801.81,798.34,796.01,795.44,797.44,800.19,804.24,809.47,814.08,817.42,821.60,826.39,830.56,834.07,836.77,839.16,842.47,849.59,857.65,863.46,867.08,870.92,875.49,881.62,888.86,896.69,904.32,911.68,918.82,924.93,927.74,928.32,927.95,927.77,928.92,930.20,931.07,931.56,931.63,930.88,929.13,930.22,935.32,943.52,949.66,952.11,951.75,949.44,946.10,942.08,941.37,945.56,951.95,957.49,962.89,968.31,973.49,978.84,984.13,988.67,990.88,987.83,983.75,980.20,977.63,976.59,978.94,983.55,986.33,982.92,976.66,969.63,962.67,956.16,950.26,942.91,936.70,931.93,927.89,924.45,920.90,916.60,911.73,908.66,904.46,900.68,898.63,899.25,897.48,894.17,892.28,894.86,898.18,898.70,896.36,891.83,888.10,888.91,893.52,900.00,905.81,911.33,916.29,919.83,920.98,920.04,920.42,921.33,921.83,920.58,916.88,911.39,905.02,898.76,894.32,888.51,882.41,877.28,874.37,874.90,877.21,881.01,887.09,892.76,895.45,897.69,901.73,905.74,909.26,911.95,913.67,914.19
889.94,888.08,886.48,885.05,884.10,883.46,882.71,881.80,880.67,879.20,877.94,876.25,873.93,870.91,868.07,865.35,862.69,859.97,856.96,856.40,860.17,867.25,873.03,874.69,873.64,871.63,870.31,870.95,871.77,871.99,871.28,869.75,867.30,864.03,860.50,858.16,859.51,860.61,860.88,860.61,860.45,859.50,858.43,856.98,853.66,848.68,843.33,838.11,833.87,833.77,836.57,841.29,847.00,851.07,855.09,858.89,862.01,863.76,866.05,868.23,870.69,873.75,876.55,878.68,879.89,880.06,879.14,877.63,875.79,873.92,872.35,871.23,870.63,870.21,868.65,862.69,857.45,853.11,850.12,849.97,851.62,854.32,857.99,862.89,868.40,871.68,872.52,870.89,866.98,860.92,853.58,846.15,839.83,833.93,826.40,817.94,809.94,805.36,805.93,809.21,813.66,818.18,822.95,827.61,832.11,836.64,841.93,848.37,854.43,859.67,864.80,869.41,872.37,873.15,870.80,865.78,858.46,849.87,840.37,830.18,820.67,813.29,807.86,803.17,798.61,795.60,794.51,795.78,798.69,802.00,806.04,810.92,816.09,820.89,826.15,831.51,835.88,839.12,841.61,844.96,850.69,859.35,865.92,870.74,874.43,877.73,881.77,886.80,892.68,899.24,905.82,911.84,917.00,920.73,922.07,922.18,921.94,921.85,922.36,923.40,924.05,924.39,924.59,924.67,924.86,927.93,934.12,941.29,945.42,945.66,943.33,939.52,935.03,931.70,932.64,938.75,946.52,953.20,959.34,965.11,970.38,975.76,981.12,985.91,988.58,985.60,981.67,978.18,975.73,975.21,977.50,981.77,984.64,982.25,976.64,969.79,962.82,956.41,951.16,943.17,935.93,930.40,926.40,922.71,919.33,915.73,911.76,908.69,904.25,900.26,897.55,895.94,893.51,890.87,889.78,892.18,895.47,896.40,894.75,890.85,886.91,887.13,891.34,897.80,903.93,909.25,913.94,917.47,918.88,917.52,917.74,919.13,920.57,919.93,916.33,910.98,904.81,898.72,894.49,888.84,882.58,876.82,873.02,872.43,874.40,878.36,883.79,888.30,891.38,894.96,900.30,904.48,907.90,909.57,909.36,908.24
889.92,885.95,882.79,880.53,879.49,879.12,878.80,878.46,878.06,877.37,876.42,875.34,873.90,871.53,868.74,866.19,863.78,861.22,858.17,855.63,856.60,862.09,870.76,873.05,871.99,869.89,868.50,869.40,870.26,870.52,869.85,867.98,865.59,862.88,859.75,856.62,858.24,859.55,859.82,859.41,859.36,857.95,856.27,854.42,851.29,846.72,841.01,834.81,829.94,832.39,838.92,845.63,850.58,853.50,856.97,860.25,862.51,862.93,864.68,867.12,869.98,873.12,876.05,878.14,879.22,879.28,878.56,877.44,875.95,874.26,872.57,870.84,868.93,868.01,867.81,864.67,859.59,854.73,850.84,848.37,848.59,851.09,854.71,859.02,865.01,869.59,871.75,871.28,868.75,864.06,857.52,850.44,844.36,839.01,831.21,821.65,812.02,806.35,804.85,806.62,810.43,814.62,818.88,823.59,828.57,833.66,839.13,846.49,853.91,860.05,863.92,868.14,870.79,871.29,868.94,863.69,856.62,848.41,839.13,828.95,818.42,810.33,804.84,800.37,795.48,793.14,793.59,796.52,799.68,803.49,807.65,812.27,818.01,824.06,829.96,835.46,840.13,843.68,846.76,851.76,860.20,870.19,875.25,879.19,882.98,885.36,888.68,892.46,896.69,901.53,906.35,910.87,914.12,915.62,915.86,915.68,915.60,915.47,915.01,915.31,915.63,915.98,916.63,918.26,921.00,925.75,932.05,937.74,939.58,937.87,934.00,928.99,923.64,921.43,924.11,931.80,940.68,948.61,955.68,961.98,967.39,972.63,977.99,982.99,985.98,983.21,979.56,976.05,973.48,973.54,976.16,980.24,983.13,981.72,976.67,970.12,963.39,957.25,952.39,944.21,936.17,929.74,925.49,921.26,917.71,914.68,911.94,909.04,905.10,901.51,898.27,893.94,890.06,887.51,887.06,889.68,893.25,894.63,893.56,890.08,885.49,885.31,889.26,895.70,902.30,907.69,911.98,915.26,916.82,915.04,914.88,916.45,918.65,918.67,915.16,910.02,904.23,898.47,894.32,888.90,882.72,876.59,871.73,869.96,871.57,875.55,880.06,883.58,887.77,893.16,899.41,903.51,906.12,906.28,904.13,901.64
890.70,886.17,882.38,879.54,878.10,877.26,876.84,876.52,876.17,875.66,875.02,874.10,872.79,870.99,868.77,866.45,864.13,861.73,858.82,854.98,855.07,860.61,869.52,871.78,870.88,868.97,867.37,867.70,868.50,868.90,868.28,866.05,863.51,860.80,857.90,855.30,856.69,858.21,858.72,858.22,858.30,857.08,855.21,853.04,850.46,845.98,839.65,832.88,828.44,831.56,838.14,844.70,849.71,853.32,857.24,859.96,860.75,859.60,862.42,865.97,869.42,872.65,875.60,877.35,877.80,877.20,876.44,875.53,874.79,874.05,872.94,871.36,869.08,866.80,865.26,865.11,861.67,857.30,853.00,849.13,847.13,848.33,851.43,855.42,860.25,866.91,870.95,871.01,869.04,865.16,860.08,854.07,847.36,841.86,834.50,825.20,815.09,807.95,803.86,804.18,807.74,811.57,815.47,819.72,824.76,830.82,836.75,844.64,852.84,859.73,863.30,866.68,868.33,867.80,864.59,859.38,852.71,844.66,835.08,824.70,815.10,808.02,803.01,797.94,792.49,791.54,793.54,796.35,799.28,803.90,809.19,814.64,820.13,825.31,830.71,836.29,841.70,846.70,852.45,859.05,866.87,876.52,882.00,886.00,889.24,890.76,893.20,895.97,898.78,901.46,903.80,907.55,910.29,910.88,910.09,909.09,908.27,907.33,905.76,904.56,904.06,904.10,905.22,909.50,915.21,921.52,927.64,931.83,931.94,928.95,924.43,919.53,914.98,913.62,917.06,925.24,934.18,943.15,951.54,958.93,964.71,969.51,975.02,980.18,983.00,980.69,977.13,973.45,970.61,970.57,973.77,978.10,981.39,981.23,976.65,970.16,963.34,957.15,952.53,945.50,938.59,932.90,928.90,924.70,920.98,917.79,915.05,912.33,909.00,905.39,901.30,895.90,890.10,885.81,884.51,887.60,891.33,893.21,892.52,888.74,882.74,882.80,887.17,893.91,901.13,906.54,910.95,913.98,914.66,912.55,911.46,912.62,915.31,916.37,913.64,908.74,903.09,897.87,893.67,888.77,883.15,877.02,871.10,868.77,869.82,873.06,876.77,879.48,885.58,892.91,898.74,902.46,903.31,902.17,899.53,896.07
891.84,887.35,883.14,879.70,877.84,876.48,875.42,874.72,874.35,873.93,873.46,872.71,871.66,870.27,868.18,865.96,863.76,861.44,858.46,854.31,854.13,859.20,866.83,869.56,869.30,867.75,866.19,866.05,866.72,867.19,866.65,864.42,861.98,859.07,855.96,853.79,855.13,856.90,857.65,857.08,857.14,856.29,854.63,852.47,850.18,845.73,839.32,832.44,827.75,829.55,834.65,840.64,846.39,851.06,855.04,856.95,856.96,856.54,860.53,864.94,869.06,872.82,875.42,875.97,875.59,874.87,874.16,873.41,873.03,872.77,872.14,870.98,868.97,866.39,863.92,863.35,861.85,859.36,855.77,850.83,847.29,846.79,848.71,852.50,856.96,863.80,868.88,870.35,868.52,865.29,861.17,855.86,848.90,843.06,835.86,826.92,817.10,809.96,804.86,803.18,804.81,808.78,812.89,816.95,821.60,827.51,834.12,842.30,850.60,857.70,861.84,864.36,864.92,863.54,859.95,854.91,848.10,839.99,830.86,821.54,813.05,806.54,801.54,796.42,791.08,790.51,792.96,796.09,799.39,805.46,812.09,818.11,823.20,827.85,832.67,837.84,843.61,850.46,857.34,864.02,870.94,879.38,884.55,888.31,891.15,892.25,893.75,895.25,896.79,898.51,900.06,902.83,904.79,904.90,903.55,902.11,900.39,898.05,894.81,892.41,892.14,893.53,896.87,903.53,910.56,917.02,922.17,924.60,923.88,920.90,916.72,912.03,907.51,906.97,911.63,920.92,929.96,939.13,948.40,956.93,963.04,967.51,972.31,976.95,979.69,977.40,973.92,970.23,967.44,967.86,971.65,976.26,979.93,980.65,976.46,970.52,963.99,957.66,953.03,947.20,941.62,936.88,933.13,929.23,925.73,922.56,919.61,916.70,912.29,907.49,902.50,896.57,889.87,884.41,882.10,884.95,889.58,891.94,891.10,886.80,880.87,880.86,885.32,892.38,900.01,905.61,910.15,912.84,912.54,910.21,908.86,910.02,913.11,914.75,912.46,907.87,902.39,897.12,892.75,887.89,882.41,876.37,870.34,867.66,868.51,871.84,875.90,879.17,885.70,893.01,898.07,900.39,900.03,898.14,894.98,890.43
893.26,889.04,884.57,880.58,878.19,876.32,874.45,873.16,872.63,872.17,871.73,871.17,870.48,869.49,867.33,865.11,862.94,860.54,857.24,853.33,853.21,857.62,863.70,866.91,867.35,866.24,864.87,864.41,864.95,865.47,865.12,863.11,860.81,857.55,854.03,852.26,853.67,855.66,856.60,855.97,855.95,855.53,854.27,852.31,850.16,845.79,839.77,833.20,827.85,827.10,830.03,835.13,841.49,847.26,850.79,851.95,852.02,853.70,859.01,864.12,868.88,873.27,875.01,874.08,872.94,872.38,871.77,871.20,870.98,870.88,870.52,869.78,868.24,865.98,863.22,860.87,860.71,860.35,858.18,852.75,848.29,845.98,846.40,850.02,854.56,860.56,866.08,869.20,867.50,864.80,861.28,856.44,849.64,843.47,836.27,827.71,818.56,812.17,806.92,803.12,802.04,806.20,810.76,814.81,818.89,824.02,831.20,839.53,847.63,854.62,859.55,861.51,861.16,859.11,855.45,850.50,843.25,835.05,826.84,819.00,811.49,805.24,800.13,795.33,790.36,789.78,792.30,796.10,800.27,807.91,815.67,821.88,826.65,831.20,835.58,840.13,845.82,854.31,861.21,867.11,873.12,880.09,884.57,887.94,890.42,891.11,891.57,891.78,892.35,893.85,895.66,897.61,898.88,898.87,897.16,895.16,892.25,888.27,883.47,880.51,881.24,884.89,891.18,899.58,906.75,912.41,916.13,916.71,915.61,913.19,909.82,905.63,901.11,901.52,907.64,918.24,927.43,936.45,946.23,955.62,961.98,966.14,969.84,973.53,976.10,973.72,970.22,966.56,963.99,965.19,969.69,974.62,978.51,979.73,975.98,970.82,964.82,958.45,953.58,948.62,944.04,939.92,936.17,932.77,929.72,926.73,923.58,920.28,914.27,908.02,902.27,896.18,889.33,883.20,879.94,882.21,887.74,890.51,889.36,884.55,879.46,879.39,883.79,891.02,898.85,904.82,909.48,911.69,910.32,907.73,906.67,908.18,911.50,913.45,911.53,907.29,901.96,896.39,891.69,886.52,880.91,875.06,869.46,866.66,867.67,871.63,876.76,881.44,887.39,893.29,897.15,897.62,896.48,894.18,890.51,885.08
895.13,890.96,886.50,882.16,878.82,876.50,874.35,872.52,871.21,870.41,869.72,869.26,869.04,868.78,866.73,864.31,861.77,858.77,854.72,851.18,851.20,855.44,862.12,864.70,865.03,864.26,863.04,862.69,863.26,864.00,864.13,862.38,859.83,856.05,852.25,851.09,852.59,854.60,855.56,854.90,854.76,854.77,853.94,852.19,850.17,846.13,841.21,835.66,829.69,825.50,826.56,830.14,835.07,841.55,843.49,844.63,846.77,851.01,858.03,863.87,869.03,873.46,872.91,871.35,870.22,869.69,869.21,868.97,868.90,868.76,868.23,867.22,865.60,863.87,862.21,860.29,858.47,858.09,857.73,853.73,849.32,845.54,844.48,847.82,852.38,857.76,863.06,866.80,866.14,863.81,860.51,856.16,850.28,844.16,836.99,828.71,820.18,814.41,808.95,803.65,800.55,803.99,808.71,812.82,816.54,820.89,827.67,836.09,844.23,851.02,855.79,858.32,857.99,855.63,852.00,846.46,838.75,830.87,823.77,816.30,808.89,802.90,798.31,794.01,789.05,789.12,792.62,797.33,803.05,811.35,818.94,824.60,829.57,834.82,839.42,843.55,848.36,856.67,862.67,867.59,872.99,879.23,883.39,886.47,888.35,887.76,886.65,886.22,886.73,888.41,891.04,893.20,894.90,895.52,893.20,889.19,884.20,878.84,874.13,872.56,875.13,880.99,889.38,897.46,903.64,907.85,909.82,908.84,907.24,904.79,902.04,899.53,896.74,898.73,906.10,917.43,926.64,936.01,945.78,954.91,961.22,964.80,967.70,970.40,972.08,970.16,966.31,962.36,960.00,962.03,967.75,973.02,976.62,977.59,974.63,970.09,964.74,958.93,953.44,947.93,942.62,937.50,932.79,930.02,927.51,924.90,922.04,918.34,912.44,906.22,900.38,894.61,888.42,882.19,878.48,880.48,885.13,888.06,887.16,882.33,877.85,878.54,883.08,889.92,897.52,904.14,908.85,910.34,907.68,904.29,904.38,906.60,909.66,911.75,910.78,906.91,901.57,896.06,890.60,884.75,879.02,873.62,868.39,866.05,867.80,872.80,879.28,885.91,890.55,893.60,895.16,894.26,892.72,890.21,886.35,881.19
897.13,892.99,888.59,884.07,880.00,877.20,874.75,872.44,870.30,868.52,867.34,866.83,866.96,867.48,866.43,864.24,861.59,858.41,853.56,849.67,848.97,852.25,858.88,861.92,862.72,862.34,861.41,860.92,861.57,862.59,863.08,861.55,858.72,854.80,851.08,850.11,851.71,853.63,854.49,853.80,853.53,853.73,853.26,851.87,850.03,846.42,842.45,838.02,832.42,826.37,824.66,826.07,829.91,835.52,837.67,839.91,843.58,849.22,857.73,864.19,869.42,873.38,870.98,868.84,867.63,867.11,866.75,866.73,866.57,866.19,865.60,864.52,862.80,861.32,860.43,859.36,856.92,855.87,855.84,854.04,850.18,845.72,843.42,845.59,850.16,855.45,860.69,864.65,864.70,862.58,859.57,855.78,850.74,845.07,838.21,830.31,822.10,816.13,810.66,804.70,800.14,801.75,805.94,810.09,813.88,817.99,824.36,832.36,840.16,846.84,851.78,854.82,855.16,853.31,849.59,843.71,835.50,827.49,820.73,813.04,805.57,799.89,795.83,791.93,787.49,788.94,793.82,799.18,806.01,813.99,820.73,825.61,830.22,835.71,840.41,844.37,848.79,855.91,861.38,866.16,871.52,877.68,882.04,884.71,885.60,884.22,882.00,880.76,880.88,882.62,885.46,888.46,891.15,892.33,889.24,883.49,877.16,871.30,867.18,866.78,871.14,878.90,888.46,895.57,900.44,903.11,903.62,902.01,900.31,898.11,895.80,894.03,893.25,897.36,905.81,917.02,926.34,936.22,946.07,954.75,960.32,963.31,965.16,966.61,967.42,965.99,962.28,958.30,956.16,959.26,965.72,971.22,974.52,974.88,972.47,968.44,963.61,958.16,952.19,946.09,939.99,934.20,929.46,926.62,924.02,921.33,918.36,914.41,909.30,903.88,898.55,893.38,887.41,881.12,877.12,878.68,882.89,885.64,884.87,880.46,876.42,877.74,882.42,889.07,896.71,903.53,907.70,908.17,904.54,901.30,902.57,905.29,907.96,909.98,909.27,905.72,900.63,895.24,889.46,883.21,877.25,871.84,866.48,864.92,867.75,873.87,881.39,888.36,891.64,892.64,892.50,890.71,888.71,886.02,882.33,877.94
899.36,895.21,890.86,886.29,881.76,878.34,875.56,872.84,869.91,866.77,864.78,864.07,864.45,865.69,866.20,864.66,862.23,859.24,853.77,848.95,846.76,848.24,853.90,858.38,860.26,860.40,859.86,858.96,859.75,861.10,861.86,860.50,857.50,853.76,850.40,849.25,850.97,852.73,853.38,852.66,852.27,852.47,852.27,851.32,849.71,846.67,843.49,840.10,835.61,828.90,823.96,822.93,826.18,830.15,833.88,837.88,842.54,848.73,858.15,865.02,869.99,873.03,869.63,866.85,865.25,864.55,864.33,864.46,864.06,863.34,862.74,861.80,860.06,858.60,858.06,857.89,855.90,853.99,853.15,853.57,850.68,846.16,842.82,843.30,847.86,853.47,858.87,862.86,863.19,861.25,858.65,855.48,851.13,846.14,839.84,832.38,824.30,817.54,812.19,806.26,800.80,799.80,802.71,806.70,810.80,815.17,821.28,828.55,835.76,842.28,847.67,851.10,852.53,851.73,847.75,841.56,832.89,824.49,817.44,809.16,801.67,796.30,792.61,789.02,786.02,789.33,795.63,801.36,808.65,815.52,821.02,825.07,828.88,833.99,838.56,842.62,847.10,852.55,857.84,863.19,869.09,875.78,880.63,882.77,882.45,880.59,877.72,875.66,875.19,876.88,879.69,883.85,887.62,889.04,885.15,878.10,871.12,865.42,862.10,862.57,868.56,877.76,887.62,893.63,897.10,898.31,897.66,896.01,894.30,892.38,890.34,888.92,890.65,897.07,906.28,916.81,926.28,936.72,946.66,954.73,959.07,961.36,961.99,962.13,962.18,961.16,957.99,954.28,952.45,956.73,963.44,968.96,971.90,971.42,969.30,965.85,961.49,956.21,949.99,943.41,936.80,930.88,926.85,923.47,920.20,916.89,913.43,909.37,905.36,901.16,896.79,892.37,886.17,879.82,875.70,876.64,881.00,883.38,882.57,878.78,875.25,877.06,881.90,888.51,896.38,902.97,906.19,905.51,901.26,898.86,901.15,904.13,906.32,908.12,907.24,903.98,899.33,894.07,888.29,881.85,875.60,869.84,864.08,863.49,867.53,874.64,882.71,888.75,890.75,890.48,889.27,886.88,884.26,881.38,878.17,875.01
902.35,898.04,893.69,889.16,884.39,879.99,876.84,873.83,870.33,866.40,862.83,861.48,862.15,863.76,865.14,864.73,863.08,860.27,855.13,849.53,845.28,843.77,846.97,853.21,856.86,857.92,857.58,856.24,857.20,859.03,860.23,859.00,856.17,852.85,849.85,848.47,850.35,851.93,852.30,851.50,850.99,851.21,851.16,850.41,849.00,846.96,844.51,841.84,838.27,830.48,823.66,821.30,824.37,828.96,833.56,838.66,844.50,851.43,859.91,866.45,870.69,872.15,869.98,866.50,863.47,861.68,861.54,862.03,861.73,860.79,859.80,859.02,857.46,856.05,855.47,855.56,854.38,852.50,850.97,851.16,849.88,845.48,841.28,841.00,845.36,851.46,857.33,861.43,861.62,860.24,858.20,855.56,851.86,847.49,841.69,834.70,826.86,819.40,813.98,808.60,803.19,799.74,800.01,802.84,806.99,812.05,818.27,825.33,832.04,838.01,843.53,847.35,849.73,849.67,844.97,837.42,828.70,820.50,813.09,804.23,797.13,791.88,787.89,784.68,785.71,790.88,797.43,803.27,809.43,814.71,819.13,822.80,826.07,829.60,833.69,838.17,842.76,847.46,852.67,858.85,866.27,874.14,879.10,880.66,879.37,876.45,873.24,871.18,870.78,872.67,876.68,881.59,885.15,885.61,881.31,873.65,866.43,860.90,858.06,859.47,866.66,876.17,885.13,891.17,893.59,893.83,892.60,890.14,887.15,884.32,882.48,883.43,889.99,897.81,906.76,916.74,926.18,937.01,946.46,953.38,956.71,957.51,957.21,956.74,956.36,955.49,952.69,949.65,948.69,953.59,960.32,965.19,967.15,965.78,963.67,961.41,958.03,952.99,946.85,940.24,934.08,928.94,925.40,921.83,917.37,912.68,908.38,904.44,900.92,897.63,894.39,890.68,883.83,877.65,873.80,873.97,879.17,881.47,880.29,876.67,874.58,877.12,882.14,888.70,896.45,902.44,904.91,903.61,899.15,897.12,899.82,902.75,904.47,905.94,905.45,902.71,898.47,893.28,887.22,880.40,873.90,868.08,862.42,862.68,867.44,874.73,882.11,887.18,888.28,887.21,885.24,882.08,878.45,875.19,872.78,871.82
906.36,901.57,896.81,892.22,887.70,882.67,878.85,875.20,871.11,866.57,861.88,859.70,860.05,861.87,863.65,864.33,863.64,861.21,857.14,851.16,845.49,841.62,841.38,846.87,852.15,855.21,855.20,853.34,853.85,855.65,857.33,856.92,854.63,851.63,848.77,847.42,849.66,851.09,851.21,850.37,849.59,849.81,849.75,848.96,847.70,846.24,844.41,842.44,839.74,832.31,823.95,820.35,823.66,829.07,834.40,840.28,847.01,854.68,862.12,867.73,871.08,871.71,870.45,866.78,862.66,859.55,859.10,859.71,859.75,858.92,857.34,856.15,854.70,853.43,852.87,853.28,852.71,850.98,849.08,848.84,848.15,844.17,840.00,839.42,843.44,849.63,855.83,860.19,860.04,858.92,857.32,855.45,853.11,849.18,843.59,836.88,829.32,821.64,816.10,811.13,806.08,801.16,798.78,799.76,803.23,808.66,815.18,822.20,828.65,834.35,839.99,844.23,846.87,846.88,842.03,833.18,824.22,816.10,808.57,799.95,792.32,786.80,783.30,781.84,786.34,792.40,798.20,803.21,808.27,812.60,816.44,819.84,822.72,825.24,828.74,833.26,838.37,843.39,849.47,856.66,864.79,872.84,877.05,877.75,875.73,872.23,869.11,867.30,867.19,869.53,874.45,879.93,883.13,882.31,876.84,869.74,863.01,857.43,854.34,856.72,864.75,874.09,881.74,887.06,888.38,887.64,885.70,882.66,879.33,877.29,877.33,881.05,890.55,898.84,907.27,916.70,926.06,936.86,945.51,951.16,953.48,953.03,951.93,950.95,950.18,948.99,946.57,944.67,945.13,950.59,956.84,960.53,961.21,959.09,956.96,955.57,953.39,949.49,944.02,937.61,931.96,927.54,924.37,920.91,915.58,909.87,905.10,901.03,897.32,894.06,891.05,887.35,880.88,875.31,871.83,871.73,876.75,878.60,877.10,873.92,873.99,877.33,882.60,889.22,896.87,902.25,903.70,901.50,896.71,894.68,897.74,900.97,902.72,903.91,903.91,901.70,897.78,892.65,886.38,879.23,872.43,866.49,861.12,861.90,867.03,874.32,881.15,885.33,885.79,884.16,881.40,876.99,873.18,870.66,869.81,871.05
910.79,905.62,900.26,895.55,891.66,886.47,881.68,877.04,872.28,867.21,862.02,858.87,858.22,860.00,861.83,863.42,863.71,861.97,859.52,853.71,847.61,842.31,837.94,839.82,846.04,851.92,852.67,850.37,849.76,850.91,853.07,854.17,852.80,849.96,847.01,846.10,848.79,850.13,850.10,849.32,848.10,848.24,848.02,846.98,845.79,844.43,843.00,841.55,839.45,833.79,824.40,819.88,823.91,829.98,835.92,842.29,849.52,857.81,864.41,868.66,871.07,871.74,870.75,867.39,862.74,858.32,857.09,857.49,858.07,857.69,855.45,853.30,851.82,850.78,850.34,851.20,850.95,849.36,847.39,846.85,845.63,842.36,839.14,838.63,842.25,848.05,854.29,858.93,858.38,857.14,855.75,854.84,854.53,851.04,845.49,838.89,831.64,824.26,818.53,813.73,809.09,803.84,799.25,797.85,799.80,805.16,812.10,819.19,825.65,831.45,837.22,841.89,844.08,843.43,838.81,829.06,819.74,811.57,804.21,796.57,787.60,781.59,779.53,781.11,787.69,793.46,797.69,801.05,805.23,809.37,813.13,816.38,819.11,821.50,824.62,828.98,834.99,841.36,849.06,857.17,864.92,871.84,874.43,873.98,871.50,868.01,865.24,863.78,864.19,867.32,872.62,878.39,881.16,878.91,871.86,866.39,860.69,854.79,850.88,854.20,862.61,871.39,877.56,881.13,881.31,879.65,876.98,873.89,871.59,872.26,875.77,882.26,892.16,900.06,907.87,916.68,925.88,936.12,943.75,948.16,949.45,948.16,946.36,944.85,943.71,941.86,939.83,939.40,941.72,947.67,952.97,955.14,954.49,951.81,949.64,948.65,947.76,945.89,941.73,935.87,930.70,926.80,923.90,920.77,915.13,909.02,904.14,899.69,895.21,891.14,887.35,882.95,877.89,873.19,869.99,870.01,873.77,874.78,873.09,870.77,873.43,877.56,883.13,890.01,897.60,902.41,902.50,899.05,893.81,891.50,894.84,898.68,900.97,902.05,902.56,900.83,897.18,892.11,885.76,878.40,871.28,865.08,860.04,861.04,866.20,873.41,879.99,883.45,883.51,881.51,877.89,872.06,869.03,868.37,869.72,872.91
910.97,908.63,904.77,900.36,896.24,890.90,885.47,880.00,874.45,868.75,863.11,859.06,857.15,857.87,860.00,861.89,862.82,862.32,860.59,856.29,851.06,845.08,837.82,834.90,838.90,845.53,849.02,847.46,845.74,845.83,848.07,850.45,850.19,847.54,844.58,844.84,847.15,848.58,848.97,848.52,847.24,846.66,845.97,844.91,843.75,842.47,840.61,838.14,834.75,829.16,821.66,819.33,824.86,831.25,837.45,843.87,851.05,859.49,865.40,868.94,870.80,871.22,870.67,867.34,862.44,857.47,855.05,855.05,856.01,856.19,853.91,851.22,849.54,848.50,848.12,849.24,849.23,847.76,845.61,844.27,842.90,840.53,838.30,838.04,841.58,846.99,852.55,856.56,856.18,854.68,853.05,852.33,853.13,851.62,847.09,840.95,834.04,827.12,821.13,815.94,811.15,806.16,801.52,798.08,797.78,802.58,809.79,817.11,823.70,829.58,835.49,840.29,842.06,840.19,833.74,824.20,815.54,808.08,801.29,793.53,784.97,779.87,779.28,782.65,788.23,792.68,795.93,798.57,801.38,805.15,809.04,812.62,815.91,819.13,823.86,829.91,836.72,844.54,852.00,859.17,865.88,870.81,871.63,870.09,867.23,863.77,860.14,858.92,860.58,865.27,870.84,875.89,877.16,873.66,868.34,863.96,858.05,851.57,848.18,851.97,859.69,867.49,872.72,874.20,873.82,872.50,870.67,868.90,868.55,871.12,876.69,885.26,894.15,901.68,908.97,916.79,925.48,934.37,941.02,944.77,945.03,943.23,940.75,938.67,937.35,935.63,933.70,934.13,937.68,943.48,947.92,949.56,948.66,945.79,943.56,942.85,942.66,942.14,940.11,935.90,931.74,928.36,925.75,922.58,917.73,912.03,906.43,901.91,897.23,892.48,887.78,883.13,878.14,873.09,869.14,868.29,871.50,871.87,870.39,869.40,873.24,877.62,883.50,890.85,898.49,902.23,901.09,896.88,891.59,889.22,892.00,895.50,898.03,899.93,900.92,899.61,896.35,891.51,885.21,877.86,870.54,863.98,858.87,860.00,864.98,871.71,877.92,881.23,881.24,878.73,874.22,869.58,867.31,867.62,870.39,874.90
907.14,907.21,905.38,902.24,898.72,894.27,889.11,883.37,877.10,870.67,864.66,859.89,856.70,855.88,857.95,860.07,861.55,862.05,861.16,858.38,854.06,847.84,838.90,831.74,831.89,836.71,841.50,841.77,839.93,839.10,840.75,844.27,845.46,843.97,842.03,843.51,845.33,846.72,847.54,847.58,846.48,845.34,844.24,843.12,841.90,840.01,837.23,833.66,829.24,823.74,819.07,819.47,826.02,832.57,838.87,845.18,852.04,859.92,864.77,867.73,869.35,869.70,869.47,866.00,861.23,856.50,853.26,852.62,853.69,854.57,853.14,850.25,848.11,846.61,845.92,846.96,847.41,846.27,844.01,842.10,840.75,838.92,837.28,837.28,840.83,846.01,850.96,854.25,854.00,852.25,850.21,849.46,851.38,851.76,848.61,843.20,836.51,829.80,823.55,817.92,812.77,807.94,803.64,799.11,797.08,800.65,807.88,815.30,822.09,828.21,834.07,838.71,839.61,836.27,828.30,819.16,811.45,804.75,798.24,790.60,783.33,779.18,779.12,783.39,787.74,791.25,794.23,797.01,799.36,803.31,807.52,811.41,815.30,819.84,826.00,833.29,840.84,848.84,855.37,861.26,866.59,869.25,868.46,865.93,862.45,858.33,854.47,853.77,856.64,862.91,868.71,872.75,872.83,868.95,865.20,860.84,854.77,848.45,845.58,849.63,856.78,863.74,868.20,868.72,868.09,867.09,866.07,865.67,867.47,871.54,878.41,888.36,896.14,903.14,909.90,916.78,924.30,931.77,937.67,941.10,940.73,938.29,935.19,932.55,930.88,929.27,927.88,929.11,933.25,938.54,942.18,943.68,943.08,940.40,937.91,936.85,936.75,937.17,937.23,935.40,932.93,930.45,928.06,924.87,920.85,915.86,910.08,905.29,900.30,895.06,889.78,884.90,879.79,874.24,869.25,866.79,868.93,868.76,867.98,868.77,873.15,877.57,883.84,891.73,899.13,901.65,899.56,895.05,890.04,887.45,889.31,892.25,894.92,897.36,898.93,898.19,895.43,890.95,884.90,877.69,870.22,863.23,858.09,859.00,863.53,869.69,875.40,878.48,878.40,875.71,871.09,867.73,866.27,867.27,870.85,876.18
898.68,899.46,899.67,898.99,897.52,895.45,891.89,886.71,879.98,872.80,866.62,861.37,857.01,854.29,855.58,857.95,859.92,860.87,861.28,859.61,855.91,849.89,840.81,830.72,825.68,825.50,828.67,831.78,831.26,829.95,830.38,834.79,837.82,838.89,839.47,842.02,843.46,844.64,845.72,846.36,845.67,844.45,843.10,841.77,840.30,836.79,832.67,828.41,823.97,819.10,817.73,820.60,827.26,833.86,840.12,846.21,852.42,858.80,862.02,864.38,866.10,866.78,866.57,862.93,858.77,855.19,851.85,850.34,851.13,852.84,853.29,850.71,847.79,845.25,843.70,844.18,845.41,844.89,842.76,840.74,839.50,837.64,836.00,836.18,839.79,844.97,849.60,852.36,851.99,850.07,847.50,846.61,849.88,851.57,849.94,845.54,838.92,832.00,825.57,819.60,814.02,808.94,804.88,800.58,797.84,799.47,806.37,813.61,820.63,827.26,832.82,836.88,836.26,831.28,822.96,814.14,807.45,801.29,794.55,787.81,782.58,778.94,778.00,782.23,786.12,789.63,793.23,797.17,800.57,805.45,810.20,814.24,818.54,824.75,831.50,838.75,846.85,853.13,858.32,862.97,866.56,866.88,864.76,861.40,856.96,851.31,848.50,848.75,852.52,860.08,866.05,869.01,868.75,865.69,862.17,856.50,850.70,845.67,842.94,847.02,854.11,860.62,864.44,865.73,865.16,864.07,863.29,864.00,867.93,873.13,880.53,890.98,897.96,904.18,910.31,916.36,921.97,928.16,933.63,937.11,936.65,933.37,929.74,926.61,924.24,922.45,922.27,924.33,928.32,932.74,935.68,937.34,937.48,935.51,932.52,930.30,929.55,930.46,932.19,933.34,933.40,932.36,930.15,927.17,923.67,919.57,914.65,909.22,903.63,898.09,892.71,887.55,882.33,876.46,870.42,865.73,865.79,865.14,865.64,868.68,873.09,877.40,884.16,892.61,899.30,900.54,897.96,893.71,889.28,886.17,886.80,889.12,891.91,894.29,896.54,896.56,894.47,890.52,884.92,878.01,870.40,862.95,857.93,858.10,861.87,867.44,872.51,875.02,874.71,872.40,868.83,866.07,865.48,867.04,870.75,876.35
891.56,891.66,891.80,891.64,891.39,891.32,889.82,886.09,880.14,874.08,868.44,863.00,857.93,854.15,853.40,854.79,856.72,858.35,860.06,859.65,856.76,851.25,842.98,831.79,823.31,818.53,817.68,819.73,820.17,820.42,822.13,826.73,830.81,833.81,836.62,840.56,842.21,843.41,844.54,845.28,844.88,843.72,842.31,840.54,837.61,832.98,828.25,823.83,819.68,815.73,816.76,821.23,827.92,835.11,841.24,846.62,851.56,856.03,858.27,860.05,861.62,862.58,862.28,859.77,856.75,853.77,850.54,848.33,848.78,850.74,852.10,851.03,848.25,844.94,842.21,841.90,843.04,843.07,841.64,839.62,838.06,836.20,834.53,834.36,838.06,843.05,847.54,850.33,849.96,847.37,844.34,843.50,847.44,850.27,849.38,845.57,839.49,832.65,826.29,820.30,814.61,809.37,805.26,800.78,797.64,798.71,805.17,812.22,819.35,826.27,831.80,834.37,832.41,826.71,818.46,810.44,804.03,797.75,791.13,786.31,782.17,778.33,776.62,781.27,786.46,791.28,795.93,800.66,805.01,809.63,814.14,818.47,823.32,829.81,837.08,844.44,851.08,856.33,860.64,863.91,865.42,864.16,860.74,856.27,851.45,847.17,844.79,845.64,850.09,857.93,863.55,866.54,866.49,863.46,859.28,853.29,847.77,843.31,840.77,844.51,851.39,857.89,861.81,863.14,862.48,861.03,860.35,863.33,868.99,874.77,882.16,892.55,899.05,904.45,909.45,914.13,918.57,923.84,928.98,932.44,931.71,928.49,924.93,921.34,917.80,915.31,915.27,917.75,921.86,925.40,928.06,930.09,930.95,929.67,927.06,924.67,923.51,924.14,926.31,928.45,930.05,930.71,929.76,927.92,925.01,921.57,917.62,912.06,906.08,900.01,894.07,888.45,882.35,876.36,870.77,866.15,863.77,862.38,863.65,868.11,872.73,877.03,884.03,892.52,898.14,898.97,896.55,892.70,888.56,885.19,884.00,885.28,888.52,892.00,894.64,895.37,894.03,890.31,885.13,878.41,870.72,862.96,857.71,857.16,860.19,865.08,869.44,871.44,871.23,869.54,866.89,864.50,864.53,866.49,870.33,876.28
885.13,884.32,883.88,883.59,883.83,884.62,884.31,882.01,877.83,873.92,869.61,864.48,859.11,854.73,851.82,851.80,853.38,855.63,858.16,858.75,856.85,852.39,845.37,833.74,822.93,814.59,809.76,809.03,809.56,811.11,814.06,818.52,823.20,827.65,832.31,837.74,840.78,842.41,843.48,844.22,844.09,843.05,841.67,839.52,834.94,829.24,824.05,819.57,815.87,813.64,816.29,821.49,828.04,835.67,841.63,846.26,849.94,852.74,854.41,855.88,857.36,858.50,857.97,856.48,854.47,852.00,849.14,846.44,846.46,848.37,850.32,850.89,848.70,845.06,841.33,839.76,840.48,840.93,840.36,838.78,836.93,834.99,833.23,832.61,835.86,840.47,844.82,847.84,848.01,844.91,841.59,840.77,844.79,848.13,847.89,844.83,839.47,832.80,826.60,820.69,814.97,809.61,805.32,800.31,796.79,797.92,804.04,811.01,818.17,825.17,830.81,832.06,828.93,822.69,814.73,807.53,800.87,794.31,788.30,784.93,781.32,777.48,775.73,780.93,787.54,793.55,799.02,804.32,809.40,813.76,817.93,822.31,827.39,833.99,841.63,848.98,854.29,858.70,862.16,864.05,863.65,861.10,856.51,851.39,846.79,843.93,841.80,843.24,848.30,856.04,861.32,864.47,864.80,861.96,857.11,850.91,845.40,841.03,838.57,842.16,848.77,855.11,859.02,859.95,858.73,857.46,858.12,863.61,870.30,876.23,883.32,893.12,898.97,903.51,907.46,911.06,914.89,919.50,924.15,927.25,926.19,923.17,919.59,915.42,910.77,907.46,907.56,910.35,914.56,917.88,920.58,922.93,924.32,923.72,921.59,919.25,917.63,917.42,919.22,921.60,924.22,926.40,927.01,926.67,924.82,922.35,919.35,913.86,907.55,900.82,894.06,887.98,881.38,875.53,870.41,865.86,862.14,860.35,862.02,867.24,872.12,876.39,883.26,891.39,896.21,897.21,895.16,891.67,887.77,884.21,881.56,881.89,885.44,890.10,893.04,894.32,893.64,890.15,885.36,878.88,871.19,863.22,857.62,856.22,858.52,862.87,866.58,868.10,867.92,866.72,864.87,862.88,863.31,865.77,870.13,876.33
879.41,878.03,877.06,876.35,875.91,875.39,874.14,872.78,871.74,871.13,869.36,865.52,860.51,856.05,851.44,849.75,850.60,853.21,855.56,856.49,855.85,853.38,848.04,836.39,824.71,814.84,807.47,802.51,801.46,802.59,805.23,809.26,813.98,819.19,825.07,831.94,838.55,841.36,842.31,843.11,843.30,842.38,841.15,838.87,832.96,826.02,820.20,815.60,812.55,813.54,816.67,821.23,827.28,834.73,840.47,844.60,847.44,849.24,850.92,852.62,854.29,855.42,854.41,852.96,851.34,849.57,847.46,844.63,844.09,845.62,848.05,849.84,848.68,845.57,841.40,837.74,837.70,838.35,838.61,838.32,836.59,834.42,832.40,831.38,833.09,836.96,841.05,844.39,846.21,843.27,839.96,839.01,842.19,844.79,845.47,843.73,839.18,832.76,826.76,820.95,815.21,809.77,805.13,799.13,795.06,796.84,802.85,810.00,817.13,823.89,829.73,830.53,826.48,819.61,812.21,805.61,797.94,791.14,786.61,783.09,779.29,776.33,776.07,781.84,789.14,795.35,800.86,806.46,811.88,816.59,820.67,824.46,829.08,836.16,843.84,850.92,856.26,859.88,862.25,862.88,861.13,857.46,852.04,847.36,843.94,841.00,839.11,841.30,846.89,854.33,859.57,862.58,863.34,861.39,856.38,849.65,843.56,838.68,836.08,840.12,846.38,852.00,855.22,855.22,852.57,852.82,857.52,865.31,871.75,877.25,883.69,892.05,896.77,900.39,903.78,907.24,911.26,915.55,919.31,921.38,919.92,916.87,912.72,907.75,902.33,898.19,899.07,902.21,906.31,910.85,914.02,916.43,918.01,918.09,916.13,913.82,911.48,909.68,910.02,912.17,915.21,918.34,920.62,922.00,922.16,921.43,919.33,914.07,907.45,899.86,892.03,885.65,879.76,874.44,868.99,863.25,860.68,859.38,860.96,865.96,871.12,875.30,881.38,888.55,893.38,895.30,893.71,890.44,886.78,883.07,880.02,879.90,883.24,888.61,891.81,893.34,893.00,889.95,885.52,879.43,871.96,863.88,857.84,855.24,856.87,861.06,864.28,865.34,864.86,863.75,862.50,861.13,861.60,864.86,870.58,876.76
873.48,872.19,870.97,869.69,868.30,866.90,865.75,865.15,865.28,865.84,865.94,864.55,861.71,857.59,851.92,848.61,848.31,850.73,852.54,853.54,853.78,852.87,849.35,840.05,829.29,819.07,810.38,802.76,799.76,799.29,800.32,802.67,805.59,810.59,817.20,824.14,832.66,838.35,841.26,842.02,842.36,841.81,840.89,838.45,831.24,822.91,816.39,812.25,811.00,813.09,816.01,819.49,824.13,831.04,837.23,841.68,844.47,846.05,847.90,849.79,851.52,852.56,851.59,849.98,848.23,846.55,845.04,843.04,841.98,842.55,845.18,847.65,847.53,845.29,841.43,837.35,835.15,834.73,835.43,836.17,836.01,834.30,832.00,830.33,830.44,832.50,835.88,839.96,843.19,842.14,838.86,836.79,839.47,841.97,843.21,842.30,838.57,832.70,826.92,821.10,815.30,809.88,804.70,797.57,792.97,795.59,801.48,808.71,815.94,822.56,827.83,827.61,823.13,816.50,809.77,804.15,796.17,788.68,783.72,779.97,776.12,775.29,778.00,783.34,789.91,795.85,801.38,807.00,812.33,817.14,821.32,824.98,829.11,835.68,842.97,850.07,856.13,859.96,861.48,860.65,857.30,852.73,847.88,843.86,840.72,838.01,837.16,840.18,845.99,852.92,858.03,861.28,862.18,860.00,854.33,847.66,841.39,836.19,833.80,838.83,844.60,848.32,849.16,849.34,848.43,851.51,858.90,866.77,872.39,876.92,882.25,889.41,893.88,896.68,899.83,903.97,908.11,912.37,915.54,916.70,914.53,910.90,906.02,899.56,892.03,887.64,889.61,893.48,897.74,902.85,906.19,909.29,912.08,913.45,912.01,908.93,905.58,902.98,902.54,904.07,907.02,910.71,914.21,916.79,918.14,918.66,917.88,913.68,907.26,899.71,892.10,886.15,880.68,874.88,868.56,862.31,859.24,858.14,859.76,864.30,869.31,873.57,878.84,885.14,891.12,893.70,892.43,889.17,885.22,881.26,878.05,878.03,881.67,887.08,890.55,892.38,892.36,889.73,885.53,880.00,873.03,865.04,858.54,854.52,855.22,859.15,862.24,862.81,861.73,860.35,859.64,859.82,861.81,865.86,871.48,876.94
866.79,865.94,864.74,863.10,860.95,859.03,858.13,858.00,858.47,859.32,860.58,861.43,861.05,857.95,852.22,847.99,846.55,847.99,849.15,850.13,850.99,851.31,849.64,843.36,834.71,825.40,816.37,806.72,801.13,798.35,797.51,797.91,798.94,803.02,809.43,816.20,825.79,834.28,839.59,840.82,841.32,841.13,840.26,837.52,830.03,820.90,813.72,809.78,810.02,812.15,814.50,816.85,820.04,826.24,833.13,838.22,841.27,843.05,845.03,847.02,848.76,849.75,848.98,847.20,845.21,843.43,842.24,841.20,839.83,839.55,842.26,845.10,846.12,844.87,841.38,837.33,833.07,831.32,832.04,833.60,835.11,834.14,831.84,829.65,828.42,828.50,830.83,835.19,839.36,840.86,838.07,834.82,836.43,838.91,840.64,840.54,837.80,832.63,826.99,821.12,815.31,810.01,804.26,796.19,791.06,794.03,799.98,807.08,814.43,821.25,825.75,824.32,819.41,813.09,807.05,802.22,794.24,786.10,780.22,776.33,773.55,775.24,780.46,785.08,790.56,796.07,801.52,806.99,812.06,816.82,821.02,824.66,828.42,834.18,840.87,847.88,854.58,858.86,859.74,857.60,852.86,847.85,843.85,840.42,837.34,834.98,835.56,839.48,845.39,851.85,856.77,860.11,860.68,857.64,851.53,845.25,839.05,833.76,831.84,837.75,842.49,843.66,841.75,842.53,844.80,851.12,860.36,867.44,872.23,875.87,880.06,885.78,889.73,892.01,895.40,900.59,905.12,909.48,912.28,912.66,909.46,904.73,898.78,890.63,880.88,876.57,879.61,884.34,889.09,894.79,898.45,902.19,905.91,908.30,907.50,903.86,899.81,896.85,896.12,897.14,899.78,903.53,907.68,911.10,913.47,915.13,915.64,912.92,906.97,899.87,892.99,887.72,882.53,876.21,869.16,862.51,858.26,856.86,858.31,862.44,867.18,871.54,876.13,881.65,888.59,891.95,890.93,887.53,883.22,878.99,875.91,876.31,880.34,885.45,889.22,891.37,891.63,889.28,885.35,880.48,874.14,866.38,859.43,854.15,853.64,856.88,860.14,860.38,858.77,857.27,857.44,859.34,862.74,867.09,871.85,876.11
857.97,858.03,857.41,856.08,854.07,852.29,851.22,850.77,850.91,851.46,852.35,853.63,854.79,854.47,851.15,848.17,845.90,844.49,844.97,845.89,846.98,848.00,848.06,844.65,839.96,834.35,826.79,815.58,805.76,799.60,797.41,796.15,796.82,798.83,802.59,809.77,819.47,828.84,835.88,839.22,840.11,840.00,838.28,834.85,830.18,822.16,814.49,809.49,809.03,810.08,811.39,812.91,815.39,820.68,828.40,834.27,837.78,840.30,842.19,844.00,845.72,846.91,846.34,844.53,842.43,840.50,839.04,838.44,837.33,837.06,839.74,842.57,844.95,844.76,841.14,836.86,832.25,829.58,829.36,831.37,833.39,833.38,831.96,829.97,828.20,826.88,827.48,830.34,834.26,838.63,837.76,834.01,832.58,834.59,836.94,838.06,836.82,832.56,826.83,820.85,815.21,810.22,804.06,795.79,790.06,791.74,798.27,804.67,812.15,820.06,823.85,821.22,815.37,808.77,803.36,798.36,790.65,782.50,776.02,772.36,773.94,778.10,782.98,786.97,791.64,796.65,801.77,806.85,811.62,815.93,819.77,823.28,827.11,832.13,837.91,844.22,850.66,855.21,855.84,853.06,847.79,843.61,839.91,836.63,833.77,831.88,834.31,839.21,845.27,851.55,856.13,858.79,857.86,853.13,847.67,842.23,836.51,831.64,830.63,836.56,838.75,836.56,832.41,833.99,840.75,850.35,860.15,865.94,870.36,873.93,877.30,880.60,882.35,884.98,889.71,896.33,902.13,906.70,909.50,909.45,904.45,897.64,889.75,879.85,868.94,865.19,868.87,874.50,880.48,887.51,892.26,895.82,898.69,900.61,900.49,897.73,894.20,891.45,891.32,892.63,894.68,897.31,900.72,904.45,908.10,911.02,912.38,911.56,906.46,900.18,894.37,889.85,884.75,878.77,871.95,864.59,858.72,855.65,856.20,860.32,864.89,869.21,873.57,878.51,884.67,889.41,888.59,884.81,880.45,875.98,873.70,874.91,879.11,883.55,887.64,890.19,890.59,888.16,884.73,880.64,875.10,867.80,860.42,854.60,852.28,853.59,857.57,858.06,856.43,855.61,857.70,860.95,864.06,867.18,870.16,872.44
849.61,850.15,850.17,849.76,848.95,847.60,846.54,845.82,845.42,845.28,845.59,846.35,847.39,848.24,847.25,846.36,845.42,844.16,843.33,842.58,842.59,843.36,843.79,840.51,837.29,834.55,831.00,824.00,814.31,805.10,798.60,796.20,795.32,796.28,799.45,805.85,815.27,825.13,832.95,836.87,838.04,838.54,837.25,834.24,830.90,824.50,817.57,811.99,809.45,808.98,809.08,809.77,811.72,816.19,824.35,831.04,835.34,838.25,840.06,841.54,843.05,844.37,844.07,842.34,840.22,838.17,836.46,835.75,834.78,834.75,837.60,840.55,843.53,843.94,840.56,836.03,831.34,828.30,827.78,830.39,832.28,832.74,832.03,830.38,828.34,825.68,825.17,827.44,830.67,835.85,836.47,833.32,830.02,830.83,833.07,834.86,834.89,831.99,826.58,820.67,815.13,810.24,803.95,795.67,789.65,790.45,796.38,802.81,810.49,818.40,821.53,817.65,811.68,805.71,800.47,795.09,786.70,778.24,772.51,771.31,774.94,779.77,784.34,788.27,792.58,797.32,802.25,807.05,811.42,814.99,818.13,821.27,825.15,829.87,835.16,840.83,846.50,850.53,850.56,847.60,842.82,839.08,835.51,832.37,830.20,830.33,834.01,839.44,845.52,851.38,855.60,856.36,853.90,848.88,843.79,838.96,833.83,829.54,829.09,834.44,835.11,831.21,826.01,828.52,837.42,847.94,857.36,863.33,867.78,871.33,874.10,875.84,876.87,879.86,885.27,892.48,898.60,902.91,905.06,904.12,898.11,889.84,880.13,869.85,860.79,857.74,860.96,866.79,873.85,881.75,887.03,890.71,893.34,894.75,894.64,891.98,888.34,885.32,885.40,887.00,889.07,891.41,894.25,897.52,901.11,904.45,906.87,907.71,904.09,899.38,895.01,891.04,886.14,880.34,873.76,866.48,859.55,855.19,854.64,858.06,862.36,866.36,870.30,874.75,880.51,885.85,886.19,882.98,877.95,873.09,871.11,872.41,876.31,880.53,884.63,887.71,888.89,887.12,884.09,880.39,875.46,868.92,861.64,855.40,851.63,851.11,854.46,855.26,854.00,853.64,856.28,859.35,862.29,865.68,869.40,872.50
842.02,842.53,843.04,843.68,844.32,843.75,842.91,842.03,841.16,840.39,840.03,839.91,840.11,840.86,841.60,843.07,844.26,844.13,842.58,840.43,839.21,839.05,838.53,834.30,831.10,830.05,830.76,829.88,822.64,811.93,801.36,797.41,794.58,794.76,797.82,803.14,812.07,822.06,830.15,834.21,835.68,836.94,836.60,834.47,831.81,827.29,821.67,815.87,811.08,808.79,807.57,807.47,809.04,813.00,821.52,828.91,833.77,836.59,838.08,839.21,840.54,841.96,841.94,840.32,838.21,836.10,834.18,833.12,832.26,832.64,835.81,839.04,842.19,842.84,839.76,835.05,830.28,827.10,826.56,829.79,831.49,832.16,831.94,830.60,828.26,824.53,823.31,825.41,828.17,833.23,834.92,832.75,828.36,827.36,828.97,831.11,832.26,830.91,826.09,820.40,814.98,810.05,803.84,795.71,789.56,789.57,794.34,801.13,808.98,816.26,818.69,813.83,808.18,803.13,797.84,791.70,782.43,774.01,769.97,771.71,775.96,780.52,784.84,789.10,793.36,797.99,802.74,807.21,811.01,813.80,816.26,818.97,822.73,827.39,832.50,837.66,842.36,845.42,844.69,841.73,837.79,834.30,830.90,828.16,827.09,829.73,834.28,840.00,845.98,851.28,854.80,853.35,849.51,844.68,839.88,835.52,831.06,827.46,827.30,832.08,832.06,827.42,821.67,824.87,834.67,844.97,853.55,860.11,864.68,868.16,870.46,871.29,872.46,875.94,881.68,888.94,894.89,898.72,899.83,897.64,890.75,881.54,870.81,861.09,854.63,852.10,854.60,860.27,867.95,876.22,881.99,886.14,888.92,889.84,888.99,885.98,882.06,878.77,879.08,881.01,883.37,885.78,888.24,890.83,893.89,897.30,900.67,902.71,900.75,897.82,895.00,891.65,886.96,881.23,874.88,868.05,860.45,855.07,853.28,855.50,859.55,863.28,866.92,871.03,876.51,882.07,883.89,881.68,875.95,870.75,868.50,869.38,872.76,876.81,880.86,884.50,886.75,886.15,883.40,879.88,875.50,869.86,862.99,856.40,851.43,849.23,851.39,852.36,851.71,851.89,854.71,857.33,860.50,864.78,869.94,874.70
836.51,835.76,836.14,837.33,838.73,839.74,839.51,838.80,838.05,837.53,836.45,835.68,835.00,833.80,834.05,837.50,840.28,840.04,841.01,841.07,840.17,838.08,834.06,829.28,824.73,822.34,824.17,827.18,823.93,816.76,807.82,800.08,795.70,794.40,795.89,800.81,809.10,818.48,826.60,831.62,833.66,835.41,835.78,834.50,832.45,829.99,825.79,820.42,814.96,810.41,807.67,806.88,808.49,812.92,822.12,829.62,833.82,835.29,835.55,836.45,838.00,839.56,839.66,838.09,836.06,834.02,832.05,830.54,829.97,831.05,834.65,838.56,841.55,841.89,838.74,833.99,828.85,825.42,824.94,828.60,830.87,831.58,831.29,830.01,826.84,822.88,821.42,823.39,827.26,832.12,834.06,832.50,827.88,824.03,824.36,826.55,828.62,828.78,824.84,819.67,814.48,809.38,803.55,795.90,789.67,788.56,792.03,799.22,806.99,813.11,814.63,809.81,804.75,800.32,794.85,786.90,777.52,770.92,769.86,772.67,776.17,779.92,784.09,789.12,793.82,798.45,802.89,806.74,809.44,811.75,814.09,816.63,819.61,824.40,829.81,834.90,838.59,840.37,838.86,835.77,832.30,829.00,826.32,824.95,825.77,830.16,835.16,840.91,846.72,851.32,852.88,850.02,845.31,840.24,835.95,831.84,828.18,825.44,825.15,830.30,830.96,826.56,820.25,822.95,832.87,842.61,850.08,856.31,860.75,863.92,865.92,866.83,868.89,873.28,879.21,885.87,891.41,894.69,894.45,890.36,881.85,872.50,863.54,855.66,849.74,846.81,849.34,854.69,861.54,869.11,876.13,881.52,884.92,885.39,882.10,878.40,874.65,871.85,873.09,875.54,878.14,880.65,883.14,885.50,888.45,891.98,895.58,897.45,896.75,895.33,893.80,891.64,887.02,881.19,875.03,868.78,861.04,854.97,851.66,852.01,856.08,860.29,864.31,868.47,873.50,879.16,882.04,880.86,875.33,870.19,866.50,866.16,868.96,872.31,876.61,880.75,884.05,885.32,882.58,879.14,875.32,870.65,864.39,857.53,851.65,848.25,849.37,849.88,850.00,851.46,855.35,858.99,863.69,868.74,873.78,878.70
834.76,832.18,830.81,830.98,832.92,835.15,835.97,835.85,835.27,834.98,833.61,832.27,830.97,829.28,828.96,831.48,833.59,833.69,836.43,837.56,837.03,834.80,830.49,825.19,820.33,817.72,819.49,823.83,823.23,818.40,810.50,802.11,796.43,793.75,794.43,799.72,807.04,815.76,824.15,830.30,832.46,834.35,834.99,834.17,832.78,831.31,827.98,823.10,817.29,811.36,807.44,805.90,807.38,812.60,821.81,829.23,833.23,833.77,832.82,833.51,835.25,836.82,836.82,835.39,833.48,831.44,829.39,827.87,828.27,830.63,834.71,838.80,840.95,840.46,837.14,832.61,826.87,823.10,822.76,826.86,830.05,831.03,830.09,827.41,823.70,820.60,820.04,822.63,827.44,831.74,833.38,831.97,827.36,822.18,820.60,821.64,824.00,824.96,822.37,818.32,813.70,808.62,803.17,796.08,789.87,787.78,790.34,797.50,805.05,810.32,810.78,805.94,800.92,796.34,790.74,783.67,774.90,769.38,769.98,772.92,775.84,778.81,782.46,787.86,793.31,798.29,802.52,805.68,807.91,809.83,811.88,814.23,817.06,821.49,826.77,831.72,834.66,835.23,832.99,829.65,826.36,823.63,821.92,822.32,825.30,831.04,836.39,841.90,847.14,850.83,850.57,846.73,841.33,835.70,831.58,827.68,824.34,822.19,822.90,828.78,829.91,825.74,819.26,821.36,831.35,840.87,847.52,852.68,856.57,859.24,861.13,862.84,865.80,870.26,875.77,881.84,887.07,889.64,888.03,882.58,874.00,865.34,857.75,850.71,844.51,842.00,844.76,849.66,855.50,862.34,869.48,876.13,881.13,882.39,877.97,873.14,868.83,865.93,866.75,869.30,872.50,875.64,878.14,880.44,883.48,887.17,890.89,892.49,892.50,892.06,891.44,889.99,885.76,880.38,874.79,869.14,861.85,855.49,851.03,849.62,852.55,856.78,861.30,865.92,870.92,876.80,880.44,879.95,874.55,869.17,864.78,863.29,864.93,868.23,872.74,877.77,882.12,883.82,881.33,878.54,875.44,871.36,865.65,858.69,852.21,847.79,847.60,847.99,849.39,852.23,856.65,860.78,865.76,870.72,875.27,879.46
835.86,831.36,827.53,825.65,827.23,829.87,831.99,832.86,832.55,832.44,831.11,829.34,827.64,826.44,825.64,825.73,825.94,826.39,829.70,830.93,830.74,829.50,826.85,821.45,817.09,815.03,816.24,820.69,821.70,818.05,810.41,803.32,796.56,792.77,793.23,799.19,805.65,813.86,822.63,829.85,831.85,833.59,834.21,833.53,832.73,831.54,828.74,824.35,818.50,811.76,806.97,804.57,805.55,811.59,820.41,827.81,832.16,832.27,830.35,830.67,832.38,833.85,833.62,832.25,830.39,828.32,826.27,825.42,827.28,831.02,835.37,839.16,840.07,838.55,835.08,830.85,824.62,820.60,820.46,824.94,829.17,830.42,828.45,823.67,819.85,818.20,819.15,822.80,828.25,831.78,832.77,831.18,826.71,821.38,817.81,816.98,818.75,819.79,818.67,816.08,812.42,807.75,802.77,796.19,790.05,787.17,789.20,795.99,803.16,807.89,807.40,802.42,797.08,792.01,786.54,781.69,773.85,768.81,770.01,772.62,775.15,777.51,780.48,785.78,792.00,797.54,801.74,804.26,806.47,808.09,809.75,811.94,815.09,819.05,823.97,828.60,830.67,829.98,827.10,823.59,820.50,818.55,818.14,820.47,825.53,832.27,837.86,842.87,847.14,849.55,847.87,843.46,837.60,831.38,827.09,823.27,819.90,818.19,820.67,827.19,828.44,824.46,818.30,819.98,830.04,839.48,845.49,849.21,852.20,854.29,856.28,859.13,862.95,867.03,871.80,877.27,882.18,884.02,881.29,875.08,867.24,859.63,852.73,845.73,839.16,837.40,840.55,845.12,850.11,856.24,862.74,870.39,877.37,880.21,875.54,869.58,864.26,860.63,860.06,862.39,866.20,870.14,872.78,875.30,878.63,882.54,886.20,887.42,887.75,888.04,888.22,887.28,883.68,879.18,874.46,869.41,862.84,856.45,851.19,848.23,849.34,853.13,858.01,863.21,868.45,874.62,878.90,878.95,873.56,867.78,863.13,860.68,861.11,864.88,869.66,875.62,880.71,881.91,879.78,877.86,875.54,871.96,866.74,859.78,852.95,847.72,846.14,846.80,849.69,853.79,858.29,862.37,866.73,870.99,874.82,877.93
839.48,834.18,829.14,824.96,822.57,823.03,826.38,828.96,829.45,829.44,828.31,826.59,824.91,823.90,823.00,822.16,821.25,820.57,821.66,822.48,822.71,822.16,820.38,816.87,813.50,811.60,812.94,818.83,820.83,817.33,809.34,802.83,795.46,791.26,791.73,797.74,804.82,813.10,821.96,829.69,831.62,832.95,833.24,832.47,831.71,830.85,828.43,824.62,819.50,812.04,806.59,803.06,802.53,808.67,817.37,825.44,830.99,831.60,829.51,828.78,829.52,830.79,830.36,828.51,826.27,824.11,822.52,824.34,827.82,831.76,835.35,838.14,837.87,835.77,832.54,828.19,822.61,819.10,819.11,823.70,828.57,829.39,826.25,820.48,817.52,817.06,819.14,823.61,829.14,831.98,832.13,830.02,825.79,821.13,817.03,814.25,813.21,813.12,812.63,811.51,809.63,806.63,802.42,796.09,789.88,786.77,788.73,794.83,801.39,805.86,805.32,800.01,794.31,789.39,785.12,780.76,773.33,768.45,769.45,772.00,774.31,776.52,779.20,783.53,789.74,795.86,800.48,802.75,805.02,806.63,808.17,810.29,813.96,818.47,823.35,827.01,826.92,824.49,821.23,818.27,816.19,815.00,816.67,820.82,826.90,834.00,839.45,843.62,846.15,846.17,844.46,840.13,834.40,828.28,823.36,819.05,815.43,814.30,818.74,824.68,825.25,821.59,816.86,818.93,829.05,838.10,843.26,845.81,847.46,849.20,851.70,855.48,859.92,864.18,868.58,873.18,877.28,878.66,876.09,870.18,862.17,855.13,847.26,839.80,834.45,832.57,836.32,841.47,846.54,851.94,857.70,865.25,873.10,877.62,872.69,866.73,860.72,855.24,852.89,854.72,858.19,862.03,865.63,869.24,873.38,877.49,880.57,880.99,881.38,882.62,884.25,884.37,881.58,878.25,874.68,870.13,864.01,857.64,852.00,848.12,847.67,850.30,854.70,859.94,865.35,871.80,877.05,877.86,872.35,866.38,861.12,858.31,858.96,863.57,869.07,874.95,879.45,880.12,878.07,876.28,874.61,872.19,867.42,860.49,853.63,848.09,845.56,847.14,851.07,855.70,859.97,863.35,866.78,870.02,872.93,875.59
842.61,836.87,831.57,826.44,821.46,819.13,821.02,823.53,824.90,825.29,824.68,823.46,822.08,820.93,819.75,818.48,817.09,815.87,815.87,816.65,817.25,817.11,815.64,812.99,810.56,809.60,811.81,817.64,819.68,816.37,808.64,802.37,794.69,790.29,790.64,796.34,803.77,812.39,821.42,829.17,831.24,832.20,832.21,831.40,830.64,829.76,827.38,824.00,819.91,812.59,806.57,802.07,800.26,804.74,813.04,821.66,828.27,829.98,828.69,827.22,826.79,827.52,827.02,824.88,822.41,820.53,820.53,824.55,828.79,832.40,835.38,836.38,835.12,832.75,829.66,825.57,820.76,817.83,818.06,822.71,827.95,827.77,823.61,818.16,815.54,816.26,819.40,824.29,829.49,831.50,831.06,828.85,825.17,821.28,816.95,812.90,809.84,808.36,807.73,807.09,806.15,804.66,801.60,795.75,789.62,786.41,788.31,793.97,800.17,804.56,803.90,798.14,792.11,787.26,783.63,779.54,773.05,768.33,768.25,771.03,773.35,775.44,777.93,781.92,787.85,793.97,798.85,801.53,803.83,805.84,807.73,810.11,814.47,819.10,822.88,824.64,822.71,819.19,815.80,813.27,812.18,812.98,816.46,821.85,828.45,835.21,839.88,842.92,844.12,842.81,840.36,836.24,831.30,825.93,820.42,814.97,810.99,810.12,814.80,821.45,822.16,818.87,815.17,817.73,826.59,834.41,838.88,840.89,842.13,844.13,847.27,851.67,856.41,860.86,865.13,869.21,872.73,874.04,871.47,865.58,857.71,850.52,842.55,835.37,830.64,828.51,832.45,838.13,843.73,849.18,854.88,862.54,870.65,875.43,870.55,864.81,858.25,851.21,847.43,848.65,851.56,854.99,859.08,863.85,869.07,873.43,875.61,875.36,876.04,877.99,880.48,881.41,879.21,876.46,873.75,870.49,864.99,858.79,852.90,848.20,846.08,847.90,851.79,856.65,862.00,868.46,874.24,875.70,870.43,863.99,858.40,855.85,857.14,861.93,867.94,873.60,877.45,877.70,875.33,873.70,872.93,871.96,867.86,860.89,853.90,848.04,844.66,847.34,852.07,857.05,861.54,865.29,868.20,870.82,873.39,875.88
845.44,839.44,834.44,829.49,823.72,818.74,817.00,817.47,819.10,819.90,819.96,819.53,818.66,817.23,815.69,814.27,812.90,811.75,811.88,813.08,814.14,814.31,812.83,809.92,808.34,808.97,812.30,816.60,818.05,815.21,808.46,802.24,794.44,789.88,789.97,795.23,802.65,811.73,820.89,828.14,830.60,831.32,831.14,830.40,829.66,828.44,825.89,822.86,819.88,813.47,807.06,801.82,798.93,800.44,807.87,816.59,823.92,827.23,827.47,825.76,824.25,824.17,823.55,821.31,819.03,818.11,820.52,825.87,829.97,832.87,835.30,834.15,832.13,829.64,826.59,823.04,818.93,816.61,817.24,821.94,827.14,825.60,820.71,816.52,813.85,815.71,819.75,824.64,829.16,830.29,829.46,827.49,824.61,821.52,817.20,812.67,808.77,805.93,804.45,803.26,802.26,801.85,800.11,795.05,789.23,786.03,787.92,793.41,799.54,803.89,802.89,796.56,790.26,785.40,781.80,778.00,772.94,768.44,766.64,769.63,772.13,774.21,776.68,780.99,786.51,792.15,797.06,800.52,802.89,805.65,808.33,811.32,816.34,820.40,822.04,821.16,817.82,813.88,810.58,808.45,808.47,812.19,817.14,823.22,829.88,835.51,838.94,840.77,841.12,839.42,835.61,831.76,828.04,823.97,818.30,811.55,807.07,805.82,808.85,816.95,818.67,816.03,813.08,816.11,822.67,828.59,832.46,834.46,836.23,839.08,843.04,847.86,852.54,856.99,861.27,865.23,868.40,869.95,867.18,861.00,853.61,845.93,838.76,832.43,827.54,825.19,829.02,835.08,841.51,847.68,853.94,862.04,869.93,873.61,869.08,863.51,856.49,848.37,843.56,844.11,846.43,849.38,853.46,859.29,865.61,870.20,871.41,870.73,871.88,874.31,877.06,878.41,876.56,873.85,871.66,870.22,865.64,859.80,853.79,848.35,844.59,845.82,849.17,853.42,858.56,864.73,870.62,872.58,867.85,860.84,855.25,853.33,855.35,859.79,865.99,871.45,874.85,874.82,871.93,870.46,870.65,871.15,867.74,860.70,853.55,847.42,843.37,847.19,852.50,857.67,862.67,867.68,870.59,873.08,875.84,878.41
850.79,844.39,838.67,833.39,828.15,823.00,818.75,815.32,813.10,812.92,812.87,812.72,812.35,811.51,810.41,808.97,807.38,806.01,805.86,807.87,810.24,811.67,810.66,807.32,806.71,808.45,810.88,813.43,815.29,813.99,808.83,802.88,794.80,789.69,789.39,795.08,802.84,811.94,820.27,826.07,829.47,830.29,830.11,829.60,828.86,827.21,824.97,822.66,820.19,814.83,808.87,803.09,798.58,798.13,803.31,810.63,817.95,823.10,824.72,823.58,822.05,821.41,819.76,817.05,816.38,818.69,822.83,827.84,831.19,833.04,833.80,832.20,829.71,826.88,823.77,820.35,816.49,815.11,816.93,821.58,825.34,822.98,818.10,814.59,812.90,815.62,819.82,824.09,827.70,828.30,827.04,824.92,822.66,820.56,816.94,813.08,809.81,806.68,803.57,800.64,798.54,798.31,797.02,793.22,788.45,785.36,787.82,793.44,799.47,803.51,801.64,794.50,788.21,783.71,780.06,776.69,772.86,768.79,765.77,767.30,769.96,772.74,775.93,780.66,786.09,791.30,795.83,799.29,801.96,805.58,809.54,813.67,818.33,820.46,819.49,816.15,811.38,807.26,804.27,803.41,805.88,811.70,818.01,824.47,830.25,833.56,836.01,837.47,837.21,834.26,830.19,826.69,823.77,821.01,817.23,811.52,806.33,802.54,801.65,807.92,810.93,810.72,809.71,813.12,817.99,822.07,824.90,827.17,829.66,833.93,839.38,844.87,848.83,852.64,856.71,860.75,863.63,865.33,862.70,856.58,849.49,842.81,836.30,829.92,824.36,821.86,826.18,832.88,839.91,846.71,853.63,862.25,869.74,871.63,867.40,861.49,853.94,845.40,839.87,839.64,841.84,845.10,849.35,855.80,862.04,866.36,867.56,866.80,868.18,871.08,874.24,875.28,873.55,871.04,869.18,868.48,865.44,860.31,854.46,848.80,844.37,844.03,846.32,850.25,855.38,861.08,867.08,869.32,864.76,858.54,853.12,851.10,853.05,857.66,863.44,869.03,872.76,872.59,869.98,867.98,867.96,868.92,865.23,858.29,851.51,845.82,842.13,846.69,852.14,857.08,861.88,867.10,870.80,873.89,876.87,879.81
856.11,849.68,843.29,837.41,832.41,827.96,823.05,817.65,812.71,810.82,809.77,809.04,808.35,807.42,806.16,804.44,802.59,801.01,800.41,802.36,805.06,807.18,807.20,805.04,805.65,807.77,808.87,810.19,812.22,812.08,808.41,802.85,794.96,789.51,788.76,794.73,802.62,811.92,819.83,824.43,828.10,828.92,828.79,828.50,827.93,826.43,824.61,822.75,820.56,816.23,810.80,804.62,798.72,796.51,799.79,805.59,812.15,817.92,820.87,820.79,819.31,817.50,815.20,813.92,815.58,820.08,824.84,829.04,831.52,832.46,832.04,830.26,827.50,824.40,821.13,817.46,813.83,813.45,816.50,821.23,823.66,820.47,815.40,812.27,811.56,814.88,819.28,823.35,826.36,826.43,824.71,822.34,820.31,818.76,816.05,813.17,810.58,807.21,802.98,798.72,795.42,794.41,793.15,790.46,787.14,785.09,788.31,793.92,799.70,803.27,800.40,792.93,786.63,782.21,778.63,775.63,772.59,769.00,765.43,765.01,767.52,770.97,775.02,780.45,786.49,791.21,794.81,797.73,800.35,804.13,808.75,813.79,818.23,818.67,815.75,810.79,805.20,801.24,799.22,799.92,804.21,811.25,818.35,824.50,828.93,830.60,832.64,834.14,833.54,829.49,825.04,821.61,819.10,817.20,814.89,810.55,805.11,799.44,795.43,798.68,801.63,803.17,804.31,808.45,813.00,816.60,819.37,822.60,826.32,831.50,837.17,841.91,845.10,848.29,852.02,856.01,858.78,860.74,858.50,852.88,846.47,840.67,834.34,827.66,821.70,819.32,824.25,831.48,838.83,845.97,853.38,862.15,869.19,870.07,865.75,859.20,851.40,843.16,837.00,835.09,836.67,840.58,845.99,852.91,859.00,862.97,863.94,862.92,864.57,867.98,871.55,872.43,870.70,868.23,866.54,866.50,865.27,860.70,854.85,849.03,844.10,842.05,843.16,846.81,852.19,857.68,863.51,866.06,862.42,856.86,851.67,849.42,850.95,855.46,860.65,866.30,870.44,870.47,868.43,866.13,865.29,865.30,861.01,854.62,848.62,843.71,841.01,846.23,852.05,857.19,862.07,867.29,871.56,875.06,878.11,881.25
860.63,854.63,847.97,841.42,836.07,832.74,829.11,824.49,819.24,815.23,812.49,810.33,808.38,806.39,804.09,801.72,799.55,797.80,796.55,797.14,798.72,800.65,802.19,803.12,805.09,806.75,806.45,807.34,809.07,809.33,806.76,801.70,794.68,789.29,788.04,793.98,801.70,811.45,819.60,823.53,826.55,827.16,827.06,826.93,826.69,826.07,824.75,823.01,820.91,817.51,812.47,806.10,799.34,795.51,797.45,801.87,807.05,811.95,816.14,817.46,815.97,812.31,810.08,812.38,816.72,821.59,825.75,829.00,830.64,830.97,830.24,828.30,825.44,822.22,818.68,814.45,811.17,811.77,815.84,820.81,822.38,818.27,812.67,809.68,809.64,813.31,818.11,822.58,825.34,824.94,822.85,820.22,817.95,816.27,814.42,812.52,810.35,806.63,802.06,797.25,792.93,790.32,788.80,786.94,785.36,785.57,789.54,794.92,800.17,803.09,799.25,792.08,785.71,780.95,777.57,774.81,772.04,768.91,765.52,763.09,765.06,768.91,773.78,780.15,787.39,791.55,793.79,795.81,798.02,801.13,805.56,811.02,815.59,814.88,810.88,805.29,799.73,796.27,796.03,798.42,803.41,810.75,817.84,822.96,825.79,826.93,829.22,831.02,830.33,825.59,820.42,816.64,814.12,812.50,810.78,807.62,802.56,796.34,790.86,790.42,791.65,793.76,797.13,802.47,808.18,812.95,817.03,821.93,827.20,832.31,836.37,838.69,841.14,843.94,847.33,851.10,854.01,856.36,854.75,850.01,844.76,839.31,832.60,825.53,819.62,817.63,823.31,830.94,838.29,845.46,853.10,861.44,867.96,868.86,864.09,856.76,849.07,841.78,835.04,830.54,830.91,835.66,843.19,850.50,856.53,860.18,860.52,859.09,861.13,865.02,868.89,869.88,868.05,865.42,863.80,864.54,865.26,860.99,854.87,848.87,843.42,839.76,839.72,843.08,848.88,854.51,859.90,862.85,861.09,855.72,850.80,848.37,849.20,853.23,857.81,863.33,867.77,868.30,866.99,864.86,862.77,860.33,855.31,849.95,845.01,841.13,840.19,846.02,852.48,858.38,863.84,869.09,873.50,877.08,880.09,883.21
862.79,857.55,851.70,845.70,840.37,837.19,833.89,829.97,825.54,821.47,818.81,816.52,814.10,811.28,808.18,805.08,802.17,799.53,796.90,794.88,794.74,796.55,799.15,801.64,803.84,804.66,803.36,804.67,806.47,806.45,803.64,799.19,793.71,788.84,787.32,793.61,801.21,811.00,819.10,822.59,824.87,825.05,824.74,824.59,824.55,824.75,824.48,823.43,821.21,817.92,812.94,806.95,800.75,796.17,795.40,798.31,803.34,808.07,812.69,814.98,813.95,809.74,807.83,811.13,816.18,821.04,824.50,827.45,828.75,828.82,828.25,826.42,823.67,820.29,816.30,811.98,809.75,811.13,815.47,820.44,821.31,816.75,811.10,808.40,808.63,812.26,817.27,821.87,823.47,823.74,822.49,820.23,817.54,814.77,812.10,809.88,807.90,804.55,799.77,794.51,789.77,787.05,785.58,784.55,784.80,787.47,791.74,796.68,800.79,802.26,798.20,791.75,785.31,779.93,776.31,773.58,770.99,768.20,765.18,762.50,763.54,767.03,772.25,778.92,785.33,789.27,791.67,793.83,796.49,799.78,804.16,809.35,813.17,811.35,806.11,799.72,794.55,791.93,793.49,797.31,802.54,809.77,816.22,820.66,823.05,824.08,826.30,827.85,826.87,821.92,816.40,811.92,808.84,807.24,806.47,804.04,799.26,793.17,787.83,785.02,784.83,787.82,794.24,800.85,807.13,813.10,818.91,824.73,829.34,832.06,833.42,834.08,835.45,838.38,842.28,846.59,850.10,852.54,851.33,847.30,842.50,836.76,830.04,822.93,816.75,814.97,822.22,830.87,838.25,845.41,852.98,860.35,865.55,865.84,861.70,854.52,847.05,840.06,832.42,827.26,827.41,832.25,839.97,847.46,853.12,856.40,856.93,856.40,858.84,862.60,866.04,866.84,864.93,862.33,861.04,862.68,864.60,860.65,854.33,847.88,841.93,837.43,836.96,840.06,845.04,851.05,856.38,859.71,859.36,854.19,849.50,847.14,847.81,851.72,856.17,861.30,865.21,865.47,864.92,863.39,860.53,856.05,850.61,845.79,841.19,838.31,840.99,847.16,853.19,859.08,865.34,871.06,875.73,879.84,883.67,887.43
862.06,857.41,852.50,847.40,842.46,838.71,835.21,831.74,828.29,825.05,823.20,821.62,819.74,817.13,813.90,810.07,806.15,802.38,798.24,794.04,791.94,792.55,795.33,799.49,802.35,802.76,800.78,802.35,804.16,803.79,800.61,796.75,792.61,788.24,786.52,792.96,801.27,810.80,818.38,821.66,823.22,823.02,822.45,822.11,822.27,823.12,823.82,823.52,821.30,818.03,813.02,807.30,801.59,796.62,793.53,794.80,799.47,804.77,809.80,812.98,812.72,808.48,805.98,809.34,814.56,819.43,822.73,825.40,826.28,826.10,825.78,824.44,821.85,818.26,813.88,809.66,808.70,810.87,815.26,820.09,820.54,815.84,810.20,807.52,807.73,811.26,816.31,820.67,820.68,821.94,822.02,820.54,817.69,814.02,810.36,807.23,804.64,801.54,796.76,791.33,786.45,783.99,782.93,783.41,785.67,790.00,794.45,798.55,801.16,801.09,796.95,791.20,784.81,778.92,774.93,772.11,769.66,767.17,764.52,761.99,762.23,765.46,770.97,777.22,782.52,786.67,790.00,792.83,796.15,799.67,803.87,808.30,810.56,807.23,800.96,794.22,789.66,788.41,791.43,796.16,801.47,808.35,814.12,818.11,820.36,821.41,823.32,824.38,823.18,818.57,812.95,807.83,804.19,802.49,802.16,800.26,795.91,790.26,785.25,781.06,780.33,784.38,793.19,800.82,807.62,814.43,821.20,826.86,829.50,829.63,828.86,828.71,829.63,832.85,837.24,842.05,846.23,848.99,848.29,844.80,839.96,833.83,827.19,820.18,813.86,812.41,820.98,830.61,838.29,845.46,852.92,859.35,863.30,862.88,858.99,852.15,844.89,837.79,829.52,824.25,824.40,829.09,836.37,844.11,849.73,852.84,853.51,853.83,856.72,860.45,863.55,864.06,861.98,859.48,858.65,861.22,863.85,860.31,853.90,846.93,840.72,835.27,834.26,837.09,841.33,847.45,852.96,856.73,857.24,852.41,848.04,845.83,846.48,850.34,855.06,859.88,863.00,862.60,862.64,861.13,857.41,851.62,846.09,841.33,837.93,837.44,842.87,849.05,854.61,860.48,867.30,873.07,877.88,882.56,887.26,891.70
857.28,852.84,848.62,844.51,840.34,835.23,831.00,827.59,824.98,823.26,822.61,822.61,822.70,821.93,819.75,815.38,810.25,805.23,799.66,794.59,790.38,787.90,789.40,795.86,800.54,801.60,799.40,800.57,802.13,801.58,798.35,794.99,791.53,787.49,785.63,791.82,802.10,810.97,817.31,820.69,821.58,821.25,820.43,819.72,820.14,821.37,822.65,822.97,821.08,817.99,812.91,807.02,801.15,796.03,791.88,791.38,794.85,801.65,807.34,811.44,812.26,808.42,803.71,806.51,811.73,816.78,820.90,823.01,823.21,822.66,822.55,822.20,819.79,815.95,811.35,807.39,807.85,810.86,815.23,819.71,820.24,815.72,810.03,806.83,806.64,810.08,814.90,818.43,816.58,818.90,820.66,820.44,817.91,814.11,809.88,805.39,800.93,797.49,793.00,787.86,783.15,781.00,780.88,783.99,788.54,793.01,797.53,800.16,800.91,799.46,795.25,790.06,783.92,777.84,773.40,770.36,768.03,765.82,763.47,761.09,760.96,764.45,770.31,775.17,779.73,784.72,789.56,793.58,797.55,801.05,804.67,807.77,807.43,802.05,795.24,788.99,785.23,786.01,789.84,794.75,800.07,806.33,811.66,815.41,817.61,818.73,820.03,820.40,819.19,815.65,810.28,804.81,800.84,798.87,797.91,796.37,792.79,787.80,782.85,778.43,778.62,783.93,793.59,801.78,809.23,816.25,822.44,826.31,825.76,823.84,822.39,822.61,824.31,827.93,832.48,837.40,842.19,845.71,845.76,842.60,837.15,830.68,824.14,817.36,811.26,810.48,819.55,829.84,838.24,845.48,852.87,858.66,861.75,860.66,856.03,849.49,842.30,834.69,826.39,821.18,821.37,825.81,832.28,840.43,846.69,850.02,850.38,851.07,854.45,858.57,861.74,861.83,859.40,857.10,856.96,860.41,863.19,860.20,853.91,846.43,840.40,833.55,831.47,833.97,838.10,843.82,849.75,854.04,854.64,850.41,846.44,844.41,845.05,848.91,854.31,859.05,861.31,859.89,860.21,857.57,852.70,846.72,841.49,836.23,835.78,839.98,845.96,851.64,857.15,863.27,870.10,875.00,879.73,884.80,890.10,894.97
853.43,848.83,844.68,840.47,836.10,831.01,826.48,822.99,820.76,819.40,818.04,817.70,818.47,820.01,820.63,818.84,814.75,808.63,802.20,796.49,791.07,786.31,784.28,789.17,795.54,799.36,798.20,798.60,800.00,799.59,796.49,793.27,789.85,786.52,785.91,793.01,802.58,809.84,814.72,817.54,818.48,818.34,818.25,818.45,818.60,820.10,821.57,822.12,820.81,817.79,812.74,806.90,800.92,795.16,790.37,789.01,791.70,798.48,804.52,809.24,811.11,808.35,802.20,803.79,808.51,813.76,818.43,820.30,819.88,818.92,819.22,819.48,817.07,813.22,809.03,805.81,807.35,810.91,815.18,819.30,820.07,815.88,810.27,806.51,804.61,807.35,810.74,812.44,811.49,814.24,817.25,818.54,816.59,813.15,809.02,804.50,799.45,793.45,788.40,783.97,780.42,779.10,780.43,785.06,790.58,794.89,798.58,799.12,797.88,795.48,792.08,788.32,783.29,777.37,771.75,768.85,766.60,764.42,762.18,759.97,761.06,765.13,770.68,775.26,779.94,785.30,790.46,794.58,798.66,801.84,804.05,804.83,802.95,798.08,791.80,785.58,781.57,782.30,786.89,792.57,798.04,804.01,809.36,812.98,814.69,814.96,816.43,816.50,815.07,812.25,807.75,802.86,798.69,795.65,793.55,792.54,789.59,784.91,780.11,775.85,777.27,783.72,793.65,801.87,809.72,816.77,822.10,823.72,821.48,818.65,816.89,817.46,820.52,824.86,829.65,834.57,839.29,842.56,842.97,840.24,834.13,827.50,820.88,814.28,808.92,809.43,818.57,828.84,837.52,845.09,852.19,857.28,859.55,857.86,853.35,846.66,839.18,831.31,822.88,818.08,818.63,823.11,829.15,836.73,843.00,846.25,846.38,848.88,852.78,856.71,859.28,858.24,854.99,854.16,856.15,860.10,862.64,860.04,854.07,846.58,840.86,833.38,830.00,831.36,835.78,841.20,847.51,852.48,853.49,849.25,844.99,842.49,842.75,846.84,852.16,856.64,858.61,856.99,857.52,854.26,848.94,842.95,837.01,832.83,834.43,840.75,847.74,853.36,859.13,865.36,871.57,875.80,880.39,885.38,890.40,894.78
852.17,846.92,842.55,838.17,833.53,828.50,823.52,819.66,817.28,815.41,812.92,811.74,812.41,815.05,817.96,819.46,817.83,812.15,805.75,799.70,793.51,787.14,781.84,782.93,789.00,795.02,796.12,796.38,797.76,797.55,794.63,791.36,787.77,785.44,786.71,795.15,803.21,808.87,812.74,815.26,816.64,816.80,817.18,817.73,817.17,818.70,820.36,821.20,820.42,817.37,812.45,806.81,800.87,794.49,789.15,787.05,788.94,795.45,801.78,806.81,809.23,807.23,800.71,801.47,805.63,810.74,815.31,816.76,816.07,815.15,815.86,816.49,814.15,810.52,806.92,804.51,807.06,811.07,815.16,818.79,819.79,816.12,810.84,806.66,803.05,804.28,805.83,806.08,806.64,809.73,813.61,816.10,814.79,811.70,807.72,803.35,798.06,790.02,784.36,780.46,778.03,777.69,780.33,785.97,791.99,795.96,798.15,796.75,794.06,791.24,788.79,786.41,782.57,776.98,770.35,767.52,765.36,763.23,761.08,758.94,761.39,766.00,771.17,775.73,780.64,786.28,791.51,795.30,799.04,801.51,802.25,801.08,798.28,794.36,788.84,782.75,778.44,778.87,783.59,789.62,795.39,801.37,806.79,810.33,811.61,811.14,812.87,812.69,810.85,808.24,804.42,800.31,796.43,792.93,789.88,788.86,786.13,781.57,776.75,773.28,776.19,783.64,793.40,801.47,809.51,816.48,820.97,820.50,817.10,813.81,812.00,812.96,817.38,822.58,827.74,832.61,836.87,839.50,839.73,837.05,830.66,824.10,817.46,811.10,806.64,808.69,817.73,827.67,836.38,844.18,850.76,855.00,856.60,854.86,850.71,843.82,835.87,827.49,818.74,814.93,816.21,820.81,826.49,833.13,839.15,842.31,842.42,846.67,851.05,854.52,856.09,854.07,850.92,851.83,855.74,859.91,862.07,859.73,854.14,846.85,841.32,833.71,828.96,828.72,833.51,838.94,845.57,851.08,852.58,848.31,843.66,840.57,840.25,844.25,849.54,853.78,855.52,853.98,854.68,851.45,846.19,840.15,833.42,830.41,833.10,840.01,847.67,853.60,859.77,866.10,871.76,875.64,880.07,884.83,889.48,893.32
856.79,849.86,845.01,841.06,836.69,830.78,824.75,819.86,816.29,812.58,809.18,807.35,806.86,807.24,809.88,814.23,817.01,815.61,811.03,805.23,798.71,791.86,785.55,780.00,780.88,786.11,791.66,793.63,795.33,795.25,792.52,788.90,785.16,784.23,787.99,798.10,804.43,809.25,813.37,816.72,819.01,819.55,818.99,817.57,815.54,816.64,818.76,820.33,819.76,816.53,811.90,806.75,801.12,794.51,788.65,785.39,786.12,792.81,799.50,804.31,806.00,803.49,798.68,800.02,803.88,808.00,810.99,811.37,811.23,811.49,812.51,813.17,811.20,808.13,805.18,803.40,807.02,811.48,815.19,818.05,819.17,816.39,811.93,807.75,803.39,801.45,800.96,801.46,803.10,806.80,810.85,813.56,812.91,809.75,805.57,800.83,795.25,788.15,782.32,778.25,776.14,776.74,780.00,786.17,792.42,795.76,795.50,792.98,790.26,788.05,786.25,784.52,781.38,776.33,769.65,766.47,764.44,762.60,760.57,758.30,761.29,766.21,771.25,775.62,780.42,786.47,791.98,795.16,797.78,798.81,798.54,797.00,794.15,790.43,785.48,780.06,776.12,777.08,780.39,785.30,791.62,798.13,803.48,806.88,808.23,807.97,809.66,809.06,806.48,803.00,798.94,795.47,793.04,791.20,788.04,785.54,782.10,777.38,772.10,770.69,775.55,783.67,792.65,800.42,808.32,815.07,818.96,817.15,812.86,809.43,807.95,809.48,814.81,820.95,826.73,831.55,834.88,836.58,835.54,831.93,826.21,820.13,813.77,807.80,804.26,808.15,816.94,826.28,834.73,842.29,847.84,850.91,852.20,851.75,847.93,841.05,832.46,822.77,813.29,811.64,814.37,819.09,824.32,829.85,835.42,838.68,839.18,843.96,848.78,851.49,851.53,849.46,849.00,851.46,855.65,859.72,861.43,859.06,853.82,846.96,841.28,834.22,828.12,825.66,830.71,836.86,843.69,849.32,851.29,847.32,842.51,838.97,837.90,840.79,846.72,850.89,852.15,850.86,851.72,849.73,845.28,838.95,832.00,829.21,831.21,836.78,843.88,850.67,857.40,863.93,869.74,873.93,878.09,882.62,887.30,891.11
859.31,852.23,847.24,843.20,838.91,832.77,826.80,821.58,817.09,812.70,808.88,805.94,803.65,801.98,802.97,805.94,808.88,810.03,808.56,805.13,800.33,794.69,788.91,781.40,778.12,779.74,785.54,790.66,793.19,793.09,790.38,786.24,782.98,783.24,788.36,799.13,804.63,808.97,812.88,816.05,818.41,818.95,817.97,815.80,813.38,813.88,815.67,817.37,817.52,814.81,810.77,806.09,800.80,794.69,788.84,784.23,783.04,789.38,797.32,802.38,803.78,801.29,797.06,798.50,801.97,805.32,807.43,807.17,806.93,807.55,809.16,810.17,808.56,805.79,803.08,801.90,806.57,811.15,814.21,816.81,818.25,816.35,812.87,809.41,805.41,801.99,799.88,799.41,800.72,804.21,808.41,811.42,810.83,807.47,803.13,798.14,792.26,785.34,779.93,776.03,774.28,776.48,780.29,786.41,792.43,795.31,793.47,790.51,787.78,785.61,783.81,782.27,779.24,774.36,768.06,764.20,762.46,761.11,759.35,758.06,761.13,765.71,770.39,774.63,779.33,785.98,791.70,793.58,794.78,795.09,794.31,792.09,788.10,784.46,780.55,776.50,773.49,774.76,777.87,782.46,788.62,795.07,800.30,803.39,804.80,806.01,806.59,804.93,801.39,796.74,792.97,790.14,788.06,786.40,784.13,781.86,777.71,772.40,768.50,769.62,775.29,783.22,791.71,798.66,805.81,811.43,814.00,811.56,807.29,804.54,804.13,806.65,812.05,819.06,825.37,829.74,831.81,831.67,829.52,825.75,820.60,814.89,809.16,804.11,801.88,807.50,815.89,824.54,832.56,839.30,843.28,845.29,846.51,847.25,844.94,838.60,830.14,820.53,811.09,809.62,812.29,816.83,822.14,827.41,831.91,834.95,836.94,842.14,846.39,848.30,847.82,846.30,848.07,851.56,855.65,859.30,860.69,857.85,852.38,845.64,839.96,833.72,827.04,822.93,827.20,833.53,840.68,846.89,849.80,846.39,841.67,837.74,836.08,838.85,844.04,847.86,848.99,847.41,848.30,846.88,843.18,837.51,830.84,828.18,830.00,835.27,842.36,849.12,855.54,861.60,866.91,870.44,873.89,877.78,881.81,884.70
861.90,854.57,849.19,844.81,840.42,834.33,828.70,823.38,818.29,813.69,809.64,805.67,801.77,798.45,797.34,797.59,799.04,801.48,802.92,802.24,799.86,796.18,791.54,784.13,777.86,775.45,779.45,786.73,790.48,790.74,787.92,783.46,780.88,782.19,788.26,799.40,804.38,808.26,811.76,814.44,816.53,816.91,815.73,813.38,811.07,811.07,812.30,813.85,814.67,812.79,809.47,805.34,800.49,795.03,789.29,783.49,780.35,785.58,794.70,800.29,801.73,799.47,795.74,796.99,799.99,802.78,804.24,803.52,802.95,803.59,805.82,807.34,806.05,803.47,800.97,800.51,806.02,810.61,813.08,815.50,817.18,816.16,813.74,811.12,807.89,803.67,800.18,798.37,798.76,801.58,805.66,808.94,808.73,805.23,800.65,795.36,789.18,782.26,777.25,773.67,772.51,776.45,780.90,786.72,792.18,794.66,791.85,788.73,785.98,783.58,781.52,780.00,776.96,772.20,766.29,761.71,760.04,759.09,757.87,758.15,761.19,765.23,769.47,773.77,778.54,785.38,790.76,791.30,791.21,790.97,789.67,786.63,781.73,778.21,775.36,772.78,770.94,772.45,775.86,780.60,786.54,792.66,797.43,800.24,801.98,804.48,803.52,800.43,795.92,790.62,787.31,784.83,782.41,780.10,778.78,777.27,773.03,767.64,765.28,768.79,774.95,782.56,790.79,796.88,802.92,807.00,807.99,805.03,800.98,799.32,800.44,804.24,809.62,816.99,823.31,826.89,827.58,825.65,822.63,818.97,814.45,809.25,804.20,800.35,799.90,806.93,814.83,822.77,830.27,835.89,838.12,839.09,840.31,842.28,841.93,836.32,828.23,819.12,810.13,807.92,809.85,814.10,819.66,824.92,828.29,831.15,835.00,840.63,843.95,845.03,844.54,844.21,847.79,851.88,855.61,858.65,859.39,855.97,850.20,843.50,837.95,832.48,825.65,820.46,823.51,829.65,837.07,843.90,847.79,845.32,840.91,836.65,834.46,837.51,841.78,844.98,845.77,843.69,844.66,843.44,840.21,835.34,829.42,827.28,829.49,834.97,842.03,848.37,854.07,859.22,863.47,866.15,868.93,872.15,875.38,877.17
867.18,857.45,850.49,845.50,840.70,834.86,829.18,823.78,818.72,814.19,809.96,805.78,801.65,797.81,794.63,792.51,791.99,793.46,795.57,796.50,796.50,795.39,792.11,786.24,779.75,775.14,775.36,779.85,785.48,787.51,784.45,780.47,778.57,780.72,787.67,799.32,803.83,806.97,809.86,812.21,813.86,814.00,812.75,810.62,808.87,808.88,809.73,810.84,811.63,810.77,808.32,804.96,800.83,795.76,789.79,783.62,779.33,781.49,790.51,796.97,799.11,797.16,794.91,795.58,797.93,800.59,801.41,800.27,799.42,799.97,802.51,804.71,803.65,801.22,799.24,799.95,805.59,810.17,812.61,814.56,815.93,815.85,814.56,812.35,810.00,805.23,800.68,797.71,796.78,798.47,801.50,804.83,806.78,803.55,798.38,792.45,785.98,779.37,774.07,770.89,770.97,776.39,781.90,787.20,791.59,793.59,790.82,787.81,784.90,782.07,779.69,778.11,775.38,770.99,764.98,759.91,757.44,756.34,756.36,758.83,762.10,765.58,769.41,774.34,779.79,785.11,788.50,788.38,787.71,786.69,784.26,780.32,776.57,773.43,771.10,769.51,769.04,770.74,774.77,780.29,786.63,792.21,795.43,798.31,801.25,802.99,800.27,795.28,790.07,786.15,783.23,780.25,776.38,772.28,771.02,770.07,767.79,764.46,762.13,767.02,773.88,781.78,790.15,795.79,800.31,802.55,801.88,798.00,793.71,793.55,796.95,802.52,808.50,814.64,819.35,821.48,820.74,818.23,814.92,811.35,807.83,803.70,799.15,796.79,799.29,806.78,813.99,821.29,828.18,832.35,832.79,832.72,833.95,837.23,839.05,834.27,826.41,817.65,809.52,805.79,806.48,810.43,816.19,821.27,824.04,827.22,832.91,839.12,841.44,841.69,841.68,843.95,848.52,852.38,855.37,857.50,856.37,852.47,846.80,840.30,835.11,829.85,823.50,818.43,820.03,825.40,832.74,839.81,844.27,843.74,840.09,835.60,832.91,836.43,840.77,842.83,842.11,839.46,840.87,839.36,835.72,831.08,826.79,826.64,830.47,836.73,843.07,848.70,853.38,856.81,858.87,861.31,863.98,866.89,869.58,870.69
871.88,862.65,854.05,847.10,842.21,836.84,830.89,825.12,819.97,815.40,811.12,806.90,802.62,798.20,794.19,790.85,788.52,787.76,788.67,790.09,791.83,793.04,791.49,786.89,780.83,775.16,772.25,774.07,779.29,782.35,780.95,777.90,775.96,778.01,785.26,797.83,802.52,805.20,807.64,809.92,811.38,811.49,810.42,808.60,807.08,807.09,807.67,808.38,808.90,808.57,806.84,804.19,800.63,795.71,789.61,783.36,778.69,779.32,787.08,792.88,795.08,794.00,792.89,793.26,795.00,797.16,797.34,796.20,795.87,797.03,799.87,802.29,801.53,799.38,797.80,799.52,804.91,809.45,812.12,813.75,814.68,814.87,814.23,812.67,810.91,806.48,801.78,798.10,795.94,795.94,798.09,801.64,804.85,802.04,796.43,789.95,783.28,776.84,771.65,769.15,770.23,776.06,781.79,786.85,790.78,792.36,789.45,786.31,783.30,780.46,778.20,776.42,773.97,769.95,763.72,758.80,755.84,754.87,756.15,759.18,762.55,765.91,769.72,775.07,780.49,784.05,785.66,785.41,784.41,782.67,779.78,775.94,772.67,769.99,768.02,767.13,768.12,770.55,775.08,780.79,786.68,790.96,794.01,797.44,800.69,800.80,796.20,790.73,785.92,782.31,778.74,775.18,771.28,767.53,765.89,765.00,763.67,761.37,759.13,765.62,773.15,781.03,789.12,794.12,796.56,796.95,795.33,791.60,788.15,789.24,793.88,800.23,806.04,811.16,814.59,815.57,814.04,810.93,807.46,804.11,801.06,797.60,794.18,793.72,798.60,806.66,813.61,820.11,825.70,828.03,827.48,827.26,828.62,831.91,834.39,830.79,823.97,815.98,808.87,804.35,803.49,806.29,812.46,817.19,820.24,824.41,831.40,837.66,839.03,839.04,839.98,843.70,848.57,852.13,854.63,856.21,854.06,849.62,843.89,837.57,832.17,827.00,821.07,816.22,816.91,821.45,828.50,835.91,841.42,842.18,838.40,833.64,831.11,835.19,839.75,840.32,837.79,834.93,836.20,834.54,831.00,827.22,825.33,827.41,832.60,839.01,843.81,847.40,849.78,851.42,852.92,855.80,858.99,862.08,864.54,865.33
875.71,868.52,858.78,849.62,844.51,839.49,833.27,827.18,821.95,817.32,813.03,808.67,804.08,799.22,795.05,791.16,787.41,784.23,783.05,783.81,786.15,788.90,789.14,786.08,781.12,775.31,770.10,769.54,773.14,776.67,777.68,775.50,773.26,774.81,781.91,795.14,800.39,802.92,805.05,807.29,808.67,809.00,808.36,806.96,805.51,805.39,805.75,806.14,806.34,806.24,805.12,803.11,799.96,795.10,789.01,782.88,778.21,778.05,784.11,788.71,790.79,790.78,790.39,790.63,791.79,793.21,792.89,792.00,792.50,794.52,797.56,799.87,799.42,797.72,796.61,799.16,804.06,808.48,811.50,812.91,813.44,813.55,813.26,812.40,811.08,807.25,802.78,798.70,795.55,793.79,795.24,799.13,803.03,800.54,794.61,787.72,780.97,774.69,769.76,767.90,769.63,775.10,780.58,785.65,789.63,791.07,787.85,784.46,781.44,778.81,776.70,774.77,772.60,768.96,762.62,758.13,754.89,754.08,756.31,759.01,762.23,765.69,769.76,775.31,780.22,782.25,782.60,782.44,781.25,778.89,775.90,772.64,769.58,767.32,765.76,765.55,767.91,771.35,776.28,781.62,786.30,789.18,792.80,796.91,799.85,797.91,791.97,786.83,782.69,778.58,774.01,770.10,766.93,764.42,762.18,760.82,759.57,757.76,756.32,764.59,772.64,780.12,787.41,791.82,792.02,790.66,788.64,785.76,783.78,785.91,790.97,797.12,802.55,807.00,809.60,809.79,807.80,803.70,799.87,796.78,794.02,791.38,789.68,791.32,797.94,806.45,813.30,818.96,822.96,823.34,822.18,822.29,823.97,826.79,829.12,826.64,821.14,814.17,808.07,803.22,800.85,802.17,808.78,813.50,817.35,822.71,830.48,836.11,836.65,836.89,839.00,843.31,848.07,851.39,853.62,854.86,852.32,847.40,841.50,835.29,829.49,824.35,818.60,813.79,814.02,817.91,824.55,832.19,838.72,840.32,836.05,831.18,829.31,833.74,838.02,836.92,832.78,830.07,830.95,829.14,826.09,823.82,824.82,829.02,835.04,840.90,843.62,844.76,844.67,844.87,846.73,850.32,854.22,857.61,859.89,860.28
877.41,872.29,863.47,853.98,847.32,841.74,835.71,830.06,825.20,820.62,816.18,810.94,805.39,800.90,796.66,792.58,788.58,784.77,781.60,779.22,778.92,780.48,782.03,782.29,780.00,775.50,769.87,767.60,769.47,772.89,775.33,772.91,770.81,772.15,778.44,790.48,796.47,799.49,801.53,803.29,804.55,805.70,806.00,805.24,803.93,803.29,803.33,803.62,803.78,803.80,803.18,801.57,798.55,793.85,788.15,782.37,777.61,776.38,781.29,785.73,788.35,789.01,788.38,788.65,789.32,789.82,789.52,789.08,789.96,792.19,795.25,797.04,796.78,795.90,795.91,798.88,802.99,807.11,810.40,811.67,812.14,812.25,812.09,811.58,810.69,806.73,802.08,797.98,794.68,792.02,793.13,797.27,801.57,798.76,792.67,785.78,779.14,773.33,768.30,766.50,768.08,772.14,777.24,782.75,787.60,789.81,786.08,782.49,779.64,777.19,774.53,772.88,771.10,767.86,762.05,757.79,754.48,753.41,755.25,757.45,759.83,763.31,767.98,773.29,777.28,779.15,779.71,779.50,778.16,775.55,772.56,769.70,767.29,765.07,764.35,765.43,768.60,773.13,778.21,782.23,784.50,787.10,791.40,795.69,797.66,793.72,788.78,784.27,779.62,774.14,769.34,766.02,763.59,761.48,758.71,755.72,753.26,751.98,754.00,764.26,772.30,778.39,783.86,788.33,786.67,784.05,782.28,780.85,780.61,783.50,787.83,791.96,797.64,802.39,805.19,805.43,802.97,796.42,791.24,788.20,786.21,785.80,786.95,790.63,797.67,805.86,812.40,817.30,819.96,818.76,816.83,817.36,819.87,823.00,825.03,822.75,818.00,812.12,806.68,801.86,798.70,799.06,805.79,812.20,817.20,823.14,830.74,834.06,834.20,835.37,838.61,842.59,846.81,850.21,852.60,853.43,851.26,846.25,840.12,833.82,828.06,822.87,816.43,810.80,811.27,815.39,821.57,828.63,835.13,837.20,832.78,828.67,828.14,831.85,833.55,830.74,826.32,824.50,825.19,822.88,820.71,821.37,825.60,831.17,836.51,840.24,840.41,840.12,839.55,839.89,842.30,846.29,850.50,853.75,855.27,854.38
876.66,873.71,866.58,858.02,851.21,845.99,840.21,834.60,829.58,824.70,819.98,813.78,807.23,803.00,798.94,794.87,790.77,786.68,782.63,778.62,775.56,774.12,775.01,776.11,775.96,773.89,769.69,766.55,767.30,770.31,773.10,770.86,769.16,770.72,776.50,786.79,792.39,795.37,797.30,798.88,800.46,802.43,803.61,803.55,802.42,801.55,801.30,801.40,801.49,801.54,800.97,799.46,796.68,792.34,786.43,780.30,775.54,775.12,779.82,784.29,786.94,787.28,786.37,786.73,787.17,787.16,786.91,786.89,788.07,790.29,792.89,794.03,794.38,794.80,796.05,798.98,802.43,806.16,809.35,810.40,810.79,810.84,810.68,810.16,808.57,804.63,800.07,795.84,792.61,790.28,791.48,795.59,799.98,797.11,791.09,784.28,777.72,772.29,767.23,765.20,766.42,769.93,775.40,781.22,786.08,788.03,784.13,780.49,777.57,775.03,772.44,771.09,769.47,766.62,761.88,757.85,754.22,752.54,753.68,755.62,757.69,760.78,765.14,770.43,773.82,775.54,776.41,776.63,775.02,772.39,769.53,766.80,764.47,762.56,762.83,765.13,768.85,773.18,777.53,780.54,782.02,785.29,790.30,794.47,795.62,791.00,786.22,781.84,776.99,770.93,765.68,762.54,760.64,759.07,756.13,752.67,749.79,748.79,752.23,761.64,769.64,775.70,780.39,784.46,782.38,779.57,778.02,777.40,778.62,781.68,785.16,788.06,792.41,796.65,799.73,800.74,798.58,791.83,785.86,781.71,779.21,781.27,785.01,790.25,797.34,804.98,811.07,814.79,815.70,813.52,811.56,812.59,815.71,819.19,821.16,819.01,814.86,809.95,804.99,799.77,796.08,796.35,804.04,811.86,818.18,824.51,830.78,831.50,832.17,834.59,838.60,842.65,846.79,849.89,851.76,852.03,849.98,845.11,839.01,832.67,826.95,821.43,814.81,809.10,809.28,813.49,819.30,825.97,832.26,833.44,829.73,826.64,826.39,828.56,827.54,823.52,819.22,817.81,818.00,816.77,816.95,820.47,826.41,832.18,836.18,837.80,836.51,835.68,835.49,836.46,839.24,843.22,847.32,849.96,850.27,847.86
873.88,873.28,868.50,861.79,855.85,851.52,845.94,840.04,834.46,829.19,824.21,817.29,809.92,805.63,801.84,797.81,793.60,789.36,785.17,780.68,775.35,770.39,769.18,769.03,769.96,770.45,768.64,765.59,765.96,768.42,770.78,769.07,768.17,770.35,775.90,784.17,788.62,791.07,792.77,794.36,796.50,799.17,801.09,801.69,800.95,800.16,799.73,799.60,799.59,799.51,798.63,797.03,794.55,790.62,783.90,776.98,772.44,774.18,779.37,783.88,786.07,785.40,784.37,784.82,785.19,784.96,784.78,785.13,786.55,788.63,790.55,791.17,792.44,794.36,796.76,799.36,802.33,805.57,808.32,809.07,809.34,809.29,809.10,808.36,805.51,801.82,797.42,792.85,789.81,788.63,790.24,794.04,798.04,795.25,789.37,782.70,776.33,771.21,766.18,763.90,764.88,768.73,774.95,780.84,785.01,785.91,782.13,778.48,775.28,772.53,770.52,769.43,767.80,765.27,761.83,758.07,754.00,751.53,751.87,753.72,755.89,758.42,761.87,767.05,770.12,771.80,773.01,773.82,771.93,769.40,766.70,763.95,761.43,760.11,761.31,764.51,768.57,771.93,775.05,777.44,779.38,783.65,789.30,793.32,793.91,789.42,784.06,779.41,774.65,768.74,762.97,759.73,758.16,757.10,754.31,751.27,748.58,747.62,750.95,757.72,765.51,772.35,777.17,780.58,779.01,776.67,775.27,775.02,777.25,780.04,782.69,785.07,787.24,790.40,793.58,795.63,794.55,789.19,782.76,776.82,773.39,777.69,783.57,789.90,796.86,803.82,809.25,811.50,810.51,807.77,806.44,808.08,811.58,815.28,817.37,815.48,811.84,807.57,802.69,796.91,793.16,794.16,803.31,812.10,819.63,826.06,830.31,828.76,830.59,834.35,838.79,843.14,847.39,849.85,850.76,850.43,848.39,843.95,838.14,831.74,825.97,819.99,813.59,808.34,807.82,812.01,817.58,823.94,829.78,829.26,826.69,824.68,823.96,823.87,820.39,815.63,811.59,810.12,810.17,811.35,814.72,820.71,827.17,832.22,834.53,834.32,832.55,831.81,832.35,834.08,837.07,840.82,844.46,846.13,844.94,840.97
869.12,871.48,870.16,865.98,860.34,855.91,850.29,844.12,838.15,833.31,828.71,822.25,814.96,809.67,805.61,801.17,796.57,792.12,787.40,781.99,776.33,771.14,767.68,765.26,764.49,764.33,763.56,762.68,763.92,766.11,767.73,766.54,767.74,771.19,776.44,782.79,786.35,788.05,789.07,790.28,792.62,795.59,797.75,798.83,799.46,799.23,798.88,798.67,798.54,797.93,796.61,794.89,792.61,788.63,780.37,773.01,769.59,773.18,779.09,783.33,784.68,783.14,782.55,782.96,783.10,782.70,782.55,783.23,784.75,786.67,788.49,789.65,791.83,794.58,797.44,799.96,802.52,805.04,807.01,807.37,807.56,807.51,807.34,806.70,803.99,800.69,795.93,790.39,787.52,787.41,789.55,792.72,794.91,791.81,785.55,779.05,773.70,769.01,763.95,762.03,763.97,769.22,775.48,780.64,783.87,784.06,780.50,776.45,772.94,770.35,768.92,768.01,766.32,763.92,761.22,757.88,753.52,750.50,750.38,752.04,754.19,756.74,759.79,763.40,766.26,768.79,770.72,771.21,769.30,766.64,763.85,761.25,759.43,759.00,760.44,763.45,767.52,770.70,773.32,775.60,777.96,781.70,787.74,792.24,792.92,787.83,781.98,777.01,772.30,766.96,761.44,758.55,756.90,755.42,753.00,750.45,747.67,746.51,750.25,755.94,762.50,768.91,774.31,777.63,776.19,773.88,772.49,772.86,774.93,777.31,779.50,781.39,783.20,785.68,788.13,790.09,791.12,786.44,778.92,771.96,770.35,775.42,782.17,789.09,795.86,802.23,806.26,807.13,805.12,802.01,801.77,804.26,808.00,811.44,813.58,812.54,809.35,804.44,798.26,792.78,790.65,793.56,803.48,812.55,820.08,825.74,828.43,827.00,829.79,834.29,838.88,842.76,846.17,847.84,848.21,847.82,846.27,843.04,837.82,830.96,824.84,818.62,812.44,807.39,806.25,810.67,816.26,821.95,826.40,824.83,822.50,821.21,820.33,816.94,812.15,807.30,803.19,801.24,804.30,808.56,814.21,821.36,827.83,831.71,832.50,831.25,829.94,829.41,829.99,831.76,834.88,838.66,841.50,841.87,839.24,834.28
863.31,867.65,869.44,867.98,862.99,858.47,852.45,846.12,840.35,835.66,831.09,825.11,818.37,812.84,808.99,803.83,798.23,793.04,787.33,781.41,775.97,770.90,765.52,761.70,758.95,757.32,757.37,759.00,761.48,763.96,765.70,765.96,768.55,772.67,777.40,781.59,783.82,784.91,785.72,786.94,789.30,792.21,794.58,796.25,797.85,798.07,797.93,797.74,797.40,796.37,794.88,793.24,790.94,785.86,776.34,768.98,766.79,772.00,778.61,782.66,783.32,780.98,780.23,780.49,780.36,779.70,779.74,781.47,783.50,785.46,787.33,788.98,791.64,794.75,797.81,800.34,802.62,804.40,805.49,805.60,805.72,805.66,805.54,805.11,803.01,800.08,795.18,789.20,786.27,785.98,787.98,790.74,791.84,788.49,782.18,775.82,770.80,766.35,761.64,760.49,763.62,770.04,776.12,780.54,782.95,782.63,779.41,775.16,771.51,769.09,767.86,766.85,765.22,763.14,761.01,758.11,753.80,750.34,749.38,750.55,752.56,755.05,757.77,760.38,763.03,765.81,767.88,768.09,766.26,763.74,761.29,759.25,757.94,758.10,759.47,761.99,765.74,769.06,771.66,774.03,776.63,780.04,786.24,791.15,792.06,786.28,779.97,774.49,769.40,764.23,759.92,757.68,756.08,754.37,752.27,749.95,746.90,745.40,749.34,754.42,759.93,766.05,772.16,774.72,773.13,770.90,769.76,770.61,772.31,774.28,776.18,777.86,779.55,781.26,782.79,784.27,785.84,781.85,774.53,768.02,768.28,773.71,780.72,787.97,794.89,800.69,803.20,802.57,799.63,796.54,797.47,800.79,804.75,807.90,809.86,809.01,805.55,799.79,793.47,789.62,789.70,794.22,803.79,812.98,820.40,825.16,826.37,825.38,828.99,833.87,838.25,841.56,843.92,845.07,845.38,845.07,843.82,841.37,836.82,830.08,823.45,817.31,811.39,806.30,804.35,809.24,814.81,819.68,822.77,820.71,818.36,816.68,814.70,809.55,803.72,799.00,795.76,795.19,801.19,807.72,814.61,821.92,827.90,830.53,830.39,828.84,827.80,827.58,828.32,830.01,832.82,836.48,837.81,836.59,833.00,827.94
856.86,862.06,866.28,867.45,863.55,859.04,852.42,846.08,841.00,836.06,831.07,825.38,819.40,814.41,811.05,805.03,798.03,791.62,784.78,779.03,774.09,769.01,762.22,757.86,753.57,750.51,751.31,755.25,759.10,762.40,765.16,767.57,770.51,774.36,778.22,780.19,780.86,781.61,782.72,784.28,786.56,789.16,791.73,794.11,796.08,796.57,796.70,796.66,796.11,794.87,793.51,792.13,789.57,782.37,772.02,765.05,764.04,770.51,777.70,781.79,782.10,779.02,777.24,777.18,776.82,775.98,776.72,780.11,783.02,785.15,787.14,789.05,791.71,794.79,797.88,800.39,802.46,803.54,803.79,803.79,803.86,803.79,803.72,803.56,802.33,799.71,795.05,789.33,786.10,784.34,785.38,787.79,788.80,785.51,779.68,773.50,768.07,763.56,759.44,759.29,763.53,770.65,776.52,780.39,782.23,781.64,778.84,774.67,771.06,768.74,767.32,765.97,764.51,762.95,761.25,758.79,754.87,751.09,748.92,749.24,750.96,753.20,755.60,758.00,760.40,762.67,764.28,764.42,762.78,760.74,759.07,757.88,756.79,757.21,758.39,760.33,763.52,767.04,769.97,772.57,775.25,778.76,784.89,790.05,791.26,784.95,778.18,772.03,766.19,760.76,758.32,756.84,755.43,753.83,751.97,749.63,746.23,744.29,748.01,752.86,757.78,763.86,770.54,771.65,769.65,767.73,767.13,768.29,769.64,771.22,772.92,774.60,776.16,776.96,777.63,778.39,778.78,775.52,769.74,765.01,766.88,772.52,779.44,786.81,794.03,799.13,800.06,797.92,794.12,791.44,793.48,797.55,801.75,804.71,806.22,804.61,800.19,793.85,788.87,787.88,790.47,796.02,804.34,813.52,820.80,824.61,824.28,823.69,828.03,833.02,836.84,839.55,840.87,841.80,842.46,842.37,841.12,838.88,835.02,829.08,821.83,816.02,810.41,805.10,802.26,807.69,813.21,817.26,819.18,817.06,814.52,811.46,807.46,802.05,795.59,791.41,790.19,792.85,800.91,808.62,815.76,822.38,827.32,828.67,828.18,826.97,825.92,826.13,827.23,828.83,830.95,834.13,833.39,830.46,826.42,822.00
851.36,857.29,862.65,865.14,862.23,857.41,851.20,845.22,840.05,834.89,829.46,823.65,817.74,812.29,807.38,801.15,793.96,786.65,780.99,776.53,772.26,767.12,759.75,754.06,750.39,748.84,750.19,754.74,759.33,763.47,767.08,770.06,772.06,774.10,776.08,777.20,778.25,779.31,780.40,781.71,783.93,786.53,789.23,791.89,794.10,794.83,795.17,795.41,795.35,794.22,792.91,791.61,788.63,779.06,768.10,761.72,761.51,767.97,775.61,780.34,781.08,777.56,773.29,772.31,772.10,772.58,776.49,780.60,783.54,785.67,787.76,789.80,792.15,794.94,797.93,800.03,801.44,802.12,802.23,802.05,802.01,802.00,802.00,801.92,801.30,799.19,795.32,790.39,786.72,783.21,782.15,783.10,784.35,782.38,777.92,772.64,767.30,761.93,757.51,757.57,762.13,769.11,775.20,779.36,781.40,780.91,778.46,774.43,770.89,768.59,766.98,765.48,764.09,762.77,761.36,759.30,755.77,752.01,749.15,748.06,749.17,751.03,753.10,755.28,757.32,759.12,760.41,760.71,759.71,758.36,757.11,756.09,755.33,756.30,757.89,759.87,762.50,765.51,768.34,771.14,774.19,777.78,783.77,789.04,790.67,784.77,777.74,770.98,764.74,759.50,757.07,755.52,754.13,752.75,751.35,749.01,745.55,743.18,745.76,751.31,756.54,762.33,768.14,767.98,765.81,764.39,764.62,766.44,767.77,768.99,770.22,771.48,772.78,773.26,773.48,773.60,773.06,769.83,765.11,762.16,766.01,772.43,779.69,786.99,793.33,796.38,795.75,792.74,788.86,787.07,789.76,794.14,798.55,801.72,802.60,799.05,793.93,789.03,785.85,788.02,792.50,798.44,806.56,815.45,821.78,824.04,822.09,821.51,826.64,831.82,834.96,836.75,837.49,838.47,839.58,840.03,838.59,836.25,833.00,828.07,820.24,814.56,809.23,804.00,800.92,806.13,811.87,815.81,816.84,814.44,811.30,807.39,802.15,794.98,789.75,788.47,790.53,795.47,802.76,810.56,817.62,823.06,826.22,826.28,825.39,824.47,824.00,824.79,826.18,827.79,829.46,831.03,828.92,825.19,820.91,816.46
