416.49,416.67,416.69,416.47,416.15,415.81,415.45,415.12,414.77,414.41,414.08,413.81,413.81,414.04,414.36,414.71,415.04,415.34,415.66,415.98,416.00,415.94,415.90,415.89,415.85,415.78,415.73,415.72,415.67,415.64,415.70,415.82,415.77,415.48,415.20,414.95,414.65,414.41,414.13,413.85,413.60,413.30,413.26,413.35,413.49,413.67,413.89,414.11,414.31,414.50,414.72,414.93,415.12,415.27,415.44,415.67,415.85,415.92,415.84,415.79,415.74,415.72,415.82,416.21,416.60,417.03,417.46,417.82,418.21,418.43,418.50,418.50,418.50,418.50,418.52,418.54,418.54,418.54,418.54,418.55,418.60,418.61,418.61,418.62,418.64,418.64,418.64,418.64,418.64,418.64,418.69,418.90,419.27,419.76,420.37,420.93,421.50,422.11,422.68,423.29,423.75,424.01,424.06,424.13,424.47,424.95,425.48,426.06,426.52,426.78,426.87,427.02,427.13,427.03,426.64,425.89,425.11,424.52,424.00,423.56,423.44,423.68,424.04,424.39,424.61,424.76,424.81,424.84,424.91,424.97,425.02,425.14,425.31,425.41,425.48,425.58,425.70,425.80,425.88,425.91,425.98,426.13,426.37,426.61,426.76,426.88,427.13,427.49,427.98,428.53,429.06,429.57,429.91,430.06,430.07,430.09,430.09,430.09,430.09,430.09,430.09,430.09,430.09,430.09,430.09,430.05,430.03,430.03,430.03,430.08,430.11,430.12,430.10,430.09,430.09,430.06,429.99,430.00,430.46,431.14,431.90,432.63,433.37,433.81,434.15,434.54,434.91,435.14,435.01,434.60,434.19,433.80,433.46,433.20,433.06,433.05,433.11,433.14,433.14,433.16,433.43,433.84,434.28,434.55,434.13,433.43,432.60,431.63,430.65,429.97,429.54,429.29,429.16,429.08,429.00,428.90,428.74,428.61,428.50,428.37,428.19,428.01,427.87,427.78,427.69,427.62,427.55,427.46,427.39,427.33,427.32,427.32,427.31,427.28,427.23,427.21,427.25,427.35,427.50,427.59,427.83,428.11,428.40,428.68,428.92,429.18,429.49,429.85,430.07,430.14,430.15,430.18,430.25,430.38,430.45,430.51
416.99,417.13,417.10,416.96,416.72,416.35,416.02,415.66,415.31,414.98,414.62,414.42,414.32,414.37,414.67,414.99,415.30,415.60,415.93,416.29,416.48,416.53,416.53,416.53,416.52,416.47,416.42,416.41,416.40,416.36,416.33,416.32,416.19,415.96,415.72,415.47,415.17,414.93,414.64,414.37,414.12,413.82,413.70,413.71,413.83,414.05,414.28,414.47,414.65,414.88,415.10,415.28,415.44,415.60,415.76,416.04,416.29,416.43,416.35,416.22,416.16,416.13,416.14,416.43,416.80,417.22,417.68,418.12,418.52,418.81,418.96,418.97,418.97,418.97,419.00,419.05,419.06,419.06,419.06,419.06,419.06,419.07,419.07,419.10,419.15,419.15,419.15,419.15,419.16,419.16,419.17,419.28,419.51,419.88,420.46,421.00,421.57,422.18,422.79,423.41,424.00,424.50,424.77,424.90,425.02,425.28,425.76,426.30,426.92,427.29,427.39,427.54,427.68,427.53,427.04,426.21,425.35,424.67,424.11,423.80,424.00,424.35,424.73,425.07,425.28,425.27,425.25,425.28,425.35,425.37,425.40,425.62,425.98,426.11,426.14,426.20,426.31,426.44,426.53,426.61,426.75,426.98,427.27,427.52,427.67,427.75,427.84,427.90,428.18,428.62,429.15,429.75,430.34,430.65,430.68,430.73,430.75,430.75,430.75,430.75,430.75,430.75,430.75,430.75,430.75,430.74,430.74,430.74,430.74,430.75,430.80,430.82,430.76,430.75,430.75,430.72,430.61,430.39,430.72,431.35,432.11,432.87,433.58,434.00,434.34,434.74,435.12,435.54,435.57,435.24,434.79,434.40,434.16,434.04,434.02,434.02,434.07,434.12,434.12,434.12,434.16,434.44,434.87,435.13,434.70,433.90,432.97,431.99,431.02,430.27,429.82,429.60,429.50,429.41,429.33,429.22,429.08,428.98,428.84,428.66,428.44,428.23,428.12,428.04,427.96,427.88,427.80,427.72,427.65,427.59,427.58,427.58,427.55,427.50,427.48,427.48,427.49,427.50,427.51,427.48,427.63,427.86,428.08,428.31,428.54,428.85,429.21,429.59,429.89,429.99,430.03,430.11,430.19,430.27,430.35,430.44
417.49,417.54,417.53,417.44,417.25,416.91,416.56,416.22,415.87,415.52,415.25,415.10,414.87,414.72,414.95,415.25,415.56,415.88,416.24,416.57,416.88,416.99,416.96,416.95,416.95,416.94,416.90,416.86,416.86,416.84,416.80,416.74,416.67,416.48,416.24,415.99,415.69,415.40,415.13,414.88,414.64,414.34,414.14,414.10,414.21,414.44,414.63,414.82,415.02,415.20,415.39,415.56,415.73,415.93,416.13,416.38,416.65,416.86,416.86,416.72,416.61,416.54,416.54,416.66,416.99,417.41,417.88,418.34,418.78,419.14,419.39,419.47,419.48,419.48,419.49,419.51,419.51,419.51,419.51,419.53,419.57,419.58,419.58,419.59,419.62,419.62,419.62,419.64,419.68,419.68,419.72,419.81,419.99,420.36,420.78,421.19,421.67,422.25,422.87,423.49,424.10,424.67,425.12,425.57,425.70,425.85,426.28,426.77,427.32,427.71,427.89,428.01,428.15,428.12,427.76,426.93,425.96,425.04,424.42,424.25,424.53,424.86,425.21,425.53,425.76,425.70,425.63,425.63,425.71,425.80,426.03,426.38,426.72,426.79,426.84,426.90,426.99,427.09,427.17,427.35,427.59,427.88,428.18,428.43,428.57,428.64,428.67,428.67,428.78,428.99,429.36,429.99,430.73,431.20,431.36,431.39,431.39,431.39,431.39,431.39,431.39,431.39,431.39,431.39,431.39,431.39,431.39,431.41,431.45,431.46,431.51,431.54,431.52,431.51,431.48,431.44,431.36,431.13,431.20,431.63,432.31,433.07,433.77,434.20,434.56,434.98,435.38,435.82,435.99,435.84,435.43,435.12,434.98,434.95,434.99,435.00,435.02,435.05,435.09,435.09,435.09,435.23,435.49,435.71,435.16,434.31,433.42,432.60,431.79,431.10,430.60,430.27,430.05,429.84,429.68,429.54,429.39,429.27,429.09,428.87,428.66,428.52,428.43,428.35,428.26,428.14,428.07,427.98,427.93,427.90,427.90,427.86,427.82,427.80,427.80,427.80,427.80,427.80,427.79,427.76,427.79,427.86,427.95,428.01,428.20,428.50,428.84,429.17,429.49,429.68,429.83,429.98,430.06,430.14,430.22,430.31
417.97,417.97,417.95,417.89,417.75,417.47,417.11,416.77,416.42,416.09,415.90,415.80,415.54,415.25,415.25,415.53,415.84,416.17,416.53,416.87,417.24,417.40,417.37,417.35,417.35,417.35,417.33,417.27,417.25,417.24,417.21,417.15,417.13,416.97,416.76,416.51,416.20,415.91,415.65,415.40,415.16,414.86,414.61,414.52,414.60,414.81,414.98,415.18,415.37,415.53,415.68,415.84,416.02,416.24,416.49,416.74,417.01,417.26,417.36,417.25,417.09,416.99,416.97,416.96,417.21,417.61,418.07,418.54,419.00,419.41,419.76,420.00,420.12,420.14,420.15,420.17,420.17,420.17,420.18,420.21,420.26,420.26,420.28,420.29,420.29,420.31,420.30,420.34,420.42,420.44,420.51,420.59,420.76,421.11,421.39,421.69,422.08,422.57,423.07,423.59,424.16,424.75,425.32,426.00,426.31,426.52,426.89,427.32,427.75,428.13,428.38,428.49,428.63,428.72,428.52,427.76,426.64,425.49,424.78,424.72,425.02,425.33,425.64,425.95,426.21,426.12,426.01,426.00,426.15,426.37,426.77,427.17,427.46,427.50,427.55,427.62,427.69,427.77,427.83,428.01,428.28,428.60,428.98,429.30,429.49,429.54,429.54,429.54,429.53,429.56,429.74,430.31,431.08,431.70,432.03,432.05,432.05,432.05,432.05,432.05,432.05,432.05,432.05,432.05,432.06,432.07,432.07,432.09,432.16,432.17,432.22,432.27,432.27,432.29,432.24,432.19,432.14,431.93,431.82,432.04,432.54,433.27,433.97,434.41,434.78,435.22,435.63,436.06,436.37,436.42,436.13,435.93,435.87,435.90,435.96,435.97,435.97,435.99,436.04,436.04,436.04,436.07,436.19,436.30,435.71,434.88,434.10,433.41,432.72,432.11,431.57,431.14,430.84,430.54,430.32,430.08,429.77,429.53,429.29,429.06,428.89,428.80,428.73,428.66,428.56,428.43,428.33,428.23,428.20,428.24,428.24,428.20,428.17,428.16,428.15,428.15,428.15,428.15,428.15,428.15,428.10,428.07,428.05,428.00,428.10,428.29,428.51,428.75,429.00,429.24,429.48,429.71,429.83,429.93,430.05,430.17
418.42,418.41,418.36,418.29,418.18,417.98,417.68,417.32,416.97,416.70,416.59,416.52,416.37,416.06,415.60,415.84,416.16,416.48,416.81,417.18,417.56,417.78,417.80,417.75,417.74,417.73,417.73,417.71,417.65,417.63,417.60,417.54,417.53,417.45,417.28,417.02,416.73,416.48,416.20,415.92,415.68,415.38,415.13,414.99,414.97,415.14,415.35,415.54,415.70,415.85,416.01,416.16,416.32,416.52,416.81,417.11,417.37,417.63,417.86,417.76,417.61,417.49,417.42,417.36,417.48,417.81,418.27,418.73,419.19,419.60,420.05,420.57,420.94,421.04,421.08,421.14,421.15,421.15,421.18,421.23,421.25,421.25,421.29,421.34,421.35,421.40,421.36,421.40,421.53,421.60,421.68,421.76,421.91,422.21,422.40,422.67,422.99,423.31,423.53,423.80,424.23,424.78,425.39,426.07,426.74,427.24,427.53,427.91,428.26,428.58,428.85,429.00,429.16,429.31,429.24,428.61,427.31,425.99,425.19,425.13,425.46,425.79,426.10,426.40,426.66,426.58,426.43,426.44,426.75,427.16,427.57,427.93,428.19,428.26,428.28,428.33,428.41,428.48,428.49,428.53,428.67,429.03,429.58,430.09,430.38,430.45,430.44,430.44,430.39,430.34,430.37,430.75,431.39,432.10,432.65,432.69,432.70,432.70,432.70,432.70,432.70,432.70,432.70,432.71,432.77,432.78,432.78,432.80,432.87,432.88,432.93,432.98,432.99,433.05,433.01,432.98,432.93,432.71,432.61,432.62,432.85,433.48,434.16,434.63,435.02,435.43,435.87,436.29,436.69,436.98,436.88,436.83,436.82,436.85,436.91,436.92,436.92,436.92,436.93,436.93,436.93,436.94,436.96,436.93,436.45,435.77,435.09,434.44,433.76,433.18,432.68,432.26,431.95,431.69,431.42,430.97,430.25,429.78,429.44,429.24,429.15,429.07,428.99,428.92,428.83,428.73,428.60,428.46,428.45,428.62,428.64,428.63,428.63,428.61,428.55,428.54,428.53,428.53,428.54,428.54,428.53,428.52,428.51,428.44,428.40,428.37,428.36,428.40,428.50,428.69,428.94,429.21,429.42,429.57,429.79,430.02
418.83,418.82,418.75,418.70,418.64,418.50,418.20,417.87,417.56,417.33,417.25,417.18,417.08,416.82,416.28,416.22,416.44,416.75,417.06,417.45,417.83,418.10,418.22,418.18,418.14,418.13,418.13,418.12,418.05,418.02,417.99,417.92,417.88,417.84,417.74,417.56,417.29,417.02,416.75,416.48,416.20,415.90,415.64,415.43,415.31,415.46,415.65,415.81,415.97,416.13,416.28,416.46,416.66,416.87,417.14,417.44,417.73,418.00,418.23,418.24,418.13,418.00,417.92,417.80,417.80,418.03,418.45,418.88,419.30,419.67,420.13,420.81,421.38,421.74,422.00,422.17,422.22,422.23,422.25,422.28,422.32,422.33,422.38,422.43,422.42,422.41,422.36,422.42,422.59,422.71,422.83,422.93,423.07,423.31,423.48,423.72,423.97,424.18,424.34,424.52,424.77,425.10,425.57,426.24,426.96,427.59,428.05,428.41,428.73,429.01,429.26,429.47,429.70,430.01,430.10,429.49,428.28,427.00,426.03,425.63,425.92,426.24,426.55,426.85,427.07,427.02,426.82,426.83,427.30,427.87,428.33,428.70,428.95,428.99,429.00,429.04,429.11,429.14,429.14,429.14,429.20,429.40,429.85,430.43,430.94,431.24,431.20,431.16,431.09,431.02,431.00,431.27,431.81,432.46,433.05,433.30,433.34,433.34,433.34,433.35,433.38,433.40,433.40,433.40,433.44,433.48,433.50,433.51,433.55,433.58,433.62,433.66,433.70,433.74,433.75,433.75,433.71,433.53,433.44,433.38,433.43,433.76,434.37,434.83,435.24,435.67,436.13,436.57,437.01,437.38,437.43,437.43,437.43,437.45,437.48,437.48,437.48,437.48,437.48,437.48,437.48,437.48,437.50,437.54,437.30,436.76,436.10,435.44,434.80,434.26,433.82,433.45,433.11,432.86,432.53,431.89,430.85,430.09,429.69,429.50,429.45,429.38,429.27,429.18,429.09,428.96,428.81,428.69,428.73,428.96,429.06,429.08,429.06,429.02,428.98,428.94,428.90,428.88,428.94,429.01,429.03,429.03,429.01,428.90,428.82,428.74,428.67,428.64,428.66,428.72,428.79,428.89,429.00,429.14,429.38,429.65
419.23,419.21,419.16,419.13,419.09,418.98,418.73,418.44,418.18,418.00,417.92,417.84,417.77,417.58,417.12,416.63,416.69,417.01,417.34,417.73,418.11,418.43,418.61,418.61,418.56,418.52,418.51,418.50,418.44,418.41,418.37,418.30,418.23,418.21,418.17,418.06,417.85,417.56,417.30,417.03,416.72,416.43,416.17,415.90,415.68,415.79,415.94,416.09,416.25,416.40,416.56,416.77,417.00,417.24,417.49,417.78,418.08,418.36,418.59,418.72,418.65,418.52,418.44,418.30,418.23,418.36,418.69,419.05,419.39,419.72,420.18,420.92,421.63,422.22,422.70,423.03,423.20,423.29,423.33,423.35,423.42,423.44,423.49,423.52,423.48,423.40,423.32,423.41,423.64,423.77,423.92,424.01,424.13,424.33,424.47,424.68,424.88,425.05,425.19,425.34,425.46,425.61,425.92,426.49,427.17,427.86,428.50,428.86,429.17,429.46,429.74,430.04,430.40,430.88,431.07,430.44,429.29,428.09,427.00,426.27,426.44,426.74,427.04,427.33,427.53,427.47,427.23,427.21,427.71,428.38,428.95,429.39,429.71,429.84,429.94,430.01,430.05,430.05,430.05,430.00,429.93,429.92,430.15,430.69,431.35,431.87,431.88,431.82,431.75,431.68,431.63,431.80,432.27,432.85,433.42,433.87,434.00,434.01,434.01,434.02,434.07,434.10,434.11,434.11,434.11,434.16,434.20,434.21,434.22,434.29,434.31,434.34,434.40,434.41,434.47,434.52,434.50,434.37,434.28,434.20,434.15,434.20,434.63,435.06,435.49,435.95,436.42,436.88,437.34,437.74,437.89,437.93,437.94,437.94,437.95,437.95,437.94,437.94,437.94,437.94,437.94,437.95,438.02,438.15,438.11,437.72,437.13,436.44,435.83,435.35,434.99,434.66,434.30,434.04,433.59,432.81,431.63,430.68,430.19,429.97,429.87,429.73,429.57,429.44,429.34,429.18,429.03,428.93,429.02,429.31,429.50,429.53,429.49,429.41,429.39,429.33,429.25,429.22,429.32,429.50,429.60,429.61,429.54,429.37,429.26,429.19,429.12,429.04,429.02,428.96,428.88,428.80,428.80,428.90,429.08,429.30
419.68,419.61,419.59,419.54,419.48,419.39,419.28,419.02,418.81,418.71,418.63,418.56,418.48,418.38,418.11,417.08,416.96,417.29,417.67,418.05,418.44,418.78,419.00,419.00,418.99,418.94,418.90,418.89,418.83,418.75,418.71,418.69,418.62,418.61,418.56,418.48,418.36,418.13,417.85,417.55,417.25,417.00,416.71,416.42,416.17,416.14,416.26,416.42,416.57,416.73,416.88,417.10,417.33,417.57,417.87,418.17,418.44,418.71,418.99,419.21,419.17,419.04,418.97,418.88,418.85,418.90,419.06,419.31,419.51,419.82,420.28,420.93,421.63,422.30,422.92,423.47,423.93,424.29,424.43,424.45,424.52,424.59,424.62,424.58,424.46,424.38,424.30,424.41,424.66,424.75,424.84,424.93,425.01,425.11,425.20,425.40,425.62,425.81,425.91,426.06,426.20,426.36,426.56,426.90,427.49,428.19,428.84,429.30,429.58,429.92,430.37,430.93,431.49,432.05,432.25,431.57,430.19,429.08,428.04,427.13,427.07,427.32,427.63,427.91,428.10,427.96,427.68,427.57,427.86,428.52,429.23,429.88,430.44,430.95,431.42,431.57,431.53,431.54,431.53,431.35,431.06,430.80,430.78,431.07,431.58,432.14,432.48,432.47,432.43,432.38,432.26,432.29,432.76,433.34,433.89,434.39,434.64,434.73,434.73,434.73,434.74,434.79,434.82,434.82,434.82,434.83,434.88,434.92,434.93,435.00,435.03,435.05,435.12,435.13,435.18,435.25,435.29,435.20,435.13,435.05,434.97,434.93,435.00,435.36,435.81,436.28,436.74,437.21,437.67,438.07,438.28,438.37,438.39,438.41,438.47,438.47,438.42,438.39,438.39,438.39,438.39,438.46,438.60,438.74,438.74,438.58,438.16,437.48,436.87,436.47,436.15,435.84,435.52,435.22,434.57,433.69,432.77,431.84,431.28,430.87,430.49,430.16,429.92,429.74,429.60,429.44,429.28,429.23,429.35,429.65,429.93,429.99,429.92,429.79,429.73,429.65,429.57,429.55,429.66,429.99,430.27,430.32,430.11,429.84,429.72,429.64,429.57,429.49,429.43,429.35,429.25,429.13,429.12,429.14,429.14,429.14
420.37,420.29,420.22,420.16,420.10,419.99,419.91,419.71,419.54,419.43,419.35,419.27,419.19,419.12,418.93,418.03,417.57,417.60,417.99,418.37,418.73,419.08,419.35,419.39,419.40,419.35,419.29,419.28,419.21,419.13,419.10,419.08,419.01,418.99,418.95,418.88,418.82,418.65,418.40,418.12,417.81,417.54,417.24,416.94,416.67,416.57,416.65,416.77,416.90,417.05,417.21,417.42,417.67,417.94,418.21,418.51,418.80,419.07,419.34,419.61,419.66,419.63,419.59,419.59,419.62,419.66,419.71,419.79,419.90,420.19,420.63,421.18,421.79,422.38,423.00,423.63,424.22,424.79,425.28,425.58,425.58,425.55,425.54,425.48,425.33,425.25,425.11,425.14,425.30,425.34,425.41,425.49,425.57,425.65,425.76,425.99,426.25,426.46,426.62,426.80,426.98,427.13,427.29,427.48,427.88,428.47,429.19,429.81,430.28,430.75,431.31,431.92,432.54,433.14,433.34,432.60,431.15,429.90,428.79,427.91,427.69,427.90,428.19,428.44,428.59,428.42,428.14,427.93,428.02,428.65,429.38,430.05,430.66,431.24,431.82,432.25,432.52,432.60,432.48,432.19,431.86,431.60,431.59,431.75,432.05,432.48,432.97,433.12,433.12,433.04,432.89,432.82,433.24,433.82,434.40,434.92,435.27,435.41,435.44,435.44,435.44,435.47,435.51,435.54,435.54,435.54,435.58,435.64,435.65,435.71,435.74,435.77,435.83,435.84,435.87,435.96,436.07,436.04,435.97,435.89,435.81,435.75,435.70,435.86,436.17,436.60,437.06,437.53,437.99,438.40,438.62,438.75,438.82,438.86,438.90,438.93,438.91,438.89,438.89,438.89,438.92,439.03,439.17,439.28,439.29,439.24,439.00,438.52,437.99,437.63,437.30,436.96,436.61,436.26,435.64,434.84,433.99,433.14,432.64,432.23,431.81,431.38,430.93,430.49,430.09,429.72,429.55,429.47,429.55,429.88,430.43,430.75,430.77,430.56,430.40,430.28,430.17,430.11,430.20,430.58,430.98,431.08,430.84,430.54,430.32,430.18,430.07,429.98,429.84,429.71,429.60,429.50,429.45,429.42,429.36,429.30
421.14,421.11,420.99,420.94,420.89,420.75,420.65,420.51,420.34,420.18,420.09,420.02,419.93,419.84,419.70,419.15,418.50,418.24,418.55,418.86,419.13,419.42,419.71,419.83,419.84,419.78,419.72,419.69,419.62,419.54,419.49,419.45,419.40,419.38,419.33,419.28,419.25,419.14,418.94,418.69,418.38,418.07,417.75,417.44,417.18,417.04,417.07,417.13,417.23,417.38,417.52,417.73,417.99,418.27,418.51,418.80,419.10,419.37,419.62,419.94,420.12,420.21,420.25,420.34,420.40,420.43,420.41,420.36,420.41,420.69,421.11,421.59,422.11,422.59,423.14,423.77,424.36,425.11,425.94,426.57,426.55,426.43,426.37,426.31,426.18,426.07,425.87,425.78,425.81,425.82,425.87,425.94,426.03,426.13,426.28,426.55,426.83,427.06,427.30,427.55,427.75,427.90,428.04,428.13,428.35,428.80,429.52,430.34,431.06,431.72,432.33,432.95,433.58,434.21,434.43,433.66,432.17,430.69,429.46,428.63,428.33,428.50,428.75,428.95,429.06,428.88,428.60,428.30,428.19,428.77,429.46,430.12,430.72,431.29,431.92,432.64,433.27,433.47,433.23,432.86,432.56,432.42,432.49,432.56,432.68,432.93,433.43,433.73,433.78,433.68,433.53,433.39,433.75,434.31,434.90,435.44,435.88,436.08,436.13,436.13,436.15,436.15,436.18,436.24,436.25,436.25,436.29,436.34,436.36,436.43,436.46,436.48,436.55,436.56,436.56,436.68,436.86,436.87,436.81,436.74,436.66,436.58,436.50,436.46,436.60,436.98,437.41,437.87,438.33,438.73,438.95,439.12,439.24,439.30,439.31,439.37,439.39,439.39,439.40,439.41,439.50,439.64,439.78,439.86,439.88,439.88,439.78,439.51,439.09,438.75,438.41,438.04,437.66,437.27,436.76,436.09,435.25,434.50,434.09,433.74,433.33,432.84,432.21,431.53,430.86,430.27,430.00,429.85,429.87,430.20,431.01,431.62,431.73,431.45,431.24,431.07,430.92,430.83,430.88,431.26,431.71,431.85,431.60,431.29,430.99,430.75,430.61,430.51,430.32,430.13,430.00,429.91,429.82,429.72,429.63,429.55
421.91,422.05,422.05,422.04,421.99,421.83,421.69,421.54,421.31,421.02,420.94,420.86,420.75,420.63,420.52,420.28,420.04,419.89,419.87,419.88,419.88,419.93,420.10,420.49,420.45,420.36,420.27,420.15,420.07,419.99,419.89,419.79,419.77,419.72,419.68,419.65,419.60,419.56,419.44,419.20,418.90,418.59,418.23,417.93,417.70,417.55,417.49,417.52,417.61,417.70,417.79,417.99,418.23,418.47,418.71,418.95,419.20,419.44,419.70,420.10,420.46,420.73,420.90,421.04,421.08,421.06,421.01,421.00,421.06,421.37,421.82,422.29,422.76,423.23,423.69,424.13,424.53,425.33,426.26,427.05,427.30,427.25,427.18,427.11,427.00,426.81,426.58,426.41,426.33,426.33,426.35,426.40,426.50,426.64,426.85,427.14,427.41,427.66,427.95,428.24,428.49,428.67,428.76,428.84,429.00,429.26,429.79,430.87,431.89,432.69,433.31,433.93,434.60,435.28,435.60,434.96,433.33,431.61,430.19,429.30,429.03,429.13,429.30,429.46,429.52,429.39,429.08,428.70,428.44,428.87,429.52,430.18,430.81,431.47,432.20,433.00,433.74,434.15,433.89,433.51,433.29,433.32,433.39,433.47,433.56,433.67,433.88,434.27,434.40,434.33,434.19,434.09,434.35,434.80,435.37,435.96,436.48,436.70,436.71,436.73,436.83,436.87,436.88,436.90,436.96,436.97,436.98,437.00,437.06,437.14,437.17,437.19,437.26,437.27,437.31,437.45,437.65,437.71,437.66,437.58,437.50,437.42,437.29,437.21,437.25,437.48,437.82,438.25,438.72,439.11,439.29,439.50,439.66,439.75,439.76,439.77,439.82,439.86,439.87,439.93,440.11,440.31,440.51,440.63,440.71,440.68,440.58,440.38,440.05,439.73,439.41,439.09,438.75,438.32,437.92,437.37,436.51,435.95,435.58,435.24,434.81,434.23,433.66,433.01,432.31,431.60,431.10,430.74,430.61,430.93,431.83,432.46,432.60,432.37,432.20,432.04,431.93,431.84,431.83,432.07,432.45,432.56,432.31,432.01,431.70,431.41,431.19,431.10,430.94,430.74,430.56,430.42,430.27,430.09,429.93,429.82
423.16,423.22,423.17,423.15,423.09,422.93,422.75,422.53,422.22,421.87,421.78,421.70,421.58,421.44,421.32,421.18,421.05,420.95,420.87,420.86,420.85,420.85,420.93,421.25,421.21,421.12,421.02,420.88,420.79,420.69,420.57,420.46,420.39,420.28,420.22,420.17,420.10,420.06,419.97,419.75,419.37,419.03,418.71,418.49,418.35,418.19,418.02,417.95,418.00,418.12,418.26,418.39,418.52,418.66,418.83,418.99,419.19,419.42,419.68,420.11,420.50,420.85,421.16,421.42,421.61,421.65,421.59,421.61,421.73,422.07,422.53,423.00,423.46,423.95,424.40,424.79,425.27,426.07,427.00,427.80,428.08,428.08,428.02,427.91,427.75,427.53,427.27,427.03,426.86,426.89,426.89,426.92,427.01,427.21,427.43,427.72,428.00,428.24,428.55,428.88,429.20,429.45,429.57,429.68,429.82,430.04,430.52,431.58,432.68,433.60,434.33,434.99,435.68,436.37,436.82,436.53,435.12,433.96,432.68,431.35,431.26,431.33,431.38,431.27,430.75,430.12,429.57,429.10,428.80,429.10,429.64,430.31,431.06,431.79,432.56,433.38,434.18,434.73,434.53,434.26,434.14,434.23,434.30,434.38,434.46,434.53,434.63,434.89,435.02,434.98,434.84,434.76,434.92,435.31,435.87,436.48,437.03,437.29,437.34,437.35,437.43,437.50,437.55,437.59,437.66,437.68,437.68,437.70,437.78,437.85,437.88,437.90,437.94,437.98,438.09,438.26,438.44,438.51,438.49,438.42,438.33,438.23,438.10,437.99,437.95,438.04,438.31,438.65,439.06,439.45,439.63,439.93,440.24,440.46,440.55,440.56,440.59,440.63,440.66,440.69,440.87,441.11,441.30,441.42,441.53,441.52,441.42,441.26,440.93,440.64,440.33,440.01,439.72,439.31,438.96,438.51,437.83,437.40,437.07,436.72,436.27,435.72,435.15,434.52,433.86,433.21,432.65,432.26,432.08,432.21,432.79,433.35,433.49,433.29,433.17,433.04,432.95,432.88,432.82,432.90,433.19,433.28,433.02,432.69,432.37,432.06,431.81,431.69,431.54,431.34,431.13,430.98,430.82,430.64,430.46,430.32
424.69,424.55,424.39,424.31,424.22,424.04,423.81,423.51,423.12,422.74,422.63,422.56,422.45,422.31,422.17,422.01,421.87,421.78,421.80,421.86,421.92,421.94,421.97,422.08,422.04,421.96,421.85,421.72,421.62,421.49,421.38,421.27,421.13,420.97,420.85,420.77,420.69,420.61,420.49,420.23,419.80,419.43,419.19,419.09,419.05,418.90,418.64,418.47,418.44,418.59,418.81,418.87,418.88,418.92,419.00,419.07,419.22,419.42,419.65,420.06,420.43,420.80,421.23,421.61,421.99,422.16,422.15,422.19,422.40,422.78,423.25,423.69,424.13,424.69,425.23,425.72,426.32,427.10,427.96,428.66,428.86,428.92,428.85,428.70,428.47,428.23,427.94,427.63,427.40,427.44,427.45,427.45,427.53,427.74,427.96,428.25,428.54,428.79,429.10,429.49,429.93,430.30,430.48,430.63,430.80,431.05,431.53,432.47,433.52,434.50,435.34,436.04,436.75,437.42,437.95,438.02,437.08,436.74,435.82,434.22,434.30,434.14,433.88,433.38,432.20,430.96,430.07,429.48,429.20,429.37,429.79,430.48,431.36,432.15,432.93,433.76,434.59,435.23,435.15,435.05,435.05,435.13,435.20,435.28,435.35,435.41,435.49,435.57,435.64,435.62,435.49,435.40,435.49,435.84,436.41,437.00,437.56,437.87,437.99,438.00,438.00,438.09,438.19,438.27,438.36,438.39,438.39,438.41,438.49,438.56,438.59,438.59,438.61,438.69,438.89,439.09,439.23,439.31,439.33,439.28,439.18,439.03,438.93,438.79,438.68,438.66,438.85,439.09,439.44,439.82,440.04,440.46,440.91,441.28,441.49,441.53,441.53,441.57,441.61,441.56,441.72,441.95,442.14,442.23,442.37,442.37,442.29,442.15,441.79,441.53,441.22,440.86,440.60,440.25,439.91,439.56,439.13,438.82,438.52,438.16,437.73,437.27,436.69,436.08,435.49,434.94,434.41,434.08,433.88,433.79,433.93,434.31,434.41,434.23,434.15,434.07,433.99,433.91,433.84,433.76,433.95,433.99,433.72,433.36,433.03,432.72,432.45,432.28,432.13,431.93,431.73,431.58,431.42,431.25,431.10,430.93
426.31,426.14,425.94,425.72,425.48,425.21,424.92,424.53,424.09,423.68,423.50,423.49,423.45,423.35,423.25,423.10,422.99,422.95,423.00,423.02,423.04,423.02,422.98,422.95,422.88,422.77,422.65,422.55,422.42,422.31,422.20,422.06,421.90,421.70,421.53,421.41,421.33,421.20,420.87,420.48,420.14,419.81,419.74,419.74,419.71,419.62,419.48,419.20,419.00,419.12,419.33,419.39,419.41,419.48,419.55,419.58,419.63,419.69,419.78,420.09,420.45,420.84,421.24,421.63,422.01,422.33,422.58,422.76,423.08,423.50,423.93,424.27,424.63,425.37,426.24,427.02,427.60,428.26,428.92,429.43,429.60,429.77,429.66,429.42,429.18,428.89,428.59,428.25,427.96,427.92,427.92,427.92,427.95,428.08,428.25,428.56,428.90,429.19,429.51,430.02,430.70,431.36,431.67,431.85,432.08,432.37,432.80,433.64,434.63,435.50,436.20,436.90,437.69,438.29,438.65,438.74,438.52,438.49,438.24,437.73,437.59,436.36,435.18,434.21,433.03,431.83,430.64,429.77,429.51,429.54,429.96,430.64,431.52,432.40,433.24,434.12,434.98,435.66,435.80,435.84,435.92,436.03,436.06,436.12,436.17,436.19,436.22,436.28,436.29,436.23,436.12,436.00,436.04,436.41,437.03,437.54,438.07,438.45,438.65,438.69,438.65,438.66,438.72,438.81,438.94,439.06,439.11,439.13,439.20,439.23,439.24,439.26,439.32,439.45,439.70,439.93,440.08,440.21,440.23,440.19,440.07,439.87,439.72,439.57,439.46,439.40,439.46,439.70,440.02,440.38,440.77,441.22,441.68,442.09,442.35,442.48,442.50,442.51,442.53,442.51,442.61,442.79,442.98,443.07,443.21,443.24,443.18,443.00,442.63,442.42,442.10,441.69,441.40,441.07,440.76,440.48,440.25,440.05,439.81,439.54,439.24,438.88,438.35,437.79,437.24,436.69,436.16,435.87,435.70,435.56,435.48,435.44,435.37,435.26,435.18,435.11,435.03,434.95,434.87,434.74,434.76,434.68,434.38,434.05,433.74,433.44,433.13,432.88,432.71,432.55,432.38,432.22,432.06,431.87,431.68,431.52
427.93,427.79,427.47,427.11,426.75,426.40,425.98,425.55,425.15,424.85,424.68,424.64,424.57,424.47,424.38,424.24,424.12,424.05,424.03,424.01,423.98,423.92,423.84,423.76,423.69,423.56,423.44,423.35,423.23,423.12,422.99,422.83,422.68,422.46,422.25,422.06,421.83,421.56,421.18,420.83,420.59,420.37,420.34,420.34,420.34,420.29,420.19,419.87,419.55,419.51,419.76,419.83,419.91,420.06,420.13,420.14,420.14,420.14,420.17,420.34,420.55,420.87,421.27,421.66,422.05,422.44,422.80,423.10,423.47,423.87,424.25,424.60,425.02,425.99,427.09,428.05,428.79,429.90,430.85,431.47,431.72,431.77,431.51,431.05,430.46,429.72,429.22,428.81,428.50,428.42,428.41,428.41,428.42,428.48,428.60,428.85,429.15,429.47,429.86,430.58,431.47,432.34,432.84,433.10,433.38,433.69,434.07,434.80,435.70,436.44,437.01,437.72,438.33,438.72,438.93,439.00,439.08,439.18,439.24,439.17,438.76,437.26,435.84,434.70,433.54,432.35,431.19,430.29,429.89,429.78,430.25,431.00,431.89,432.81,433.67,434.57,435.46,436.19,436.50,436.60,436.67,436.75,436.78,436.83,436.84,436.84,436.85,436.89,436.88,436.83,436.76,436.62,436.60,436.93,437.57,438.13,438.64,439.03,439.29,439.40,439.35,439.30,439.30,439.37,439.52,439.65,439.77,439.90,440.02,440.07,440.08,440.11,440.20,440.37,440.65,440.89,441.04,441.16,441.18,441.13,441.02,440.82,440.66,440.49,440.29,440.10,440.09,440.29,440.61,441.00,441.49,441.96,442.43,442.85,443.19,443.39,443.44,443.46,443.48,443.48,443.49,443.62,443.79,443.88,444.01,444.08,444.04,443.85,443.51,443.31,443.00,442.56,442.19,441.88,441.58,441.34,441.16,441.00,440.79,440.58,440.39,440.10,439.66,439.23,438.83,438.40,437.90,437.61,437.39,437.10,436.75,436.42,436.21,436.11,436.04,435.98,435.92,435.83,435.75,435.63,435.54,435.35,435.04,434.73,434.42,434.11,433.80,433.51,433.33,433.16,432.99,432.83,432.68,432.48,432.31,432.15
429.37,429.26,428.85,428.42,428.01,427.59,427.02,426.59,426.30,426.14,426.04,425.92,425.77,425.64,425.55,425.40,425.24,425.08,424.96,424.88,424.80,424.72,424.64,424.56,424.47,424.34,424.22,424.13,424.06,423.93,423.77,423.60,423.42,423.18,422.93,422.63,422.21,421.80,421.51,421.31,421.15,421.06,420.98,420.95,420.94,420.89,420.74,420.44,420.08,419.84,420.12,420.24,420.40,420.65,420.73,420.75,420.75,420.75,420.75,420.77,420.79,420.96,421.36,421.73,422.10,422.49,422.87,423.25,423.63,423.98,424.33,424.75,425.37,426.54,427.79,428.89,430.07,431.96,433.42,434.24,434.57,434.40,434.00,433.32,432.25,430.89,429.98,429.38,429.02,428.94,428.92,428.92,428.92,428.94,429.01,429.15,429.38,429.73,430.28,431.23,432.30,433.28,433.98,434.36,434.67,434.98,435.34,435.95,436.72,437.32,437.78,438.44,438.73,438.87,438.95,439.02,439.10,439.23,439.31,439.19,438.53,437.31,436.11,435.01,433.89,432.72,431.80,431.06,430.48,430.25,430.75,431.56,432.47,433.38,434.25,435.14,436.04,436.80,437.21,437.31,437.32,437.34,437.41,437.43,437.44,437.44,437.44,437.44,437.44,437.43,437.40,437.27,437.18,437.44,438.06,438.73,439.26,439.68,439.99,440.13,440.07,439.99,439.95,439.99,440.13,440.24,440.45,440.72,440.94,441.03,441.07,441.10,441.19,441.40,441.69,441.93,442.06,442.13,442.16,442.12,442.01,441.85,441.69,441.48,441.15,440.78,440.73,440.86,441.18,441.66,442.19,442.67,443.14,443.61,444.03,444.28,444.35,444.39,444.44,444.44,444.37,444.44,444.57,444.65,444.80,444.90,444.88,444.70,444.41,444.22,443.91,443.44,443.00,442.67,442.39,442.16,441.94,441.79,441.58,441.42,441.29,441.05,440.68,440.39,440.18,439.91,439.49,439.20,438.88,438.39,437.75,437.26,436.97,436.83,436.76,436.74,436.68,436.60,436.53,436.45,436.26,436.00,435.69,435.38,435.07,434.76,434.45,434.16,433.97,433.77,433.58,433.42,433.27,433.11,432.95,432.79
429.83,429.80,429.65,429.46,429.16,428.66,428.15,427.78,427.50,427.32,427.24,427.10,426.94,426.80,426.66,426.51,426.28,426.06,425.92,425.84,425.72,425.62,425.53,425.39,425.22,425.09,425.00,424.92,424.84,424.75,424.57,424.29,423.98,423.61,423.22,422.83,422.50,422.27,422.13,421.99,421.85,421.77,421.65,421.59,421.54,421.38,421.09,420.80,420.52,420.31,420.49,420.74,421.05,421.34,421.38,421.38,421.38,421.40,421.44,421.45,421.42,421.44,421.59,421.77,422.11,422.49,422.87,423.21,423.59,423.99,424.40,424.86,425.74,427.01,428.33,429.82,432.21,434.52,435.82,436.28,436.43,436.33,436.13,435.66,434.67,433.15,431.46,430.19,429.54,429.45,429.40,429.38,429.38,429.39,429.46,429.56,429.75,430.20,431.21,432.28,433.37,434.37,435.10,435.56,435.91,436.24,436.63,437.13,437.69,438.13,438.42,438.76,438.95,439.05,439.11,439.15,439.22,439.31,439.39,439.30,438.62,437.47,436.31,435.29,434.44,433.58,432.85,432.23,431.75,431.56,431.86,432.50,433.33,434.21,435.10,435.99,436.82,437.49,437.79,437.89,437.91,437.93,438.00,438.02,438.02,438.02,438.02,438.02,438.02,438.02,438.00,437.91,437.78,437.99,438.58,439.27,439.95,440.66,441.14,441.04,440.87,440.73,440.67,440.74,440.84,441.05,441.35,441.68,441.91,442.05,442.13,442.17,442.23,442.44,442.73,442.94,443.02,443.06,443.15,443.15,443.05,442.89,442.69,442.43,442.02,441.52,441.30,441.42,441.79,442.31,442.85,443.37,443.88,444.38,444.82,445.12,445.27,445.34,445.36,445.35,445.25,445.28,445.40,445.44,445.57,445.71,445.73,445.55,445.31,445.13,444.82,444.35,443.90,443.52,443.21,442.94,442.73,442.61,442.46,442.30,442.14,441.90,441.46,441.11,440.87,440.67,440.38,440.13,439.78,439.23,438.56,438.05,437.74,437.60,437.53,437.47,437.40,437.33,437.25,437.17,436.98,436.71,436.39,436.04,435.72,435.41,435.10,434.80,434.58,434.39,434.22,434.07,433.91,433.72,433.53,433.38
430.00,430.00,430.00,429.97,429.81,429.45,429.14,428.91,428.69,428.49,428.38,428.25,428.11,427.95,427.79,427.59,427.30,427.03,426.89,426.78,426.66,426.56,426.47,426.33,426.09,425.90,425.77,425.67,425.58,425.47,425.20,424.76,424.32,423.88,423.49,423.17,422.95,422.86,422.78,422.67,422.53,422.44,422.33,422.24,422.15,421.94,421.63,421.36,421.13,420.97,421.04,421.38,421.75,422.03,422.06,422.07,422.07,422.08,422.13,422.13,422.10,422.07,422.08,422.13,422.34,422.61,422.89,423.19,423.55,423.99,424.42,424.90,426.00,427.41,429.03,431.10,434.20,436.24,437.21,437.50,437.60,437.56,437.50,437.22,436.46,435.15,433.09,431.45,430.61,430.39,430.27,430.25,430.26,430.27,430.35,430.46,430.72,431.26,432.31,433.41,434.50,435.49,436.18,436.71,437.07,437.39,437.73,438.04,438.36,438.63,438.82,438.96,439.11,439.22,439.27,439.31,439.38,439.44,439.49,439.41,438.81,437.87,436.89,436.03,435.36,434.67,434.02,433.47,433.09,432.99,433.21,433.66,434.30,435.09,435.98,436.86,437.63,438.13,438.35,438.46,438.51,438.54,438.59,438.60,438.60,438.60,438.57,438.57,438.58,438.60,438.59,438.51,438.40,438.56,439.09,439.85,440.65,441.52,442.11,441.89,441.67,441.47,441.40,441.48,441.59,441.90,442.27,442.64,442.91,443.10,443.20,443.25,443.30,443.49,443.77,443.96,444.00,444.04,444.14,444.17,444.08,443.89,443.69,443.34,442.86,442.29,441.90,442.01,442.42,442.96,443.50,444.04,444.58,445.11,445.58,445.95,446.17,446.28,446.30,446.29,446.14,446.14,446.23,446.25,446.36,446.52,446.57,446.41,446.23,446.03,445.69,445.22,444.77,444.35,444.02,443.76,443.57,443.46,443.32,443.16,443.00,442.75,442.28,441.85,441.51,441.30,441.10,440.84,440.46,439.93,439.32,438.85,438.52,438.35,438.27,438.19,438.13,438.07,437.99,437.89,437.68,437.39,437.07,436.72,436.40,436.06,435.71,435.42,435.20,435.03,434.87,434.71,434.53,434.33,434.16,434.00
430.01,430.01,430.01,430.00,429.98,429.93,429.90,429.87,429.75,429.55,429.41,429.32,429.21,429.06,428.90,428.64,428.30,428.02,427.86,427.71,427.62,427.54,427.46,427.37,427.09,426.80,426.55,426.41,426.30,426.09,425.65,425.01,424.49,424.08,423.83,423.67,423.58,423.50,423.42,423.32,423.18,423.09,423.01,422.91,422.76,422.60,422.37,422.13,421.93,421.79,421.77,422.13,422.49,422.69,422.76,422.77,422.77,422.78,422.79,422.79,422.79,422.78,422.78,422.79,422.82,422.88,423.01,423.25,423.59,424.00,424.41,424.87,426.12,427.72,429.82,432.61,435.77,437.05,437.65,438.05,438.24,438.21,438.18,438.02,437.55,436.73,434.79,433.12,432.19,431.78,431.58,431.57,431.63,431.64,431.72,431.89,432.26,432.87,433.57,434.59,435.67,436.62,437.24,437.77,438.14,438.41,438.60,438.65,438.73,438.87,439.01,439.10,439.24,439.35,439.43,439.49,439.57,439.59,439.59,439.51,439.07,438.48,437.85,437.22,436.58,435.91,435.26,434.72,434.42,434.45,434.70,435.00,435.36,436.05,436.85,437.73,438.43,438.69,438.91,439.04,439.11,439.17,439.19,439.19,439.18,439.16,439.10,439.10,439.14,439.19,439.17,439.12,439.05,439.18,439.64,440.50,441.34,442.24,442.83,442.66,442.44,442.21,442.11,442.21,442.38,442.77,443.19,443.57,443.93,444.18,444.27,444.30,444.39,444.54,444.81,444.98,445.00,445.06,445.14,445.17,445.10,444.88,444.70,444.23,443.66,443.10,442.54,442.64,443.06,443.61,444.15,444.69,445.23,445.77,446.29,446.76,447.05,447.20,447.26,447.25,447.07,447.02,447.08,447.09,447.16,447.34,447.41,447.27,447.18,446.93,446.54,446.08,445.61,445.15,444.83,444.62,444.46,444.31,444.16,444.01,443.83,443.59,443.17,442.67,442.21,441.92,441.73,441.42,441.01,440.56,440.12,439.72,439.37,439.11,439.01,438.93,438.89,438.85,438.76,438.61,438.35,438.04,437.73,437.41,437.09,436.70,436.29,436.01,435.83,435.68,435.52,435.35,435.14,434.96,434.81,434.65
430.08,430.12,430.13,430.09,430.06,430.07,430.12,430.13,430.09,430.00,429.90,429.86,429.81,429.75,429.68,429.54,429.31,429.07,428.84,428.68,428.62,428.57,428.50,428.44,428.14,427.81,427.52,427.28,427.05,426.60,426.00,425.32,424.75,424.49,424.35,424.25,424.17,424.10,424.01,423.93,423.83,423.75,423.67,423.58,423.47,423.35,423.14,422.91,422.72,422.61,422.47,422.86,423.24,423.39,423.42,423.43,423.43,423.45,423.49,423.50,423.50,423.50,423.50,423.50,423.50,423.51,423.56,423.70,423.88,424.12,424.40,424.87,426.14,427.76,430.17,433.41,436.30,437.47,438.10,438.58,438.83,438.89,438.86,438.76,438.51,437.98,436.37,434.86,433.92,433.47,433.26,433.29,433.39,433.44,433.56,433.73,434.07,434.60,435.22,435.96,436.80,437.62,438.26,438.69,438.93,439.06,439.12,439.04,439.00,439.07,439.20,439.28,439.39,439.50,439.60,439.63,439.70,439.69,439.67,439.62,439.42,439.23,438.91,438.45,437.82,437.18,436.52,435.99,435.78,435.92,436.20,436.47,436.74,437.16,437.81,438.52,439.09,439.27,439.46,439.60,439.70,439.78,439.82,439.79,439.74,439.70,439.67,439.66,439.72,439.77,439.77,439.79,439.85,440.10,440.61,441.30,442.07,442.95,443.55,443.38,443.16,442.93,442.83,442.95,443.24,443.67,444.12,444.54,444.91,445.17,445.31,445.41,445.49,445.59,445.85,446.01,446.02,446.05,446.12,446.14,446.09,445.89,445.56,445.06,444.48,443.89,443.30,443.29,443.68,444.26,444.80,445.34,445.88,446.42,446.96,447.52,447.87,448.08,448.18,448.17,448.02,447.94,447.92,447.93,448.00,448.15,448.22,448.13,448.13,447.86,447.44,446.98,446.50,445.96,445.64,445.47,445.31,445.16,445.00,444.85,444.68,444.44,444.01,443.51,443.01,442.63,442.40,442.03,441.64,441.37,441.27,440.99,440.57,440.13,439.91,439.81,439.72,439.61,439.48,439.28,439.00,438.69,438.37,438.02,437.62,437.21,436.83,436.59,436.47,436.32,436.17,436.00,435.78,435.61,435.45,435.30
430.24,430.23,430.22,430.19,430.16,430.16,430.21,430.25,430.25,430.24,430.19,430.19,430.19,430.19,430.18,430.11,429.99,429.82,429.62,429.50,429.48,429.45,429.41,429.38,429.09,428.74,428.39,428.05,427.77,427.20,426.51,425.85,425.30,425.11,425.02,424.94,424.86,424.77,424.69,424.58,424.45,424.37,424.31,424.24,424.16,424.07,423.91,423.71,423.54,423.43,423.16,423.58,423.99,424.08,424.11,424.11,424.11,424.13,424.17,424.18,424.18,424.19,424.21,424.21,424.21,424.22,424.25,424.30,424.36,424.45,424.61,425.02,426.18,427.73,430.04,433.19,436.37,437.69,438.44,439.10,439.69,440.31,440.53,440.45,440.13,439.45,437.94,436.52,435.59,435.21,435.04,435.08,435.22,435.33,435.47,435.63,435.89,436.32,436.89,437.44,438.20,439.21,440.35,441.06,441.03,440.44,439.59,439.35,439.24,439.26,439.40,439.50,439.57,439.67,439.75,439.76,439.81,439.77,439.72,439.71,439.65,439.69,439.61,439.33,438.88,438.39,437.77,437.26,437.13,437.40,437.70,437.96,438.19,438.44,438.87,439.35,439.72,439.86,440.03,440.21,440.34,440.42,440.50,440.48,440.42,440.36,440.36,440.36,440.40,440.44,440.45,440.54,440.72,441.08,441.63,442.20,442.88,443.69,444.26,444.10,443.88,443.66,443.59,443.76,444.15,444.59,445.04,445.49,445.86,446.15,446.37,446.50,446.56,446.66,446.88,447.02,447.02,447.05,447.10,447.13,447.09,446.86,446.41,445.88,445.29,444.63,443.97,443.89,444.26,444.87,445.40,445.95,446.51,447.07,447.62,448.23,448.67,448.95,449.09,449.08,448.96,448.83,448.76,448.77,448.82,448.94,449.03,449.03,449.07,448.78,448.33,447.82,447.31,446.75,446.44,446.29,446.15,446.00,445.85,445.69,445.53,445.28,444.86,444.36,443.84,443.39,443.09,442.84,442.65,442.59,442.71,442.51,442.10,441.62,441.27,441.12,441.00,440.85,440.63,440.30,439.86,439.40,438.96,438.53,438.09,437.70,437.39,437.20,437.11,436.98,436.82,436.65,436.43,436.26,436.10,435.95
430.55,430.37,430.32,430.29,430.28,430.29,430.30,430.35,430.39,430.39,430.38,430.38,430.38,430.38,430.37,430.30,430.22,430.16,430.13,430.11,430.11,430.10,430.09,430.06,429.85,429.49,429.05,428.66,428.46,427.95,427.31,426.66,426.19,425.98,425.88,425.80,425.71,425.57,425.46,425.29,425.04,424.95,424.92,424.88,424.80,424.71,424.62,424.49,424.35,424.22,423.84,424.30,424.72,424.75,424.81,424.82,424.82,424.82,424.83,424.84,424.84,424.88,424.94,424.95,424.96,424.99,425.04,425.05,425.05,425.06,425.13,425.42,426.28,427.66,429.39,431.87,436.06,437.72,438.59,439.55,441.02,442.84,443.64,443.57,442.83,441.54,439.76,438.18,437.15,436.93,436.82,436.88,437.03,437.17,437.32,437.50,437.72,438.05,438.56,439.16,440.23,441.84,443.95,445.36,444.92,442.97,440.32,439.71,439.48,439.46,439.61,439.76,439.81,439.88,439.94,439.92,439.92,439.86,439.81,439.78,439.71,439.76,439.77,439.73,439.64,439.46,438.95,438.49,438.46,438.88,439.18,439.41,439.64,439.86,440.02,440.20,440.37,440.47,440.67,440.89,441.06,441.14,441.21,441.27,441.26,441.21,441.21,441.21,441.21,441.22,441.25,441.39,441.64,442.06,442.61,443.21,443.79,444.48,444.98,444.81,444.59,444.41,444.40,444.66,445.10,445.52,445.95,446.39,446.78,447.15,447.43,447.58,447.61,447.75,447.91,448.00,448.01,448.07,448.10,448.14,448.10,447.77,447.27,446.72,446.08,445.31,444.52,444.41,444.81,445.44,445.94,446.52,447.13,447.70,448.26,448.87,449.41,449.78,449.96,449.96,449.84,449.70,449.60,449.60,449.61,449.72,449.86,449.96,449.98,449.68,449.18,448.57,447.99,447.49,447.22,447.09,446.99,446.84,446.70,446.55,446.37,446.13,445.70,445.20,444.68,444.21,443.85,443.91,444.13,444.32,444.47,444.26,443.98,443.65,443.17,442.96,442.85,442.69,442.36,441.81,441.02,440.21,439.50,438.95,438.53,438.22,437.99,437.84,437.75,437.62,437.47,437.30,437.08,436.91,436.75,436.60
431.23,430.95,430.69,430.47,430.38,430.41,430.42,430.47,430.51,430.51,430.52,430.55,430.57,430.57,430.56,430.50,430.45,430.44,430.44,430.44,430.44,430.44,430.42,430.36,430.16,429.89,429.59,429.30,429.16,428.77,428.23,427.65,427.21,426.99,426.88,426.79,426.65,426.42,426.20,425.94,425.63,425.49,425.43,425.34,425.22,425.10,425.02,424.95,424.87,424.72,424.50,424.95,425.38,425.50,425.53,425.54,425.54,425.54,425.54,425.54,425.57,425.71,425.97,426.03,426.04,426.08,426.12,426.03,425.90,425.85,425.92,426.16,426.61,427.68,429.00,431.10,435.68,437.32,437.98,439.45,443.38,446.86,448.34,448.42,447.61,446.26,443.89,441.21,439.05,438.61,438.44,438.46,438.56,438.64,438.82,439.22,439.72,440.34,441.26,442.70,444.80,447.10,448.71,449.68,449.17,447.03,443.51,441.02,439.96,439.69,439.86,440.21,440.43,440.60,440.66,440.47,440.29,440.16,440.01,439.86,439.82,439.81,439.83,439.86,439.85,439.80,439.58,439.49,439.75,440.05,440.27,440.46,440.65,440.82,440.92,441.05,441.15,441.16,441.33,441.55,441.75,441.89,441.93,442.00,442.05,442.05,442.05,442.01,442.00,442.01,442.09,442.31,442.65,443.07,443.58,444.15,444.73,445.32,445.69,445.53,445.30,445.13,445.13,445.43,445.95,446.45,446.89,447.32,447.74,448.13,448.42,448.60,448.69,448.80,448.94,449.03,449.04,449.07,449.11,449.14,449.08,448.73,448.18,447.50,446.72,445.87,445.09,444.95,445.33,445.99,446.55,447.12,447.66,448.21,448.80,449.42,449.91,450.28,450.50,450.50,450.41,450.33,450.29,450.33,450.34,450.41,450.53,450.63,450.71,450.46,449.92,449.25,448.69,448.25,448.02,447.91,447.79,447.68,447.57,447.44,447.26,446.98,446.55,446.07,445.51,444.90,444.71,445.07,445.59,446.01,446.21,446.05,445.85,445.63,445.15,444.83,444.68,444.50,444.11,443.47,442.51,441.44,440.38,439.47,439.05,438.79,438.58,438.44,438.35,438.25,438.12,437.96,437.77,437.58,437.40,437.23
432.07,431.74,431.27,430.86,430.63,430.66,430.66,430.70,430.73,430.73,430.74,430.77,430.80,430.79,430.76,430.71,430.69,430.69,430.69,430.69,430.69,430.69,430.67,430.56,430.37,430.20,430.04,429.87,429.77,429.52,429.13,428.65,428.24,428.00,427.84,427.70,427.50,427.20,426.89,426.55,426.21,426.04,425.93,425.81,425.67,425.52,425.42,425.36,425.28,425.15,425.13,425.55,426.00,426.24,426.25,426.25,426.25,426.25,426.25,426.25,426.31,426.54,426.97,427.15,427.21,427.24,427.25,427.07,426.82,426.74,426.85,427.08,427.23,427.89,428.79,430.45,434.42,435.99,436.75,438.78,444.39,448.90,451.25,452.19,452.12,450.97,448.63,445.66,442.95,442.13,441.86,441.79,441.77,441.75,441.94,442.39,442.95,443.70,445.06,447.09,449.79,452.31,453.15,453.22,452.27,450.04,446.34,442.50,440.72,440.17,440.33,440.81,441.17,441.43,441.47,441.17,440.87,440.68,440.48,440.24,440.15,439.94,439.86,439.90,439.90,439.90,439.95,440.25,440.84,441.06,441.22,441.37,441.53,441.68,441.77,441.89,441.97,441.90,442.01,442.20,442.43,442.62,442.67,442.73,442.79,442.85,442.85,442.81,442.80,442.85,443.00,443.30,443.65,444.07,444.55,445.09,445.69,446.18,446.40,446.22,446.01,445.84,445.83,446.11,446.68,447.25,447.73,448.17,448.64,449.06,449.35,449.55,449.67,449.75,449.88,449.94,449.93,449.95,450.00,450.02,449.91,449.56,448.93,448.15,447.28,446.39,445.66,445.49,445.84,446.51,447.14,447.71,448.21,448.74,449.31,449.86,450.30,450.67,450.94,450.99,450.95,450.93,450.95,451.02,451.03,451.08,451.17,451.28,451.45,451.23,450.67,449.96,449.46,449.04,448.83,448.73,448.60,448.52,448.42,448.31,448.14,447.83,447.38,446.86,446.22,445.50,445.60,446.20,446.91,447.48,447.82,447.83,447.75,447.58,447.13,446.71,446.50,446.31,445.85,445.16,444.07,442.81,441.51,440.34,439.73,439.40,439.19,439.04,438.95,438.88,438.77,438.61,438.44,438.23,438.04,437.86
433.05,432.70,432.16,431.61,431.24,431.13,431.12,431.13,431.13,431.13,431.13,431.09,431.06,431.04,430.98,430.96,430.96,430.96,430.96,430.96,430.95,430.95,430.92,430.77,430.61,430.50,430.41,430.31,430.23,430.12,429.89,429.56,429.23,428.94,428.66,428.38,428.09,427.78,427.48,427.14,426.79,426.62,426.47,426.36,426.25,426.10,425.95,425.82,425.68,425.58,425.73,426.09,426.54,426.94,426.97,426.97,426.97,426.97,426.97,426.97,427.02,427.28,427.79,428.20,428.34,428.38,428.33,428.10,427.76,427.71,427.90,428.17,428.28,428.43,428.84,429.82,431.65,433.23,434.76,437.31,442.43,446.67,450.18,453.15,455.13,454.50,453.49,452.03,450.27,448.94,448.58,448.36,448.13,447.99,448.13,448.24,448.36,448.79,450.42,452.24,454.40,456.27,456.40,455.27,453.07,450.37,447.37,443.87,441.88,441.13,441.22,441.62,442.00,442.24,442.25,441.96,441.71,441.53,441.36,441.17,440.87,440.22,439.89,439.90,439.90,439.90,440.08,440.66,441.59,441.89,442.06,442.22,442.37,442.52,442.61,442.73,442.80,442.68,442.74,442.88,443.08,443.29,443.42,443.46,443.51,443.57,443.57,443.62,443.64,443.74,444.02,444.33,444.65,445.04,445.52,446.06,446.66,447.03,447.10,446.88,446.71,446.56,446.51,446.69,447.22,447.81,448.37,448.89,449.41,449.88,450.19,450.37,450.46,450.54,450.62,450.63,450.60,450.65,450.67,450.64,450.50,450.11,449.36,448.56,447.73,446.87,446.24,446.05,446.34,446.97,447.65,448.26,448.83,449.35,449.81,450.18,450.60,451.02,451.35,451.55,451.58,451.58,451.60,451.67,451.68,451.74,451.84,452.01,452.27,452.03,451.46,450.78,450.37,449.93,449.67,449.54,449.46,449.38,449.25,449.13,448.99,448.67,448.17,447.49,446.68,446.02,446.50,447.24,447.95,448.56,449.19,449.55,449.65,449.49,449.04,448.59,448.33,448.09,447.58,446.80,445.58,444.24,442.95,441.78,440.67,440.06,439.83,439.69,439.61,439.53,439.42,439.25,439.04,438.86,438.67,438.44
434.04,433.60,433.04,432.49,432.01,431.71,431.72,431.73,431.73,431.71,431.63,431.59,431.55,431.50,431.42,431.38,431.37,431.37,431.36,431.33,431.28,431.24,431.18,431.02,430.91,430.81,430.74,430.66,430.58,430.50,430.34,430.08,429.85,429.59,429.29,428.99,428.68,428.37,428.06,427.72,427.38,427.20,427.05,426.91,426.78,426.63,426.51,426.38,426.22,426.12,426.27,426.64,427.12,427.57,427.71,427.74,427.75,427.78,427.78,427.78,427.84,428.10,428.63,429.09,429.31,429.35,429.20,428.85,428.47,428.55,428.90,429.23,429.41,429.51,429.74,430.27,431.29,432.66,434.28,436.69,440.92,445.12,449.11,452.93,456.14,457.35,457.48,456.60,454.94,453.33,452.84,452.66,452.56,452.61,452.86,452.96,453.13,453.77,455.61,457.22,458.58,459.26,458.22,455.73,452.76,449.88,447.17,444.15,442.69,442.16,442.16,442.46,442.87,443.08,443.05,442.79,442.59,442.43,442.24,441.90,441.16,440.30,439.90,439.90,439.90,439.90,440.29,441.12,442.19,442.73,442.96,443.09,443.22,443.37,443.45,443.55,443.58,443.45,443.43,443.57,443.78,444.00,444.19,444.24,444.28,444.33,444.34,444.40,444.49,444.67,445.01,445.32,445.66,446.03,446.45,447.02,447.53,447.80,447.81,447.59,447.42,447.27,447.19,447.32,447.79,448.36,448.92,449.45,449.99,450.50,450.85,451.07,451.18,451.26,451.31,451.31,451.28,451.28,451.28,451.20,450.95,450.32,449.50,448.68,448.00,447.54,447.17,446.93,446.91,447.18,447.91,448.62,449.32,449.94,450.37,450.66,451.01,451.38,451.71,451.97,452.12,452.20,452.24,452.28,452.31,452.41,452.59,452.87,453.12,452.84,452.42,452.03,451.68,451.30,451.04,450.87,450.75,450.60,450.44,450.28,450.05,449.53,448.80,447.98,447.21,446.81,447.44,448.23,448.94,449.55,450.12,450.51,450.62,450.46,450.16,449.86,449.63,449.41,449.06,448.27,447.05,445.72,444.42,443.17,441.80,440.93,440.55,440.43,440.32,440.23,440.12,439.95,439.72,439.49,439.28,439.07
435.02,434.48,433.94,433.38,432.84,432.38,432.35,432.36,432.35,432.31,432.18,432.15,432.10,432.02,431.94,431.88,431.86,431.85,431.83,431.75,431.68,431.59,431.49,431.34,431.24,431.15,431.07,430.98,430.91,430.83,430.68,430.46,430.31,430.10,429.84,429.54,429.26,428.95,428.64,428.30,427.96,427.79,427.63,427.48,427.32,427.18,427.10,426.96,426.79,426.68,426.83,427.22,427.70,428.17,428.44,428.51,428.56,428.62,428.62,428.59,428.69,428.97,429.43,429.85,430.12,430.13,429.89,429.49,429.16,429.35,429.80,430.14,430.44,430.63,430.78,431.02,431.64,432.82,434.31,436.40,439.84,444.14,448.43,452.68,456.72,459.67,460.71,460.19,458.59,456.98,456.45,456.34,456.45,456.80,457.31,457.58,457.89,458.62,460.25,461.58,461.95,461.20,459.03,455.57,452.19,449.25,446.78,444.37,443.51,443.22,443.12,443.36,443.76,443.93,443.85,443.63,443.47,443.29,442.98,442.38,441.29,440.31,439.90,439.90,439.90,439.90,440.52,441.58,442.76,443.55,443.84,443.95,444.06,444.19,444.30,444.37,444.37,444.22,444.13,444.26,444.48,444.71,444.93,445.00,445.05,445.10,445.12,445.17,445.29,445.53,445.93,446.28,446.66,447.01,447.39,447.96,448.36,448.54,448.52,448.30,448.13,447.98,447.89,447.98,448.37,448.89,449.44,449.98,450.51,451.04,451.44,451.72,451.87,451.96,451.99,451.99,451.96,451.90,451.88,451.72,451.29,450.47,449.63,448.83,448.38,448.38,448.25,447.91,447.53,447.43,448.10,448.85,449.66,450.41,450.91,451.18,451.48,451.78,452.09,452.38,452.63,452.78,452.84,452.87,452.92,453.06,453.32,453.69,453.94,453.74,453.54,453.40,453.13,452.84,452.59,452.37,452.20,452.01,451.84,451.62,451.21,450.40,449.36,448.41,447.75,447.61,448.29,449.10,449.84,450.43,450.90,451.23,451.30,451.14,450.99,450.83,450.62,450.43,450.24,449.54,448.44,447.18,445.84,444.47,442.95,441.86,441.29,441.21,441.07,440.96,440.86,440.70,440.47,440.19,439.96,439.73
435.93,435.38,434.85,434.26,433.69,433.20,432.99,432.94,432.91,432.85,432.75,432.69,432.62,432.54,432.47,432.45,432.44,432.42,432.35,432.27,432.20,432.09,431.94,431.79,431.65,431.55,431.45,431.32,431.23,431.15,431.00,430.79,430.63,430.47,430.25,430.03,429.83,429.54,429.23,428.89,428.54,428.37,428.21,428.06,427.91,427.77,427.73,427.55,427.31,427.22,427.45,427.82,428.26,428.73,429.13,429.26,429.33,429.41,429.44,429.28,429.54,429.91,430.14,430.40,430.60,430.53,430.25,430.00,429.96,430.13,430.41,430.70,431.16,431.40,431.56,431.73,432.04,433.14,434.50,436.31,439.54,444.19,448.76,453.29,457.73,461.08,462.56,462.54,461.53,460.56,460.24,460.17,460.39,461.13,462.17,462.84,463.13,463.18,463.56,464.37,463.49,461.06,458.26,454.95,451.74,448.96,446.85,445.32,444.68,444.31,444.10,444.33,444.64,444.77,444.70,444.48,444.31,444.02,443.39,442.36,441.28,440.31,439.90,439.90,439.90,439.90,440.72,442.00,443.31,444.34,444.64,444.76,444.89,444.99,445.12,445.18,445.15,445.00,444.92,444.96,445.12,445.36,445.58,445.73,445.80,445.82,445.88,445.90,445.97,446.21,446.72,447.22,447.64,447.99,448.35,448.87,449.13,449.25,449.24,449.01,448.79,448.66,448.61,448.66,448.92,449.40,449.95,450.50,451.03,451.51,451.97,452.32,452.51,452.61,452.68,452.68,452.63,452.61,452.55,452.13,451.45,450.72,449.94,449.34,449.18,449.47,449.45,448.90,448.27,447.92,448.28,448.93,449.73,450.58,451.34,451.69,452.00,452.31,452.60,452.85,453.08,453.26,453.38,453.43,453.46,453.61,453.92,454.36,454.72,454.93,454.94,454.79,454.61,454.43,454.18,453.93,453.78,453.67,453.53,453.19,452.49,451.24,449.83,448.80,448.25,448.23,448.84,449.73,450.55,451.14,451.61,451.90,451.94,451.79,451.64,451.48,451.24,451.00,450.81,450.37,449.66,448.56,447.11,445.60,444.01,442.78,442.07,441.99,441.90,441.78,441.66,441.54,441.32,441.08,440.81,440.48
436.83,436.25,435.70,435.14,434.58,434.06,433.67,433.55,433.49,433.41,433.34,433.26,433.18,433.11,433.04,433.03,433.00,432.95,432.87,432.79,432.72,432.62,432.49,432.34,432.18,432.03,431.88,431.73,431.61,431.50,431.35,431.15,430.97,430.80,430.63,430.43,430.23,430.00,429.77,429.47,429.12,428.92,428.75,428.62,428.50,428.39,428.34,428.13,427.88,427.83,428.10,428.44,428.84,429.30,429.75,429.96,430.07,430.14,430.20,430.14,430.36,430.65,430.84,431.03,431.05,430.94,430.75,430.60,430.54,430.65,430.88,431.16,431.54,431.89,432.23,432.53,432.74,433.56,434.77,436.53,439.60,444.75,449.86,454.73,459.28,462.71,464.71,465.37,465.04,464.54,464.56,464.75,465.16,466.01,467.03,467.74,467.92,467.39,466.17,465.13,463.02,460.05,457.17,454.13,451.29,448.92,447.29,446.38,445.89,445.48,445.15,445.31,445.56,445.62,445.50,445.26,445.00,444.41,443.50,442.35,441.24,440.30,439.90,439.90,439.93,440.18,441.15,442.50,443.87,445.12,445.48,445.59,445.73,445.81,445.96,445.97,445.88,445.77,445.66,445.68,445.80,446.01,446.24,446.44,446.54,446.58,446.62,446.66,446.72,446.92,447.34,447.89,448.41,448.86,449.25,449.66,449.86,449.94,449.92,449.71,449.49,449.37,449.32,449.36,449.59,450.04,450.54,451.04,451.51,452.00,452.51,452.92,453.16,453.26,453.33,453.36,453.31,453.28,453.20,452.72,451.95,451.20,450.59,450.06,450.00,450.41,450.13,449.42,448.79,448.50,448.82,449.27,449.89,450.70,451.62,452.16,452.49,452.76,453.03,453.26,453.49,453.70,453.86,453.97,454.05,454.24,454.52,454.88,455.26,455.62,455.70,455.54,455.40,455.30,455.14,454.98,454.87,454.82,454.75,454.46,453.68,452.10,450.62,449.67,449.19,449.04,449.40,450.23,451.16,451.92,452.34,452.58,452.60,452.44,452.29,452.13,451.88,451.60,451.35,451.01,450.44,449.43,447.94,446.26,444.50,443.50,443.13,442.88,442.72,442.59,442.49,442.39,442.20,441.95,441.66,441.30
437.71,437.12,436.57,436.02,435.47,434.91,434.35,434.15,434.07,433.99,433.91,433.83,433.75,433.68,433.62,433.60,433.54,433.47,433.39,433.31,433.25,433.17,433.07,432.92,432.76,432.56,432.36,432.20,432.04,431.88,431.73,431.54,431.33,431.15,430.99,430.81,430.60,430.44,430.27,430.03,429.68,429.44,429.28,429.17,429.10,429.01,428.93,428.71,428.49,428.45,428.72,429.03,429.40,429.86,430.31,430.59,430.75,430.85,430.93,431.01,431.14,431.32,431.53,431.66,431.52,431.38,431.30,431.21,431.07,431.09,431.27,431.56,431.81,432.25,432.76,433.24,433.50,434.02,435.12,436.92,439.95,445.69,451.32,456.54,461.25,464.66,467.09,468.50,468.97,468.99,469.39,469.89,470.46,471.15,471.77,472.08,471.83,470.61,467.99,465.07,461.99,458.96,456.27,453.58,451.20,449.27,448.05,447.55,447.13,446.63,446.21,446.28,446.48,446.48,446.28,446.00,445.52,444.59,443.47,442.31,441.17,440.27,439.90,439.90,439.97,440.58,441.71,443.08,444.50,445.93,446.33,446.44,446.57,446.65,446.79,446.76,446.63,446.54,446.39,446.40,446.50,446.66,446.90,447.13,447.28,447.35,447.36,447.42,447.50,447.62,447.90,448.47,449.10,449.64,450.07,450.36,450.55,450.61,450.57,450.45,450.22,450.09,450.05,450.09,450.31,450.70,451.16,451.61,452.02,452.53,453.05,453.50,453.79,453.91,453.99,454.03,454.02,453.94,453.87,453.42,452.68,451.97,451.53,451.10,451.03,451.26,450.57,449.74,449.19,449.10,449.50,449.79,450.23,450.93,451.91,452.63,452.96,453.18,453.41,453.65,453.87,454.10,454.32,454.50,454.65,454.85,455.07,455.32,455.70,456.08,456.20,456.05,455.93,455.91,455.87,455.79,455.73,455.72,455.67,455.41,454.64,452.92,451.63,450.86,450.41,450.07,450.13,450.84,451.81,452.69,453.07,453.25,453.25,453.11,452.94,452.79,452.53,452.22,451.91,451.59,450.99,449.97,448.46,446.61,444.86,444.29,444.37,443.93,443.64,443.48,443.35,443.23,443.08,442.82,442.51,442.13
438.57,438.02,437.47,436.93,436.35,435.68,434.97,434.74,434.63,434.51,434.43,434.35,434.27,434.22,434.19,434.13,434.06,433.99,433.91,433.84,433.81,433.75,433.66,433.50,433.29,433.11,432.94,432.78,432.57,432.40,432.22,432.00,431.77,431.61,431.42,431.22,431.05,430.89,430.74,430.51,430.20,429.96,429.84,429.75,429.68,429.60,429.47,429.30,429.11,428.98,429.24,429.55,429.90,430.32,430.77,431.09,431.33,431.51,431.64,431.73,431.86,432.02,432.16,432.20,432.08,431.95,431.88,431.80,431.65,431.58,431.65,431.90,432.19,432.53,432.98,433.51,434.02,434.48,435.56,437.52,440.93,447.27,453.03,458.52,463.98,467.38,469.96,472.07,473.67,474.52,475.25,475.99,476.50,476.45,476.04,474.99,473.30,470.89,467.97,464.77,461.60,458.71,456.42,454.22,452.26,450.62,449.44,448.91,448.33,447.69,447.18,447.20,447.39,447.35,447.09,446.65,445.69,444.52,443.34,442.19,441.05,440.23,439.90,439.90,440.02,441.01,442.39,443.89,445.38,446.78,447.21,447.33,447.42,447.50,447.59,447.54,447.40,447.31,447.17,447.14,447.19,447.32,447.60,447.85,448.03,448.13,448.13,448.21,448.28,448.34,448.49,449.06,449.72,450.29,450.72,450.96,451.13,451.19,451.22,451.26,451.01,450.88,450.82,450.86,451.03,451.33,451.74,452.20,452.66,453.13,453.57,453.99,454.38,454.60,454.66,454.70,454.73,454.66,454.58,454.27,453.83,453.45,453.07,452.91,452.64,451.98,450.92,449.96,449.53,449.65,450.20,450.64,451.05,451.62,452.44,453.15,453.40,453.57,453.80,454.03,454.21,454.46,454.74,455.00,455.17,455.34,455.51,455.72,456.09,456.48,456.62,456.53,456.50,456.50,456.49,456.44,456.38,456.37,456.14,455.69,454.90,453.65,452.96,452.47,451.99,451.54,451.45,451.98,452.70,453.32,453.76,453.93,453.92,453.81,453.66,453.45,453.18,452.87,452.55,452.19,451.32,450.07,448.46,446.52,445.48,445.51,445.85,445.39,444.98,444.63,444.31,444.04,443.92,443.71,443.37,442.94
439.37,438.79,438.19,437.55,436.84,436.11,435.49,435.28,435.18,435.06,434.99,434.91,434.84,434.77,434.73,434.66,434.58,434.51,434.44,434.39,434.35,434.30,434.20,434.04,433.85,433.68,433.52,433.36,433.13,432.96,432.77,432.53,432.27,432.07,431.86,431.65,431.49,431.34,431.19,430.97,430.68,430.48,430.35,430.25,430.18,430.13,430.02,429.88,429.70,429.55,429.80,430.09,430.40,430.77,431.23,431.56,431.85,432.10,432.30,432.40,432.53,432.62,432.61,432.61,432.57,432.51,432.46,432.38,432.24,432.13,432.12,432.24,432.50,432.85,433.25,433.73,434.33,434.84,436.12,438.45,442.34,448.50,454.56,460.67,466.80,470.75,473.89,476.61,478.78,479.96,480.72,481.20,481.13,480.02,478.26,476.05,473.48,470.59,467.64,464.68,461.83,459.28,457.36,455.53,453.84,452.40,451.29,450.24,449.42,448.71,448.18,448.11,448.24,448.12,447.73,447.01,445.77,444.50,443.28,442.09,440.93,440.18,439.90,440.09,440.89,442.07,443.34,444.72,446.24,447.63,448.07,448.19,448.26,448.34,448.39,448.31,448.17,448.06,447.94,447.88,447.90,448.01,448.27,448.52,448.72,448.88,448.91,448.98,449.06,449.14,449.31,449.79,450.40,450.93,451.32,451.59,451.76,451.82,451.89,452.04,451.83,451.69,451.65,451.67,451.76,452.00,452.35,452.79,453.26,453.75,454.18,454.60,455.06,455.31,455.39,455.42,455.44,455.34,455.25,455.07,454.85,454.72,454.56,454.31,453.79,452.85,451.59,450.45,449.96,450.16,450.83,451.44,451.92,452.43,453.10,453.76,453.98,454.08,454.23,454.39,454.58,454.83,455.15,455.48,455.71,455.87,455.98,456.12,456.48,456.87,457.06,457.08,457.08,457.08,457.08,457.06,457.01,456.92,456.56,456.04,455.40,454.68,454.36,454.08,453.67,453.10,452.79,453.21,453.82,454.24,454.58,454.66,454.61,454.50,454.37,454.18,453.93,453.64,453.26,452.50,451.33,449.90,448.25,446.55,446.38,446.91,447.33,446.84,446.38,445.96,445.58,445.22,444.96,444.65,444.27,443.86
440.06,439.44,438.74,437.95,437.12,436.36,435.96,435.81,435.74,435.66,435.58,435.50,435.43,435.38,435.30,435.22,435.13,435.06,434.99,434.97,434.90,434.83,434.72,434.58,434.42,434.26,434.11,433.94,433.72,433.54,433.36,433.11,432.81,432.57,432.34,432.13,431.96,431.80,431.64,431.42,431.15,430.99,430.83,430.73,430.66,430.64,430.57,430.44,430.27,430.14,430.39,430.64,430.91,431.25,431.68,432.02,432.32,432.63,432.90,433.01,433.12,433.11,432.95,432.94,432.99,433.02,433.00,432.94,432.81,432.71,432.64,432.62,432.78,433.16,433.56,433.95,434.54,435.18,436.76,439.61,444.09,449.86,456.29,463.06,469.64,474.37,478.28,481.53,483.92,485.03,485.62,485.42,484.31,482.00,478.93,475.87,472.90,470.03,467.37,464.87,462.50,460.39,458.79,457.25,455.70,454.36,453.21,451.50,450.45,449.72,449.21,449.05,449.05,448.81,448.23,447.20,445.80,444.49,443.25,442.03,440.84,440.15,439.95,440.50,442.28,443.61,444.64,445.77,447.20,448.49,448.91,449.03,449.10,449.16,449.18,449.08,448.93,448.80,448.71,448.63,448.62,448.72,448.93,449.17,449.40,449.60,449.70,449.78,449.86,449.99,450.22,450.60,451.09,451.56,451.94,452.22,452.41,452.47,452.55,452.79,452.64,452.53,452.49,452.48,452.50,452.68,452.99,453.38,453.85,454.38,454.83,455.28,455.77,456.03,456.14,456.18,456.15,456.00,455.92,455.84,455.79,455.84,455.98,455.53,454.77,453.87,452.52,451.22,450.54,450.64,451.40,452.17,452.75,453.28,453.86,454.47,454.69,454.74,454.78,454.86,455.06,455.32,455.64,455.98,456.27,456.40,456.45,456.53,456.88,457.26,457.53,457.65,457.65,457.65,457.65,457.65,457.62,457.44,457.00,456.51,456.10,455.84,455.71,455.55,455.20,454.54,454.06,454.40,454.96,455.26,455.44,455.42,455.30,455.17,455.08,454.94,454.74,454.47,453.97,452.71,451.26,449.68,448.06,446.85,447.48,448.36,448.74,448.24,447.76,447.33,446.93,446.51,446.06,445.60,445.19,444.83
440.42,439.78,439.00,438.17,437.36,436.71,436.49,436.39,436.34,436.31,436.23,436.10,436.10,436.12,436.00,435.92,435.84,435.74,435.62,435.56,435.49,435.38,435.25,435.15,435.00,434.85,434.69,434.53,434.30,434.13,433.94,433.69,433.39,433.14,432.91,432.69,432.48,432.27,432.06,431.85,431.66,431.50,431.35,431.24,431.16,431.11,431.03,430.90,430.78,430.77,430.98,431.22,431.49,431.81,432.15,432.47,432.78,433.09,433.38,433.48,433.46,433.37,433.28,433.32,433.35,433.36,433.37,433.39,433.37,433.30,433.23,433.15,433.10,433.39,433.81,434.24,434.76,435.54,437.55,441.05,446.31,452.51,459.29,466.15,472.52,477.59,482.21,485.91,488.29,488.91,489.04,487.52,484.72,481.25,477.69,474.59,471.85,469.51,467.81,465.77,463.75,461.96,460.57,459.24,457.76,456.14,454.38,452.56,451.52,450.82,450.29,450.07,449.82,449.38,448.58,447.25,445.80,444.46,443.22,442.04,440.88,440.17,440.24,441.39,443.99,445.70,446.76,447.65,448.61,449.45,449.76,449.84,449.87,449.89,449.89,449.80,449.66,449.57,449.49,449.40,449.38,449.42,449.59,449.81,450.08,450.35,450.58,450.68,450.76,450.85,451.01,451.38,451.75,452.19,452.62,452.83,453.04,453.09,453.14,453.40,453.38,453.35,453.31,453.27,453.27,453.41,453.67,454.02,454.45,455.01,455.54,456.04,456.49,456.80,456.88,456.89,456.86,456.72,456.63,456.61,456.70,456.94,457.25,456.91,456.17,455.14,453.79,452.50,451.50,451.11,451.92,452.70,453.42,454.09,454.74,455.36,455.61,455.73,455.82,455.86,456.01,456.23,456.46,456.62,456.82,456.89,456.93,457.02,457.29,457.65,457.97,458.18,458.18,458.18,458.18,458.18,458.17,458.11,457.72,457.30,457.00,456.87,456.74,456.43,455.94,455.36,455.09,455.29,455.67,456.00,456.21,456.16,456.01,455.88,455.80,455.70,455.56,455.24,454.52,453.11,451.51,449.82,448.33,447.90,448.84,449.63,449.85,449.46,448.96,448.46,447.96,447.45,446.88,446.39,446.03,445.74
440.62,439.96,439.16,438.34,437.62,437.18,437.08,437.05,437.03,436.97,436.82,436.69,436.74,436.84,436.75,436.64,436.55,436.46,436.33,436.23,436.14,436.03,435.88,435.77,435.60,435.43,435.28,435.12,434.89,434.71,434.52,434.28,433.98,433.73,433.50,433.27,433.03,432.77,432.56,432.36,432.18,432.00,431.86,431.76,431.68,431.60,431.50,431.40,431.34,431.39,431.58,431.81,432.07,432.38,432.66,432.94,433.19,433.41,433.62,433.72,433.69,433.64,433.63,433.68,433.69,433.70,433.73,433.78,433.81,433.79,433.75,433.71,433.57,433.69,434.02,434.49,435.00,436.20,439.01,443.45,449.35,455.60,462.22,468.99,475.55,481.15,485.83,489.16,490.90,491.04,490.56,487.97,484.02,479.84,476.02,472.95,470.54,468.83,467.67,466.13,464.61,463.22,461.97,460.76,459.28,457.51,455.49,453.64,452.64,451.99,451.48,451.11,450.56,449.83,448.80,447.31,445.84,444.46,443.19,442.04,441.10,440.64,441.34,443.23,446.00,447.78,448.71,449.30,449.85,450.30,450.48,450.52,450.50,450.50,450.50,450.42,450.31,450.24,450.21,450.17,450.14,450.17,450.29,450.50,450.79,451.13,451.44,451.61,451.69,451.74,451.84,452.16,452.48,452.88,453.29,453.49,453.66,453.70,453.76,454.04,454.16,454.18,454.15,454.08,454.06,454.15,454.37,454.71,455.17,455.71,456.28,456.81,457.24,457.54,457.63,457.63,457.57,457.43,457.34,457.44,457.69,458.03,458.41,458.37,457.87,456.85,455.28,453.80,452.42,451.65,452.64,453.47,454.22,454.94,455.65,456.33,456.69,456.92,457.02,456.99,457.05,457.23,457.40,457.45,457.41,457.41,457.45,457.52,457.66,458.00,458.36,458.63,458.69,458.72,458.74,458.74,458.74,458.76,458.48,458.16,457.95,457.85,457.62,457.16,456.61,456.21,456.08,456.15,456.38,456.69,456.95,456.91,456.76,456.63,456.55,456.48,456.22,455.72,454.80,453.13,451.36,449.73,448.58,448.74,449.77,450.52,450.71,450.36,449.87,449.36,448.83,448.28,447.68,447.19,446.86,446.62
440.75,440.04,439.28,438.53,437.96,437.77,437.74,437.78,437.77,437.63,437.37,437.25,437.36,437.52,437.50,437.37,437.27,437.19,437.09,436.95,436.86,436.73,436.57,436.41,436.20,436.02,435.87,435.69,435.47,435.30,435.11,434.86,434.56,434.32,434.08,433.85,433.61,433.32,433.13,432.94,432.71,432.49,432.37,432.28,432.20,432.12,431.99,431.93,431.95,432.04,432.18,432.40,432.66,432.96,433.21,433.45,433.58,433.63,433.70,433.77,433.84,433.91,433.97,433.97,433.98,434.02,434.08,434.11,434.17,434.19,434.22,434.25,434.13,434.08,434.25,434.69,435.31,437.16,440.99,446.40,452.64,458.63,464.84,471.56,478.68,484.86,489.05,491.38,492.14,491.75,490.44,487.01,482.41,477.99,474.11,471.18,469.22,468.09,467.06,466.00,465.02,464.05,462.89,461.74,460.25,458.49,456.54,454.75,453.76,453.12,452.56,451.95,451.11,450.03,448.75,447.23,445.80,444.46,443.20,442.11,441.47,441.49,442.98,445.55,448.03,449.58,450.29,450.63,450.88,451.07,451.12,451.09,451.04,451.03,451.02,450.98,450.92,450.87,450.92,450.93,450.92,450.94,451.03,451.22,451.53,451.91,452.28,452.54,452.62,452.63,452.68,452.96,453.26,453.61,453.96,454.18,454.30,454.33,454.42,454.72,454.96,455.03,455.01,454.94,454.88,454.92,455.12,455.48,455.99,456.47,457.03,457.59,458.02,458.27,458.38,458.38,458.29,458.14,458.05,458.26,458.68,459.08,459.49,459.78,459.63,458.67,456.82,455.00,453.26,452.26,453.48,454.39,455.09,455.78,456.55,457.32,457.87,458.19,458.29,458.17,458.15,458.28,458.43,458.35,458.03,457.97,458.01,458.03,458.05,458.34,458.72,459.04,459.18,459.27,459.31,459.32,459.34,459.41,459.26,459.07,458.93,458.79,458.40,457.82,457.30,457.14,457.06,457.04,457.14,457.37,457.65,457.66,457.54,457.40,457.32,457.22,456.73,455.96,454.87,452.88,450.98,449.53,448.87,449.40,450.38,451.14,451.41,451.01,450.55,450.09,449.60,449.05,448.46,448.02,447.70,447.45
440.98,440.19,439.45,438.83,438.48,438.50,438.50,438.52,438.42,438.18,437.89,437.81,437.97,438.18,438.21,438.08,437.98,437.90,437.81,437.66,437.57,437.40,437.16,437.00,436.78,436.60,436.45,436.28,436.06,435.88,435.69,435.45,435.15,434.90,434.67,434.44,434.20,433.95,433.80,433.62,433.35,433.12,432.96,432.84,432.72,432.64,432.59,432.57,432.59,432.67,432.78,433.02,433.31,433.61,433.89,434.14,434.07,433.85,433.78,433.85,433.92,434.00,434.06,434.07,434.11,434.20,434.31,434.37,434.44,434.50,434.56,434.62,434.58,434.59,434.67,434.98,435.98,438.53,442.99,448.58,454.10,460.10,466.67,473.98,481.77,487.90,491.13,492.61,492.72,491.32,488.74,484.41,479.50,475.43,471.85,469.87,468.63,467.65,466.65,465.69,464.79,463.90,462.88,461.79,460.53,459.04,457.34,455.88,454.77,453.79,452.78,451.73,450.70,449.34,447.81,446.40,445.21,444.30,443.41,442.51,441.99,442.53,444.33,446.84,448.94,450.22,450.98,451.42,451.63,451.75,451.77,451.73,451.66,451.61,451.56,451.58,451.64,451.68,451.75,451.73,451.71,451.72,451.79,451.95,452.25,452.65,453.07,453.42,453.54,453.54,453.57,453.76,454.04,454.36,454.66,454.84,454.98,455.00,455.08,455.44,455.77,455.94,455.99,455.95,455.88,455.89,456.07,456.40,456.79,457.29,457.84,458.38,458.85,459.06,459.12,459.10,459.00,458.86,458.77,458.92,459.29,459.84,460.43,460.78,460.61,459.63,457.88,455.85,453.93,452.93,454.25,455.11,455.80,456.53,457.35,458.17,458.91,459.38,459.47,459.39,459.37,459.44,459.45,459.12,458.65,458.52,458.56,458.59,458.56,458.76,459.10,459.43,459.58,459.72,459.83,459.93,460.04,460.12,460.07,460.03,459.97,459.63,459.06,458.49,458.10,458.09,458.02,458.00,458.03,458.14,458.38,458.37,458.28,458.19,458.08,457.79,457.00,455.99,454.88,452.85,450.99,449.86,449.68,450.27,451.13,451.81,452.05,451.62,451.20,450.75,450.27,449.78,449.27,448.86,448.53,448.26
441.23,440.42,439.71,439.24,439.07,439.21,439.29,439.22,439.01,438.70,438.39,438.37,438.57,438.81,438.89,438.81,438.71,438.62,438.53,438.38,438.23,437.99,437.73,437.62,437.40,437.20,437.03,436.87,436.64,436.47,436.28,436.03,435.73,435.48,435.25,435.02,434.79,434.61,434.48,434.30,434.04,433.84,433.69,433.52,433.36,433.29,433.26,433.23,433.25,433.32,433.42,433.70,434.02,434.33,434.63,434.88,434.73,434.34,434.11,433.97,433.99,434.06,434.13,434.13,434.19,434.30,434.42,434.49,434.57,434.65,434.74,434.83,434.86,434.92,434.97,435.36,437.18,440.53,445.28,450.60,455.50,461.42,468.37,476.32,484.61,490.17,492.92,493.61,492.66,490.49,486.73,481.90,477.04,473.22,470.29,468.98,468.16,467.26,466.26,465.32,464.44,463.57,462.66,461.67,460.57,459.26,457.72,456.43,455.24,454.03,452.77,451.47,450.27,448.69,447.20,446.46,445.74,445.11,444.30,443.30,442.58,443.38,445.17,447.35,449.16,450.37,451.27,451.93,452.32,452.40,452.42,452.39,452.33,452.23,452.17,452.26,452.40,452.49,452.56,452.55,452.51,452.52,452.60,452.70,452.96,453.37,453.82,454.24,454.40,454.41,454.43,454.55,454.82,455.11,455.35,455.53,455.69,455.70,455.77,456.19,456.60,456.84,456.96,456.96,456.92,456.93,457.06,457.32,457.65,458.13,458.65,459.19,459.72,459.96,459.93,459.83,459.72,459.57,459.50,459.68,460.10,460.71,461.36,461.51,461.12,460.05,458.35,456.26,454.44,453.65,455.03,455.95,456.67,457.36,458.06,458.79,459.64,460.27,460.52,460.49,460.54,460.56,460.38,459.82,459.25,459.09,459.11,459.14,459.08,459.18,459.54,459.99,460.20,460.38,460.56,460.72,460.84,460.90,460.93,460.98,460.94,460.44,459.75,459.22,458.96,459.00,458.99,458.98,458.98,459.00,459.14,459.10,459.01,458.93,458.80,458.44,457.47,456.25,455.04,453.25,451.73,450.92,450.96,451.42,452.16,452.67,452.75,452.30,451.90,451.46,451.00,450.54,450.07,449.69,449.35,449.07
441.51,440.74,440.05,439.74,439.73,439.89,440.09,439.88,439.54,439.21,438.87,438.92,439.16,439.42,439.55,439.55,439.44,439.33,439.24,439.08,438.81,438.51,438.29,438.25,438.04,437.82,437.62,437.45,437.22,437.06,436.86,436.62,436.31,436.07,435.84,435.61,435.40,435.29,435.16,434.98,434.77,434.66,434.52,434.34,434.15,434.06,433.99,433.93,433.90,433.99,434.13,434.45,434.80,435.11,435.42,435.65,435.53,435.13,434.70,434.22,434.08,434.12,434.19,434.20,434.26,434.34,434.43,434.50,434.58,434.65,434.75,434.88,434.96,435.04,435.20,436.03,439.02,443.24,447.92,452.63,457.18,462.96,470.13,478.54,487.14,491.74,494.48,494.43,492.05,489.41,484.74,479.87,475.36,471.59,469.53,468.47,467.68,466.85,465.87,464.93,464.05,463.19,462.33,461.47,460.45,459.19,457.68,456.34,455.10,453.89,452.65,451.34,449.98,448.33,447.23,447.60,447.52,446.92,445.88,444.48,443.24,443.98,445.52,447.26,448.88,450.21,451.29,452.23,452.97,453.08,453.08,453.07,453.03,452.88,452.84,452.98,453.18,453.27,453.34,453.36,453.35,453.36,453.43,453.45,453.67,454.06,454.53,454.99,455.19,455.24,455.26,455.35,455.60,455.84,456.01,456.24,456.39,456.42,456.50,456.95,457.41,457.71,457.89,457.95,457.95,458.00,458.09,458.24,458.55,458.99,459.45,459.99,460.61,460.94,460.81,460.59,460.45,460.30,460.27,460.59,461.15,461.76,462.29,462.03,461.24,460.02,458.28,456.26,454.77,454.42,455.84,456.96,457.75,458.32,458.75,459.23,460.07,460.90,461.42,461.47,461.64,461.61,461.25,460.52,459.92,459.74,459.74,459.72,459.65,459.64,460.07,460.75,461.05,461.27,461.50,461.68,461.75,461.76,461.81,461.88,461.82,461.23,460.52,460.06,459.88,459.88,459.94,459.95,459.94,459.94,459.95,459.84,459.73,459.64,459.47,459.18,458.24,456.91,455.53,454.20,453.22,452.72,452.70,452.89,453.44,453.69,453.53,453.08,452.69,452.25,451.78,451.32,450.86,450.51,450.20,449.92
441.83,441.08,440.53,440.33,440.39,440.59,440.82,440.54,440.13,439.75,439.49,439.59,439.83,440.06,440.19,440.22,440.14,440.03,439.90,439.74,439.38,439.08,438.92,438.89,438.65,438.41,438.20,438.03,437.81,437.63,437.45,437.20,436.90,436.65,436.45,436.26,436.09,436.00,435.87,435.69,435.49,435.44,435.31,435.14,434.98,434.85,434.76,434.69,434.65,434.70,434.89,435.19,435.54,435.89,436.19,436.40,436.31,435.97,435.49,434.88,434.37,434.13,434.20,434.25,434.33,434.40,434.48,434.55,434.63,434.68,434.75,434.89,434.98,435.06,436.01,438.40,442.19,446.63,450.95,455.09,459.51,465.46,472.30,480.42,489.12,493.25,495.23,494.50,491.52,488.18,483.52,478.86,474.46,470.67,469.04,468.05,467.21,466.37,465.46,464.54,463.66,462.81,461.96,461.11,460.10,458.86,457.37,455.92,454.78,453.74,452.64,451.36,449.92,448.65,448.19,449.02,449.18,448.57,447.44,445.88,444.09,444.55,445.89,447.45,449.00,450.35,451.49,452.55,453.49,453.83,453.90,453.83,453.68,453.48,453.37,453.56,453.88,454.08,454.18,454.16,454.13,454.13,454.12,454.15,454.31,454.63,455.18,455.66,455.87,455.95,456.05,456.18,456.40,456.57,456.68,456.94,457.07,457.13,457.25,457.64,458.13,458.54,458.83,458.99,459.04,459.07,459.13,459.24,459.46,459.81,460.21,460.69,461.27,461.73,461.60,461.39,461.27,461.13,461.14,461.63,462.38,463.02,463.20,462.47,461.28,459.86,458.02,456.05,454.98,455.16,456.67,457.95,458.88,459.47,459.77,460.09,460.71,461.53,462.29,462.47,462.65,462.59,462.20,461.47,461.05,460.90,460.85,460.78,460.63,460.59,460.98,461.65,462.04,462.22,462.41,462.59,462.65,462.66,462.69,462.74,462.66,462.03,461.51,461.20,461.03,460.91,460.96,460.89,460.78,460.74,460.74,460.65,460.54,460.40,460.24,459.95,459.41,458.55,457.32,456.13,455.25,454.82,454.80,454.80,454.75,454.57,454.28,453.91,453.52,453.09,452.60,452.11,451.68,451.32,451.03,450.81
442.13,441.43,441.09,440.99,441.07,441.29,441.42,441.10,440.65,440.26,440.11,440.27,440.50,440.72,440.87,440.89,440.82,440.70,440.54,440.36,440.01,439.73,439.58,439.52,439.27,439.02,438.81,438.62,438.39,438.22,438.03,437.79,437.50,437.26,437.07,436.92,436.80,436.72,436.58,436.41,436.26,436.24,436.10,435.94,435.79,435.66,435.56,435.47,435.41,435.43,435.63,435.94,436.30,436.67,436.96,437.13,437.08,436.81,436.31,435.68,434.77,434.18,434.23,434.29,434.36,434.44,434.52,434.59,434.67,434.71,434.77,434.89,434.98,435.73,437.86,441.56,445.79,450.12,454.14,458.23,463.28,469.20,475.41,482.70,490.69,494.65,495.84,494.53,491.32,487.57,483.10,478.61,474.28,470.50,468.94,467.88,466.91,465.98,465.05,464.14,463.27,462.41,461.55,460.69,459.65,458.40,456.93,455.44,454.38,453.46,452.48,451.31,449.95,449.16,449.22,450.12,450.35,449.80,448.69,447.01,444.86,445.18,446.43,447.90,449.38,450.67,451.81,452.91,453.94,454.52,454.65,454.55,454.31,454.05,453.87,454.11,454.59,455.03,455.18,455.16,455.11,455.03,454.94,454.96,455.07,455.34,455.88,456.34,456.56,456.68,456.85,457.01,457.21,457.33,457.40,457.62,457.75,457.85,458.01,458.35,458.84,459.36,459.76,459.99,460.08,460.12,460.15,460.24,460.40,460.67,461.00,461.39,461.90,462.43,462.37,462.20,462.09,461.96,462.02,462.62,463.51,464.14,463.81,462.63,461.15,459.59,457.75,455.96,455.32,455.97,457.53,458.94,459.98,460.63,460.87,461.10,461.55,462.26,463.08,463.44,463.63,463.56,463.22,462.64,462.37,462.23,462.15,462.10,461.91,461.87,462.15,462.68,463.09,463.20,463.35,463.49,463.54,463.55,463.56,463.60,463.51,462.95,462.60,462.38,462.19,461.99,462.01,461.85,461.64,461.53,461.51,461.46,461.34,461.18,461.00,460.70,460.43,459.98,459.11,458.16,457.39,456.91,456.72,456.47,456.02,455.56,455.15,454.79,454.36,453.89,453.39,452.89,452.50,452.15,451.91,451.73
442.40,441.79,441.69,441.71,441.79,441.97,441.88,441.50,441.06,440.75,440.73,440.92,441.15,441.38,441.57,441.60,441.50,441.35,441.18,440.96,440.71,440.47,440.26,440.12,439.89,439.66,439.44,439.21,438.98,438.81,438.62,438.38,438.14,437.91,437.73,437.59,437.51,437.43,437.30,437.17,437.09,437.08,436.90,436.72,436.58,436.49,436.35,436.25,436.17,436.15,436.35,436.69,437.07,437.44,437.74,437.87,437.85,437.64,437.12,436.58,435.32,434.34,434.29,434.30,434.37,434.44,434.52,434.59,434.67,434.74,434.81,434.92,435.15,437.48,441.07,445.32,449.59,453.49,457.48,462.31,468.90,474.45,479.86,485.78,492.00,496.00,496.55,494.82,491.66,487.98,483.68,479.25,474.97,471.28,469.35,468.07,466.94,465.82,464.71,463.77,462.89,462.01,461.10,460.23,459.13,457.81,456.37,454.97,453.93,453.00,452.07,451.11,450.07,449.74,450.04,450.66,450.82,450.46,449.48,447.72,445.49,445.88,447.20,448.66,450.03,451.18,452.26,453.34,454.36,455.05,455.28,455.20,454.94,454.59,454.40,454.68,455.34,456.16,456.42,456.45,456.35,456.15,456.00,455.92,456.01,456.27,456.68,457.08,457.31,457.49,457.70,457.85,458.01,458.13,458.21,458.31,458.45,458.59,458.79,459.12,459.58,460.14,460.65,460.96,461.06,461.13,461.16,461.21,461.37,461.60,461.85,462.15,462.57,463.08,463.13,463.02,462.87,462.74,462.89,463.52,464.42,465.00,464.01,462.47,460.84,459.26,457.57,456.11,455.91,456.90,458.39,459.88,461.01,461.70,461.96,462.20,462.61,463.15,463.76,464.36,464.60,464.54,464.30,464.03,463.85,463.65,463.57,463.64,463.52,463.49,463.60,463.86,464.19,464.26,464.32,464.38,464.39,464.39,464.44,464.48,464.40,464.01,463.74,463.51,463.29,463.08,463.06,462.85,462.56,462.33,462.30,462.24,462.12,461.94,461.71,461.42,461.12,460.81,460.45,459.98,459.43,458.85,458.25,457.66,457.21,456.74,456.23,455.75,455.17,454.62,454.12,453.67,453.28,453.06,452.86,452.65
442.73,442.38,442.35,442.39,442.50,442.65,442.37,441.91,441.50,441.28,441.36,441.57,441.80,442.03,442.24,442.27,442.16,441.98,441.79,441.60,441.34,441.09,440.86,440.66,440.44,440.23,440.03,439.79,439.57,439.39,439.20,438.98,438.79,438.60,438.43,438.30,438.22,438.14,438.04,437.96,437.93,437.88,437.69,437.50,437.36,437.28,437.17,437.06,436.94,436.87,437.11,437.46,437.83,438.18,438.51,438.64,438.65,438.52,438.12,437.79,436.54,435.16,434.38,434.35,434.42,434.48,434.52,434.59,434.67,434.75,434.82,435.25,437.46,440.75,444.53,448.58,452.58,456.31,461.41,467.66,473.97,479.73,485.11,490.40,495.34,498.47,498.18,495.98,492.81,489.32,485.08,480.63,476.41,472.90,470.29,468.75,467.58,466.44,465.20,463.85,462.65,461.62,460.68,459.67,458.48,457.17,455.83,454.50,453.47,452.55,451.66,450.91,450.19,450.04,450.39,451.04,451.34,451.01,450.11,448.52,446.24,446.62,447.97,449.46,450.69,451.76,452.74,453.71,454.66,455.41,455.81,455.83,455.54,455.21,455.06,455.50,456.38,457.35,457.88,457.98,457.80,457.46,457.21,457.03,457.01,457.19,457.56,457.88,458.14,458.37,458.59,458.71,458.82,458.91,458.99,459.07,459.17,459.31,459.53,459.89,460.34,460.95,461.53,461.93,462.03,462.07,462.09,462.13,462.29,462.51,462.74,463.00,463.31,463.71,463.85,463.81,463.66,463.57,463.78,464.38,465.23,465.79,464.64,462.80,460.89,459.20,457.78,456.46,456.42,457.60,459.01,460.31,461.43,462.33,462.98,463.29,463.68,464.15,464.71,465.29,465.52,465.55,465.50,465.43,465.24,465.05,464.96,465.03,465.09,465.10,465.19,465.31,465.35,465.36,465.30,465.23,465.24,465.28,465.32,465.33,465.28,465.03,464.80,464.57,464.35,464.17,464.07,463.86,463.58,463.29,463.12,463.01,462.88,462.67,462.43,462.17,461.91,461.64,461.35,460.97,460.47,459.92,459.37,458.84,458.40,457.90,457.31,456.54,455.78,455.27,454.86,454.46,454.15,453.97,453.79,453.61
443.15,443.05,443.04,443.08,443.20,443.27,442.84,442.33,441.96,441.86,442.02,442.22,442.45,442.68,442.88,442.91,442.81,442.62,442.39,442.20,441.93,441.66,441.42,441.19,440.97,440.78,440.59,440.36,440.14,439.99,439.81,439.61,439.45,439.30,439.13,439.00,438.93,438.86,438.79,438.75,438.74,438.67,438.48,438.30,438.16,438.06,437.99,437.85,437.69,437.58,437.85,438.22,438.58,438.92,439.28,439.44,439.48,439.45,439.35,439.23,438.15,436.52,434.99,434.54,434.49,434.51,434.53,434.60,434.67,435.00,435.60,436.93,440.55,444.11,447.69,451.49,455.30,459.38,465.45,472.54,478.44,484.52,490.15,495.28,499.52,501.68,500.30,497.47,494.20,490.86,486.83,482.45,478.30,474.93,471.81,469.85,468.49,467.30,465.90,464.20,462.66,461.38,460.31,459.16,457.91,456.64,455.40,454.12,453.18,452.41,451.71,451.07,450.50,450.40,450.76,451.44,451.90,451.51,450.62,449.19,446.98,447.28,448.62,450.11,451.19,452.18,453.06,453.94,454.83,455.63,456.23,456.42,456.22,455.95,455.84,456.41,457.43,458.52,459.27,459.43,459.22,458.81,458.44,458.16,458.03,458.11,458.44,458.70,458.99,459.29,459.51,459.64,459.72,459.81,459.90,459.95,460.01,460.14,460.38,460.76,461.23,461.81,462.41,462.88,463.00,463.02,463.01,463.03,463.18,463.41,463.65,463.88,464.12,464.41,464.59,464.60,464.46,464.39,464.64,465.23,466.02,466.57,465.35,463.22,461.02,459.24,458.02,456.81,456.86,458.10,459.39,460.50,461.59,462.68,463.67,464.20,464.68,465.18,465.69,466.17,466.43,466.56,466.64,466.69,466.59,466.45,466.36,466.40,466.67,466.75,466.81,466.81,466.53,466.48,466.29,466.10,466.11,466.16,466.18,466.18,466.15,466.03,465.84,465.63,465.41,465.24,465.09,464.87,464.60,464.29,464.00,463.84,463.65,463.40,463.18,462.94,462.71,462.45,462.13,461.73,461.25,460.79,460.38,460.01,459.56,458.98,458.22,457.23,456.36,455.89,455.57,455.22,454.98,454.81,454.67,454.52
443.71,443.74,443.75,443.80,443.86,443.79,443.26,442.76,442.49,442.51,442.71,442.89,443.10,443.33,443.53,443.56,443.45,443.26,443.02,442.74,442.49,442.22,441.94,441.71,441.53,441.33,441.11,440.89,440.72,440.61,440.49,440.32,440.17,440.02,439.82,439.66,439.64,439.58,439.55,439.54,439.52,439.44,439.30,439.13,438.99,438.85,438.76,438.63,438.44,438.25,438.55,438.94,439.33,439.70,440.07,440.26,440.32,440.48,440.96,441.02,440.17,438.63,436.69,435.07,434.61,434.57,434.63,434.65,434.73,435.80,438.00,441.21,444.07,446.87,450.13,453.96,457.86,463.21,469.42,475.83,481.94,488.30,494.33,499.89,504.32,505.75,502.98,499.21,495.68,492.30,488.84,484.82,480.75,477.34,474.20,471.56,469.60,468.23,466.60,464.85,463.12,461.48,460.05,458.79,457.59,456.38,455.15,453.93,453.24,452.94,452.71,451.98,451.19,451.05,451.43,452.00,452.52,452.02,450.98,449.57,447.62,447.78,449.01,450.44,451.34,452.22,453.07,453.92,454.78,455.62,456.42,456.93,457.06,456.85,456.80,457.32,458.33,459.59,460.36,460.60,460.49,460.13,459.64,459.25,459.04,459.06,459.31,459.55,459.87,460.22,460.50,460.72,460.83,460.94,461.05,461.07,461.08,461.21,461.46,461.81,462.31,462.77,463.28,463.79,463.96,464.00,463.96,463.93,464.04,464.30,464.56,464.79,465.02,465.26,465.44,465.45,465.30,465.19,465.46,466.07,466.85,467.34,466.06,463.60,461.13,459.31,458.10,457.08,457.20,458.30,459.42,460.45,461.55,462.68,463.74,464.72,465.55,466.16,466.58,466.98,467.35,467.54,467.62,467.70,467.85,467.84,467.76,467.80,468.24,468.40,468.41,468.24,467.74,467.65,467.33,467.00,467.01,467.02,467.02,467.02,467.01,466.99,466.90,466.73,466.50,466.29,466.13,465.87,465.57,465.27,465.02,464.75,464.47,464.19,463.95,463.72,463.49,463.23,462.90,462.47,462.05,461.71,461.42,461.10,460.65,459.84,458.79,457.81,456.94,456.51,456.24,455.93,455.69,455.52,455.40,455.30
444.37,444.41,444.45,444.51,444.51,444.27,443.71,443.23,443.05,443.16,443.38,443.58,443.77,443.98,444.18,444.21,444.08,443.85,443.58,443.31,443.04,442.77,442.50,442.28,442.08,441.86,441.63,441.41,441.29,441.26,441.19,441.05,440.97,440.83,440.65,440.50,440.49,440.58,440.65,440.58,440.34,440.11,439.93,439.80,439.69,439.57,439.49,439.34,439.12,438.94,439.23,439.78,440.33,440.74,440.95,441.17,441.31,441.58,442.32,442.80,442.11,440.76,439.16,437.47,436.63,436.28,436.23,436.48,437.16,438.77,441.24,444.37,446.95,449.72,452.89,456.57,460.86,466.53,472.57,478.73,485.12,491.33,497.56,503.50,508.06,508.79,505.48,501.07,496.94,493.81,490.78,487.23,483.42,479.85,476.59,473.67,471.14,469.08,467.31,465.52,463.65,461.78,460.01,458.63,457.37,456.14,454.97,453.94,453.74,453.88,453.87,453.03,451.98,451.73,452.10,452.66,453.18,452.49,451.29,449.88,448.25,448.31,449.36,450.71,451.70,452.54,453.32,454.11,454.91,455.73,456.57,457.29,457.75,457.76,457.73,458.06,458.85,460.07,460.93,461.47,461.57,461.21,460.79,460.40,460.20,460.22,460.42,460.64,460.98,461.36,461.72,461.97,462.08,462.19,462.33,462.37,462.34,462.42,462.61,462.94,463.38,463.74,464.16,464.66,464.88,464.95,464.90,464.83,464.93,465.17,465.44,465.70,465.92,466.08,466.20,466.23,466.13,466.01,466.24,466.87,467.68,468.24,467.78,465.65,462.63,459.64,458.49,457.61,457.59,458.39,459.39,460.39,461.47,462.59,463.73,464.96,466.08,466.90,467.38,467.81,468.20,468.43,468.54,468.63,468.81,468.92,468.99,469.10,469.48,469.73,469.70,469.41,468.97,468.67,468.22,467.86,467.86,467.86,467.86,467.86,467.86,467.86,467.87,467.75,467.56,467.37,467.14,466.88,466.60,466.27,465.89,465.59,465.33,465.06,464.83,464.56,464.30,464.01,463.69,463.35,463.04,462.75,462.47,462.12,461.17,460.02,458.91,458.11,457.53,457.18,456.91,456.64,456.41,456.20,456.05,455.93
445.06,445.08,445.15,445.22,445.14,444.74,444.14,443.75,443.65,443.84,444.06,444.30,444.48,444.66,444.85,444.88,444.70,444.44,444.13,443.88,443.59,443.32,443.09,442.85,442.61,442.38,442.16,441.97,441.91,441.95,441.93,441.81,441.80,441.67,441.54,441.44,441.46,441.73,441.87,441.71,441.21,440.75,440.51,440.39,440.31,440.24,440.20,440.07,439.88,439.74,440.05,440.79,441.52,441.96,442.00,442.21,442.39,442.72,443.62,444.50,444.15,443.17,442.03,440.74,439.68,439.04,438.91,439.40,440.63,442.54,444.84,447.31,449.74,452.62,455.75,459.25,463.86,469.43,475.25,481.33,488.02,493.95,500.26,506.45,511.09,511.36,507.88,503.05,498.38,495.39,492.53,489.25,485.65,481.94,478.55,475.52,472.58,469.86,467.92,466.03,464.07,462.04,460.05,458.58,457.26,456.00,454.89,454.14,454.42,454.85,454.87,453.92,452.71,452.40,452.79,453.34,453.82,453.02,451.69,450.25,448.87,448.77,449.61,450.89,452.03,452.94,453.72,454.47,455.25,456.03,456.84,457.68,458.39,458.62,458.63,458.79,459.33,460.41,461.36,462.18,462.52,462.25,461.93,461.58,461.43,461.47,461.62,461.84,462.17,462.57,462.99,463.26,463.38,463.50,463.65,463.70,463.66,463.65,463.78,464.10,464.46,464.75,465.10,465.53,465.79,465.89,465.84,465.75,465.84,466.04,466.32,466.59,466.78,466.86,466.93,466.97,466.96,466.85,467.00,467.65,468.51,469.16,469.52,468.03,464.62,460.29,459.00,458.18,457.99,458.46,459.36,460.33,461.41,462.56,463.80,465.18,466.53,467.54,468.14,468.63,469.03,469.30,469.45,469.53,469.67,469.86,470.06,470.25,470.55,470.86,470.82,470.47,470.13,469.62,469.09,468.73,468.71,468.71,468.71,468.71,468.71,468.70,468.77,468.74,468.60,468.44,468.15,467.88,467.60,467.20,466.66,466.40,466.20,465.99,465.74,465.44,465.13,464.83,464.55,464.31,464.08,463.82,463.48,462.93,461.50,460.09,459.02,458.42,458.13,457.86,457.58,457.34,457.11,456.87,456.68,456.54
445.73,445.79,445.86,445.90,445.71,445.14,444.53,444.33,444.39,444.61,444.85,445.07,445.26,445.42,445.57,445.59,445.38,445.08,444.76,444.41,444.14,443.91,443.66,443.37,443.13,442.90,442.71,442.63,442.66,442.73,442.73,442.65,442.64,442.52,442.44,442.48,442.73,443.03,443.13,442.88,442.19,441.40,441.06,440.91,440.83,440.77,440.85,440.94,440.91,440.81,441.34,442.23,443.04,443.52,443.55,443.60,443.60,443.88,444.96,445.96,446.58,446.38,445.31,444.88,444.07,443.48,443.41,443.96,445.01,446.73,448.75,450.71,452.85,455.56,458.56,461.96,466.45,471.56,477.19,483.43,490.34,496.06,502.24,508.36,512.97,513.50,510.13,505.30,500.50,497.16,493.73,490.10,486.38,482.70,479.29,476.23,473.30,470.49,468.19,466.11,464.05,461.99,460.05,458.67,457.42,456.15,455.04,454.69,455.19,455.53,455.25,454.22,453.10,453.04,453.57,453.95,454.40,453.75,452.47,450.91,449.49,448.95,449.54,450.85,452.12,453.34,454.33,455.20,456.03,456.81,457.54,458.32,459.03,459.28,459.41,459.60,460.04,460.89,461.81,462.67,463.25,463.38,463.11,462.84,462.75,462.82,462.93,463.14,463.43,463.79,464.18,464.54,464.68,464.82,465.00,465.01,464.95,464.89,464.95,465.26,465.59,465.93,466.21,466.41,466.74,466.83,466.75,466.65,466.75,466.95,467.19,467.41,467.56,467.59,467.60,467.67,467.75,467.68,467.80,468.46,469.36,470.00,470.36,469.76,466.73,461.57,459.61,458.63,458.34,458.62,459.38,460.29,461.44,462.76,464.17,465.62,467.06,468.15,468.81,469.39,469.81,470.13,470.36,470.44,470.52,470.67,470.86,471.09,471.40,471.70,471.72,471.43,471.04,470.53,470.03,469.67,469.56,469.55,469.55,469.55,469.54,469.49,469.59,469.63,469.59,469.47,469.19,468.89,468.49,467.92,467.27,467.14,467.10,466.95,466.65,466.35,466.04,465.77,465.58,465.36,465.12,464.88,464.43,463.22,461.75,460.44,459.47,459.04,458.78,458.54,458.27,457.99,457.76,457.52,457.33,457.17
446.38,446.45,446.50,446.44,446.14,445.50,444.92,444.96,445.20,445.43,445.63,445.86,446.04,446.19,446.29,446.27,446.06,445.78,445.46,445.12,444.83,444.57,444.29,443.98,443.71,443.46,443.31,443.32,443.39,443.46,443.49,443.46,443.45,443.44,443.50,443.66,443.97,444.28,444.39,444.08,443.23,442.32,441.71,441.41,441.35,441.46,441.70,441.93,442.02,442.02,442.78,443.73,444.55,445.07,445.10,445.07,444.91,445.06,446.24,447.37,448.39,448.84,448.53,448.51,448.22,447.87,447.78,448.41,449.41,450.88,452.54,454.19,456.10,458.59,461.37,464.51,468.57,473.43,478.94,485.05,491.75,497.26,503.35,509.90,515.55,516.32,512.11,506.91,502.34,498.59,494.45,490.36,486.48,482.88,479.49,476.47,473.55,470.72,468.31,466.14,464.00,461.88,459.96,458.68,457.49,456.30,455.37,455.53,456.19,456.17,455.31,454.42,453.95,454.10,454.51,454.77,455.14,454.55,453.27,451.66,450.25,449.39,449.70,450.91,452.33,453.75,454.98,456.03,456.88,457.64,458.37,459.05,459.60,459.84,459.98,460.20,460.62,461.32,462.18,463.07,463.83,464.29,464.20,464.10,464.11,464.18,464.27,464.49,464.74,465.05,465.40,465.78,465.96,466.13,466.32,466.35,466.26,466.18,466.19,466.44,466.74,467.05,467.28,467.43,467.72,467.73,467.63,467.56,467.65,467.86,468.05,468.19,468.29,468.31,468.31,468.38,468.49,468.47,468.56,469.20,470.14,470.85,471.00,470.46,467.87,463.17,460.36,459.15,458.75,458.88,459.54,460.47,461.73,463.14,464.60,466.07,467.54,468.66,469.38,470.02,470.54,470.93,471.17,471.26,471.36,471.53,471.74,471.97,472.24,472.52,472.58,472.39,471.96,471.47,471.04,470.73,470.60,470.58,470.61,470.61,470.56,470.50,470.52,470.56,470.56,470.47,470.22,469.80,469.23,468.57,468.06,468.00,468.00,467.88,467.61,467.27,466.92,466.67,466.57,466.38,466.16,465.87,465.28,463.93,462.51,461.19,460.17,459.73,459.44,459.20,458.95,458.69,458.45,458.22,457.99,457.75
447.03,447.10,447.11,446.93,446.51,445.85,445.36,445.64,446.04,446.25,446.43,446.64,446.81,446.94,446.99,446.94,446.76,446.51,446.20,445.88,445.58,445.26,444.95,444.64,444.31,444.07,443.96,444.04,444.12,444.20,444.24,444.26,444.27,444.41,444.63,444.91,445.22,445.52,445.64,445.26,444.29,443.36,442.48,441.97,441.92,442.23,442.61,442.94,443.16,443.33,444.30,445.27,446.08,446.62,446.63,446.51,446.20,446.23,447.43,448.63,449.80,450.75,451.32,451.60,451.93,451.96,451.94,452.76,453.83,455.14,456.58,458.08,459.68,461.82,464.31,467.16,470.75,475.40,480.74,486.59,492.84,498.25,504.24,511.25,518.03,518.98,514.28,508.72,503.97,499.65,494.85,490.35,486.33,482.77,479.44,476.46,473.59,470.78,468.37,466.15,463.93,461.75,459.86,458.65,457.53,456.48,455.86,456.45,457.20,456.82,455.43,454.70,454.90,455.24,455.49,455.69,455.94,455.29,454.01,452.42,451.09,450.06,450.07,451.07,452.61,454.11,455.57,456.84,457.75,458.50,459.25,459.79,460.11,460.34,460.44,460.72,461.16,461.75,462.54,463.43,464.31,465.03,465.24,465.37,465.47,465.55,465.63,465.84,466.07,466.33,466.65,467.02,467.23,467.43,467.63,467.69,467.57,467.46,467.46,467.62,467.92,468.18,468.37,468.53,468.71,468.63,468.51,468.47,468.55,468.74,468.86,468.94,469.01,469.01,469.01,469.09,469.22,469.24,469.33,469.95,470.91,471.68,471.55,470.75,468.57,464.81,461.35,459.75,459.17,459.20,459.82,460.82,462.14,463.59,465.06,466.53,467.99,469.14,469.90,470.60,471.22,471.68,471.94,472.05,472.20,472.40,472.63,472.87,473.10,473.33,473.45,473.35,472.91,472.46,472.11,471.84,471.71,471.70,471.74,471.75,471.67,471.60,471.51,471.52,471.55,471.44,471.21,470.64,469.90,469.22,468.91,468.92,468.93,468.81,468.55,468.16,467.79,467.55,467.54,467.41,467.21,466.82,466.09,464.80,463.43,462.10,461.02,460.53,460.20,459.93,459.68,459.41,459.13,458.88,458.60,458.27
447.67,447.75,447.75,447.42,446.85,446.27,446.00,446.39,446.81,447.05,447.26,447.44,447.56,447.64,447.65,447.64,447.51,447.28,446.97,446.67,446.35,446.02,445.66,445.34,444.94,444.75,444.74,444.82,444.95,445.00,445.06,445.16,445.18,445.45,445.82,446.20,446.51,446.82,446.80,446.33,445.39,444.46,443.41,442.78,442.70,443.07,443.50,443.89,444.29,444.84,445.91,446.89,447.66,448.12,448.11,447.67,447.27,447.36,448.42,449.48,450.65,451.77,452.69,453.46,454.44,455.09,455.60,456.91,458.24,459.88,461.70,463.37,464.31,465.71,467.70,470.36,473.80,478.05,483.00,488.47,494.18,499.79,505.66,512.41,519.08,520.01,517.58,512.22,505.26,499.89,494.83,490.29,486.19,482.49,479.22,476.31,473.53,470.83,468.37,466.11,463.84,461.63,459.78,458.63,457.60,456.81,456.63,457.19,457.90,457.54,456.21,455.35,455.52,455.96,456.39,456.67,456.67,455.77,454.44,453.06,452.00,451.13,450.88,451.45,452.97,454.32,455.95,457.47,458.50,459.43,460.11,460.46,460.58,460.80,460.90,461.20,461.69,462.30,462.97,463.78,464.67,465.52,466.19,466.62,466.83,466.91,467.00,467.15,467.37,467.63,467.94,468.26,468.51,468.73,468.92,468.99,468.82,468.72,468.72,468.80,469.13,469.40,469.58,469.67,469.72,469.56,469.42,469.36,469.39,469.49,469.58,469.66,469.72,469.67,469.70,469.81,469.94,470.01,470.23,470.86,471.74,472.44,472.08,471.10,469.19,466.18,462.97,460.59,459.50,459.55,460.30,461.38,462.65,464.05,465.51,466.98,468.45,469.62,470.42,471.12,471.75,472.29,472.69,472.88,473.04,473.25,473.48,473.71,473.94,474.17,474.35,474.34,473.94,473.59,473.27,473.01,472.88,472.87,472.88,472.86,472.77,472.69,472.57,472.56,472.58,472.41,472.09,471.38,470.57,469.95,469.73,469.84,469.93,469.81,469.40,468.92,468.60,468.48,468.51,468.44,468.28,467.81,466.88,465.58,464.26,463.00,462.02,461.61,461.28,460.99,460.63,460.16,459.70,459.37,459.05,458.69
448.32,448.38,448.32,447.86,447.21,446.68,446.67,447.16,447.61,447.86,448.06,448.17,448.25,448.31,448.33,448.31,448.20,447.99,447.71,447.40,447.09,446.76,446.39,445.95,445.46,445.38,445.52,445.64,445.76,445.78,445.89,446.06,446.08,446.30,446.77,447.33,447.76,448.11,447.99,447.40,446.38,445.31,444.09,443.38,443.32,443.71,444.15,444.71,445.34,446.11,447.30,448.35,449.11,449.46,449.31,448.79,448.47,448.62,449.42,450.16,451.19,452.37,453.54,454.73,456.08,457.25,458.43,460.43,462.45,464.64,466.69,468.08,468.64,469.85,471.75,474.34,477.56,481.48,485.94,490.90,496.43,502.03,508.19,514.51,519.68,520.40,519.39,514.22,506.00,500.06,495.17,490.74,486.58,482.76,479.35,476.44,473.71,471.05,468.55,466.23,463.91,461.67,459.81,458.73,457.76,457.18,457.31,457.88,458.53,458.44,457.52,456.50,456.36,456.74,457.27,457.62,457.39,456.39,455.15,453.98,453.05,452.37,452.01,452.18,453.32,454.46,456.25,458.12,459.47,460.47,460.92,461.06,461.10,461.23,461.34,461.68,462.22,462.84,463.46,464.19,465.03,465.92,466.75,467.42,467.85,468.09,468.26,468.45,468.66,468.92,469.19,469.44,469.67,469.89,470.06,470.12,469.97,469.87,469.85,469.88,470.11,470.36,470.53,470.63,470.69,470.49,470.35,470.32,470.36,470.42,470.48,470.51,470.52,470.48,470.55,470.67,470.79,470.91,471.10,471.67,472.50,473.17,472.76,471.67,470.08,467.93,465.13,462.42,460.78,460.37,460.97,462.00,463.22,464.53,465.97,467.44,468.93,470.11,470.90,471.60,472.25,472.86,473.37,473.70,473.88,474.09,474.32,474.56,474.82,475.06,475.25,475.30,475.01,474.73,474.43,474.18,474.05,474.03,474.03,473.98,473.88,473.80,473.65,473.60,473.56,473.37,472.87,472.11,471.31,470.70,470.49,470.66,470.82,470.74,470.23,469.75,469.49,469.43,469.46,469.42,469.27,468.71,467.63,466.36,465.06,463.94,463.14,462.82,462.51,462.22,461.82,461.21,460.58,460.00,459.51,459.11
448.98,449.02,448.82,448.28,447.60,447.10,447.38,447.93,448.40,448.68,448.82,448.86,448.91,448.98,449.04,448.98,448.86,448.68,448.43,448.13,447.81,447.47,447.06,446.47,445.96,446.03,446.32,446.47,446.56,446.57,446.70,446.95,446.98,447.03,447.55,448.32,448.91,449.30,449.10,448.38,447.25,445.97,444.61,443.86,443.85,444.27,444.78,445.53,446.38,447.20,448.50,449.62,450.37,450.62,450.28,449.84,449.68,449.88,450.39,450.76,451.59,452.75,454.11,455.60,457.12,458.68,460.50,463.14,465.94,468.65,470.80,471.91,472.53,473.93,476.00,478.62,481.62,485.32,489.33,493.81,499.34,504.87,511.41,517.08,520.05,520.43,519.99,514.96,506.30,500.19,495.64,491.39,487.23,483.36,479.70,476.75,474.05,471.39,468.87,466.50,464.11,461.79,459.89,458.88,458.01,457.58,457.93,458.52,459.14,459.41,459.04,457.87,457.29,457.52,458.14,458.56,458.13,457.13,456.04,455.04,454.14,453.60,453.20,453.07,453.69,454.60,456.53,458.75,460.50,461.52,461.71,461.67,461.65,461.68,461.79,462.18,462.74,463.36,463.98,464.64,465.40,466.23,467.09,467.93,468.61,469.09,469.40,469.64,469.88,470.12,470.34,470.51,470.74,470.94,471.08,471.14,471.03,470.92,470.87,470.87,470.94,471.13,471.33,471.49,471.62,471.42,471.29,471.31,471.38,471.44,471.47,471.44,471.39,471.39,471.50,471.62,471.71,471.85,471.95,472.43,473.21,473.88,473.52,472.41,471.14,469.79,467.59,465.00,462.89,461.73,462.00,462.85,463.87,465.05,466.46,467.90,469.38,470.55,471.32,472.04,472.74,473.40,473.99,474.48,474.72,474.95,475.18,475.42,475.71,475.96,476.15,476.23,476.08,475.87,475.59,475.34,475.21,475.20,475.20,475.12,474.99,474.90,474.76,474.66,474.55,474.29,473.61,472.83,472.09,471.47,471.23,471.41,471.63,471.60,471.02,470.62,470.42,470.36,470.36,470.36,470.17,469.52,468.37,467.12,465.84,464.90,464.37,464.12,463.83,463.56,463.13,462.41,461.65,460.78,460.08,459.59
