740.48,741.26,742.04,743.00,744.30,745.59,747.20,748.84,751.58,758.27,761.45,763.62,765.69,767.76,770.34,773.05,775.62,777.70,778.88,781.03,784.96,789.42,791.30,793.29,794.91,797.09,800.74,804.36,805.01,803.97,802.25,801.17,800.51,800.61,800.98,800.96,801.76,803.09,804.51,805.79,807.08,807.85,807.96,807.30,805.73,804.54,803.44,802.54,802.33,803.47,806.35,808.56,808.93,807.67,805.09,802.22,799.98,799.35,798.63,797.90,797.19,796.45,795.66,795.71,795.96,796.07,796.11,797.46,799.26,801.22,803.32,805.63,808.22,811.00,813.82,816.26,818.37,819.78,820.63,821.18,821.75,822.34,823.37,825.12,827.03,828.51,828.86,827.48,823.72,820.69,818.60,817.00,815.44,813.85,812.45,811.41,810.72,810.06,809.26,808.55,808.04,807.91,808.37,809.14,810.55,813.02,816.22,818.94,820.64,821.31,821.48,821.44,821.61,822.17,823.32,824.93,826.62,828.30,830.14,832.73,835.32,837.71,839.47,839.80,839.65,839.70,839.85,839.88,839.72,839.51,839.39,839.45,839.80,840.19,840.48,840.70,840.87,840.96,840.96,840.90,840.78,840.71,840.55,840.14,838.45,833.57,830.18,827.51,824.74,821.74,820.38,819.94,819.75,819.62,819.63,819.83,820.20,820.59,820.73,820.16,819.72,819.39,819.09,818.88,819.21,819.74,820.33,820.80,819.93,818.70,817.21,815.31,813.33,811.50,810.34,809.99,810.00,809.86,809.74,809.64,809.49,809.18,808.84,808.49,808.19,808.08,808.00,807.85,807.68,807.66,807.60,807.32,806.88,806.36,805.93,805.24,804.62,804.17,803.63,802.92,803.13,804.12,805.33,806.74,807.99,809.18,810.40,811.44,812.22,812.69,812.86,812.78,812.58,812.44,812.37,812.37,812.33,812.25,812.17,812.03,811.75,811.40,810.22,808.09,805.05,802.02,799.87,798.31,797.03,795.84,795.73,796.30,797.18,797.96,798.74,799.16,799.16,798.75,798.23,797.90,797.77,797.77,797.78,797.87,797.97,797.92,797.53,797.25,797.12,797.56,798.77,799.74,799.90,799.34,798.25,797.01
743.00,743.60,744.19,744.98,746.17,747.50,751.10,754.88,758.20,762.05,764.33,766.18,768.06,770.11,772.56,774.89,776.21,776.15,776.13,777.59,780.28,783.51,786.05,788.66,790.66,792.46,794.91,799.02,800.26,799.61,798.16,797.61,797.23,797.60,798.50,799.50,800.79,802.17,803.53,804.77,805.78,806.22,806.15,805.40,803.47,801.62,800.40,799.71,799.68,801.37,804.29,806.15,805.97,804.45,801.61,798.96,797.34,797.33,797.12,796.81,796.46,796.02,795.39,795.97,796.95,797.79,798.16,799.12,800.44,802.06,804.03,806.30,808.72,811.44,814.43,817.22,819.49,821.13,822.34,823.41,824.26,825.01,826.09,827.64,829.01,829.72,829.59,828.06,824.08,820.67,818.35,816.68,815.16,813.72,813.34,813.17,812.71,811.96,810.48,809.41,808.90,808.58,808.55,809.04,810.13,812.12,815.13,818.06,820.31,821.86,823.12,823.39,823.47,823.70,824.25,825.14,826.63,828.27,830.03,832.63,835.44,838.04,839.92,840.19,840.09,840.08,840.15,840.17,840.17,840.17,840.19,840.25,840.40,840.56,840.69,840.79,840.90,840.98,840.96,840.89,840.73,840.37,840.22,839.65,838.08,834.74,831.62,828.60,825.34,821.94,820.21,819.71,819.55,819.42,819.41,819.50,819.66,819.80,819.78,819.43,819.12,818.84,818.57,818.36,818.63,818.98,819.26,819.36,818.41,817.23,815.87,814.13,812.16,810.99,810.55,810.66,810.97,810.87,810.73,810.59,810.23,809.71,809.31,809.03,808.90,808.99,809.06,809.11,809.16,809.14,809.00,808.50,807.88,807.36,806.70,806.01,805.40,804.88,804.19,803.52,803.86,804.97,806.19,807.47,808.94,810.23,811.15,811.96,812.61,813.01,813.19,813.20,813.05,812.90,812.78,812.69,812.61,812.50,812.32,812.09,811.79,810.93,809.18,806.72,803.89,801.17,799.45,798.25,797.15,795.99,796.30,797.16,798.12,799.06,800.15,800.94,801.21,800.80,800.27,800.07,800.03,800.03,800.10,800.36,800.52,800.37,799.79,799.50,799.51,800.05,801.24,802.27,802.34,801.52,800.07,798.48
744.91,745.53,746.15,746.90,748.28,751.58,756.28,760.68,763.84,765.45,767.03,768.68,770.45,772.38,773.99,775.09,775.00,773.62,773.01,773.80,775.23,777.14,779.83,782.71,784.93,786.57,788.29,792.23,794.51,795.00,794.31,794.13,794.06,794.74,796.07,797.72,799.43,801.02,802.42,803.55,804.30,804.49,804.28,803.47,801.38,799.07,797.80,797.26,797.34,799.43,802.11,803.51,802.89,800.95,797.90,795.77,794.93,795.17,795.20,795.22,795.25,795.32,795.37,796.50,798.04,799.44,800.14,801.02,802.08,803.39,805.09,806.85,808.83,811.31,814.28,817.09,819.42,821.19,822.63,824.05,825.26,826.38,827.66,829.13,830.04,830.26,829.70,827.94,824.20,820.74,818.29,816.50,815.01,814.26,814.72,815.18,815.01,814.23,812.43,811.02,810.17,809.45,809.03,809.18,809.93,811.52,814.20,817.09,819.63,821.79,823.82,824.80,825.25,825.47,825.62,825.89,826.93,828.31,829.97,832.50,835.40,838.14,840.09,840.22,839.96,839.70,839.57,839.63,839.90,840.16,840.33,840.39,840.42,840.40,840.33,840.22,840.11,840.05,839.95,839.77,839.45,838.88,838.68,837.95,836.49,834.41,831.94,829.05,825.84,822.57,820.36,819.70,819.49,819.30,819.23,819.25,819.29,819.30,819.21,819.00,818.73,818.42,818.10,817.87,817.99,818.19,818.29,818.12,817.21,816.02,814.67,813.14,811.68,811.17,811.23,811.62,812.08,812.05,811.90,811.62,811.06,810.44,810.02,809.81,809.83,810.06,810.19,810.30,810.40,810.40,810.19,809.57,808.83,808.21,807.39,806.73,806.13,805.49,804.74,804.18,804.65,805.82,806.96,808.04,809.39,810.58,811.37,812.03,812.56,812.95,813.18,813.29,813.23,813.10,812.96,812.85,812.73,812.55,812.16,811.55,810.91,809.57,807.43,804.83,802.31,800.28,799.03,798.11,797.21,796.33,796.87,797.86,798.85,799.93,801.25,802.43,803.10,802.97,802.58,802.47,802.47,802.50,802.68,803.28,803.61,803.42,802.68,802.06,802.07,802.65,803.69,804.73,804.80,803.80,801.95,799.95
746.97,747.81,748.52,749.22,751.12,758.19,762.45,765.20,767.33,768.79,769.89,771.14,772.67,774.20,774.07,773.07,771.72,770.39,769.91,770.01,770.44,771.35,773.32,775.69,777.69,779.41,781.33,784.32,787.80,789.98,790.38,790.46,790.86,792.04,793.74,795.51,797.55,799.57,801.17,802.11,802.66,802.70,802.36,801.43,799.38,796.89,795.58,795.12,795.24,797.50,799.71,800.68,799.81,797.27,794.10,792.71,792.80,792.98,793.03,793.20,793.58,794.32,795.59,797.26,799.01,800.58,801.63,802.98,804.22,805.48,806.86,807.56,808.76,810.75,813.41,815.88,818.19,820.06,821.56,822.99,824.52,826.11,827.74,829.22,829.90,830.11,829.22,827.06,823.99,820.96,818.54,816.56,815.12,815.65,816.51,817.18,817.38,816.71,815.20,813.57,811.99,810.51,809.86,809.62,810.00,811.42,813.83,816.45,818.95,821.27,823.49,825.56,826.77,827.29,827.37,827.30,827.64,828.53,830.13,832.57,835.33,837.99,839.88,839.89,839.41,838.75,838.34,838.51,839.20,839.70,839.92,839.92,839.84,839.61,839.23,838.75,838.24,837.88,837.63,837.24,836.62,836.01,835.64,834.88,833.65,832.23,830.69,828.54,825.99,823.30,820.61,819.74,819.49,819.26,819.06,818.97,818.94,818.92,818.82,818.61,818.37,818.07,817.71,817.41,817.26,817.28,817.33,817.06,816.29,815.06,813.63,812.34,811.94,811.89,812.13,812.61,813.17,813.33,813.15,812.69,812.00,811.49,811.09,810.88,810.97,811.24,811.41,811.41,811.33,811.37,811.10,810.48,809.70,808.88,808.05,807.42,806.76,806.01,805.27,804.88,805.46,806.60,807.56,808.47,809.35,810.24,811.07,811.66,812.10,812.50,812.85,813.05,813.13,813.06,812.97,812.92,812.73,812.43,811.65,810.32,808.95,807.23,805.01,802.55,800.44,799.41,798.60,797.82,797.13,796.81,797.45,798.38,799.36,800.54,802.02,803.53,804.73,805.24,805.16,805.13,805.13,805.20,805.57,806.59,807.14,807.02,806.26,804.95,804.80,805.36,806.17,807.18,807.41,806.37,804.20,801.77
750.17,753.55,755.32,756.18,757.90,762.53,766.13,768.39,769.62,770.82,771.63,772.17,772.54,772.58,771.77,770.58,769.33,768.26,767.72,767.66,767.86,768.38,769.66,771.11,772.35,773.71,775.79,779.18,781.59,783.01,783.73,784.47,786.03,788.25,790.70,792.87,794.92,796.93,798.75,800.16,800.91,800.67,799.76,798.46,796.92,794.59,793.33,792.92,793.05,794.49,796.07,796.49,795.24,793.01,791.24,790.71,791.06,791.51,791.89,792.44,793.20,794.28,795.87,797.57,799.18,800.72,802.43,804.38,806.14,807.71,809.02,809.49,809.91,810.77,812.36,814.69,816.85,818.68,820.29,821.83,823.48,825.22,826.86,828.13,828.90,829.29,828.78,827.18,824.62,821.74,819.22,817.16,815.93,816.91,818.08,819.07,819.66,819.31,817.70,815.87,814.16,812.62,811.50,810.66,810.42,811.33,813.61,816.01,818.30,820.53,822.95,825.44,827.40,828.64,829.00,828.72,828.67,829.29,830.82,833.07,835.45,837.66,839.15,838.91,838.27,837.53,837.00,837.03,837.67,838.19,838.10,837.51,837.24,836.98,836.68,836.27,835.68,835.22,834.87,834.39,833.70,833.05,832.49,831.69,830.64,829.50,828.34,826.63,824.52,822.26,820.33,819.68,819.43,819.20,818.97,818.80,818.64,818.53,818.44,818.26,818.01,817.69,817.31,816.96,816.62,816.40,816.26,815.98,815.38,814.31,813.25,812.70,812.65,812.71,813.01,813.58,814.18,814.58,814.49,814.06,813.52,813.09,812.79,812.54,812.41,812.67,812.75,812.59,812.36,812.37,811.88,811.19,810.39,809.55,808.78,808.05,807.29,806.47,805.67,805.15,805.57,806.62,807.63,808.62,808.89,809.19,809.99,810.59,811.12,811.64,812.10,812.37,812.56,812.63,812.65,812.62,812.46,811.81,810.45,808.49,806.73,804.87,802.75,800.74,799.53,798.78,798.10,797.52,797.14,797.16,797.75,798.57,799.51,800.74,802.64,804.45,806.03,807.25,807.69,807.78,807.78,807.87,808.30,809.00,809.46,809.54,809.07,807.47,807.24,807.85,808.65,809.49,809.85,809.12,807.30,805.03
754.63,759.03,761.36,762.47,763.96,765.84,768.49,770.26,770.85,771.60,771.99,771.88,771.29,770.21,769.18,768.19,767.23,766.36,765.78,765.66,765.80,766.21,767.05,767.78,768.45,769.58,771.92,775.55,776.89,777.47,778.23,779.43,781.49,783.99,786.62,789.10,791.23,793.07,794.88,796.65,797.71,797.41,796.06,794.42,793.76,792.10,791.13,790.87,791.00,791.64,792.53,792.56,791.37,789.85,789.30,789.36,789.79,790.51,791.24,792.14,793.21,794.45,796.03,797.58,799.01,800.56,802.91,805.44,807.68,809.53,810.81,811.42,811.38,811.38,811.96,813.72,815.56,817.35,819.08,820.78,822.46,824.16,825.67,826.78,827.60,828.19,828.19,827.34,825.30,822.61,820.04,817.93,816.86,817.98,819.50,820.88,821.82,821.76,820.15,818.23,816.44,814.86,813.27,812.05,811.35,811.59,813.33,815.49,817.59,819.63,821.99,824.65,827.19,829.16,830.07,830.13,830.08,830.55,831.85,833.71,835.72,837.29,838.10,837.65,836.97,836.20,835.57,835.40,835.85,836.33,835.99,834.89,834.20,833.81,833.59,833.34,832.86,832.47,832.07,831.56,830.90,830.24,829.57,828.70,827.69,826.69,825.67,824.27,822.61,820.97,819.97,819.57,819.34,819.12,818.90,818.72,818.54,818.38,818.26,818.10,817.84,817.53,817.19,816.82,816.42,816.04,815.68,815.30,814.77,814.01,813.45,813.48,813.55,813.59,813.91,814.57,815.19,815.77,815.88,815.61,815.24,814.89,814.67,814.38,814.03,814.18,814.13,813.83,813.47,813.31,812.62,811.82,811.01,810.17,809.40,808.55,807.67,806.82,805.97,805.34,805.65,806.63,807.63,808.34,808.04,807.92,808.63,809.24,809.83,810.42,810.98,811.32,811.60,811.80,811.92,811.88,811.64,810.61,808.81,806.51,804.51,802.64,800.87,799.46,798.90,798.24,797.74,797.44,797.38,797.59,798.01,798.64,799.48,800.63,802.80,804.91,806.89,808.75,809.54,809.75,809.79,809.91,810.33,810.75,811.09,811.31,811.15,809.76,809.54,810.12,810.89,811.57,812.04,811.65,810.32,808.53
760.71,762.40,763.95,765.38,766.81,768.13,769.38,770.26,770.64,770.66,770.35,769.81,769.03,767.97,767.06,766.18,765.26,764.38,763.92,763.69,763.78,764.27,765.08,765.70,766.34,767.73,770.50,773.48,774.73,775.35,776.03,777.15,778.22,779.41,781.05,783.50,785.93,787.50,788.88,790.48,791.83,791.93,790.56,788.89,789.55,789.31,789.11,789.10,789.26,789.56,789.77,789.75,789.44,788.93,788.63,788.74,789.23,790.03,791.07,792.18,793.35,794.60,795.96,797.27,798.58,800.26,803.13,806.11,808.61,810.51,811.75,812.81,812.92,812.80,812.85,813.17,814.49,816.23,818.11,819.96,821.62,823.04,824.33,825.45,826.16,826.84,827.30,827.18,825.79,823.47,820.97,818.79,817.70,818.76,820.73,822.59,823.79,823.92,822.70,820.83,818.76,816.87,814.95,813.80,813.03,812.47,812.90,814.72,816.74,818.53,820.37,823.00,825.82,828.34,830.10,831.43,831.97,832.44,833.25,834.43,836.13,836.88,836.65,836.17,835.57,834.80,834.06,833.63,833.84,834.26,833.96,832.76,831.28,830.53,830.21,830.06,829.93,829.80,829.42,828.91,828.33,827.76,827.15,826.18,824.97,823.97,822.93,821.73,820.66,820.03,819.70,819.45,819.22,819.01,818.85,818.80,818.76,818.67,818.47,818.25,818.01,817.80,817.58,817.28,817.00,816.61,816.06,815.38,814.76,814.48,814.45,814.51,814.59,814.51,814.82,815.60,816.23,816.90,817.30,817.36,817.06,816.81,816.58,816.25,815.85,815.71,815.51,815.15,814.67,814.11,813.26,812.41,811.57,810.71,809.76,808.79,807.87,807.00,806.11,805.56,805.97,806.97,807.72,807.40,806.73,806.52,807.14,807.69,808.18,808.74,809.31,809.75,810.12,810.38,810.51,810.42,809.90,808.50,806.62,804.50,802.44,800.76,799.65,798.95,798.40,797.74,797.65,797.83,798.01,798.23,798.35,798.69,799.29,800.13,802.22,804.59,807.06,809.38,810.13,810.41,810.59,810.77,811.16,811.59,811.93,812.14,812.21,811.78,811.73,812.08,812.71,813.34,813.83,813.67,812.85,811.85
761.41,762.21,763.28,764.55,765.87,767.09,768.30,769.18,769.57,769.48,769.02,768.18,767.07,765.87,764.97,764.13,763.25,762.42,762.00,761.70,761.81,762.32,762.96,763.51,764.26,765.88,768.88,771.32,772.50,773.14,773.74,774.65,775.37,776.20,777.41,779.24,780.86,781.94,782.88,783.86,784.66,784.72,784.32,784.30,786.13,787.10,787.46,787.61,787.81,788.08,788.15,788.17,788.18,788.08,788.01,788.34,789.02,789.87,790.94,792.12,793.35,794.65,796.07,797.48,798.89,800.71,803.78,806.90,809.38,811.19,812.46,813.71,814.22,814.33,814.25,814.21,814.75,815.85,817.36,819.11,820.52,821.78,822.96,824.00,824.93,826.11,827.28,828.02,827.57,826.09,823.32,820.30,818.59,819.12,821.13,823.65,825.90,826.70,825.92,823.90,821.21,818.61,816.74,815.55,814.58,813.68,813.24,814.27,815.85,817.53,819.21,821.45,823.99,826.51,828.67,830.58,831.82,832.85,833.91,834.97,835.54,835.44,834.90,834.41,834.01,833.33,832.56,832.06,832.11,832.31,832.00,830.96,829.45,828.43,828.01,828.11,828.60,828.63,827.94,826.99,826.09,825.38,824.77,823.71,822.40,821.63,821.03,820.43,819.94,819.70,819.53,819.35,819.22,819.15,819.08,819.10,819.09,819.01,818.81,818.58,818.41,818.27,818.13,817.88,817.73,817.42,816.87,816.20,815.67,815.52,815.57,815.63,815.60,815.44,815.70,816.47,817.24,817.92,818.47,818.80,818.80,818.71,818.43,817.96,817.33,816.69,816.06,815.36,814.59,813.78,813.00,812.24,811.50,810.76,809.75,808.82,807.94,807.04,806.16,805.78,806.19,806.86,806.80,806.17,805.58,805.37,805.64,805.97,806.47,807.03,807.58,807.98,808.24,808.05,807.80,807.68,806.52,805.01,803.42,801.92,800.76,799.78,799.08,798.54,798.09,797.92,798.11,798.43,798.68,798.84,798.91,799.12,799.53,800.17,801.72,803.95,806.44,808.70,809.96,810.44,810.70,810.95,811.25,811.55,811.82,812.09,812.46,812.94,813.57,814.13,814.55,815.14,815.57,815.78,815.63,814.88
760.49,761.00,761.69,762.63,763.83,765.09,766.58,767.70,768.19,768.23,767.68,766.59,765.21,763.85,762.88,761.89,760.85,759.79,758.77,758.39,758.75,759.61,760.31,760.70,761.33,762.82,765.42,767.24,768.31,769.07,769.75,770.68,771.93,773.16,774.36,775.56,776.37,777.09,777.71,778.13,778.39,778.35,779.08,780.93,783.62,785.27,785.96,786.21,786.46,786.76,786.86,786.95,787.11,787.29,787.48,788.05,788.92,789.81,790.86,792.03,793.28,794.65,796.17,797.72,799.28,801.20,804.26,807.34,809.76,811.58,812.98,814.39,815.35,815.83,815.87,815.81,815.67,815.99,816.89,818.32,819.41,820.56,821.73,822.87,824.15,825.81,827.56,829.03,829.53,828.86,826.13,822.50,819.80,819.50,821.50,824.61,827.82,829.28,828.90,826.83,823.67,820.42,818.51,817.21,816.10,815.05,814.03,814.12,815.10,816.66,818.30,820.13,822.30,824.67,827.04,829.27,831.08,832.65,834.02,835.03,834.50,833.70,833.05,832.60,832.46,831.84,831.05,830.57,830.51,830.53,830.25,829.54,828.42,827.33,826.73,826.87,827.78,827.97,827.00,825.63,824.37,823.41,822.66,821.60,820.44,819.95,819.81,819.73,819.65,819.57,819.43,819.31,819.30,819.37,819.39,819.46,819.45,819.35,819.18,818.97,818.86,818.81,818.74,818.57,818.53,818.29,817.82,817.25,816.84,816.71,816.73,816.74,816.58,816.36,816.54,817.26,818.17,818.95,819.70,820.30,820.48,820.23,819.73,819.06,818.18,817.12,816.10,815.10,814.09,813.11,812.40,811.75,811.12,810.45,809.38,808.64,807.93,807.08,806.19,805.93,806.23,806.49,805.89,805.35,805.07,804.91,804.82,804.92,805.24,805.61,805.94,806.18,806.24,805.68,805.03,804.62,803.04,801.72,800.62,799.79,799.50,799.15,798.72,798.28,798.05,798.35,798.74,799.18,799.63,799.82,799.94,800.05,800.26,800.74,801.58,803.24,805.33,807.38,809.13,809.91,810.33,810.66,810.88,811.04,811.22,811.50,812.07,813.16,814.46,815.50,816.07,816.78,817.24,817.78,818.17,817.60
759.47,759.84,760.17,760.77,761.86,763.19,764.74,766.00,766.74,766.98,766.03,764.74,763.37,761.89,760.74,759.24,757.48,755.33,752.06,751.46,752.70,754.77,756.31,756.19,756.09,756.39,757.08,757.98,758.89,759.94,761.22,762.85,766.55,769.53,771.31,772.36,773.33,774.14,774.79,775.23,775.59,775.64,777.17,780.18,783.01,784.06,784.53,784.85,785.10,785.39,785.57,785.74,786.02,786.53,787.15,787.95,788.87,789.80,790.86,791.96,793.17,794.58,796.11,797.66,799.27,801.19,803.96,806.75,809.24,811.37,813.13,814.88,816.23,817.17,817.67,817.66,817.29,817.01,817.06,817.70,818.50,819.52,820.90,822.70,824.44,826.20,828.00,829.72,830.91,830.62,829.09,826.12,821.83,820.28,822.35,825.80,829.10,830.80,830.71,828.99,826.09,822.64,820.10,818.63,817.63,816.64,815.47,814.52,814.71,816.09,817.70,819.32,821.33,823.64,826.02,828.38,830.34,831.96,833.19,833.90,833.09,831.98,831.15,830.85,831.00,830.34,829.49,829.13,829.10,829.14,829.08,828.90,828.66,827.94,827.02,826.53,827.10,827.50,826.61,825.20,823.79,822.48,821.23,820.40,820.00,819.84,819.75,819.67,819.59,819.51,819.42,819.43,819.51,819.64,819.70,819.78,819.80,819.73,819.52,819.34,819.28,819.32,819.40,819.38,819.37,819.19,818.82,818.34,817.99,817.88,817.86,817.78,817.52,817.23,817.34,817.98,818.91,820.11,821.33,822.18,822.04,820.72,819.58,818.59,817.55,816.48,815.45,814.45,813.43,812.39,811.60,811.01,810.40,809.54,808.32,808.00,807.79,807.24,806.26,805.90,805.79,805.76,805.82,805.88,806.13,806.19,805.90,805.77,805.39,804.99,804.66,804.42,804.24,803.90,803.10,801.68,800.65,800.07,799.69,799.36,799.06,798.74,798.44,798.30,798.56,798.98,799.39,800.12,801.25,801.82,802.10,802.06,801.94,802.29,802.37,802.62,803.52,805.40,807.12,808.35,809.19,809.66,809.79,809.93,810.06,810.22,810.58,811.47,813.01,814.89,816.74,817.92,818.71,819.37,819.84,819.67
758.47,758.55,758.65,759.06,760.14,761.75,763.30,764.53,765.35,765.80,764.72,763.26,761.53,759.18,756.97,754.98,752.34,748.53,744.38,743.79,746.13,749.80,751.88,751.30,750.45,750.03,750.27,751.13,752.15,753.36,754.82,756.50,759.92,762.95,765.23,767.06,768.59,770.15,771.50,772.38,772.79,772.97,775.35,779.38,781.71,782.40,782.83,783.38,784.10,784.67,785.21,785.61,785.97,786.64,787.40,788.20,789.06,790.11,791.50,792.84,794.08,795.21,796.32,797.43,798.77,800.55,803.10,805.72,808.24,810.54,812.52,814.54,816.40,817.93,819.00,819.48,819.15,818.61,818.28,818.53,819.10,819.94,821.10,822.70,824.60,826.58,828.56,830.42,831.85,832.02,831.12,829.04,825.72,823.44,824.24,826.79,829.89,831.70,832.02,830.69,828.15,825.06,822.46,820.76,819.44,818.09,816.77,815.47,815.12,815.98,817.50,818.99,820.85,823.12,825.63,828.05,830.08,831.67,832.64,832.66,831.61,830.21,828.99,828.64,829.05,828.62,827.95,827.78,827.76,827.93,828.06,828.11,828.18,827.84,827.24,826.70,826.57,826.98,826.18,824.81,823.44,822.29,821.24,820.52,820.15,820.00,819.85,819.75,819.66,819.59,819.55,819.60,819.75,820.04,820.54,820.99,821.08,820.85,820.43,820.17,820.13,820.31,820.57,820.40,820.38,820.25,819.94,819.49,819.15,819.00,818.90,818.73,818.43,818.12,818.13,818.63,819.68,821.25,822.86,823.63,822.37,820.51,819.11,817.99,816.91,815.87,814.82,813.80,812.78,811.72,810.81,810.08,809.34,808.51,808.22,807.98,807.54,806.91,806.45,806.18,806.22,806.46,806.69,806.92,807.37,807.61,807.40,807.20,806.64,805.97,805.23,804.35,803.52,802.68,801.65,800.39,799.79,799.46,799.26,799.13,798.97,798.81,798.66,798.67,798.99,799.44,800.90,802.81,804.50,805.23,805.47,805.27,804.80,804.38,803.94,803.67,803.93,804.96,805.92,806.64,807.34,808.06,808.62,809.05,809.44,809.84,810.39,811.35,812.92,814.96,817.19,818.63,819.60,820.31,820.75,820.69
757.49,757.25,757.14,757.44,758.56,760.44,761.99,763.14,763.98,764.58,763.58,762.06,759.91,756.39,752.77,749.96,746.45,741.47,736.97,736.63,740.12,745.25,747.47,746.51,744.99,744.05,744.33,745.61,746.70,747.81,749.10,750.68,753.20,755.86,758.40,760.75,762.56,764.74,766.86,768.41,769.11,769.71,772.82,777.49,779.50,780.25,780.95,781.99,783.41,784.47,785.39,786.02,786.39,787.10,787.84,788.57,789.41,790.73,792.59,794.32,795.62,796.40,797.10,797.61,798.45,799.88,802.11,804.60,807.13,809.53,811.66,813.90,816.20,818.27,819.92,821.07,821.13,820.66,820.18,820.29,820.69,821.36,822.18,823.20,824.85,826.95,829.07,831.02,832.55,833.29,832.77,831.44,829.68,827.16,826.48,827.80,830.57,832.47,833.13,832.15,829.99,827.51,825.07,823.05,821.18,819.28,817.85,816.47,815.75,816.04,817.39,818.77,820.42,822.54,825.23,827.85,829.98,831.47,832.00,831.15,829.88,828.49,827.28,826.86,827.31,827.12,826.74,826.70,826.68,826.88,827.09,827.26,827.40,827.38,827.26,826.88,826.19,826.47,825.78,824.59,823.38,822.53,821.87,821.24,820.70,820.47,820.23,820.03,819.87,819.74,819.73,819.81,820.07,820.63,821.62,822.53,822.74,822.36,821.75,821.42,821.40,821.71,822.10,821.68,821.53,821.39,821.13,820.68,820.36,820.14,819.94,819.68,819.37,819.12,819.11,819.56,820.74,822.51,824.34,824.90,822.51,820.29,818.78,817.63,816.63,815.61,814.63,813.65,812.64,811.56,810.57,809.70,808.87,808.27,808.90,808.57,807.68,806.81,806.77,806.49,806.79,807.44,807.79,808.13,808.68,809.10,809.09,808.87,808.30,807.51,806.48,805.05,803.61,802.06,800.68,799.88,799.57,799.30,799.13,799.09,799.10,799.11,799.11,799.18,799.50,800.28,803.04,806.12,808.10,808.86,808.95,808.63,807.87,806.63,805.82,805.46,805.44,805.65,805.78,805.82,806.24,807.20,808.27,809.05,809.73,810.42,811.22,812.30,813.74,815.58,817.71,819.23,820.26,820.94,821.28,821.22
756.50,756.08,755.71,755.87,757.10,758.97,760.54,761.74,762.59,763.16,762.60,761.38,759.00,754.34,749.16,744.42,740.32,736.51,731.76,732.15,736.68,742.34,743.75,742.56,740.66,739.28,739.45,741.44,742.20,742.46,742.98,744.72,747.78,750.86,753.09,753.75,754.34,755.76,757.96,760.58,762.27,764.41,767.75,771.83,775.01,776.94,778.86,781.04,783.33,785.19,786.30,786.86,787.12,787.65,788.28,788.96,789.98,791.97,794.45,796.63,798.06,798.63,799.48,799.43,799.40,799.93,801.45,803.76,806.22,808.61,810.94,813.29,815.66,817.98,820.13,821.91,823.25,823.44,823.07,823.43,823.77,824.40,824.95,825.16,825.59,827.32,829.34,831.23,833.05,834.61,834.37,832.97,831.40,829.69,828.55,829.08,831.44,833.61,834.24,833.34,831.56,829.76,827.54,825.03,822.33,819.78,818.32,816.94,816.09,816.10,817.13,818.31,819.47,821.10,823.97,827.40,829.86,831.00,830.62,828.89,827.33,827.03,827.46,827.19,826.87,826.73,826.63,826.46,826.34,826.11,826.10,826.35,826.51,826.67,826.64,826.42,826.11,826.02,825.59,824.89,824.06,823.33,822.78,822.31,821.90,821.66,821.38,820.88,820.31,819.90,819.86,820.05,820.67,821.73,822.90,824.05,824.47,824.27,823.78,823.50,823.57,823.92,824.23,823.56,822.90,822.57,822.42,821.98,821.70,821.43,821.13,820.78,820.42,820.41,820.76,821.53,822.79,824.23,825.75,826.13,823.64,820.98,819.32,818.31,817.58,816.56,815.90,815.21,814.29,813.13,812.25,811.52,811.00,810.83,810.96,810.38,809.34,808.14,807.40,806.55,806.69,807.58,808.44,809.23,810.05,810.68,810.88,810.67,809.95,808.92,807.67,806.25,804.79,802.73,800.78,799.87,799.56,799.40,799.38,799.47,799.53,799.64,799.69,799.77,800.34,802.68,806.21,809.30,810.87,811.40,811.23,810.83,810.14,808.72,807.75,807.58,807.85,808.15,808.31,808.26,808.63,809.67,810.90,811.80,812.51,813.17,813.92,814.91,815.96,817.25,818.84,820.01,820.89,821.36,821.45,821.42
754.75,754.22,753.75,753.65,754.43,756.17,758.08,759.85,761.25,761.90,761.65,760.37,757.55,752.27,745.91,740.54,736.36,732.58,726.55,727.70,732.96,738.74,740.19,738.52,736.30,734.90,735.26,737.07,737.47,737.44,737.85,739.61,742.95,746.26,748.41,748.46,748.82,750.17,752.88,756.79,759.91,763.31,767.37,771.88,775.98,778.05,779.76,781.63,783.74,785.74,787.10,787.78,787.96,788.35,788.88,789.84,791.36,793.63,796.36,798.88,800.67,801.60,802.73,802.56,802.04,801.79,802.42,803.61,805.56,807.90,810.27,812.66,815.08,817.49,819.84,822.01,824.08,825.32,826.00,826.75,827.05,827.36,827.48,827.24,827.21,828.19,829.79,831.74,833.78,835.67,835.96,835.02,833.56,832.21,831.07,831.25,833.12,835.20,835.41,834.31,832.58,830.92,828.77,825.96,822.84,820.00,818.63,817.60,816.90,816.66,817.07,817.96,818.83,820.01,822.32,826.08,828.69,829.45,828.65,828.58,828.12,828.36,828.97,828.62,828.01,827.72,827.53,827.22,826.96,826.54,826.29,826.26,826.28,826.38,826.33,826.22,826.22,826.19,825.96,825.50,824.84,824.26,823.83,823.46,823.13,822.89,822.60,821.98,821.31,820.90,820.90,821.56,822.58,823.80,825.03,826.01,826.29,826.11,825.86,825.54,825.77,826.17,826.27,825.49,824.64,824.06,823.69,823.31,822.99,822.69,822.36,822.01,821.66,822.02,822.77,823.77,825.01,826.34,827.49,827.56,825.27,822.74,820.84,819.61,818.93,818.22,817.88,817.50,816.90,816.03,815.27,814.49,813.80,813.35,812.86,811.58,810.08,808.68,807.62,806.85,807.15,808.20,809.32,810.53,811.61,812.41,812.76,812.53,811.67,810.45,809.01,807.44,805.69,803.42,801.24,799.96,799.63,799.55,799.60,799.82,800.35,801.10,801.62,801.98,802.75,805.41,808.60,811.28,812.85,813.60,813.53,813.26,812.70,811.11,809.98,809.80,810.20,810.73,810.98,810.95,811.34,812.40,813.65,814.69,815.50,816.16,816.81,817.60,818.33,819.18,820.22,820.90,821.43,821.63,821.58,821.58
752.59,751.76,751.12,750.72,750.88,752.55,754.97,757.50,759.63,760.44,760.34,758.77,755.54,750.12,743.09,737.79,733.65,729.13,721.77,723.66,729.40,735.08,736.84,734.63,731.97,730.54,731.11,732.18,732.15,732.15,732.93,734.91,738.37,741.78,744.07,744.27,744.99,746.97,750.56,755.67,760.18,764.50,769.35,774.65,779.32,781.11,782.13,783.22,784.64,786.38,787.91,788.76,788.93,789.38,789.99,791.39,793.42,795.70,798.33,801.02,803.29,804.89,806.40,806.37,805.62,804.78,804.51,804.24,805.35,807.37,809.60,811.96,814.41,816.89,819.36,821.76,824.13,826.43,828.42,829.62,829.96,829.94,829.69,829.32,829.32,829.53,830.61,832.58,834.72,836.59,837.48,837.27,836.01,834.75,833.80,833.89,835.28,837.01,836.66,835.19,833.30,831.37,829.16,826.24,823.02,820.20,818.98,818.41,817.97,817.54,817.28,817.81,818.49,819.27,820.68,824.24,826.86,827.54,827.04,829.43,830.62,831.11,831.14,830.62,830.07,829.59,829.10,828.58,828.11,827.63,827.13,826.72,826.56,826.41,826.26,826.23,826.49,826.70,826.66,826.29,825.66,825.27,824.95,824.65,824.36,824.13,823.83,823.23,822.64,822.44,822.51,823.66,825.04,826.32,827.60,828.19,828.13,827.87,827.83,827.50,827.96,828.38,828.17,827.33,826.44,825.62,824.95,824.65,824.29,823.95,823.63,823.32,823.08,823.82,824.92,826.06,827.27,828.67,829.50,829.24,827.30,825.13,823.00,821.41,820.67,820.39,820.33,820.19,819.88,819.40,818.76,817.83,816.73,815.57,814.34,812.21,810.18,808.69,807.58,807.29,807.92,809.09,810.39,811.96,813.26,814.21,814.68,814.41,813.42,812.05,810.45,808.62,806.48,804.22,802.02,800.29,799.84,799.75,799.84,800.29,801.48,803.02,804.21,805.03,805.98,808.20,810.56,812.73,814.50,815.65,815.88,815.87,815.46,813.78,812.53,812.22,812.60,813.29,813.66,813.71,814.14,815.20,816.38,817.55,818.44,819.09,819.58,820.08,820.53,821.02,821.54,821.73,821.84,821.81,821.67,821.62
750.56,748.38,746.93,746.30,746.55,748.59,751.53,754.40,756.66,757.75,757.42,755.61,752.46,747.77,741.25,735.94,731.03,725.46,719.11,721.56,727.54,733.07,734.12,731.61,728.00,725.48,725.48,725.69,724.94,724.89,726.54,729.99,733.57,737.03,739.66,740.49,741.64,745.36,750.45,755.82,760.65,765.15,769.91,774.92,779.48,781.70,783.63,785.39,786.62,787.91,789.10,789.84,790.28,791.45,792.94,794.61,796.48,798.63,800.49,802.99,805.59,807.84,810.01,810.02,809.25,808.35,807.51,806.61,806.46,807.16,808.77,811.02,813.50,816.21,819.08,821.65,824.08,826.44,828.60,830.13,830.95,831.31,831.38,831.28,831.47,831.73,832.53,834.02,835.94,837.59,838.69,839.05,838.38,837.12,836.34,836.51,837.66,838.77,838.01,836.24,833.96,831.43,828.95,826.21,823.34,820.82,819.85,819.41,819.01,818.55,818.16,818.27,818.64,819.15,819.97,822.22,824.68,826.69,828.26,830.50,832.28,833.15,833.17,832.67,832.43,831.96,831.21,830.26,829.32,828.62,828.04,827.58,827.38,826.84,826.46,826.50,827.06,827.29,827.39,827.13,826.53,826.28,826.08,825.84,825.60,825.36,825.06,824.52,824.12,824.21,824.35,825.27,826.76,828.52,829.95,830.21,829.90,829.49,829.33,829.38,830.11,830.44,829.75,828.71,827.64,826.77,826.22,826.05,825.70,825.33,824.97,824.68,824.77,825.70,826.88,828.07,829.42,831.06,831.87,831.56,829.97,827.79,825.67,824.09,823.34,823.22,823.20,822.89,822.30,821.70,821.15,820.24,818.83,816.86,814.55,811.99,809.92,808.56,807.45,807.67,808.55,809.86,811.67,813.46,814.89,815.97,816.55,816.29,815.14,813.65,811.94,809.88,807.67,805.52,803.42,801.47,800.43,800.08,800.33,801.30,803.02,804.77,806.37,807.78,809.02,810.63,812.65,814.74,816.53,817.73,818.31,818.58,818.34,817.02,815.78,815.30,815.39,815.76,816.23,816.45,817.03,818.11,819.10,820.26,821.01,821.33,821.49,821.65,821.79,821.93,822.07,822.02,821.94,821.79,821.56,821.23
746.76,743.81,742.17,741.75,742.49,745.16,748.48,751.37,753.34,754.21,753.45,751.68,749.09,745.26,739.64,734.39,728.56,721.65,715.92,718.51,724.45,730.04,731.31,728.39,724.11,720.86,720.20,719.69,718.82,718.99,720.98,724.39,727.20,730.86,734.41,735.97,738.43,743.52,749.55,755.19,760.19,764.73,769.33,774.01,778.18,781.01,783.84,786.46,788.27,789.59,790.78,791.80,792.85,794.68,796.50,798.02,799.41,801.06,802.63,804.78,807.27,809.90,812.58,813.10,812.67,811.85,810.69,809.46,808.55,808.29,809.10,810.55,812.98,815.90,818.93,821.51,823.82,826.02,828.05,829.66,830.80,831.51,832.01,832.45,833.03,833.62,834.35,835.34,836.64,837.83,838.81,839.48,839.65,839.26,838.82,838.89,839.59,839.96,838.78,836.62,833.91,831.02,828.49,825.94,823.71,822.29,821.75,821.34,820.69,819.82,819.15,819.28,819.55,819.89,820.51,821.67,823.80,826.30,828.78,830.93,833.05,834.58,835.31,835.14,835.09,834.64,833.79,832.59,831.18,829.88,828.95,828.39,827.92,827.10,826.61,826.73,827.49,827.87,828.09,827.95,827.47,827.39,827.30,827.12,826.86,826.59,826.29,825.94,825.79,826.03,826.27,827.01,828.32,830.06,831.54,832.04,831.86,831.47,831.33,831.55,832.28,832.39,831.31,829.93,828.72,827.89,827.48,827.43,827.14,826.78,826.37,826.05,826.32,827.27,828.48,829.87,831.69,833.54,834.37,834.05,832.59,830.39,828.31,826.81,826.14,826.11,826.07,825.58,824.70,823.84,822.97,821.69,819.89,817.43,814.60,811.79,809.71,808.50,807.60,808.14,809.20,810.66,812.87,814.97,816.59,817.76,818.37,818.15,816.86,815.14,813.22,811.05,808.78,806.63,804.60,802.76,801.38,800.64,800.90,802.27,804.26,806.15,808.00,809.76,811.30,812.76,814.56,816.53,818.40,819.48,820.06,820.33,820.22,819.42,818.52,818.07,818.00,818.14,818.51,818.79,819.34,820.22,820.89,821.73,822.26,822.45,822.47,822.45,822.44,822.43,822.38,822.24,822.02,821.68,821.19,820.42
741.80,738.58,737.22,737.33,738.83,742.26,745.76,748.41,749.84,750.04,748.74,747.25,745.50,742.54,737.91,732.69,725.98,717.75,712.07,714.50,720.09,725.59,727.63,724.45,720.01,716.60,715.35,714.38,713.99,714.72,716.62,718.84,720.41,724.23,728.84,731.20,735.42,741.20,747.50,753.54,758.68,763.09,767.65,772.29,776.05,779.48,783.02,786.52,789.52,791.38,792.91,794.43,796.15,798.42,800.13,801.24,802.05,803.01,804.65,806.39,808.50,811.26,814.31,815.70,815.90,815.22,813.94,812.56,811.33,810.53,810.46,810.65,812.86,815.84,818.78,821.23,823.32,825.25,827.03,828.53,829.78,830.73,831.64,832.68,833.69,834.70,835.49,836.06,836.58,837.23,837.92,838.75,839.88,840.88,840.93,840.84,840.91,840.59,839.02,836.46,833.36,830.37,827.94,825.70,824.37,824.47,824.44,824.03,822.99,821.53,820.61,821.00,821.26,821.46,822.13,822.56,824.13,826.27,828.59,830.88,833.21,835.52,837.37,837.82,837.84,837.44,836.65,835.38,833.55,831.46,829.94,829.08,828.18,827.21,826.72,826.88,827.77,828.41,828.76,828.77,828.55,828.66,828.68,828.49,828.16,827.85,827.57,827.51,827.60,827.83,828.16,828.76,829.71,831.02,832.48,833.60,833.91,833.75,833.77,833.97,834.48,834.32,832.98,831.26,829.96,829.15,828.83,828.86,828.66,828.29,827.81,827.42,827.75,828.64,829.91,831.63,834.07,836.05,836.90,836.63,835.20,833.06,831.05,829.63,829.05,829.03,828.86,828.12,826.93,825.65,824.10,822.22,820.00,817.37,814.50,811.64,809.58,808.52,807.97,808.66,809.87,811.54,813.99,816.42,818.25,819.47,820.00,819.82,818.44,816.49,814.33,812.12,809.77,807.55,805.61,804.04,802.56,801.39,801.50,803.13,805.17,807.18,809.13,811.03,812.83,814.53,816.17,818.00,819.91,820.77,821.10,821.20,821.15,820.91,820.52,820.27,820.19,820.24,820.41,820.64,821.02,821.53,821.87,822.17,822.46,822.68,822.73,822.68,822.67,822.65,822.56,822.39,822.05,821.49,820.65,819.33
738.31,734.46,732.98,733.51,735.81,739.84,743.03,745.22,746.24,745.63,743.97,742.65,741.47,739.29,734.96,729.20,722.03,713.87,707.80,710.30,714.85,718.43,719.73,717.72,714.57,711.90,710.72,710.07,710.84,712.48,714.57,716.52,718.20,721.33,725.25,728.54,733.19,737.93,743.53,750.24,755.48,759.24,764.21,770.16,774.23,777.85,781.90,786.20,790.29,793.43,795.56,796.99,798.19,800.23,802.08,803.32,804.11,804.82,806.15,807.79,809.88,812.66,815.93,818.26,819.06,818.48,817.12,815.65,814.21,813.04,812.39,811.83,813.22,815.63,818.32,820.46,822.28,824.01,825.62,826.93,828.09,829.14,830.12,831.08,832.06,833.00,833.76,834.32,834.77,835.36,836.17,837.41,839.24,840.57,841.22,841.30,840.98,840.65,839.02,836.38,833.22,830.19,827.88,826.65,826.43,827.06,827.24,826.83,825.81,824.64,824.42,824.53,824.33,824.20,824.70,824.81,825.33,826.64,828.80,831.16,833.69,836.24,838.46,839.65,839.91,839.73,839.14,837.92,835.91,833.56,831.32,829.50,828.36,827.38,826.87,827.03,827.99,828.83,829.33,829.72,830.08,830.37,830.43,830.11,829.56,829.23,829.13,829.26,829.40,829.41,829.63,829.94,830.56,831.63,833.10,834.32,835.43,836.20,836.22,836.43,836.72,836.46,835.30,833.74,832.33,831.27,830.69,830.73,830.50,829.89,829.17,828.76,829.24,830.34,831.91,833.97,836.48,838.46,839.32,839.19,838.23,836.55,834.79,833.27,832.25,832.07,831.34,829.86,827.83,825.70,823.53,821.35,819.02,816.43,813.76,811.31,809.52,808.58,808.31,809.03,810.51,812.57,815.09,817.57,819.30,820.39,820.81,820.44,819.20,817.48,815.45,813.08,810.65,808.51,806.71,805.20,803.64,802.13,802.05,803.74,805.75,807.77,809.76,811.71,813.55,815.37,817.16,818.89,820.36,821.09,821.35,821.43,821.39,821.24,821.06,820.96,820.98,821.14,821.34,821.60,821.88,822.14,822.30,822.44,822.56,822.64,822.66,822.64,822.67,822.71,822.67,822.34,821.84,821.21,820.24,818.35
735.59,731.31,729.31,729.55,732.07,736.62,739.77,741.72,742.37,741.04,739.16,737.95,737.21,735.73,731.51,725.54,718.43,710.70,704.15,705.39,708.75,711.44,712.14,711.18,709.31,707.95,708.30,709.26,711.00,713.02,715.03,716.87,718.62,720.99,723.89,727.16,731.41,735.52,740.61,747.13,752.37,756.02,760.81,766.77,771.59,775.56,780.27,785.39,790.15,794.41,797.55,799.42,800.29,801.66,803.53,805.08,806.12,806.70,807.74,809.66,811.97,814.42,817.28,820.10,821.70,821.73,820.36,818.59,816.91,815.50,814.44,813.37,813.75,815.35,817.70,819.51,821.07,822.56,823.97,825.16,826.24,827.31,828.31,829.18,830.12,830.93,831.61,832.16,832.67,833.38,834.71,836.61,838.84,840.26,841.22,841.50,841.07,840.64,839.05,836.47,833.38,830.40,828.30,827.85,828.50,829.58,829.99,829.54,828.63,827.82,828.00,827.80,827.00,826.28,826.50,826.64,826.79,827.58,829.33,831.67,834.27,836.89,839.24,840.70,841.09,841.08,840.70,839.61,837.49,834.87,832.05,829.49,828.20,827.34,827.13,827.53,828.53,829.67,830.65,831.55,832.33,832.77,832.87,832.50,831.89,831.50,831.33,831.37,831.33,831.00,830.84,830.86,831.20,831.96,833.24,834.59,836.49,838.12,838.27,838.45,838.58,838.36,837.63,836.59,835.25,834.00,833.14,832.97,832.37,831.39,830.46,830.08,830.56,831.88,833.69,835.86,838.14,839.93,840.89,841.20,840.97,839.62,838.08,836.47,834.90,833.96,832.59,830.58,828.05,825.37,822.76,820.41,818.13,815.72,813.32,811.13,809.54,808.74,808.66,809.39,811.09,813.42,815.91,818.37,820.00,821.02,821.47,821.01,819.98,818.60,816.81,814.40,811.76,809.47,807.59,806.06,804.42,802.75,802.56,804.21,806.16,808.10,810.03,811.92,813.75,815.55,817.34,818.95,820.22,820.96,821.22,821.31,821.33,821.27,821.18,821.15,821.23,821.42,821.65,821.94,822.18,822.31,822.37,822.43,822.41,822.33,822.25,822.23,822.34,822.49,822.57,822.24,821.71,821.07,820.05,817.91
733.31,728.85,726.00,725.22,727.25,732.04,735.56,737.60,737.95,736.11,734.19,733.11,732.64,731.69,727.50,721.81,715.26,708.08,701.30,700.01,702.18,705.30,705.94,705.79,705.08,705.55,708.77,712.32,714.66,716.43,718.03,719.77,721.31,723.00,724.91,727.19,730.43,734.58,739.48,744.98,750.15,754.23,758.02,762.29,767.95,772.55,778.10,783.93,788.99,794.08,798.62,801.60,802.71,803.11,804.72,806.62,808.12,808.76,809.69,812.24,814.93,816.68,818.45,821.21,823.72,824.95,823.71,821.47,819.45,817.81,816.44,815.10,814.44,815.09,816.96,818.45,819.76,820.98,822.15,823.29,824.32,825.38,826.37,827.25,828.22,828.96,829.55,830.06,830.65,831.63,833.77,836.50,838.88,840.27,841.23,841.65,841.41,840.68,839.18,836.78,833.85,831.11,829.35,829.31,830.42,831.98,832.63,832.13,831.34,830.80,830.88,830.35,828.86,827.41,827.27,827.70,828.29,829.01,830.17,832.43,834.94,837.56,839.88,841.02,841.39,841.45,841.22,840.35,838.14,835.24,832.08,829.22,827.81,827.14,827.48,828.43,829.52,831.09,832.85,834.35,835.31,835.85,835.97,835.70,835.20,834.72,834.17,833.83,833.41,832.61,831.85,831.57,831.62,831.99,832.87,834.48,837.01,839.30,839.70,839.83,839.87,839.82,839.64,839.39,838.36,837.10,836.01,835.39,834.11,832.71,831.66,831.34,831.58,833.07,835.01,837.00,838.87,840.26,841.38,842.36,842.92,841.75,840.38,838.74,836.63,834.42,832.45,830.25,827.69,824.87,822.06,819.67,817.53,815.41,813.29,811.15,809.63,808.99,809.07,809.90,811.68,814.03,816.42,818.80,820.35,821.41,822.08,821.74,820.94,819.89,818.44,816.13,813.14,810.40,808.19,806.57,804.89,803.25,803.03,804.57,806.39,808.19,809.92,811.64,813.40,815.10,816.62,818.09,819.47,820.40,820.69,820.82,820.98,821.10,821.03,821.03,821.11,821.22,821.43,821.71,821.94,822.06,822.08,822.08,821.96,821.74,821.51,821.47,821.66,821.97,822.24,822.12,821.73,821.13,820.13,818.19
729.50,724.83,721.49,720.01,721.07,724.46,728.32,730.86,731.23,729.50,728.42,727.72,727.05,725.65,721.67,716.57,710.27,703.18,698.50,697.10,698.18,700.51,702.19,703.97,705.69,708.36,712.77,716.62,718.93,720.64,722.20,723.73,725.02,726.31,727.86,730.10,733.07,736.42,740.89,746.76,752.05,755.27,757.51,759.97,764.41,769.79,775.54,781.25,786.89,793.32,798.83,803.00,805.33,805.41,806.02,807.59,809.66,811.46,813.20,815.97,818.49,819.75,820.58,822.77,825.46,827.59,827.41,825.25,822.33,819.65,817.91,816.51,815.50,815.42,816.38,817.42,818.52,819.49,820.42,821.48,822.45,823.46,824.46,825.40,826.36,827.23,828.01,828.71,829.48,830.78,833.20,836.19,838.81,840.35,841.34,841.81,841.62,840.81,839.51,837.31,834.66,832.71,831.86,832.29,833.37,834.53,835.09,834.55,833.85,833.47,833.49,832.02,830.04,828.46,828.05,828.36,828.95,829.82,831.20,833.46,835.93,838.51,840.68,841.35,841.62,841.65,841.42,840.61,838.54,835.92,833.13,830.50,828.67,827.45,827.88,829.39,831.14,833.09,835.23,837.06,838.23,838.80,838.98,838.73,838.16,837.53,836.72,836.03,835.24,834.12,833.03,832.15,831.59,831.49,832.18,834.27,836.97,839.22,839.91,840.08,840.10,840.11,840.12,840.06,839.61,838.76,837.67,836.48,834.96,833.72,832.80,832.21,831.99,833.33,835.22,837.10,838.65,839.76,840.62,841.31,841.71,841.08,840.04,838.53,836.40,834.00,831.75,829.38,826.79,823.98,821.21,818.95,816.98,815.04,813.09,811.12,809.66,809.12,809.82,811.38,812.96,814.62,816.77,818.89,820.41,821.57,822.42,822.56,821.91,821.02,819.85,817.76,814.43,811.21,808.67,807.05,805.44,803.82,803.46,804.72,806.35,807.88,809.33,810.78,812.32,813.80,815.22,816.52,817.68,818.78,819.30,819.63,819.95,820.36,820.58,820.69,820.76,820.86,821.03,821.21,821.35,821.43,821.43,821.36,821.22,821.03,820.88,820.81,821.01,821.35,821.71,821.92,821.72,821.34,820.73,819.55
723.76,719.62,716.21,714.29,714.56,716.64,720.25,722.91,723.50,722.39,721.94,721.47,720.73,719.33,715.71,710.64,704.47,698.23,695.76,695.39,696.35,698.32,701.15,704.51,708.64,713.26,717.88,721.35,723.54,725.36,727.12,728.68,730.07,731.19,732.69,735.64,738.81,741.50,744.90,749.82,755.09,757.99,759.42,760.57,763.31,768.44,773.71,779.00,785.07,792.86,799.43,804.58,807.75,807.78,807.70,808.75,810.82,813.35,815.73,818.35,820.59,821.92,822.64,824.50,827.01,829.39,830.21,828.48,825.21,821.78,819.44,817.88,816.86,816.52,816.94,817.72,818.65,819.40,820.02,820.79,821.61,822.57,823.61,824.67,825.65,826.63,827.51,828.29,829.14,830.54,832.97,835.93,838.63,840.28,841.31,841.88,841.87,841.04,839.94,838.05,835.95,835.11,835.13,835.75,836.51,837.10,837.43,836.93,836.35,836.07,835.99,833.48,830.89,829.09,828.50,828.80,829.51,830.67,832.41,834.63,837.03,839.42,841.25,841.61,841.80,841.80,841.57,840.85,839.16,836.70,834.07,831.56,829.38,827.88,828.46,830.45,832.72,834.94,837.29,839.22,840.35,840.80,840.95,840.73,840.18,839.42,838.17,837.12,836.09,834.85,833.67,832.43,831.43,830.93,831.31,833.48,836.09,838.32,839.39,839.21,839.13,839.25,839.48,839.71,839.86,839.56,838.67,837.22,835.71,834.65,833.83,833.01,832.35,833.30,834.91,836.56,837.73,838.53,839.06,839.42,839.59,839.34,838.63,837.42,835.63,833.30,830.87,828.33,825.69,822.96,820.49,818.60,816.92,815.13,813.35,811.56,810.23,809.93,811.41,813.63,815.01,815.96,817.60,819.34,820.74,821.90,822.88,823.44,822.86,821.93,820.83,819.01,815.51,811.89,809.07,807.51,806.00,804.45,803.86,804.59,805.96,807.27,808.50,809.71,811.00,812.21,813.44,814.57,815.55,816.78,817.47,817.92,818.37,818.97,819.48,819.75,819.91,820.11,820.30,820.51,820.69,820.79,820.79,820.70,820.57,820.45,820.38,820.34,820.52,820.85,821.25,821.71,821.73,821.56,821.26,820.72
715.54,713.03,710.17,708.15,708.12,709.57,711.99,713.99,714.98,715.03,714.61,714.02,713.58,713.13,710.00,704.12,698.11,694.10,693.25,694.82,697.10,699.80,703.58,707.68,713.66,719.67,723.57,726.46,728.59,730.70,732.99,735.09,737.19,738.46,740.19,744.60,748.29,750.80,752.25,753.67,758.56,762.42,764.46,765.19,766.23,769.40,773.36,778.01,784.17,793.09,800.91,806.67,809.74,809.90,809.89,810.37,811.57,813.75,816.15,818.20,820.19,822.30,824.10,826.18,828.20,830.01,831.38,830.50,827.89,824.50,821.27,819.32,818.61,818.66,819.27,820.09,820.96,821.50,821.74,821.92,822.45,823.34,824.47,825.71,826.79,827.78,828.56,829.16,829.84,831.00,833.16,835.83,838.27,839.94,841.03,841.84,842.20,841.38,840.43,839.04,837.88,838.34,838.96,839.32,839.49,839.58,839.57,839.18,838.80,838.60,838.31,834.89,831.45,829.11,828.43,829.02,830.18,831.80,833.82,835.89,838.22,840.14,841.38,841.74,841.92,841.92,841.72,841.20,840.15,837.47,834.44,831.65,829.34,828.30,829.35,831.63,834.00,836.36,838.73,840.47,841.18,841.29,841.27,841.12,840.76,839.88,837.90,836.48,835.43,834.33,833.29,832.21,831.18,830.38,830.25,831.78,834.12,836.56,838.07,836.95,836.58,836.90,837.56,838.38,839.08,839.34,838.99,837.84,836.58,835.53,834.63,833.76,832.83,833.11,834.12,835.35,836.00,836.41,836.71,836.96,837.12,836.87,836.36,835.69,834.63,832.44,829.91,827.22,824.46,821.86,820.02,818.79,817.59,815.97,814.40,812.78,811.69,811.85,814.20,816.70,818.00,818.51,819.26,820.48,821.60,822.63,823.61,824.41,823.76,822.53,821.19,819.70,816.27,812.42,809.38,807.96,806.54,805.13,804.20,804.14,805.15,806.34,807.44,808.47,809.51,810.44,811.35,812.26,813.25,814.55,815.23,815.65,816.09,816.72,817.41,817.90,818.30,818.77,819.10,819.60,820.04,820.28,820.30,820.28,820.23,820.14,820.08,820.11,820.29,820.60,821.00,821.51,821.76,821.74,821.50,821.22
707.89,706.56,704.97,703.72,703.48,704.14,705.18,706.14,706.82,707.16,707.17,706.80,706.30,705.56,702.19,697.12,693.00,691.72,693.11,695.48,698.25,701.56,706.23,712.24,719.13,725.56,730.16,733.13,735.33,738.00,741.49,745.14,748.92,751.19,753.03,756.49,758.58,759.72,759.66,759.07,762.03,766.59,769.99,771.44,771.54,772.85,775.49,779.72,786.21,794.44,802.43,808.18,810.81,811.18,811.23,811.68,812.68,814.35,816.59,818.29,819.72,821.26,823.16,825.27,827.52,829.83,831.81,831.78,829.66,826.45,823.30,821.58,821.05,821.08,821.51,822.33,823.15,823.54,823.59,823.67,824.00,824.51,825.38,826.71,827.89,829.27,830.29,830.87,831.33,832.22,833.68,835.61,837.80,839.65,840.81,841.71,842.26,841.67,840.90,840.04,839.47,839.87,840.29,840.46,840.47,840.41,840.30,840.04,839.82,839.69,839.36,836.16,832.21,829.15,828.44,829.15,830.66,832.62,834.86,837.04,839.26,840.82,841.64,841.88,841.98,841.89,841.65,841.18,840.30,837.12,833.60,830.66,828.61,828.58,830.17,832.52,834.82,837.06,839.22,840.77,841.36,841.39,841.30,841.00,840.34,838.91,836.75,834.96,833.61,832.53,831.52,830.63,829.75,829.06,829.10,830.47,832.85,835.21,836.02,834.39,833.52,833.65,834.64,836.09,837.09,837.78,838.20,838.12,837.18,836.06,834.93,833.82,832.65,832.37,832.98,834.06,834.28,834.30,834.37,834.51,834.56,834.31,833.87,833.49,833.06,831.63,829.15,826.16,823.13,820.76,819.46,818.58,817.66,816.47,815.30,814.08,813.23,813.59,816.57,819.06,820.29,820.76,821.35,822.16,823.03,823.94,824.82,825.31,824.40,823.00,821.53,819.95,816.70,812.91,809.80,808.23,806.85,805.57,804.62,804.29,804.91,805.63,806.37,807.19,808.17,809.00,809.69,810.38,811.21,812.34,812.96,813.38,813.82,814.44,815.12,815.59,816.14,817.08,817.83,818.57,819.35,820.02,820.13,820.14,820.13,820.08,819.98,819.75,820.00,820.42,820.79,821.28,821.60,821.70,821.60,821.38
699.86,699.27,698.44,697.64,697.36,697.53,697.57,697.98,698.86,699.58,699.99,699.77,699.06,697.84,694.73,691.31,689.43,690.38,693.65,696.87,700.19,704.11,709.66,717.65,725.36,732.02,737.17,740.36,742.80,746.25,751.14,756.16,760.96,763.85,765.54,767.50,767.95,767.52,766.24,764.67,765.79,770.92,775.68,778.08,777.47,777.24,778.89,782.80,789.18,796.16,803.84,809.31,811.43,812.08,812.28,812.87,813.88,815.14,816.94,818.26,819.16,820.00,821.58,823.75,826.42,829.36,831.84,832.82,831.10,828.01,825.35,824.15,823.79,823.72,823.86,824.56,825.29,825.54,825.49,825.61,825.88,826.01,826.46,827.61,829.01,830.94,832.43,833.14,833.34,833.81,834.60,835.79,837.57,839.48,840.68,841.60,842.26,841.94,841.38,840.92,840.68,840.79,840.91,840.92,840.84,840.73,840.59,840.43,840.29,840.20,839.82,836.81,832.62,829.18,828.45,829.21,830.93,833.08,835.46,837.78,839.89,841.24,841.84,841.97,841.97,841.80,841.48,840.91,839.76,836.24,832.49,829.66,828.34,829.13,830.99,833.21,835.35,837.42,839.38,840.76,841.30,841.33,841.09,840.47,839.32,837.39,835.18,833.14,831.55,830.54,829.57,828.81,828.11,827.66,828.18,829.60,832.05,834.16,833.86,831.90,830.61,830.53,831.75,833.61,834.77,835.74,836.74,837.67,837.42,836.31,834.90,833.60,832.30,831.58,831.80,832.60,832.47,832.19,832.09,832.14,832.09,831.77,831.33,831.11,831.10,830.28,827.96,824.85,821.74,819.82,818.91,818.22,817.54,816.90,816.28,815.48,814.89,815.33,818.34,820.67,822.00,822.77,823.51,824.06,824.75,825.55,826.22,826.10,824.79,823.20,821.65,819.90,816.87,813.31,810.26,808.53,807.18,805.97,805.06,804.64,804.97,805.34,805.82,806.47,807.30,807.97,808.46,808.94,809.56,810.39,810.94,811.38,811.90,812.82,813.68,814.37,815.17,816.37,817.42,818.25,819.12,819.95,820.12,820.14,820.12,820.05,819.83,819.18,819.51,820.15,820.52,820.89,821.19,821.38,821.43,821.29
690.59,689.96,688.25,686.68,686.70,687.12,687.14,688.45,691.19,693.00,693.51,693.05,692.00,690.67,689.42,688.58,688.66,690.37,694.31,699.17,703.71,708.26,714.78,724.21,733.11,740.14,744.61,747.88,750.87,755.49,761.82,767.09,770.82,772.88,773.88,774.54,774.68,772.97,770.90,769.80,770.28,775.77,781.46,784.59,783.39,782.21,783.69,787.38,792.49,798.02,805.00,809.91,811.61,812.66,813.23,813.99,815.06,816.29,817.11,817.82,818.48,819.11,820.08,822.47,825.54,828.71,831.38,833.75,832.35,829.17,827.28,826.93,826.83,826.67,826.54,826.85,827.37,827.50,827.39,827.58,828.08,828.05,827.90,828.31,830.19,832.83,835.02,836.18,836.05,835.86,836.20,836.94,837.96,839.55,840.68,841.58,842.26,842.22,841.96,841.55,841.23,841.41,841.47,841.30,841.06,840.87,840.77,840.58,840.40,840.24,839.71,836.06,832.07,829.18,828.44,829.16,830.82,832.93,835.27,837.63,839.67,841.09,841.84,841.96,841.88,841.63,841.21,840.31,838.21,834.83,831.50,829.34,829.61,830.38,831.82,833.64,835.51,837.45,839.34,840.65,841.11,841.12,840.48,839.28,837.61,835.53,833.20,831.17,829.68,828.86,828.05,827.33,826.72,826.61,827.90,829.48,831.92,833.54,831.86,829.75,828.33,828.21,829.57,831.25,832.46,833.41,834.40,835.72,837.00,836.18,834.47,833.21,831.90,831.04,830.75,830.82,830.39,830.05,829.93,829.94,829.87,829.37,828.83,828.60,828.61,827.67,825.63,822.89,820.28,819.21,818.46,817.76,817.33,817.40,817.52,817.10,816.78,817.17,818.98,820.93,822.78,824.40,825.57,826.15,826.79,827.45,827.74,826.69,824.73,822.88,821.29,819.43,816.63,813.54,810.81,809.00,807.68,806.46,805.51,805.08,805.38,805.90,806.53,807.11,807.45,807.66,807.95,808.29,808.66,809.08,809.53,809.99,810.80,812.72,814.38,815.93,817.27,818.19,819.08,819.65,820.02,820.23,820.27,820.27,820.19,819.98,819.41,818.20,818.61,819.57,820.06,820.17,820.33,820.52,820.72,820.87
683.27,682.50,681.01,679.86,680.19,681.04,681.64,682.86,684.80,686.23,687.21,687.52,687.52,687.75,688.20,688.58,689.33,691.34,696.09,701.12,705.92,711.03,718.15,728.19,737.56,744.91,749.62,753.54,758.75,765.14,771.70,775.62,778.32,780.35,781.84,782.62,782.74,781.28,778.74,776.20,776.64,781.24,786.26,789.59,789.59,788.57,790.03,793.46,797.65,801.87,806.52,809.85,811.31,812.44,813.34,814.17,815.00,815.84,816.33,816.89,817.53,818.37,819.87,822.28,825.05,827.83,830.38,833.52,833.93,832.67,831.93,833.26,833.72,833.63,833.29,832.54,831.93,831.30,830.85,831.09,831.65,830.97,830.00,830.05,832.20,835.18,837.88,839.49,839.05,838.05,837.93,838.47,839.11,840.07,840.86,841.57,842.17,842.23,842.02,841.81,841.65,841.50,841.28,841.03,840.80,840.65,840.53,840.56,840.45,839.95,838.56,834.93,831.48,829.11,828.42,829.07,830.45,832.36,834.66,836.89,838.92,840.55,841.59,841.72,841.68,841.42,840.96,840.09,838.21,835.47,832.67,830.68,830.81,831.41,832.73,834.47,836.23,838.11,839.72,840.73,840.99,841.00,840.15,838.57,836.51,834.27,831.93,829.95,828.49,827.63,826.84,826.07,825.70,826.16,827.98,829.81,831.41,831.85,829.90,827.87,826.40,826.22,827.57,829.05,830.23,831.10,832.05,833.81,835.80,835.98,834.85,833.18,831.43,830.33,829.75,829.48,829.02,828.63,828.38,828.27,828.19,827.62,826.75,826.14,825.87,824.88,823.00,821.02,819.44,818.67,817.99,817.46,817.32,817.83,818.36,818.60,818.85,819.36,820.40,822.10,824.09,825.96,827.25,828.09,828.62,828.98,828.92,827.61,825.32,822.98,820.90,819.03,816.72,814.15,811.60,809.45,808.10,806.87,805.98,805.73,806.26,806.93,807.63,808.23,808.55,808.69,808.99,809.38,809.78,810.28,811.02,811.74,812.69,814.56,816.39,817.97,819.16,819.82,820.28,820.48,820.53,820.49,820.45,820.42,820.27,819.84,818.80,817.24,817.40,818.19,818.54,818.58,818.67,818.81,819.07,819.71
677.64,677.14,676.56,676.38,677.10,678.33,679.53,680.51,681.28,682.16,683.59,684.74,685.84,687.59,689.21,690.23,691.28,693.42,698.39,702.84,707.31,712.68,720.52,730.74,740.36,748.13,753.46,758.28,765.47,773.12,779.32,781.75,783.70,785.91,788.05,789.28,789.61,789.04,786.77,783.32,783.85,787.06,790.80,793.88,795.21,794.81,796.17,798.95,802.02,804.87,807.12,809.03,810.66,811.86,812.98,813.80,814.36,814.83,815.25,815.82,816.57,817.73,819.81,822.07,824.38,826.72,829.13,832.59,835.00,836.21,836.89,839.43,840.28,840.31,839.88,838.40,836.93,835.72,835.03,835.24,835.61,834.26,832.65,832.49,834.67,837.68,840.57,842.38,841.60,840.06,839.61,839.97,840.40,840.80,841.23,841.74,842.20,842.24,841.91,841.83,841.83,841.32,840.86,840.40,840.08,840.02,840.17,840.50,840.35,839.30,836.99,833.61,830.81,828.99,828.36,828.89,829.91,831.52,833.69,835.76,837.77,839.58,840.93,841.28,841.42,841.24,840.83,840.12,838.72,836.60,834.23,832.25,831.77,832.12,833.38,835.13,836.88,838.76,840.12,840.82,840.92,840.91,839.98,838.16,835.79,833.39,831.06,829.16,827.67,826.62,825.73,824.84,824.73,825.77,827.88,829.87,830.55,829.86,827.95,826.01,824.53,824.30,825.59,826.89,828.02,828.94,830.04,832.16,834.53,835.68,835.22,833.07,830.90,829.63,828.86,828.34,827.89,827.43,827.03,826.78,826.67,826.06,824.92,823.89,823.21,822.19,820.62,819.47,818.84,818.17,817.51,817.24,817.45,818.21,818.99,819.89,820.80,821.62,822.30,823.81,825.73,827.54,828.68,829.66,830.05,830.11,829.80,828.46,825.96,823.15,820.57,818.65,816.77,814.64,812.26,809.89,808.50,807.28,806.45,806.33,807.15,807.98,808.82,809.62,810.21,810.58,811.05,811.56,812.06,812.71,813.69,814.65,815.62,817.06,818.76,820.02,820.82,821.20,821.20,821.04,820.86,820.71,820.63,820.51,820.19,819.48,818.04,816.31,816.08,816.46,816.65,816.68,816.74,816.78,817.04,818.08
675.41,676.55,677.91,679.33,680.63,681.89,683.16,684.42,685.66,686.97,688.38,689.52,690.53,691.80,693.12,694.31,695.80,698.05,701.14,704.25,707.45,712.19,721.50,731.43,741.30,749.87,756.05,762.02,768.67,775.22,780.52,782.75,784.69,786.89,789.02,790.34,791.26,791.98,792.05,791.45,791.78,793.34,795.46,797.52,798.62,799.28,800.08,800.99,801.88,803.06,804.34,806.49,809.33,810.99,812.04,812.72,813.21,813.67,814.18,814.84,815.82,817.21,818.84,820.59,822.71,825.16,827.69,830.66,834.03,837.36,839.98,841.28,841.73,841.81,841.66,841.27,840.71,840.20,839.88,839.82,839.41,837.86,836.32,836.07,837.75,840.23,842.46,843.57,842.41,841.32,840.92,841.05,841.39,841.72,842.10,842.46,842.68,842.51,841.79,841.40,841.28,840.86,840.40,839.32,838.38,838.47,839.85,840.50,839.84,837.88,835.16,832.02,829.97,828.82,828.19,828.46,829.11,830.28,832.03,833.98,835.88,837.63,839.19,840.42,841.08,841.21,841.04,840.55,839.23,837.17,834.82,832.75,832.05,832.03,833.12,834.87,836.72,838.79,840.12,840.80,840.95,840.82,840.01,838.17,835.63,833.14,830.84,828.95,827.33,825.87,824.59,823.46,823.50,824.93,826.83,828.57,829.00,828.05,825.96,823.96,822.49,822.23,823.39,824.69,825.82,827.26,829.13,831.37,833.88,835.17,834.68,832.30,830.27,829.12,828.23,827.39,826.76,826.22,825.71,825.31,825.07,824.44,823.47,822.31,821.09,820.03,819.38,818.85,818.34,817.75,817.04,817.17,817.82,818.55,819.37,820.63,822.15,823.71,824.89,826.29,827.89,829.24,829.75,830.23,830.40,830.38,830.07,828.73,826.10,823.14,820.38,818.29,816.35,814.34,812.27,810.34,808.91,807.78,806.90,806.58,807.53,808.55,809.88,811.36,812.65,813.80,814.73,815.41,815.88,816.39,817.13,817.92,818.73,819.64,820.88,821.66,821.99,822.00,821.73,821.36,821.01,820.79,820.74,820.43,819.64,818.45,816.99,815.45,814.68,814.50,814.65,814.72,814.75,814.64,814.70,815.70
678.40,680.21,682.19,683.96,685.20,686.76,688.10,689.42,690.85,692.29,693.74,694.81,695.57,696.27,697.11,698.03,699.05,700.26,701.71,704.22,707.07,711.36,720.17,729.90,739.12,747.37,754.25,759.88,765.61,771.61,777.19,780.37,782.79,784.88,786.62,787.79,788.85,789.56,790.19,791.05,792.32,793.54,794.92,796.36,797.35,798.18,798.64,798.85,799.07,799.85,801.23,803.72,807.11,809.54,810.92,811.63,812.04,812.52,813.11,813.97,815.11,816.53,818.06,819.72,821.79,824.23,826.73,829.33,832.68,836.39,839.54,840.85,841.33,841.49,841.56,841.66,841.70,841.81,842.02,842.18,841.47,840.30,839.33,839.12,840.04,841.93,843.33,843.71,843.12,842.48,842.18,842.21,842.44,842.62,842.63,842.55,842.42,842.16,841.90,841.38,840.76,840.25,838.65,836.66,835.18,835.03,836.45,837.71,837.53,835.72,833.17,830.34,828.85,828.25,827.76,827.66,828.13,829.08,830.50,832.25,834.20,836.19,838.16,839.96,840.90,841.09,840.71,839.71,837.94,835.81,833.79,832.16,831.34,831.26,832.22,833.85,835.70,837.73,839.29,840.25,840.52,840.22,839.50,837.72,835.18,832.83,830.68,828.86,827.17,825.46,823.80,822.47,822.25,823.29,824.96,826.47,827.07,826.45,824.30,822.25,820.97,820.74,821.69,823.21,825.13,827.25,829.40,831.50,833.81,835.05,834.63,832.38,830.52,829.38,828.44,827.51,826.73,825.90,825.08,824.31,823.63,822.88,822.02,820.87,819.44,818.37,818.15,818.01,817.67,817.24,816.89,817.30,818.08,818.84,819.71,821.19,823.02,824.94,826.60,828.09,829.31,830.08,830.19,830.33,830.35,830.24,829.83,828.54,825.86,822.92,820.25,818.16,816.21,814.27,812.36,810.59,809.24,808.16,807.33,807.03,807.93,808.97,810.65,812.77,814.77,816.45,817.60,818.34,818.79,819.20,819.67,820.16,820.64,821.08,821.89,822.50,822.76,822.62,822.12,821.58,821.18,820.91,820.55,819.77,818.58,817.13,815.62,814.28,813.30,812.78,812.74,812.74,812.72,812.53,812.38,812.92
683.87,685.94,687.97,689.61,690.63,692.42,693.68,694.81,696.05,697.29,698.65,699.57,700.06,700.32,700.72,701.23,701.50,701.40,701.54,703.61,706.37,710.18,717.21,726.67,734.87,742.26,749.52,754.33,759.05,764.58,770.51,774.76,777.82,779.92,781.32,782.18,782.97,783.11,783.53,785.01,787.36,788.96,790.42,791.95,793.31,794.19,794.55,794.70,795.06,796.10,798.05,800.93,804.50,807.58,809.33,810.18,810.67,811.33,812.07,813.17,814.50,815.99,817.63,819.39,821.46,823.80,826.14,828.40,831.16,834.25,837.16,838.93,839.61,839.93,840.19,840.47,840.95,841.63,842.45,843.07,842.55,841.98,841.59,841.47,841.77,843.05,843.59,843.31,843.59,843.35,843.16,843.13,843.22,843.18,842.75,842.22,841.75,841.46,841.84,841.28,840.02,839.05,836.02,833.35,831.61,831.12,832.02,833.81,834.42,833.25,831.01,828.54,827.42,827.21,826.99,826.70,827.09,827.95,829.17,830.75,832.80,835.13,837.51,839.54,840.44,840.46,839.68,837.95,835.60,833.43,831.87,830.88,830.01,830.02,830.90,832.36,834.16,836.06,837.86,839.05,839.32,838.95,838.56,837.05,834.65,832.54,830.57,828.83,827.10,825.17,823.17,821.73,821.07,821.38,822.74,824.00,824.96,824.90,822.90,820.90,819.87,819.71,820.44,822.25,825.14,827.90,830.16,832.01,833.92,835.05,834.80,832.89,831.23,830.09,829.13,828.22,827.33,826.20,825.07,823.93,822.75,821.80,820.95,819.80,818.29,817.36,817.27,817.29,817.13,816.79,816.97,817.56,818.32,819.11,820.06,821.71,823.68,825.75,827.78,829.35,830.17,830.37,830.16,829.96,829.82,829.59,829.06,827.89,825.41,822.69,820.22,818.20,816.25,814.35,812.46,810.69,809.47,808.44,807.72,807.57,808.38,809.40,811.37,814.02,816.62,818.57,819.73,820.42,820.83,821.14,821.42,821.66,821.85,821.93,822.36,822.89,823.23,823.06,822.38,821.74,821.35,821.10,820.40,819.18,817.77,816.27,814.68,813.43,812.18,811.27,811.00,810.87,810.75,810.50,810.20,810.25
689.25,691.89,694.31,696.32,697.76,698.97,699.58,699.88,700.09,700.47,701.11,701.59,701.96,702.39,702.78,703.20,703.36,703.08,702.66,703.43,705.36,708.19,712.18,720.84,728.32,734.86,741.61,746.57,750.57,754.68,759.04,762.74,766.09,768.89,770.80,771.17,770.93,770.82,771.46,773.13,774.99,777.18,780.25,783.96,787.26,789.37,790.17,790.49,791.23,792.62,795.11,798.41,802.02,804.64,806.21,807.36,808.52,809.96,811.10,812.49,814.23,816.29,818.16,820.00,821.95,824.01,826.10,827.91,829.58,831.48,833.78,835.31,836.12,836.67,837.18,837.67,838.58,839.96,841.46,842.46,843.11,842.85,842.29,842.11,842.78,843.49,843.34,842.73,843.25,843.27,843.14,842.99,842.78,842.41,841.93,841.44,840.97,840.57,840.68,840.03,838.37,835.80,832.45,830.42,829.36,828.89,829.43,830.89,831.66,830.94,828.50,826.49,825.32,824.98,825.39,825.73,826.16,826.99,828.36,829.97,832.16,834.60,836.91,838.41,838.52,838.01,836.92,835.02,832.62,830.73,829.52,828.84,828.19,828.20,829.03,830.45,832.23,834.04,835.60,836.27,835.95,836.00,836.98,836.41,834.36,832.43,830.55,828.80,826.91,824.68,822.50,821.15,820.28,819.91,820.59,821.64,822.75,823.15,821.85,820.31,819.46,819.33,820.06,821.93,824.93,828.02,830.59,832.21,833.63,834.81,834.93,833.37,832.10,831.07,830.16,829.27,828.30,827.21,826.16,825.09,823.79,822.49,821.40,819.95,818.21,817.94,817.75,817.60,817.34,816.68,817.23,817.97,818.67,819.41,820.57,822.39,824.44,826.55,828.61,829.86,830.29,830.11,829.47,828.63,828.12,827.70,827.15,826.36,824.88,822.83,820.51,818.45,816.50,814.51,812.49,810.61,809.46,808.53,808.01,808.13,808.91,810.15,812.39,815.30,818.07,819.74,820.57,820.98,821.23,821.53,821.83,822.22,822.60,822.63,822.84,823.08,823.22,823.09,822.39,821.82,821.53,821.40,820.96,820.06,819.03,817.79,816.02,814.41,812.02,810.16,809.76,809.45,809.10,808.75,808.53,808.74
694.60,697.10,699.13,700.80,702.15,703.03,703.44,703.45,703.22,703.14,703.24,703.49,703.88,704.39,704.77,705.11,705.17,704.76,703.95,703.78,704.68,706.51,709.32,716.31,723.06,728.90,734.02,738.09,741.91,745.65,749.24,752.49,755.50,757.87,759.28,759.24,758.61,758.57,759.37,760.96,762.72,765.52,768.97,772.94,777.50,781.38,784.05,785.88,787.38,789.42,792.47,796.04,799.50,801.46,802.54,803.85,805.69,808.03,810.06,812.01,814.13,816.48,818.60,820.46,822.30,824.09,825.58,826.88,827.99,829.23,830.80,831.86,832.55,833.16,833.92,835.19,837.19,839.31,841.20,842.40,842.90,842.29,841.40,841.03,841.70,842.33,842.29,841.90,842.38,842.48,842.40,842.23,841.92,841.46,841.03,840.46,839.67,838.87,838.34,837.43,835.68,832.68,830.12,828.74,827.94,827.35,827.27,828.11,828.46,827.62,825.43,823.69,822.73,822.62,823.46,824.28,825.13,826.36,828.07,829.84,832.03,834.09,835.60,835.97,835.26,834.44,833.48,832.03,830.04,828.35,827.27,826.71,826.27,826.43,827.36,828.82,830.50,832.17,833.22,833.28,832.62,833.14,834.86,835.29,834.14,832.35,830.50,828.65,826.57,824.12,821.82,820.53,819.56,818.86,819.08,819.88,820.86,821.39,820.75,819.74,819.03,818.94,819.73,821.44,824.45,827.65,830.33,831.82,833.01,834.11,834.58,833.88,833.04,832.14,831.23,830.33,829.37,828.40,827.46,826.44,825.22,824.04,822.95,821.52,819.77,819.03,818.47,817.98,817.39,816.61,817.33,818.24,819.05,819.88,821.22,823.13,825.21,827.26,829.22,830.05,830.06,829.45,828.28,827.02,826.15,825.52,825.00,824.43,823.59,822.18,820.26,818.22,816.32,814.29,812.21,810.35,809.38,808.66,808.39,808.72,809.45,810.73,813.01,815.92,818.62,820.07,820.69,820.97,821.16,821.51,821.93,822.45,822.94,823.00,822.97,822.87,822.76,822.62,822.05,821.66,821.50,821.48,821.25,820.79,820.25,819.48,818.16,816.91,813.91,811.20,810.32,809.77,809.10,808.41,807.79,807.29
699.98,701.88,703.01,703.79,704.59,705.38,705.89,706.00,705.74,705.44,705.26,705.49,706.00,706.48,706.81,707.06,707.00,706.45,705.45,704.72,704.55,705.33,708.10,712.94,718.90,724.18,727.34,729.96,733.76,737.62,740.95,743.89,746.22,747.51,747.87,747.48,746.84,746.94,747.77,749.31,751.48,754.83,757.86,760.89,765.95,771.57,776.78,780.92,783.56,786.49,790.03,793.74,796.92,798.24,798.98,800.46,802.89,806.11,809.18,811.79,814.19,816.58,818.89,820.72,822.39,823.83,824.58,825.38,826.36,827.38,828.26,828.84,829.29,829.87,830.96,833.29,836.67,839.49,841.49,842.73,842.29,841.06,839.82,839.13,839.34,840.11,840.61,840.77,841.10,841.16,841.11,840.96,840.68,840.29,839.90,839.16,837.90,836.58,835.32,834.10,832.53,830.08,828.83,827.94,827.10,826.28,825.55,825.63,825.22,823.93,822.31,820.80,820.23,820.54,821.51,822.61,824.02,825.83,827.97,829.93,831.99,833.35,833.70,832.80,831.41,830.48,829.86,829.16,827.84,826.28,825.13,824.55,824.28,824.67,825.79,827.30,828.81,830.25,830.74,830.32,829.61,830.68,832.58,833.85,833.85,832.20,830.42,828.41,826.11,823.53,821.14,819.87,818.90,818.10,818.08,818.63,819.29,819.74,819.64,819.14,818.55,818.51,819.39,820.81,823.74,826.90,829.52,830.99,832.14,833.08,833.79,834.13,833.77,833.05,832.22,831.36,830.46,829.65,828.82,827.89,826.91,826.18,825.25,824.00,822.35,820.43,819.30,818.33,817.32,816.54,817.32,818.41,819.45,820.50,821.97,823.89,825.91,827.87,829.62,830.06,829.63,828.57,826.90,825.38,824.15,823.27,822.78,822.32,821.78,820.84,819.42,817.49,815.67,813.69,811.69,810.03,809.29,808.85,808.84,809.31,809.99,811.14,813.26,815.96,818.40,819.72,820.32,820.61,820.83,821.25,821.80,822.39,822.88,822.99,822.72,822.34,822.01,821.83,821.48,821.34,821.36,821.44,821.36,821.30,821.20,820.97,820.47,820.01,817.08,813.89,812.31,811.47,810.36,809.14,807.77,806.09
705.69,707.15,707.61,707.47,707.29,708.09,708.51,708.51,708.09,707.27,707.12,707.65,708.37,708.68,708.91,709.02,708.88,708.38,707.76,706.99,705.98,705.39,706.97,710.12,715.01,719.95,723.22,725.59,728.23,730.72,732.96,735.41,737.57,738.78,739.07,738.51,737.21,736.55,737.22,739.62,743.00,746.52,749.84,753.34,758.10,763.56,769.75,775.62,780.05,783.90,787.69,791.27,794.18,795.53,797.41,799.64,802.40,806.15,809.46,812.13,814.54,816.89,819.03,820.70,821.89,822.58,822.87,823.59,824.51,825.45,826.26,826.86,827.36,828.22,829.86,832.73,836.82,839.82,841.59,842.70,842.32,841.24,839.93,838.67,837.68,837.94,838.44,838.85,839.38,839.47,839.36,839.11,838.71,838.23,837.60,836.72,835.51,834.13,832.68,831.48,830.39,829.04,828.16,827.36,826.56,825.77,825.02,824.42,823.40,821.96,820.75,820.01,819.81,819.99,820.48,821.46,822.89,824.74,826.97,829.08,830.74,831.56,831.49,830.47,828.97,827.91,827.24,826.67,825.82,824.38,823.11,822.37,822.17,822.74,823.84,825.17,826.47,827.56,828.00,827.78,827.51,829.39,831.29,832.61,832.95,831.75,830.26,828.13,825.57,822.90,820.54,819.28,818.29,817.44,817.37,817.75,818.25,818.69,818.88,818.57,818.09,818.16,819.06,820.16,822.81,825.74,828.25,829.84,831.05,831.90,832.55,833.02,833.08,833.02,832.76,832.23,831.48,830.80,830.16,829.58,829.09,828.69,827.84,826.46,824.50,822.07,820.10,818.62,817.43,816.47,817.37,818.66,819.96,821.28,822.75,824.50,826.33,828.14,829.69,830.02,829.22,827.75,826.11,824.31,822.60,821.33,820.73,820.39,819.94,818.99,817.59,816.02,814.24,812.50,810.98,809.89,809.40,809.21,809.33,809.80,810.53,811.48,813.25,815.49,817.34,818.71,819.55,820.05,820.37,820.73,821.20,821.69,822.07,822.14,821.87,821.56,821.27,821.04,820.94,821.06,821.37,821.71,821.71,821.70,821.66,821.56,821.41,821.24,819.66,817.45,815.41,814.05,812.30,810.36,808.34,806.29
712.70,714.74,716.10,716.69,716.39,716.21,715.25,713.65,711.56,709.39,709.08,710.43,712.44,713.84,714.53,714.61,714.03,712.84,711.75,710.35,708.46,706.75,706.81,708.12,711.35,715.16,718.20,720.75,722.79,724.38,725.70,727.22,728.92,730.25,730.94,730.72,729.50,728.67,729.27,731.87,735.39,739.01,742.97,747.25,751.71,757.16,763.88,770.70,776.36,781.40,785.94,789.82,792.81,794.86,797.38,799.97,802.89,806.68,809.86,812.16,814.03,815.84,817.81,819.32,820.20,820.48,820.55,821.58,822.63,823.54,824.38,825.21,826.11,827.38,829.33,832.39,836.77,840.11,842.01,842.72,842.59,841.78,840.57,839.08,837.41,836.77,836.49,836.46,837.08,837.18,836.96,836.60,836.15,835.66,834.95,834.05,833.01,831.91,830.79,829.89,829.20,828.55,827.81,827.05,826.28,825.51,824.81,823.88,822.56,821.04,820.07,819.76,819.71,819.76,819.92,820.58,821.82,823.32,824.84,826.26,827.94,828.83,828.78,828.10,826.83,825.66,824.79,824.24,823.74,822.46,821.22,820.49,820.41,820.93,821.78,822.80,823.86,824.63,825.09,825.41,826.10,828.46,830.39,831.60,831.93,831.01,829.76,827.60,824.96,822.33,820.19,818.97,817.93,816.96,816.63,816.87,817.29,817.73,818.07,817.94,817.67,817.89,818.80,819.75,822.03,824.52,826.71,828.43,829.77,830.63,831.23,831.71,832.01,832.32,832.43,832.26,831.88,831.42,831.02,830.69,830.46,830.20,829.53,828.17,825.94,823.15,820.52,818.63,817.42,816.67,817.70,819.09,820.53,822.08,823.69,825.28,826.86,828.41,829.79,830.02,829.02,827.34,825.66,823.69,821.69,820.17,819.40,818.82,818.28,817.28,815.93,814.76,813.32,811.98,810.89,810.16,809.78,809.71,809.95,810.50,811.26,812.09,813.43,815.00,816.24,817.54,818.50,819.21,819.78,820.25,820.63,820.96,821.21,821.25,821.04,820.83,820.64,820.47,820.52,820.84,821.41,822.09,822.38,822.32,822.17,822.05,822.02,821.90,821.21,819.86,817.90,815.96,813.64,811.16,808.70,806.46
721.06,724.44,727.88,730.47,730.85,728.97,725.50,721.00,716.02,712.08,711.32,713.82,718.04,721.81,723.63,723.90,722.75,720.24,717.69,714.94,712.10,709.50,707.89,707.23,708.29,710.24,712.36,715.15,717.13,718.46,719.22,719.63,720.68,722.15,723.57,724.20,723.86,723.68,724.38,726.30,728.72,732.35,736.95,741.95,746.45,752.24,759.22,766.29,772.49,778.83,784.78,789.56,793.03,796.18,798.65,801.13,803.95,807.22,809.96,811.51,812.40,813.25,814.96,816.22,816.96,817.28,817.54,819.27,820.68,821.67,822.64,823.84,825.40,827.12,829.08,831.95,836.21,840.03,842.44,842.63,842.83,842.39,841.47,840.15,838.46,836.78,835.18,834.10,834.45,834.40,833.97,833.46,833.15,832.81,832.23,831.47,830.65,830.10,829.66,829.24,828.81,828.36,827.71,826.97,826.21,825.45,824.74,823.81,822.47,820.95,820.06,819.76,819.66,819.63,819.72,819.94,820.86,821.69,821.93,821.96,823.94,825.31,825.62,825.54,824.76,823.53,822.44,821.92,821.67,820.61,819.57,819.03,819.10,819.34,819.78,820.42,821.23,821.77,822.28,823.37,825.34,827.74,829.71,830.72,830.78,829.96,828.87,826.84,824.31,821.87,820.10,818.90,817.76,816.61,815.83,815.94,816.33,816.79,817.17,817.22,817.27,817.71,818.64,819.61,821.49,823.38,825.09,826.88,828.35,829.29,829.89,830.32,830.71,831.04,831.27,831.40,831.54,831.42,831.24,831.05,830.83,830.53,830.08,828.88,826.54,823.50,820.48,818.35,817.29,817.22,818.35,819.75,821.26,822.98,824.83,826.32,827.59,828.78,829.97,830.10,829.10,827.43,825.64,823.62,821.57,819.97,818.97,817.84,817.03,816.00,814.80,813.95,813.09,812.24,811.45,810.82,810.46,810.43,810.77,811.44,812.20,813.02,813.90,814.74,815.45,816.53,817.45,818.33,819.22,819.90,820.19,820.36,820.49,820.48,820.35,820.24,820.17,820.16,820.22,820.67,821.46,822.47,823.24,823.12,822.79,822.56,822.45,822.23,821.72,820.85,819.38,816.90,814.14,811.38,808.70,806.31
730.17,733.43,736.34,738.38,738.61,736.75,731.79,725.50,719.49,716.24,714.74,717.19,722.69,729.05,732.80,734.20,733.65,730.95,726.20,721.94,718.01,714.29,711.06,708.87,708.25,708.64,709.60,710.98,711.98,712.73,713.43,714.50,715.92,717.53,719.28,721.02,721.59,722.68,723.90,724.73,725.35,728.23,732.00,736.45,742.37,748.20,755.36,762.70,768.86,775.55,783.80,790.55,794.65,797.98,800.44,802.61,804.63,806.38,808.12,808.80,809.10,809.54,809.87,810.17,810.51,811.28,813.32,816.04,818.20,819.89,821.48,823.23,825.11,826.95,828.68,830.57,833.93,837.63,840.50,841.21,841.80,842.25,842.17,841.22,839.83,838.26,836.45,834.52,833.00,831.99,830.84,830.06,830.38,830.58,830.41,830.06,829.67,829.36,829.12,828.78,828.36,827.96,827.43,826.83,826.15,825.38,824.63,823.69,822.36,820.89,820.09,819.78,819.62,819.53,819.54,819.67,820.09,820.41,820.42,820.30,821.19,821.93,822.30,822.65,822.45,821.57,820.65,820.24,820.13,819.53,818.87,818.38,818.13,818.28,818.64,819.15,819.74,820.18,821.11,822.73,825.02,827.35,828.84,829.35,829.08,828.34,827.50,825.93,823.94,821.90,820.16,818.69,817.26,815.91,815.10,815.19,815.53,815.90,816.24,816.41,816.88,817.64,818.61,819.58,821.22,822.99,824.58,825.87,826.99,827.82,828.35,828.60,829.02,829.39,829.72,830.04,830.38,830.41,830.35,830.28,830.16,829.83,829.05,827.72,825.67,822.81,819.84,817.89,817.34,818.28,819.52,821.00,822.65,824.46,826.33,827.79,828.85,829.63,830.36,830.42,829.78,828.54,826.74,824.82,822.95,821.30,819.94,818.62,817.44,816.27,815.14,814.32,813.54,812.77,812.11,811.72,811.72,811.90,812.23,812.72,813.35,814.12,814.90,815.66,816.41,817.26,817.99,818.76,819.60,819.93,820.05,820.11,820.15,820.15,820.10,820.06,820.03,820.05,820.12,820.56,821.38,822.46,823.31,823.53,823.36,823.02,822.74,822.38,821.63,820.53,818.95,816.43,813.63,810.79,807.98,805.46
737.68,740.65,742.86,744.09,743.73,741.64,736.32,729.62,723.45,720.88,718.82,720.93,726.92,734.85,740.37,742.73,742.61,739.88,734.35,729.36,724.86,720.51,716.05,712.56,710.18,708.85,708.65,708.91,710.42,712.06,713.40,714.73,716.17,717.75,719.77,722.60,724.72,727.00,728.27,727.56,725.72,726.80,729.09,732.55,738.70,744.45,751.28,758.52,765.18,772.00,781.68,790.04,795.17,798.73,801.09,802.82,804.04,804.66,805.50,805.41,805.09,804.93,804.16,803.76,803.94,805.29,809.04,813.12,816.38,818.89,820.92,822.92,824.92,826.70,828.12,829.18,831.34,834.22,836.98,838.47,840.00,841.47,842.33,842.08,841.14,839.94,838.17,835.71,832.69,830.57,828.81,827.88,828.44,829.04,829.16,829.10,829.00,828.81,828.67,828.37,827.93,827.52,827.08,826.59,826.00,825.30,824.53,823.57,822.33,821.03,820.29,819.88,819.65,819.49,819.40,819.47,819.55,819.58,819.55,819.49,819.59,819.79,820.07,820.50,820.58,820.05,819.40,819.08,818.96,818.64,818.23,817.75,817.32,817.54,818.02,818.56,819.05,819.51,820.70,822.56,824.86,826.83,827.63,827.66,827.22,826.52,825.83,824.79,823.44,821.81,820.07,818.36,816.67,815.16,814.37,814.48,814.78,815.11,815.47,815.88,816.67,817.63,818.61,819.57,821.00,822.63,824.15,825.20,826.20,826.99,827.49,827.68,827.89,828.06,828.18,828.33,828.65,828.69,828.67,828.70,828.73,828.41,827.47,826.09,824.25,821.72,818.84,817.54,818.10,819.69,821.01,822.55,824.31,826.17,827.95,829.20,829.97,830.37,830.69,830.70,830.41,829.65,828.15,826.38,824.66,822.97,821.27,819.70,818.28,817.01,815.93,815.02,814.15,813.47,813.04,812.96,813.23,813.55,813.87,814.22,814.70,815.31,816.03,816.83,817.68,818.40,818.89,819.39,819.95,820.00,820.00,820.00,820.00,820.00,820.00,820.00,820.00,820.01,820.06,820.41,821.09,821.99,822.71,823.14,823.11,822.78,822.46,822.00,820.95,819.50,817.70,815.31,812.63,809.90,807.44,805.96
742.61,745.55,747.59,748.40,747.13,743.97,739.53,734.07,728.58,725.83,723.49,725.17,730.76,738.82,745.66,748.60,748.36,745.47,741.08,736.51,732.26,728.06,723.00,718.44,714.18,710.89,709.52,709.46,713.71,718.29,721.08,721.77,722.50,723.81,726.06,729.77,734.18,737.28,737.98,735.47,730.75,728.72,728.90,731.03,735.40,740.93,746.75,753.35,761.26,768.24,777.90,787.01,793.64,797.71,799.85,801.02,801.69,802.03,802.21,801.56,800.51,799.39,798.27,797.74,798.18,800.26,805.23,811.04,815.73,819.03,821.05,822.88,824.74,826.27,827.28,827.98,828.80,830.16,832.03,834.34,837.41,839.97,841.76,842.56,842.20,841.38,839.75,837.10,833.56,830.41,828.39,827.50,827.66,828.29,828.48,828.45,828.37,828.28,828.20,827.96,827.56,827.10,826.69,826.23,825.75,825.21,824.46,823.47,822.41,821.42,820.72,820.13,819.76,819.53,819.33,819.26,819.29,819.31,819.23,819.17,819.27,819.36,819.41,819.53,819.44,819.14,818.77,818.45,818.18,817.81,817.39,816.94,816.62,817.14,817.87,818.58,819.20,819.82,820.95,822.68,824.75,825.99,826.00,825.68,825.27,824.58,823.90,823.37,822.63,821.34,819.67,817.87,816.01,814.37,813.65,813.77,814.08,814.44,814.96,815.77,816.73,817.70,818.63,819.58,820.81,822.20,823.63,824.96,826.28,827.17,827.73,828.02,827.75,827.37,826.86,826.38,826.38,826.27,826.21,826.29,826.50,826.26,825.54,824.29,822.47,820.32,817.59,817.48,819.72,821.38,822.76,824.32,826.09,827.95,829.54,830.33,830.70,830.81,830.87,830.88,830.79,830.48,829.62,828.07,826.41,824.63,822.66,820.74,819.22,817.98,816.90,815.84,814.82,814.33,814.29,814.53,814.84,815.20,815.56,815.88,816.23,816.59,817.19,817.99,818.86,819.56,819.82,819.90,819.99,820.00,820.00,820.00,820.00,820.00,820.00,820.00,820.00,820.00,820.01,820.21,820.56,821.02,821.43,821.74,821.73,821.52,821.37,820.91,819.61,817.84,815.83,813.63,811.24,808.92,807.48,808.49
745.88,749.86,752.71,754.00,752.48,747.68,743.75,740.00,735.82,731.20,728.28,729.32,734.16,742.26,750.63,755.13,755.33,751.27,745.57,741.27,737.99,734.63,729.38,724.27,719.65,715.38,711.80,710.63,716.62,723.16,727.05,728.54,729.31,730.39,732.26,735.43,739.72,743.36,744.96,743.42,739.38,734.33,731.12,730.77,733.53,738.10,743.08,748.79,756.10,764.27,773.78,783.05,790.59,794.50,796.40,797.58,798.40,798.70,798.11,796.83,795.36,794.03,793.00,792.67,793.84,797.30,804.13,810.71,816.13,819.86,821.51,823.20,824.49,825.19,825.43,825.94,826.48,827.44,828.88,830.93,834.17,838.06,840.98,841.83,841.85,841.79,840.22,837.00,833.44,830.43,828.54,827.63,827.50,827.62,827.76,827.82,827.79,827.75,827.83,827.76,827.47,826.96,826.44,825.90,825.38,824.90,824.31,823.48,822.61,821.82,821.16,820.58,820.05,819.63,819.37,819.19,819.10,819.04,818.97,818.89,818.93,818.94,818.91,818.92,818.80,818.51,818.17,817.86,817.51,817.13,816.73,816.32,816.02,816.70,817.63,818.56,819.45,820.45,821.65,822.99,824.22,824.57,824.21,823.74,823.28,822.65,822.23,821.86,821.28,820.18,818.55,816.73,814.88,813.35,812.93,813.11,813.47,814.00,814.89,815.92,817.00,818.02,818.95,819.91,821.39,822.99,824.51,825.89,827.25,828.32,829.00,829.17,828.97,828.10,826.83,825.42,824.36,823.88,823.75,823.89,824.28,824.15,823.55,822.45,820.78,818.87,817.39,818.23,820.76,822.42,823.97,825.59,827.27,828.94,830.14,830.68,830.89,830.96,831.01,831.05,831.03,830.87,830.42,829.39,827.68,825.65,823.55,821.43,819.77,818.48,817.41,816.39,815.50,815.02,814.93,815.18,815.55,816.01,816.45,816.85,817.29,817.70,818.23,818.88,819.51,819.89,820.00,820.00,820.00,820.00,820.00,820.00,820.00,820.00,820.00,820.00,820.00,820.00,820.00,820.07,820.22,820.40,820.44,820.38,820.23,820.10,820.07,819.80,818.35,816.27,814.03,811.91,810.23,809.30,809.36,810.65
748.31,753.40,757.50,759.84,758.58,752.92,748.86,745.75,742.21,736.33,733.06,733.42,737.56,745.91,755.04,760.85,761.86,757.29,749.90,745.55,743.11,740.71,735.62,729.79,724.78,719.93,714.84,712.45,718.98,726.97,732.54,734.96,735.93,736.87,738.32,740.72,744.30,748.35,751.18,751.29,748.28,741.22,735.21,732.44,733.63,736.33,740.09,744.82,751.10,759.76,768.84,777.98,786.09,790.12,791.96,793.32,794.51,794.93,793.67,791.81,790.02,788.70,788.10,788.57,790.79,795.52,803.63,810.72,816.47,820.35,821.78,823.29,823.90,823.80,823.39,823.67,824.21,825.16,826.48,828.18,830.96,835.31,838.98,840.25,840.47,840.51,838.78,835.37,832.25,829.86,828.46,827.74,827.41,827.38,827.43,827.49,827.51,827.48,827.72,827.84,827.65,827.11,826.50,825.88,825.31,824.83,824.34,823.86,823.19,822.39,821.79,821.22,820.48,819.78,819.47,819.23,819.05,818.92,818.83,818.74,818.67,818.56,818.45,818.41,818.27,817.97,817.63,817.29,816.90,816.51,816.11,815.71,815.42,816.15,817.18,818.24,819.32,820.59,821.77,822.72,823.21,822.95,822.40,821.80,821.23,820.70,820.45,820.11,819.53,818.54,817.05,815.28,813.57,812.31,812.20,812.45,813.10,814.04,815.16,816.29,817.41,818.48,819.45,820.56,822.33,824.16,825.78,827.14,828.40,829.47,830.11,830.14,830.06,828.90,827.11,825.00,823.02,821.96,821.51,821.57,822.07,822.01,821.49,820.53,819.09,817.41,817.26,818.77,821.14,822.73,824.35,825.97,827.60,829.14,830.17,830.62,830.83,830.97,831.06,831.16,831.16,831.08,830.86,830.20,828.45,826.29,824.14,821.96,820.20,818.86,817.83,816.88,816.20,815.71,815.47,815.59,815.88,816.34,816.83,817.30,817.84,818.33,818.83,819.31,819.70,819.83,819.84,819.82,819.79,819.78,819.78,819.79,819.82,819.85,819.85,819.86,819.87,819.87,819.87,819.84,819.81,819.77,819.55,819.19,818.94,818.86,818.90,818.79,817.42,815.35,813.10,811.21,810.30,810.53,811.60,812.68
749.81,755.69,761.37,765.46,765.22,760.51,755.22,750.39,745.88,740.79,737.77,737.55,741.18,750.23,758.50,764.61,766.91,763.62,755.13,750.15,747.92,746.32,741.77,734.68,728.52,723.33,718.67,715.21,720.41,729.35,737.86,740.75,741.91,742.90,744.21,746.04,748.94,753.25,757.26,758.92,755.92,748.87,741.91,737.37,736.99,736.40,738.10,741.79,747.10,754.26,762.42,771.13,779.41,784.48,786.60,788.26,789.89,790.61,788.98,786.66,784.62,783.48,783.71,785.94,789.67,795.10,802.99,810.48,816.13,819.78,821.43,822.71,822.70,822.13,821.51,821.38,821.96,823.12,824.66,826.40,828.16,831.13,834.64,837.48,837.68,836.33,834.09,831.50,829.47,828.05,827.63,827.54,827.19,827.95,827.90,827.75,827.86,827.66,828.10,828.38,828.24,827.69,827.08,826.46,825.88,825.34,824.78,824.96,824.51,823.35,822.76,822.15,821.09,820.04,819.68,819.43,819.25,819.10,818.96,818.81,818.57,818.27,817.99,817.90,817.71,817.46,817.16,816.77,816.33,815.92,815.50,815.06,814.77,815.41,816.36,817.35,818.34,819.53,820.47,821.14,821.45,821.17,820.63,819.84,819.04,818.63,818.34,817.90,817.22,816.22,815.11,813.50,812.11,811.37,811.46,811.79,813.17,814.92,815.95,816.98,818.01,819.05,820.19,821.70,823.65,825.52,827.13,828.41,829.50,830.10,830.34,830.33,830.19,829.13,827.38,825.16,822.98,820.95,819.74,819.42,819.88,819.81,819.31,818.51,817.36,815.98,816.73,818.49,820.44,821.87,823.31,824.87,826.51,828.14,829.48,830.14,830.54,830.84,831.00,831.14,831.19,831.14,830.90,830.16,828.48,826.45,824.40,822.32,820.55,819.24,818.30,817.42,816.96,816.49,816.12,816.00,815.88,816.14,816.57,817.05,817.58,818.11,818.57,818.96,819.25,819.37,819.35,819.25,819.14,819.13,819.13,819.17,819.25,819.37,819.39,819.43,819.48,819.47,819.47,819.33,819.13,818.94,818.70,818.35,818.14,818.08,818.08,818.01,817.15,815.67,813.89,812.60,812.36,812.78,813.61,814.68
749.98,756.74,763.66,769.37,771.01,767.75,761.74,755.69,750.55,746.14,743.29,742.70,745.69,754.10,762.16,768.98,772.78,771.23,763.11,758.64,756.15,753.21,746.65,739.45,732.01,725.32,720.47,717.17,721.58,730.18,739.63,744.67,747.59,749.22,750.38,751.93,754.06,758.27,762.65,765.11,763.85,757.34,749.64,743.47,741.30,738.84,738.53,740.32,744.00,749.30,755.92,763.38,771.02,777.10,780.41,783.09,785.44,786.39,784.66,782.33,780.84,781.05,782.55,785.91,790.69,796.66,803.62,809.98,814.82,818.32,820.56,821.72,821.64,820.97,820.13,819.72,820.37,821.62,823.21,825.01,826.74,828.65,830.78,832.69,832.73,831.28,829.99,829.26,828.52,827.82,827.51,827.42,827.46,828.02,828.26,828.38,828.37,827.78,828.29,828.78,828.82,828.27,827.66,827.02,826.39,825.88,825.72,826.28,826.21,825.23,824.19,823.24,822.05,820.86,820.11,819.70,819.50,819.36,819.23,819.08,818.80,818.44,818.08,817.77,817.49,817.22,816.93,816.57,815.98,815.39,814.88,814.46,814.13,814.27,814.95,815.92,816.79,817.12,817.51,817.98,818.34,818.28,817.81,816.98,816.13,815.87,815.74,815.40,814.75,813.80,812.86,811.68,810.85,810.59,810.81,811.52,813.56,815.94,817.15,818.18,819.22,820.29,821.51,823.15,824.99,826.86,828.48,829.33,829.91,830.18,830.24,830.21,829.99,828.88,827.22,825.18,822.92,820.64,818.83,817.75,817.64,817.42,817.03,816.48,815.68,814.56,815.72,817.49,819.13,820.50,821.94,823.49,825.08,826.66,828.00,829.30,830.25,830.72,830.92,831.02,831.07,831.04,830.76,829.93,828.33,826.39,824.38,822.40,820.91,819.76,818.87,818.24,817.81,817.27,816.80,816.61,816.41,816.44,816.59,816.84,817.32,817.76,818.14,818.44,818.62,818.71,818.68,818.58,818.44,818.39,818.39,818.44,818.56,818.67,818.68,818.74,818.76,818.69,818.68,818.51,818.28,818.04,817.78,817.71,817.74,817.80,817.81,817.91,817.68,816.80,815.34,814.64,814.65,815.05,815.76,816.67
749.14,756.82,764.78,771.90,775.66,774.30,768.37,762.08,757.05,752.97,750.02,749.09,751.32,758.46,766.58,773.82,778.67,778.96,772.29,768.44,764.85,759.39,750.46,743.24,734.94,726.98,721.76,719.12,722.92,730.64,740.04,747.32,752.41,755.56,757.60,759.41,760.94,764.84,769.18,771.91,771.71,765.84,757.96,750.66,746.54,742.66,740.43,740.35,742.87,746.54,751.49,757.29,763.78,770.44,774.61,778.05,780.95,782.18,780.62,779.06,778.84,780.54,783.11,787.03,792.23,798.24,804.04,808.98,812.95,816.31,819.10,820.36,820.38,819.74,818.85,818.40,819.25,820.77,822.63,824.70,826.56,827.64,828.43,829.17,829.29,828.60,828.58,829.26,829.22,828.81,828.17,827.77,828.00,827.92,828.46,828.95,828.84,827.99,828.52,829.23,829.48,828.85,828.22,827.58,826.98,826.59,826.87,827.66,827.95,827.31,825.77,824.51,823.37,822.21,821.06,820.36,819.96,819.72,819.59,819.40,819.12,818.76,818.33,817.83,817.48,817.20,816.97,816.65,815.93,815.14,814.50,814.01,813.54,813.17,813.48,814.22,814.77,814.23,814.12,814.37,814.77,814.93,814.57,813.85,813.13,813.01,813.05,812.87,812.37,811.58,810.83,810.14,809.83,809.95,810.26,811.44,814.00,816.84,818.41,819.51,820.61,821.75,822.99,824.66,826.33,828.08,829.56,829.93,829.93,829.86,829.80,829.71,829.39,828.25,826.73,824.96,822.79,820.55,818.33,816.50,815.58,815.05,814.69,814.36,813.92,813.20,814.52,816.20,817.66,819.14,820.72,822.34,823.96,825.55,826.95,828.78,830.14,830.66,830.85,830.86,830.89,830.86,830.51,829.56,828.05,826.23,824.29,822.52,821.36,820.39,819.57,819.18,818.69,818.06,817.51,817.28,817.12,816.96,816.82,816.78,817.08,817.36,817.63,817.85,817.92,817.99,817.96,817.86,817.72,817.64,817.63,817.69,817.83,817.91,817.92,817.96,817.96,817.83,817.80,817.67,817.54,817.42,817.26,817.48,817.74,817.91,817.94,818.19,818.44,818.12,817.08,816.91,817.00,817.26,817.67,817.97
746.49,755.10,763.81,771.91,777.67,779.05,775.19,771.13,768.12,763.43,759.64,758.21,759.58,764.68,773.11,779.48,783.87,785.78,782.57,778.61,771.78,762.20,752.23,744.19,736.36,728.94,723.32,721.77,725.04,731.39,739.72,747.87,754.91,761.73,767.71,771.12,772.68,775.94,779.76,781.90,779.13,773.72,767.11,760.11,753.70,748.46,744.51,743.45,746.84,749.96,753.29,757.04,761.60,767.51,770.71,773.47,776.21,777.92,777.02,778.18,780.64,783.29,785.83,789.23,793.38,798.01,802.68,806.76,810.26,813.46,816.36,818.29,818.39,817.83,817.36,817.63,818.94,821.34,824.38,827.30,828.91,829.50,830.13,831.36,832.42,833.88,834.74,834.54,833.21,832.00,830.59,829.43,828.96,827.78,828.26,829.02,829.09,828.51,829.06,829.94,830.36,829.41,828.69,828.17,827.82,827.75,828.20,829.03,829.51,829.13,827.39,826.25,825.46,824.63,823.43,822.11,821.04,820.35,820.03,819.75,819.44,819.06,818.60,818.14,817.75,817.63,817.57,817.30,816.57,815.71,814.82,813.95,813.14,812.53,812.34,812.26,811.85,811.13,810.90,810.92,811.05,811.24,811.05,810.77,810.56,810.53,810.54,810.50,810.34,810.04,809.75,809.48,809.40,809.56,809.91,811.58,814.29,817.26,819.50,820.73,821.98,823.22,824.43,826.08,827.63,828.94,829.83,829.91,829.37,828.88,828.58,828.34,827.87,826.93,825.63,824.10,822.44,820.51,818.34,816.10,814.09,812.84,812.29,812.02,811.87,811.95,813.19,814.68,816.26,818.34,820.19,822.11,824.07,825.99,827.91,829.58,830.58,830.83,830.81,830.71,830.67,830.57,830.11,828.97,827.57,825.96,824.26,823.04,822.09,821.25,820.56,820.25,819.61,818.87,818.27,818.00,817.83,817.67,817.44,817.12,816.86,816.90,817.02,817.13,817.20,817.22,817.22,817.15,817.01,816.93,816.91,816.96,817.06,817.19,817.21,817.22,817.20,817.10,816.98,817.06,817.31,817.69,818.01,818.32,818.58,818.75,818.77,818.93,819.19,819.26,819.07,819.25,819.32,819.26,818.78,817.24
743.72,752.17,760.71,768.98,776.16,780.86,780.77,779.91,779.04,775.23,770.17,766.58,766.11,770.66,778.00,783.61,787.70,790.15,789.18,785.97,778.36,766.84,754.46,745.12,737.01,729.87,724.98,725.20,728.25,733.61,740.93,748.68,758.33,768.14,776.35,780.70,782.75,784.55,786.69,788.38,786.23,782.37,777.18,770.39,761.47,754.50,748.98,746.97,750.74,754.39,758.94,763.41,767.48,771.79,774.20,775.58,776.52,777.13,776.61,777.74,779.82,782.21,785.31,789.17,793.03,796.75,800.65,804.35,807.71,810.76,813.35,815.19,815.53,815.69,816.35,817.47,819.22,822.12,825.77,829.11,831.15,832.19,833.27,834.92,836.33,837.76,838.41,838.03,836.70,834.97,832.98,831.36,830.71,830.08,830.40,830.95,831.22,830.93,831.26,831.68,831.63,830.44,829.79,829.44,829.26,829.23,829.44,830.32,830.87,830.48,828.83,828.14,827.80,827.26,826.05,824.58,823.20,822.16,821.52,820.82,820.01,819.38,818.89,818.40,818.14,818.14,818.15,817.90,817.22,816.31,815.34,814.40,813.55,812.83,812.34,811.87,811.17,810.44,810.04,809.86,809.78,809.82,809.73,809.63,809.55,809.50,809.51,809.50,809.42,809.27,809.12,809.02,809.08,809.33,809.81,811.84,815.01,818.26,820.34,821.65,822.86,824.02,825.17,826.59,827.88,828.76,829.08,828.70,827.98,827.46,827.11,826.79,826.25,825.40,824.28,822.94,821.52,819.80,817.66,815.34,813.27,811.73,810.88,810.47,810.42,810.87,812.20,814.09,816.35,818.85,820.88,822.82,824.81,826.88,828.93,830.25,830.88,830.96,830.85,830.65,830.53,830.36,829.73,828.49,827.21,825.95,824.74,823.85,823.02,822.23,821.57,821.21,820.46,819.68,819.07,818.71,818.47,818.21,817.88,817.43,816.90,816.76,816.86,816.99,816.99,816.93,816.86,816.83,816.85,816.88,816.88,816.88,816.90,816.95,816.96,817.00,817.05,817.10,817.22,817.42,817.81,818.36,818.83,819.28,819.61,819.77,819.76,819.95,820.31,820.50,820.36,820.17,819.83,819.12,817.88,815.93
741.12,748.91,756.85,764.86,772.89,780.54,784.76,787.33,788.37,785.95,780.14,774.42,771.96,776.25,782.09,787.05,790.96,793.55,793.90,791.41,783.90,771.51,756.54,746.01,737.46,730.56,726.94,729.19,732.37,736.91,743.07,749.85,761.20,772.98,782.60,787.68,790.61,791.27,791.87,793.25,792.79,790.53,786.58,780.12,769.54,760.91,754.00,751.09,754.77,759.40,765.95,772.01,776.36,779.20,780.96,781.06,780.16,779.44,779.05,778.92,779.34,780.95,784.59,788.94,792.69,795.73,798.91,802.23,805.41,808.26,810.52,812.15,812.94,814.01,815.77,817.58,819.67,822.85,826.72,830.25,832.90,834.78,836.54,838.44,839.82,840.48,840.62,840.31,839.43,837.50,835.23,833.42,832.95,833.32,833.52,833.78,834.13,834.09,834.07,833.80,833.06,831.72,831.18,830.99,830.88,830.75,830.63,831.51,832.13,831.83,830.47,830.24,830.29,829.96,828.71,827.17,825.64,824.36,823.35,822.16,820.74,819.75,819.17,818.62,818.57,818.69,818.74,818.51,817.84,816.92,815.98,815.10,814.31,813.54,812.87,812.23,811.55,810.87,810.33,809.92,809.65,809.48,809.43,809.37,809.27,809.13,809.15,809.10,808.99,808.83,808.69,808.65,808.80,809.14,809.72,811.77,815.40,819.09,820.88,822.21,823.29,824.33,825.46,826.62,827.61,828.01,827.75,826.93,826.25,825.83,825.53,825.17,824.57,823.77,822.78,821.60,820.29,818.76,816.71,814.50,812.75,811.14,810.03,809.44,809.42,810.03,811.51,813.94,816.96,819.76,821.91,823.82,825.76,827.89,829.84,830.78,831.11,831.09,830.92,830.64,830.47,830.22,829.48,828.22,827.08,826.16,825.46,824.76,824.03,823.27,822.59,822.11,821.28,820.50,819.87,819.39,819.04,818.66,818.22,817.69,817.04,816.74,816.85,817.10,817.13,817.01,816.86,816.85,817.04,817.19,817.24,817.21,817.14,817.06,817.05,817.11,817.25,817.49,817.90,818.20,818.63,819.27,819.89,820.52,820.93,821.06,820.98,821.11,821.36,821.35,820.80,819.91,819.00,817.66,815.92,814.17
739.36,746.29,753.46,760.88,768.59,777.01,784.82,790.22,792.19,790.65,786.75,781.48,778.01,780.78,785.66,790.29,794.27,797.12,797.41,794.14,786.22,773.57,757.41,746.75,738.34,732.00,729.79,734.06,738.10,741.94,746.28,751.92,760.62,771.74,782.39,788.44,792.94,794.98,796.29,797.69,797.90,795.76,792.10,786.62,777.83,768.28,760.44,756.70,759.46,765.02,772.04,778.67,783.89,787.13,788.42,788.59,788.23,787.69,787.08,785.41,784.12,784.77,788.08,791.51,794.60,797.18,799.18,801.49,803.84,806.22,808.72,810.91,812.69,814.35,816.03,817.74,819.90,823.03,826.73,830.12,832.98,835.72,838.10,839.73,840.62,841.15,841.24,840.88,840.16,838.76,836.96,835.63,835.71,836.29,836.72,836.98,837.08,837.05,836.64,835.78,834.55,833.21,832.72,832.48,832.24,831.94,831.69,832.44,833.42,833.89,833.04,832.94,832.98,832.57,831.14,829.12,827.50,826.14,824.83,823.37,821.67,820.31,819.37,818.85,819.00,819.25,819.34,819.14,818.44,817.59,816.74,815.92,815.10,814.31,813.60,812.95,812.36,811.73,811.10,810.46,809.88,809.60,809.45,809.33,809.19,809.04,808.93,808.77,808.59,808.45,808.35,808.32,808.50,808.87,809.32,810.28,813.87,818.35,820.68,821.94,822.88,823.92,825.16,826.30,827.02,826.81,825.88,824.97,824.43,824.18,823.96,823.55,822.90,822.09,821.15,820.08,818.88,817.57,815.81,813.88,812.29,810.77,809.71,809.13,809.13,809.80,811.41,813.98,817.15,820.10,822.37,824.45,826.56,828.63,830.23,830.98,831.25,831.21,830.99,830.71,830.50,830.25,829.65,828.58,827.60,826.82,826.23,825.60,825.00,824.34,823.63,822.94,822.15,821.38,820.64,819.98,819.47,819.02,818.49,817.84,817.15,816.62,816.71,817.26,817.75,817.74,817.60,817.55,817.67,817.82,817.95,817.96,817.87,817.75,817.73,817.64,817.72,818.21,818.63,818.99,819.54,820.44,821.72,822.62,823.06,823.10,822.78,822.35,821.62,820.59,819.21,817.50,816.04,814.60,813.11,811.67
737.28,743.99,751.15,758.57,766.09,774.32,784.26,791.50,794.32,794.39,791.76,787.54,784.43,786.10,790.17,794.32,797.78,799.85,799.31,795.06,787.11,774.94,758.14,747.58,739.91,735.06,734.86,739.48,743.66,747.41,751.27,756.02,761.98,770.21,779.62,788.00,794.03,797.34,799.27,800.48,800.79,799.02,795.73,791.06,784.52,776.08,768.08,762.77,762.87,768.31,776.14,783.50,789.06,792.35,793.85,794.26,794.07,793.52,792.61,790.45,788.69,788.92,791.56,794.51,797.33,799.76,801.42,803.28,805.03,806.83,808.94,811.00,813.01,814.85,816.47,818.12,820.25,823.16,826.59,829.98,833.11,836.31,838.93,840.38,841.11,841.71,841.80,841.36,840.74,839.75,838.49,837.67,838.05,838.73,839.22,839.44,839.42,839.27,838.54,837.38,835.97,834.65,834.15,833.85,833.52,833.14,832.85,833.40,834.49,835.55,835.59,835.66,835.76,835.34,833.60,831.30,829.28,827.62,826.20,824.53,822.57,820.82,819.56,819.15,819.41,819.94,820.31,820.11,819.17,818.26,817.41,816.61,815.80,815.10,814.42,813.80,813.25,812.67,812.05,811.40,810.74,810.18,809.77,809.52,809.37,809.24,809.10,808.91,808.71,808.53,808.33,808.18,808.23,808.51,808.96,809.48,812.26,816.48,820.11,821.42,822.39,823.52,824.83,825.98,826.11,825.31,824.01,822.99,822.58,822.49,822.37,821.96,821.30,820.60,819.63,818.35,817.08,815.91,814.59,813.14,811.68,810.32,809.32,808.75,808.77,809.50,811.18,813.80,817.02,820.05,822.34,824.47,826.57,828.54,830.15,830.89,831.20,831.27,831.13,830.85,830.60,830.33,829.87,829.03,828.24,827.55,826.98,826.39,825.82,825.20,824.49,823.63,822.85,822.05,821.26,820.51,819.86,819.28,818.66,817.97,817.28,816.64,816.61,817.11,817.80,818.12,818.25,818.29,818.33,818.50,818.67,818.70,818.61,818.45,818.27,817.92,817.96,818.91,819.50,820.30,821.29,822.41,823.41,823.45,823.22,822.91,822.40,821.73,820.55,818.95,817.01,814.86,812.95,811.37,810.05,808.84
735.54,742.11,749.70,757.50,764.95,772.63,783.67,792.00,795.59,797.56,795.75,792.74,790.67,791.80,795.13,798.63,801.17,801.86,800.17,795.11,787.55,776.40,759.34,748.63,741.97,739.13,741.13,745.21,749.18,753.63,758.63,763.01,766.43,770.56,777.10,787.53,794.80,799.00,801.31,802.25,802.23,800.89,798.04,793.98,789.41,783.06,775.51,768.64,765.54,770.21,778.80,786.75,792.17,795.30,797.42,798.22,798.06,797.44,796.27,794.22,792.67,792.89,794.82,797.64,800.49,802.97,804.84,806.65,808.04,809.29,810.77,812.28,813.92,815.53,817.06,818.69,820.80,823.46,826.58,829.97,833.29,836.64,839.29,840.66,841.44,842.20,842.36,841.88,841.32,840.65,839.93,839.56,840.01,840.75,841.18,841.36,841.33,841.04,840.06,838.75,837.32,836.06,835.54,835.16,834.78,834.40,834.08,834.40,835.42,836.84,837.87,838.17,838.39,838.01,836.13,833.80,831.24,829.09,827.50,825.61,823.39,821.29,819.80,819.60,819.93,820.82,821.51,821.24,819.96,818.91,818.03,817.24,816.50,815.90,815.32,814.76,814.30,813.80,813.26,812.70,812.08,811.24,810.58,810.16,809.95,809.83,809.62,809.40,809.16,808.90,808.55,808.20,807.99,808.07,808.58,809.12,810.74,814.04,819.03,820.73,821.90,823.16,824.50,825.56,824.99,823.70,822.24,821.09,820.75,820.79,820.78,820.46,819.84,819.28,818.20,816.54,815.05,813.91,813.06,812.16,810.90,809.78,808.88,808.31,808.32,809.14,810.76,813.32,816.52,819.56,821.82,823.88,825.83,827.67,829.52,830.44,830.91,831.15,831.18,831.00,830.74,830.45,830.10,829.53,828.91,828.30,827.70,827.16,826.58,825.96,825.22,824.25,823.43,822.58,821.74,820.96,820.19,819.49,818.79,818.10,817.39,816.75,816.54,816.82,817.52,818.22,818.71,818.94,819.00,819.28,819.51,819.58,819.48,819.25,818.86,818.31,818.39,819.81,820.77,822.14,823.48,824.38,824.38,823.11,821.94,821.15,820.47,819.74,818.44,816.64,814.44,812.19,809.97,808.18,806.88,805.84
736.35,741.53,749.17,757.39,764.86,772.64,783.94,792.60,796.72,799.81,798.99,796.60,795.06,796.83,799.54,802.06,803.43,802.93,800.62,795.86,789.48,779.77,762.85,750.31,744.31,743.52,746.78,751.01,755.23,762.30,771.87,777.70,778.97,779.33,781.79,789.25,796.63,800.78,802.94,803.89,803.09,801.57,798.95,795.18,790.58,785.21,778.93,772.61,768.61,772.36,780.31,787.58,792.32,795.55,798.19,799.90,800.66,800.37,799.35,797.03,795.40,795.99,797.80,800.68,803.72,806.41,808.43,810.29,811.69,812.94,814.38,815.49,816.22,816.96,818.01,819.54,821.84,824.50,827.35,830.34,833.36,836.52,839.14,840.64,841.56,842.44,842.83,842.62,842.10,841.65,841.34,841.25,841.52,842.23,842.62,842.84,842.94,842.75,841.71,840.17,838.54,837.41,836.95,836.58,836.19,835.79,835.34,835.40,836.27,837.78,839.09,839.70,840.00,839.86,838.83,836.92,834.15,831.26,828.69,826.47,824.10,821.86,820.31,820.44,821.06,822.14,822.82,822.27,820.69,819.45,818.61,818.03,817.47,816.84,816.31,816.00,816.00,815.73,815.25,814.66,813.99,813.25,812.84,812.29,811.66,811.33,810.79,810.17,809.66,809.36,808.97,808.40,807.84,807.56,808.03,808.60,809.61,811.97,816.56,819.70,821.48,822.83,824.07,824.64,823.69,822.30,820.84,819.48,819.16,819.19,819.26,819.21,818.82,818.16,816.85,814.89,813.03,811.69,810.93,810.43,809.75,809.13,808.46,807.92,807.84,808.72,809.89,812.12,815.21,818.09,820.36,822.22,823.87,825.48,827.49,829.12,830.07,830.38,830.69,830.94,830.92,830.69,830.38,830.03,829.54,828.97,828.42,827.93,827.47,826.81,825.94,824.94,824.00,823.02,822.05,821.18,820.40,819.65,818.92,818.21,817.47,816.74,816.48,816.74,817.47,818.10,818.67,819.16,819.63,820.37,820.96,821.21,821.06,820.55,820.17,820.02,820.41,821.68,823.37,824.94,825.28,824.10,822.62,821.07,819.73,818.62,817.66,816.61,815.10,813.39,811.62,809.64,807.45,805.47,803.88,802.82
