835.67,839.32,841.41,842.73,844.01,845.33,846.63,847.89,849.17,850.77,853.78,857.08,859.76,861.01,862.11,863.09,864.11,865.25,866.44,867.57,868.74,869.70,869.75,868.94,866.84,864.41,862.63,861.32,860.65,860.67,861.38,862.25,860.88,858.75,855.85,851.54,848.74,847.21,845.97,844.47,842.88,841.42,840.97,841.63,842.77,842.66,841.62,840.14,838.59,837.20,836.10,835.28,834.63,833.80,832.97,833.66,835.76,838.54,841.28,842.45,842.27,841.20,840.38,840.14,840.40,841.35,843.55,846.33,848.18,848.99,848.80,847.79,846.44,845.22,844.41,844.08,843.32,842.35,841.32,840.23,838.71,837.43,836.57,836.17,835.70,834.56,833.50,832.82,832.34,831.50,830.69,830.25,830.45,830.79,831.14,830.86,829.66,828.16,826.80,825.79,825.31,825.68,826.07,826.29,826.16,825.58,824.90,824.38,823.84,823.21,822.51,821.92,821.38,820.80,819.91,818.23,815.92,813.49,810.88,807.41,805.34,804.38,804.00,803.63,803.37,803.13,803.02,803.20,803.54,803.88,804.45,805.39,806.70,807.78,808.54,808.94,808.88,808.79,808.61,808.38,808.29,808.68,809.15,809.72,810.38,811.13,811.83,812.48,812.92,812.82,811.73,810.19,807.98,806.02,807.05,807.42,806.97,805.92,804.42,802.60,801.17,800.36,800.16,799.90,799.70,799.55,799.46,799.43,799.37,799.30,799.27,799.31,799.18,799.03,798.81,798.51,798.20,797.81,797.22,796.95,797.77,798.89,800.33,801.96,803.73,805.49,806.65,807.18,806.88,805.29,803.40,802.60,802.48,802.21,800.69,798.48,796.30,794.64,793.90,793.30,793.05,793.13,793.32,793.47,793.53,793.61,793.77,793.86,793.65,793.12,792.34,791.55,791.07,790.75,790.50,790.30,790.15,790.12,790.13,790.17,790.39,790.66,791.03,791.45,791.82,792.19,792.80,793.60,794.58,795.85,797.57,799.04,799.78,799.20,797.01,793.87,790.94,789.34,788.48,787.71,787.27,787.41,788.15,788.97,790.16,791.95,794.57,797.25,799.54,801.28,802.00,800.90,799.79,799.05,798.96,800.13
835.28,839.19,841.41,842.79,844.18,845.55,846.84,848.09,849.37,850.98,853.99,857.14,859.54,860.38,860.94,861.66,862.53,863.54,864.79,866.33,867.99,869.32,869.27,867.29,864.53,861.85,859.85,858.57,857.96,858.15,859.24,860.93,861.13,860.07,857.43,852.58,849.06,846.70,844.66,842.60,841.06,840.00,839.65,839.96,840.57,840.51,839.79,838.65,837.34,836.10,834.88,833.79,832.90,832.11,831.44,832.26,834.47,837.36,839.88,840.45,839.83,838.79,837.90,837.72,838.28,839.69,842.13,844.23,845.41,845.81,845.46,844.40,843.11,842.26,842.13,842.45,842.25,841.45,840.14,838.35,836.57,835.13,834.25,834.13,834.39,834.50,834.28,833.75,833.18,832.51,831.92,831.62,831.72,831.38,830.83,829.15,826.20,823.76,822.56,822.32,822.75,823.63,824.20,824.62,824.74,824.38,823.72,823.16,822.65,822.14,821.64,821.27,820.84,820.33,819.57,817.50,814.79,812.16,809.61,806.25,804.85,804.28,803.93,803.56,803.25,803.20,803.33,803.57,803.99,804.45,805.28,806.52,807.89,809.10,809.93,810.34,810.25,810.13,809.85,809.51,809.28,809.51,810.01,810.66,811.39,812.11,812.86,813.55,813.92,813.57,812.33,810.77,808.73,807.12,808.56,809.51,809.55,808.85,807.60,805.88,804.39,803.26,802.48,801.63,800.80,800.25,800.00,799.90,799.87,799.81,799.78,799.83,799.75,799.61,799.43,799.22,798.94,798.40,797.67,797.11,797.32,798.44,799.86,801.40,802.89,803.82,804.10,804.17,804.01,803.22,801.81,801.10,800.82,800.36,799.09,797.22,795.54,794.42,793.81,793.33,793.33,793.63,793.85,794.06,794.24,794.44,794.71,794.97,794.52,793.77,792.95,792.21,791.96,791.86,791.73,791.58,791.51,791.50,791.55,791.67,791.85,792.09,792.44,792.84,793.22,793.56,794.25,795.34,796.81,798.39,799.50,799.99,799.18,795.67,792.90,791.06,789.84,788.95,788.26,787.56,787.37,787.88,788.59,789.28,790.50,792.38,794.96,797.55,799.87,801.93,803.26,802.41,801.85,801.49,801.69,803.57
835.92,839.53,841.59,842.99,844.44,845.81,847.10,848.35,849.61,851.08,853.84,856.49,858.35,858.95,859.26,859.87,860.66,861.54,862.83,864.38,866.09,867.60,867.85,865.31,862.29,859.61,857.52,856.07,855.39,855.76,857.32,859.66,860.80,860.55,858.49,853.93,850.00,847.15,844.67,842.23,840.27,839.30,838.76,838.51,838.72,838.65,838.10,837.17,835.97,834.83,833.60,832.40,831.38,830.81,830.39,830.96,832.65,835.32,837.49,837.75,837.08,836.24,835.46,835.76,836.85,838.54,840.65,841.87,842.39,842.43,841.99,840.94,839.75,839.20,839.59,840.40,840.79,840.10,838.41,836.09,834.04,832.55,831.80,832.00,832.96,833.84,834.15,833.90,833.50,833.12,832.62,832.15,831.75,830.65,828.72,825.97,822.77,820.65,819.90,820.09,820.82,821.69,822.29,822.80,823.05,822.82,822.24,821.66,821.03,820.37,819.85,819.44,818.84,818.12,817.23,815.29,812.55,809.84,807.49,805.23,804.49,804.16,803.83,803.48,803.31,803.45,803.69,803.96,804.38,805.00,806.03,807.45,808.88,810.06,810.93,811.44,811.49,811.39,811.08,810.72,810.46,810.53,811.01,811.69,812.43,813.15,813.90,814.63,814.89,814.19,812.78,811.19,809.45,808.31,809.65,810.81,811.25,811.00,810.07,808.80,807.63,806.61,805.66,804.59,803.53,802.74,802.24,801.94,801.65,801.13,800.69,800.62,800.54,800.38,800.20,800.00,799.72,799.15,798.34,797.50,797.07,797.83,799.09,800.42,801.51,801.91,801.70,801.49,801.37,801.07,800.12,799.38,798.84,798.21,797.16,795.94,794.92,794.25,793.75,793.49,793.67,794.09,794.38,794.71,795.07,795.46,795.88,796.16,795.39,794.40,793.53,792.93,792.86,792.96,793.03,792.97,792.99,793.03,793.13,793.30,793.52,793.92,794.30,794.68,795.16,795.61,796.44,797.56,798.80,799.88,799.89,798.55,795.91,792.44,790.30,789.45,789.09,788.56,787.98,787.58,787.69,788.32,789.01,789.80,791.14,793.04,795.37,797.76,800.08,802.34,804.15,804.08,804.26,804.52,805.10,806.90
837.24,840.22,841.92,843.30,844.75,846.09,847.40,848.67,849.90,851.17,853.48,855.43,856.67,857.25,857.67,858.35,859.14,860.03,861.32,862.47,863.72,865.04,865.72,863.31,860.42,857.83,855.68,853.83,852.95,853.51,855.63,858.47,859.86,860.04,858.74,855.26,851.31,848.41,845.97,843.41,840.73,839.43,838.38,837.42,837.30,837.04,836.48,835.62,834.49,833.40,832.27,831.13,830.17,829.93,829.80,829.87,830.63,832.71,834.36,834.54,834.06,833.52,833.04,834.14,835.87,837.65,838.99,839.32,839.34,839.20,838.71,837.68,836.62,836.28,836.94,838.05,839.00,838.35,836.27,833.66,831.38,829.99,829.56,830.19,831.71,832.76,833.26,833.33,833.26,833.15,832.64,831.79,830.57,828.64,825.25,822.02,819.94,819.08,818.87,819.11,819.59,820.06,820.56,821.09,821.33,821.03,820.54,819.89,818.98,817.92,817.16,816.50,815.59,814.52,813.45,812.12,809.76,807.20,805.21,804.61,804.32,804.03,803.71,803.42,803.53,803.80,804.08,804.34,804.75,805.53,806.69,808.15,809.62,810.67,811.56,812.25,812.58,812.60,812.32,812.00,811.80,811.75,812.14,812.76,813.49,814.25,814.96,815.71,815.84,814.77,813.17,811.55,810.16,809.47,810.39,811.45,812.22,812.43,811.85,811.17,810.53,809.92,809.24,808.35,807.50,806.65,805.86,805.26,804.45,803.14,801.98,801.62,801.50,801.31,801.10,800.85,800.53,800.01,799.16,798.09,797.10,797.17,798.10,799.13,799.79,799.98,799.66,799.33,799.13,798.96,798.37,797.54,796.72,796.05,795.24,794.81,794.49,794.11,793.71,793.73,794.05,794.50,794.94,795.49,796.05,796.66,797.25,797.46,796.43,795.15,794.13,793.70,793.74,794.04,794.34,794.45,794.57,794.73,794.93,795.19,795.52,796.17,796.61,796.93,797.51,798.12,799.05,799.90,800.26,800.01,798.55,795.13,791.09,790.07,789.38,788.99,788.66,788.20,787.73,787.82,788.20,788.73,789.44,790.55,792.13,794.00,795.92,798.02,800.25,802.55,804.65,805.66,806.63,807.53,808.42,809.44
837.52,840.41,842.14,843.57,845.02,846.40,847.72,849.00,850.20,851.36,852.93,854.39,855.61,856.63,857.60,858.63,859.79,861.13,862.63,863.06,863.17,863.35,863.53,861.99,859.59,856.96,854.47,852.04,850.74,851.27,853.69,856.48,857.75,857.96,857.41,855.94,852.89,850.53,848.46,846.03,843.14,840.75,838.89,837.50,836.52,835.67,834.83,833.96,833.04,832.07,831.10,830.31,829.80,829.63,829.54,829.52,829.80,830.72,831.44,831.51,831.30,831.19,831.47,832.92,834.76,836.33,836.82,836.75,836.65,836.51,836.00,834.81,833.70,833.23,833.65,834.62,835.87,835.69,833.96,831.30,829.31,828.01,827.83,829.11,830.84,831.81,832.23,832.30,832.24,832.09,831.54,830.37,828.20,825.27,822.30,820.10,818.97,818.34,818.18,818.39,818.69,818.70,818.98,819.46,819.42,818.48,817.78,816.62,815.24,813.88,812.88,812.30,811.77,811.24,810.60,809.22,807.26,805.59,804.69,804.41,804.18,803.90,803.65,803.60,803.83,804.13,804.41,804.69,805.25,806.14,807.28,808.61,809.92,810.97,811.90,812.73,813.36,813.73,813.61,813.37,813.20,813.09,813.29,813.83,814.58,815.35,816.10,816.83,816.89,815.70,814.10,812.59,811.17,810.29,811.06,812.06,812.93,813.49,813.49,813.00,812.52,812.09,811.63,811.01,810.45,809.82,809.04,807.88,806.52,804.93,803.49,802.63,802.43,802.26,802.05,801.80,801.42,800.84,800.02,798.99,797.76,796.87,797.21,797.99,798.58,798.71,798.40,798.01,797.67,797.40,796.80,796.08,795.44,795.04,794.64,794.43,794.20,793.91,793.72,793.93,794.30,794.84,795.73,796.62,797.24,797.85,798.58,799.13,798.35,796.65,794.91,794.57,794.64,795.16,795.81,796.29,796.81,797.20,797.83,798.66,799.09,799.41,799.59,799.61,799.52,799.80,800.33,800.63,800.07,797.82,794.56,791.69,789.88,789.47,789.06,788.70,788.34,788.00,788.00,788.27,788.68,789.23,789.98,791.65,793.67,795.64,797.30,798.97,800.81,802.86,804.89,806.02,807.05,807.82,808.32,808.79
837.30,840.22,842.04,843.53,845.05,846.50,847.88,849.24,850.56,851.70,852.91,854.21,855.56,856.91,858.25,859.59,861.05,862.52,863.31,862.83,861.93,861.20,861.18,860.55,858.54,855.83,853.07,850.37,848.63,849.05,851.64,854.14,855.05,855.21,855.19,855.12,853.40,851.86,850.28,848.12,845.24,842.27,839.89,838.14,836.70,835.58,834.60,833.67,832.77,831.76,830.79,830.08,829.74,829.58,829.43,829.32,829.30,829.46,829.60,829.59,829.58,829.79,830.43,831.97,833.60,834.70,834.54,834.17,834.01,833.89,833.40,832.25,831.22,830.66,830.77,831.53,832.96,833.21,831.90,829.32,827.49,826.15,826.07,827.78,829.63,830.63,831.05,831.11,830.92,830.52,829.69,828.15,825.51,822.38,820.25,818.99,818.35,817.75,817.51,817.57,817.63,817.35,817.45,817.72,817.33,815.84,814.65,813.30,811.98,810.82,809.90,809.43,809.17,808.97,808.57,807.19,805.70,804.76,804.51,804.28,804.05,803.82,803.68,803.80,804.08,804.39,804.77,805.34,806.22,807.05,807.90,808.88,810.13,811.17,812.12,813.02,813.87,814.55,814.77,814.74,814.59,814.47,814.49,814.93,815.69,816.51,817.28,817.95,817.92,816.72,815.16,813.61,812.07,810.99,811.64,812.58,813.51,814.32,814.83,814.73,814.41,814.07,813.74,813.30,812.87,812.25,811.21,809.41,807.75,806.10,804.62,803.62,803.37,803.22,803.02,802.72,802.23,801.54,800.72,799.74,798.47,797.05,796.71,797.02,797.51,797.56,797.28,796.88,796.47,796.13,795.65,795.16,794.77,794.59,794.44,794.28,794.08,793.86,793.84,794.12,794.48,795.19,796.66,797.84,798.78,800.05,801.69,802.28,801.27,799.25,797.26,797.01,796.99,797.29,797.79,798.45,799.53,800.29,800.91,801.39,801.49,801.48,801.48,801.34,800.89,800.82,800.89,800.55,798.95,794.96,791.43,789.68,789.43,789.19,788.85,788.51,788.20,788.00,788.29,788.68,789.15,789.82,790.92,793.03,795.38,797.47,798.82,800.14,801.62,803.27,804.87,805.64,806.38,806.88,807.12,807.44
836.79,839.68,841.60,843.14,844.79,846.35,847.84,849.39,850.95,852.21,853.56,855.05,856.60,858.05,859.46,860.96,862.48,863.50,862.55,861.07,859.47,858.34,858.67,858.77,857.01,854.17,851.32,848.76,846.63,846.78,849.39,851.44,851.85,851.96,852.22,852.56,852.40,851.85,850.79,849.01,846.39,843.75,841.31,839.28,837.97,837.06,836.12,835.08,833.95,832.76,831.57,830.59,829.97,829.73,829.45,829.17,828.96,828.98,829.04,829.01,829.11,829.47,829.92,831.24,832.36,832.76,832.30,831.68,831.44,831.34,830.93,830.04,829.29,828.76,828.61,829.20,830.65,831.15,830.19,827.79,825.86,824.34,824.14,825.88,827.79,828.97,829.55,829.64,829.25,828.43,827.06,825.15,822.74,820.47,819.24,818.45,817.78,817.18,816.81,816.57,816.33,815.98,815.94,815.82,815.05,813.32,811.49,810.44,809.84,809.41,808.88,808.52,808.21,807.89,807.39,806.19,805.26,804.68,804.39,804.16,803.93,803.82,803.84,804.00,804.28,804.60,805.22,806.37,807.71,808.33,808.62,809.05,810.31,811.31,812.24,813.16,814.08,814.97,815.71,816.06,815.96,815.87,815.76,816.07,816.81,817.70,818.50,819.03,818.91,817.74,816.22,814.48,812.77,811.62,812.13,813.00,813.96,814.93,815.82,816.38,816.35,816.07,815.76,815.37,814.87,813.88,812.19,809.72,808.07,806.55,805.26,804.56,804.34,804.18,803.95,803.55,802.88,802.08,801.20,800.23,799.09,797.74,796.71,796.31,796.54,796.50,796.25,795.91,795.55,795.26,795.09,794.90,794.72,794.60,794.45,794.29,794.13,794.01,794.08,794.29,794.63,795.58,797.76,799.18,800.77,803.44,806.74,806.93,805.14,803.04,801.54,801.39,801.14,800.74,800.51,800.95,802.41,803.48,803.50,802.56,801.93,801.77,801.75,801.69,801.42,801.12,800.75,799.64,796.90,791.95,790.06,789.47,789.19,788.96,788.67,788.44,788.28,788.23,788.50,789.01,789.61,790.49,792.27,794.59,797.11,799.26,800.26,801.33,802.51,803.63,804.41,804.54,804.75,805.00,805.32,805.90
837.41,839.50,841.28,842.89,844.51,846.23,847.96,849.69,851.33,852.76,854.19,855.76,857.41,859.01,860.63,862.00,862.72,862.42,861.03,859.17,857.20,855.77,856.10,856.66,855.29,852.66,849.81,847.18,844.69,844.18,845.98,847.79,848.46,848.86,849.29,849.71,849.88,849.81,849.18,847.83,846.34,844.92,843.03,840.91,839.62,838.64,837.62,836.51,835.34,834.15,832.96,831.86,830.91,830.17,829.67,829.25,828.90,828.68,828.52,828.54,828.75,829.14,829.54,830.25,830.78,830.90,830.50,829.96,829.72,829.62,829.32,828.59,827.93,827.37,827.12,827.73,828.97,829.33,828.44,826.33,824.25,822.54,822.00,823.14,824.69,825.72,826.25,826.31,825.88,824.98,823.59,822.05,820.74,819.52,818.68,818.01,817.36,816.70,816.13,815.59,815.06,814.62,814.44,813.87,812.84,811.42,810.19,809.51,809.07,808.66,808.12,807.69,807.29,806.86,806.29,805.51,804.99,804.63,804.37,804.14,803.98,803.97,804.07,804.24,804.49,804.99,806.01,807.68,809.15,809.70,809.76,809.81,810.55,811.45,812.35,813.24,814.18,815.19,816.16,816.91,817.28,817.19,817.08,817.28,817.85,818.68,819.50,820.00,819.83,818.65,817.02,815.25,813.51,812.32,812.80,813.51,814.40,815.41,816.40,817.31,817.83,817.97,817.78,817.48,816.91,815.25,812.59,809.83,808.28,806.89,805.81,805.44,805.26,805.10,804.73,804.07,803.28,802.45,801.58,800.66,799.64,798.46,797.37,796.64,796.39,796.22,796.12,795.99,795.82,795.61,795.47,795.27,795.01,794.72,794.56,794.37,794.21,794.15,794.32,794.50,794.96,796.26,799.09,801.22,803.44,806.15,808.89,809.07,807.99,806.85,806.13,806.03,805.50,805.12,804.65,803.69,802.51,801.97,801.49,800.91,800.70,800.78,800.98,801.11,800.99,800.72,799.74,797.36,793.51,790.60,789.66,789.35,789.10,788.92,788.74,788.61,788.51,788.48,788.66,789.14,789.88,791.04,793.07,795.39,797.86,799.95,800.81,801.56,802.16,802.55,802.65,802.63,802.86,803.18,803.63,804.34
839.52,840.91,842.12,843.19,844.34,846.13,848.11,849.99,851.66,853.24,854.78,856.39,858.09,859.85,861.63,862.43,862.09,860.66,859.08,857.03,854.88,853.27,853.39,854.36,853.59,851.34,848.33,845.38,842.75,841.74,842.65,844.04,845.09,845.71,846.10,846.48,846.68,846.93,846.65,845.60,844.86,844.39,843.24,841.57,840.51,839.26,838.13,837.01,835.72,834.51,833.40,832.33,831.30,830.34,829.75,829.28,828.85,828.47,828.12,828.13,828.38,828.75,829.11,829.33,829.41,829.33,829.01,828.59,828.36,828.24,827.98,827.35,826.72,826.13,825.78,826.27,827.17,827.26,826.35,824.57,822.55,821.04,820.42,820.93,821.88,822.56,822.92,822.95,822.62,821.90,820.82,819.84,819.41,818.88,818.24,817.58,816.94,816.24,815.56,814.84,814.14,813.60,813.25,812.44,811.36,810.34,809.68,809.22,808.77,808.30,807.84,807.42,806.96,806.43,805.80,805.19,804.84,804.61,804.39,804.17,804.07,804.14,804.31,804.47,804.73,805.53,806.95,808.87,810.29,810.93,811.01,810.82,811.04,811.65,812.43,813.32,814.30,815.36,816.46,817.50,818.30,818.42,818.41,818.52,818.88,819.62,820.43,820.82,820.54,819.34,817.63,815.86,814.16,813.01,813.50,814.09,814.89,815.84,816.86,817.93,818.88,819.52,819.70,819.47,818.64,816.31,812.88,809.94,808.48,807.31,806.50,806.37,806.23,805.98,805.39,804.46,803.56,802.68,801.83,800.97,800.11,799.17,798.20,797.35,796.75,796.50,796.50,796.54,796.52,796.36,796.16,795.81,795.36,794.88,794.67,794.48,794.34,794.34,794.54,794.74,795.62,797.43,800.29,802.71,805.15,807.60,809.62,810.04,809.77,809.46,809.18,808.56,807.37,806.62,805.82,804.12,801.53,800.05,799.37,799.27,799.51,799.80,800.14,800.38,800.33,799.88,798.28,795.17,791.14,789.99,789.57,789.31,789.11,789.01,788.95,788.89,788.81,788.73,788.79,789.19,789.90,791.07,793.00,795.25,797.64,799.67,800.57,801.03,801.21,801.11,800.78,800.69,800.99,801.47,802.06,802.80
843.78,844.90,844.95,844.50,844.44,846.09,848.25,850.25,851.95,853.66,855.34,856.98,858.67,860.54,862.29,861.92,860.43,858.57,856.68,854.53,852.41,850.77,850.52,851.91,852.00,850.27,846.81,843.25,840.85,839.80,840.03,840.63,841.88,842.45,842.49,842.74,842.96,843.44,843.39,842.37,841.36,840.97,840.62,840.18,839.75,838.00,836.82,835.81,834.22,832.91,831.93,831.12,830.43,829.93,829.51,829.11,828.71,828.32,827.88,827.76,827.90,828.22,828.52,828.62,828.51,828.24,827.92,827.54,827.30,827.10,826.77,826.17,825.56,824.94,824.45,824.46,824.90,824.69,823.72,822.28,820.76,820.06,819.91,820.00,820.17,820.30,820.37,820.37,820.29,820.06,819.65,819.24,818.94,818.43,817.83,817.17,816.49,815.81,815.17,814.51,813.84,813.23,812.66,811.96,811.20,810.45,809.82,809.28,808.79,808.41,808.31,808.08,807.66,807.09,806.37,805.40,804.89,804.63,804.45,804.24,804.18,804.30,804.50,804.68,805.03,806.25,807.98,809.74,810.94,811.90,812.25,812.05,811.97,812.00,812.53,813.42,814.47,815.55,816.68,817.79,818.79,819.50,819.71,819.77,819.97,820.61,821.32,821.44,820.91,819.66,817.95,816.23,814.65,813.66,814.20,814.76,815.42,816.24,817.25,818.31,819.38,820.50,821.42,821.21,819.76,816.88,813.19,810.17,808.70,807.91,807.50,807.41,807.31,806.81,805.91,804.76,803.71,802.77,801.89,801.10,800.45,799.83,799.05,798.28,797.73,797.48,797.43,797.47,797.49,797.31,797.00,796.42,795.71,795.05,794.75,794.62,794.56,794.59,794.80,795.10,796.82,799.30,801.15,802.97,804.96,807.08,809.03,809.97,810.04,809.88,809.27,807.18,804.75,802.74,801.32,800.51,799.82,799.31,798.94,798.77,799.04,799.35,799.62,799.80,799.64,798.54,796.45,793.79,791.14,790.03,789.61,789.38,789.21,789.25,789.30,789.28,789.18,789.03,788.86,789.15,789.60,790.23,791.63,793.76,796.08,798.11,799.24,799.58,799.70,799.61,799.26,799.00,799.29,799.91,800.68,801.35
847.75,848.32,848.03,847.16,846.29,846.82,848.52,850.40,852.32,854.98,856.88,858.32,859.69,861.20,861.96,860.90,858.89,856.55,854.26,852.10,850.17,848.75,848.59,850.10,850.48,849.07,845.74,842.12,840.03,838.98,838.71,839.12,839.86,840.13,840.08,840.20,840.42,840.61,840.27,839.15,837.90,837.21,836.60,835.92,835.24,833.92,833.14,832.62,831.81,831.14,830.64,830.22,829.84,829.57,829.24,828.87,828.47,828.05,827.62,827.35,827.34,827.62,827.78,827.77,827.58,827.23,826.88,826.50,826.23,825.98,825.59,825.00,824.38,823.73,823.08,822.64,822.53,822.14,821.45,820.75,820.03,819.74,819.68,819.64,819.64,819.64,819.64,819.62,819.53,819.39,819.14,818.83,818.50,818.06,817.45,816.79,816.19,815.77,815.35,814.86,814.24,813.51,812.91,812.29,811.60,810.88,810.22,809.68,809.22,808.91,808.97,808.92,808.69,808.27,807.57,806.40,805.36,804.72,804.53,804.35,804.31,804.41,804.60,804.86,805.57,806.99,808.71,810.31,811.52,812.65,813.28,813.33,813.19,813.10,813.25,813.72,814.55,815.60,816.70,817.82,818.93,819.97,820.64,820.99,821.26,821.84,822.49,822.21,821.26,819.92,818.30,816.67,815.22,814.35,814.87,815.41,816.00,816.71,817.68,818.67,819.88,821.35,822.60,821.94,820.07,817.13,813.67,810.88,809.45,808.83,808.57,808.47,808.24,807.40,806.28,805.07,803.91,802.91,802.06,801.36,800.83,800.36,799.86,799.30,798.75,798.46,798.36,798.38,798.41,798.25,798.00,797.54,796.87,796.00,795.04,794.78,794.76,794.97,795.95,797.10,798.84,800.80,802.29,803.75,805.22,806.82,808.46,809.40,809.35,808.50,806.79,804.00,801.56,800.10,799.42,799.26,799.07,798.83,798.52,798.30,798.54,798.84,799.11,799.19,798.81,797.82,796.15,793.94,791.57,790.32,789.85,789.57,789.38,789.46,789.57,789.62,789.56,789.36,789.17,789.22,789.41,789.78,790.56,792.31,794.30,796.08,797.19,797.57,797.78,797.90,797.83,797.56,797.82,798.46,799.36,800.39
850.81,850.93,850.53,849.61,848.35,847.79,848.93,850.79,853.19,856.68,858.61,859.76,860.70,861.56,861.11,859.50,857.21,854.54,851.95,849.78,848.01,846.82,846.82,848.35,848.82,847.69,844.90,841.54,839.70,838.58,837.92,838.07,838.24,838.28,838.24,838.27,838.39,838.10,837.32,836.01,834.53,833.62,832.77,831.82,830.94,830.26,829.94,829.85,829.83,829.76,829.67,829.54,829.40,829.23,828.96,828.61,828.20,827.75,827.36,826.98,826.83,827.00,826.97,826.88,826.63,826.25,825.85,825.45,825.16,824.87,824.43,823.82,823.18,822.48,821.73,821.08,820.63,820.20,819.85,819.78,819.69,819.61,819.53,819.47,819.45,819.45,819.44,819.39,819.24,819.07,818.83,818.50,818.10,817.73,817.19,816.64,816.23,816.06,815.84,815.47,814.89,814.07,813.45,812.84,812.16,811.43,810.82,810.42,810.05,809.75,809.87,810.08,810.08,809.80,809.11,807.66,805.97,804.87,804.61,804.46,804.42,804.50,804.67,805.02,806.29,807.86,809.43,810.87,812.11,813.34,814.23,814.61,814.50,814.41,814.28,814.30,814.75,815.61,816.65,817.77,818.92,820.11,821.16,821.88,822.41,823.07,823.54,822.90,821.63,820.20,818.67,817.14,815.81,815.05,815.53,816.08,816.62,817.26,818.15,819.04,820.48,822.29,823.65,822.33,820.06,817.30,814.42,812.12,810.85,810.26,809.92,809.51,808.92,807.79,806.52,805.28,804.07,803.13,802.49,802.04,801.67,801.34,801.12,800.73,800.09,799.77,799.65,799.60,799.53,799.30,799.10,798.78,798.25,797.36,795.94,795.56,795.59,796.01,797.60,799.38,800.89,802.20,803.53,804.80,805.88,807.03,808.23,808.67,807.98,806.24,803.66,800.69,798.62,798.02,798.21,798.46,798.43,798.31,798.08,797.85,798.05,798.33,798.54,798.49,797.88,797.15,796.03,794.31,792.11,790.70,790.15,789.83,789.59,789.66,789.89,790.09,790.10,789.81,789.55,789.38,789.38,789.57,789.83,791.08,792.63,794.06,794.99,795.39,795.72,796.07,796.34,796.24,796.46,797.01,797.95,799.35
851.77,851.86,851.34,850.50,849.61,848.84,849.61,851.85,855.27,858.73,860.11,860.90,861.40,861.13,859.66,857.50,855.04,852.47,849.92,847.69,845.93,844.80,844.75,846.28,846.71,845.96,844.30,841.69,839.79,838.47,837.54,836.83,836.81,836.91,836.96,836.99,836.81,836.00,834.72,833.09,831.41,830.77,830.47,830.21,829.97,829.82,829.71,829.65,829.64,829.57,829.40,829.25,829.13,828.91,828.67,828.35,827.94,827.49,827.15,826.79,826.50,826.35,826.16,825.96,825.66,825.26,824.82,824.42,824.09,823.74,823.26,822.61,821.88,821.12,820.45,820.17,820.00,819.85,819.73,819.70,819.58,819.48,819.40,819.33,819.26,819.25,819.22,819.13,818.98,818.77,818.53,818.22,817.79,817.46,817.19,817.06,817.05,816.89,816.68,816.28,815.67,814.84,814.09,813.39,812.69,812.06,811.79,811.82,811.62,811.23,811.30,811.94,812.16,811.86,811.04,809.00,806.67,805.11,804.69,804.58,804.51,804.56,804.73,805.13,807.30,809.05,810.38,811.60,812.77,813.99,815.13,815.91,815.85,815.77,815.65,815.49,815.39,815.64,816.55,817.68,818.76,819.82,820.88,821.95,823.05,824.09,824.09,823.33,822.12,820.60,819.12,817.64,816.40,815.76,816.25,816.79,817.34,817.93,818.67,819.47,821.33,823.54,824.75,822.53,819.86,817.53,815.69,814.33,813.51,812.82,811.88,810.46,809.05,807.76,806.52,805.28,804.10,803.52,803.54,803.75,803.67,803.60,803.60,803.18,802.26,801.97,801.85,801.62,801.21,800.69,800.31,799.94,799.59,799.19,798.22,797.92,798.09,798.68,799.80,801.12,802.42,803.65,804.86,806.14,807.24,808.25,808.88,807.86,805.54,803.08,800.75,798.37,796.77,796.46,796.78,797.08,797.32,797.54,797.57,797.45,797.60,797.83,797.85,797.54,796.80,796.10,795.27,794.13,792.60,791.12,790.50,790.12,789.84,789.90,790.40,790.96,791.13,790.57,789.97,789.70,789.63,789.67,789.75,790.41,791.43,792.42,792.86,793.18,793.58,794.07,794.60,795.01,795.20,795.53,796.27,797.71
852.17,852.73,852.51,851.97,851.60,851.20,852.37,854.84,857.91,859.86,860.76,861.19,861.21,860.45,858.28,855.67,853.02,850.43,847.82,845.47,843.62,842.54,842.82,844.39,844.77,844.09,842.84,840.97,839.50,838.38,837.44,836.51,836.00,835.75,835.61,835.39,834.72,833.63,832.39,831.18,830.22,829.88,829.76,829.69,829.61,829.57,829.51,829.44,829.40,829.33,829.16,829.02,828.92,828.73,828.57,828.30,827.96,827.65,827.37,827.05,826.70,826.35,825.98,825.66,825.29,824.87,824.47,823.86,823.22,822.64,822.15,821.55,820.90,820.35,820.00,819.87,819.78,819.71,819.64,819.60,819.52,819.45,819.38,819.34,819.27,819.19,819.09,818.97,818.77,818.58,818.38,818.16,817.90,817.72,817.57,817.58,817.76,817.76,817.57,817.13,816.45,815.61,814.83,814.06,813.55,813.51,813.56,813.75,813.64,813.25,813.18,814.01,814.42,813.99,812.47,810.03,807.42,805.53,804.78,804.66,804.58,804.63,804.79,805.30,808.35,810.27,811.35,812.42,813.61,814.80,815.96,816.89,817.15,817.13,817.01,816.80,816.51,816.32,816.71,817.50,818.52,819.47,820.51,821.76,823.15,824.45,824.74,823.89,822.50,820.99,819.48,818.03,816.97,816.57,817.14,817.73,818.28,818.82,819.44,820.73,822.87,824.94,825.74,823.45,821.01,819.02,817.36,815.63,813.99,812.47,811.07,809.76,808.40,807.19,806.10,805.20,804.75,804.62,804.87,805.29,805.59,805.92,806.12,805.99,805.55,805.50,805.32,804.66,803.69,803.03,802.59,802.21,801.79,801.24,800.39,800.14,800.32,800.82,801.58,802.69,803.91,805.13,806.30,807.56,808.57,809.30,809.34,807.49,804.23,801.22,798.89,797.05,795.88,795.76,796.11,796.38,796.65,796.92,797.03,797.00,797.11,797.32,797.25,796.80,796.00,795.26,794.47,793.55,792.47,791.46,791.04,790.78,790.55,790.50,791.07,791.74,792.15,792.00,791.40,790.85,790.44,790.21,790.08,790.34,790.84,791.39,791.82,792.27,792.75,793.29,793.86,794.35,794.47,794.69,795.23,796.15
852.28,853.44,853.73,853.67,853.87,854.05,855.63,857.96,860.12,860.48,860.97,861.13,860.83,859.88,857.26,854.21,851.25,848.47,845.74,843.30,841.47,840.53,841.11,842.59,842.86,842.17,841.15,839.95,839.01,838.15,837.29,836.37,835.42,834.76,834.34,833.84,832.79,831.62,830.62,829.98,829.82,829.73,829.65,829.58,829.51,829.43,829.36,829.29,829.22,829.14,829.03,828.94,828.85,828.71,828.61,828.41,828.17,828.01,827.79,827.50,827.12,826.64,826.12,825.70,825.32,824.98,824.64,823.83,822.84,821.92,821.25,820.68,820.19,819.91,819.88,819.80,819.72,819.65,819.60,819.54,819.53,819.49,819.44,819.43,819.36,819.21,819.05,818.88,818.67,818.52,818.37,818.25,818.19,818.17,818.08,818.14,818.44,818.59,818.45,817.97,817.23,816.36,815.53,814.84,814.67,815.24,815.61,815.88,815.84,815.48,815.24,816.10,816.70,816.16,813.76,810.79,808.04,805.97,804.88,804.73,804.66,804.71,804.90,805.64,809.31,811.35,812.29,813.32,814.50,815.65,816.77,817.76,818.37,818.49,818.37,818.13,817.76,817.25,817.11,817.50,818.39,819.21,820.23,821.56,823.11,824.57,825.42,824.65,823.10,821.54,819.90,818.44,817.52,817.39,818.09,818.79,819.45,820.02,820.64,822.54,824.84,826.57,826.80,824.72,822.50,820.53,818.61,816.11,813.43,811.14,809.50,808.60,807.57,806.64,805.87,805.45,805.76,805.99,806.30,806.76,807.36,808.02,808.40,808.63,808.81,808.98,808.72,807.74,806.41,805.69,805.22,804.78,804.18,803.30,802.49,802.33,802.50,802.83,803.27,804.23,805.40,806.61,807.77,808.90,809.73,810.12,809.57,806.91,803.16,799.96,797.74,796.30,795.47,795.47,795.83,796.07,796.25,796.44,796.53,796.53,796.61,796.78,796.66,796.16,795.37,794.60,793.81,793.00,792.26,791.86,791.80,791.74,791.57,791.43,791.85,792.48,793.12,793.52,793.24,792.38,791.55,791.00,790.67,790.64,790.70,790.88,791.37,791.91,792.42,792.93,793.46,793.91,793.98,794.15,794.53,794.90
852.04,853.67,854.71,855.43,856.22,856.96,858.07,859.24,860.16,860.46,860.73,860.95,860.89,859.98,857.34,853.78,850.09,846.73,843.77,841.45,840.07,839.67,840.06,840.82,840.82,840.32,839.75,839.05,838.28,837.46,836.61,835.74,834.86,834.09,833.45,832.90,832.02,831.12,830.38,829.92,829.75,829.66,829.59,829.52,829.50,829.43,829.39,829.35,829.27,829.20,829.19,829.20,829.17,829.07,828.94,828.81,828.69,828.58,828.37,828.05,827.62,827.10,826.62,826.16,825.98,826.00,825.81,824.96,823.86,822.52,821.01,820.29,820.00,819.88,819.81,819.73,819.65,819.64,819.67,819.66,819.66,819.64,819.63,819.62,819.55,819.36,819.18,819.02,818.85,818.75,818.65,818.58,818.56,818.56,818.54,818.71,819.09,819.30,819.25,818.79,817.98,817.00,816.00,815.86,816.31,817.02,817.58,817.97,818.05,817.75,817.28,817.99,818.82,818.40,815.22,811.04,808.15,806.16,804.95,804.79,804.76,804.80,805.17,806.60,809.87,811.89,813.10,814.30,815.38,816.46,817.55,818.57,819.35,819.82,819.74,819.32,818.82,818.23,818.06,818.26,818.74,819.31,820.28,821.64,823.23,824.75,826.12,825.90,824.57,822.70,820.59,818.98,818.09,818.08,818.99,820.01,821.06,822.05,823.04,825.18,827.47,828.74,828.25,826.26,823.43,820.62,817.91,814.93,811.98,810.03,808.81,807.91,807.06,806.81,806.80,806.94,807.30,807.45,807.73,808.16,808.73,809.36,809.84,810.24,810.58,810.70,810.37,809.74,808.97,808.32,807.74,807.06,806.20,805.17,804.46,804.52,804.83,805.08,805.18,805.85,806.86,808.05,809.20,809.91,810.31,810.34,809.25,805.13,801.51,799.16,797.73,796.29,795.45,795.52,795.97,796.27,796.24,796.22,796.16,796.08,796.15,796.20,796.04,795.63,795.01,794.31,793.67,793.06,792.57,792.60,793.02,793.23,793.13,793.02,792.88,793.23,793.87,794.53,795.17,794.24,793.00,792.14,791.64,791.42,791.33,791.37,791.61,791.86,792.15,792.54,793.06,793.47,793.64,793.88,794.25,794.57
851.98,853.78,855.11,856.12,857.09,858.05,858.97,859.66,859.99,859.83,859.97,860.42,860.76,860.16,857.62,853.98,850.04,846.19,842.63,840.48,839.40,839.09,839.28,839.54,839.43,839.09,838.70,838.15,837.50,836.73,835.86,835.01,834.21,833.47,832.82,832.25,831.55,830.82,830.21,829.87,829.73,829.66,829.62,829.58,829.58,829.54,829.53,829.50,829.42,829.35,829.41,829.46,829.46,829.41,829.30,829.23,829.19,829.15,828.95,828.57,828.10,827.60,827.14,826.85,826.87,827.07,826.99,826.28,825.02,823.31,821.38,820.23,819.93,819.87,819.79,819.71,819.69,819.71,819.75,819.75,819.77,819.79,819.79,819.77,819.70,819.53,819.36,819.24,819.13,819.04,818.96,818.93,818.99,819.03,819.04,819.21,819.68,820.37,820.43,819.71,818.52,817.53,816.85,817.14,817.91,818.73,819.57,820.18,820.50,820.37,819.71,820.41,820.68,819.26,815.15,810.70,807.96,806.22,805.16,804.96,804.93,805.20,805.95,807.54,810.07,811.88,813.23,814.55,815.73,816.93,818.11,819.25,820.35,821.28,821.34,820.74,819.92,819.16,819.00,819.15,819.44,819.80,820.70,822.02,823.57,825.08,826.62,827.09,826.24,824.06,821.73,819.82,818.75,818.77,819.98,821.32,822.72,824.06,825.32,827.42,829.48,830.33,829.23,826.61,823.25,820.03,817.04,813.99,811.14,809.50,808.54,807.75,807.47,807.74,808.13,808.48,808.81,808.91,809.12,809.46,809.88,810.36,810.81,811.26,811.63,811.66,811.27,810.81,810.36,809.90,809.45,808.87,807.96,806.75,806.41,806.99,807.49,807.51,807.24,807.47,808.24,809.25,810.07,810.53,810.56,809.49,806.71,802.64,800.02,798.51,797.50,796.25,795.45,795.52,795.94,796.14,796.03,795.91,795.78,795.65,795.66,795.61,795.79,795.92,795.37,794.53,793.86,793.29,792.89,793.28,793.92,794.71,795.29,794.94,794.24,794.21,794.89,796.11,797.31,796.00,794.28,793.21,792.60,792.26,792.09,792.02,792.09,792.23,792.42,792.68,793.05,793.38,793.70,793.97,794.22,794.62
852.06,853.86,855.21,856.21,857.06,857.90,858.66,859.22,859.30,858.54,858.73,859.51,860.29,860.13,857.69,854.27,850.44,846.34,842.17,840.14,839.20,838.78,838.70,838.60,838.42,838.19,837.84,837.26,836.70,835.99,835.12,834.28,833.59,832.97,832.40,831.84,831.25,830.60,830.08,829.83,829.73,829.71,829.71,829.73,829.77,829.79,829.75,829.68,829.61,829.54,829.63,829.77,829.87,829.88,829.78,829.73,829.78,829.88,829.59,829.10,828.58,828.11,827.65,827.62,827.83,828.11,828.17,827.66,826.23,824.23,822.14,820.44,819.95,819.87,819.80,819.73,819.77,819.80,819.85,820.03,820.30,820.48,820.55,820.48,820.16,819.80,819.57,819.50,819.44,819.36,819.29,819.28,819.44,819.69,819.77,819.97,820.58,821.85,821.80,820.59,818.96,818.04,817.89,818.55,819.52,820.48,821.59,822.47,823.09,823.23,822.53,823.04,822.17,819.17,814.09,810.07,807.74,806.32,805.49,805.18,805.17,805.79,806.95,808.38,810.11,811.62,813.00,814.38,815.75,817.13,818.44,819.76,821.25,822.71,823.00,822.33,821.21,820.27,820.08,820.20,820.39,820.58,821.35,822.58,824.04,825.51,827.03,828.13,827.89,825.67,823.23,820.93,819.50,819.45,821.07,822.76,824.43,825.99,827.43,829.37,831.08,831.50,829.83,826.32,822.52,819.15,816.20,813.34,810.74,809.34,808.58,808.05,808.46,809.17,809.75,810.08,810.28,810.30,810.43,810.66,810.90,811.18,811.54,811.95,812.32,812.25,811.83,811.41,811.11,810.86,810.61,810.24,809.42,808.13,808.25,809.34,809.98,809.74,809.18,809.02,809.50,810.23,810.63,810.88,810.48,808.02,803.24,800.12,798.77,797.93,797.10,796.13,795.43,795.50,795.83,795.87,795.71,795.57,795.50,795.49,795.49,795.44,796.11,796.87,796.32,795.04,794.19,793.60,793.25,793.87,794.74,796.29,797.82,797.19,796.13,795.81,796.51,798.22,799.64,797.92,795.74,794.40,793.55,793.13,792.89,792.76,792.72,792.82,792.97,793.13,793.32,793.54,793.95,794.20,794.32,794.81
852.32,854.02,855.34,856.19,856.56,856.61,856.70,856.79,856.62,855.76,856.50,857.75,858.89,859.10,856.57,853.56,850.31,846.61,842.65,840.52,839.48,838.94,838.45,837.98,837.57,837.24,836.93,836.40,835.86,835.24,834.51,833.75,833.26,832.86,832.40,831.79,831.05,830.41,830.00,829.87,829.79,829.77,829.80,829.92,830.23,830.32,830.10,829.82,829.75,829.72,829.83,830.24,830.84,830.95,830.69,830.60,830.84,831.23,830.44,829.67,829.10,828.62,828.13,828.29,828.67,829.08,829.36,828.95,827.46,825.37,823.17,821.09,820.18,819.89,819.86,819.79,819.83,819.88,820.15,821.24,822.56,823.55,824.00,823.58,822.02,820.49,819.73,819.72,819.75,819.69,819.61,819.61,819.91,820.98,821.42,821.91,822.94,824.22,823.11,821.14,819.37,818.73,818.86,819.87,821.23,822.55,823.72,824.84,825.78,826.34,826.08,825.25,822.65,818.14,812.34,809.51,807.99,806.92,806.05,805.46,805.64,806.53,807.78,808.88,810.13,811.44,812.80,814.19,815.58,816.97,818.36,819.88,821.78,823.72,824.43,824.09,823.18,822.26,821.83,821.67,821.66,821.77,822.23,823.25,824.66,826.08,827.51,828.72,829.13,827.99,825.28,822.40,820.43,820.16,822.29,824.52,826.30,827.74,829.15,831.03,832.47,832.33,829.90,826.08,821.96,818.53,815.78,813.19,810.73,809.44,808.99,809.06,809.79,810.98,811.80,811.94,811.63,811.47,811.52,811.70,811.86,811.91,812.19,812.61,812.95,812.80,812.42,812.06,811.77,811.53,811.30,810.86,810.16,809.41,809.74,810.59,811.01,810.75,810.37,810.23,810.41,810.80,811.14,810.89,809.75,806.32,800.85,799.05,798.13,797.35,796.55,795.71,795.31,795.50,795.81,795.77,795.43,795.35,795.69,796.35,796.73,797.08,797.91,798.72,798.17,795.69,794.46,793.98,793.72,794.28,795.95,798.41,800.56,800.14,799.61,799.48,799.96,801.19,802.24,800.77,798.45,796.27,794.62,793.99,793.69,793.48,793.47,793.45,793.55,793.70,793.86,793.98,794.17,794.30,794.43,794.88
852.67,853.98,854.74,855.07,855.10,854.86,854.55,854.23,853.78,853.04,853.79,855.07,856.37,857.11,855.76,853.32,850.41,847.26,843.98,841.72,840.31,839.43,838.66,837.99,837.39,836.87,836.45,835.92,835.36,834.89,834.52,834.16,833.98,833.74,833.37,832.78,831.90,830.99,830.27,829.92,829.85,829.84,830.20,830.94,831.73,832.03,831.76,831.28,830.89,830.35,830.40,831.03,831.96,832.36,832.20,832.18,832.46,832.78,831.62,830.48,829.66,829.16,828.78,829.00,829.60,830.32,830.77,829.99,828.20,826.00,823.85,821.69,820.51,820.00,819.90,819.85,819.92,820.43,821.50,823.29,825.33,826.88,827.55,826.83,824.47,821.94,820.78,821.00,821.22,820.91,820.55,820.54,821.36,823.05,824.00,824.86,825.87,826.17,824.33,822.10,820.40,819.97,820.46,821.79,823.39,824.79,825.77,826.98,828.02,828.63,828.45,826.37,822.56,817.24,811.20,809.21,808.21,807.33,806.49,805.80,806.05,806.95,808.10,809.04,810.07,811.30,812.68,814.16,815.53,816.85,818.25,819.88,821.97,824.33,825.77,826.09,825.35,824.45,823.85,823.44,823.16,823.09,823.30,824.05,825.26,826.60,827.95,829.26,830.13,829.81,827.21,824.25,822.04,821.52,823.91,826.35,828.22,829.68,831.10,832.79,833.70,832.82,829.72,825.77,821.65,818.35,815.88,813.61,811.38,810.25,810.14,810.87,811.95,813.16,813.87,813.82,813.22,812.80,812.66,812.71,812.80,812.76,812.94,813.28,813.59,813.37,813.04,812.71,812.42,812.20,811.85,811.45,811.05,810.77,811.07,811.62,811.84,811.59,811.29,811.15,811.21,811.38,811.43,810.86,808.80,804.77,799.67,798.47,797.64,796.83,796.05,795.41,795.33,795.53,795.69,795.59,795.57,796.05,796.93,798.01,798.73,799.30,800.13,800.67,799.59,796.60,794.97,794.36,794.31,795.00,797.01,799.72,802.18,802.82,803.06,803.22,803.53,804.19,805.12,804.23,801.95,798.89,796.49,795.36,794.70,794.29,794.21,794.13,794.17,794.26,794.33,794.40,794.41,794.45,794.61,795.05
852.98,853.66,853.55,853.16,852.99,852.84,852.41,851.82,851.14,850.62,850.96,851.89,853.13,854.38,854.96,853.32,850.77,848.24,845.80,843.43,841.50,840.10,839.16,838.42,837.70,836.99,836.34,835.78,835.23,834.95,835.04,835.27,835.43,835.33,835.03,834.57,833.58,832.30,831.08,830.25,830.04,830.02,830.91,832.59,834.03,834.61,834.43,833.81,832.88,831.50,831.35,832.02,833.10,833.90,834.11,834.25,834.47,834.45,833.10,831.60,830.49,829.98,829.80,829.99,830.78,831.88,832.16,830.68,828.51,826.27,824.26,822.24,820.92,820.22,820.03,820.09,820.25,821.50,823.63,825.85,828.20,830.00,830.72,829.74,827.06,823.91,822.58,823.19,823.65,822.96,822.09,822.02,823.58,825.62,827.10,828.26,828.88,827.72,825.59,823.56,822.13,821.87,822.72,824.29,825.91,827.10,827.73,828.85,829.75,830.10,829.67,826.62,822.12,816.59,810.73,809.17,808.36,807.58,806.82,806.16,806.38,807.11,808.05,808.98,809.97,811.22,812.73,814.43,815.85,817.05,818.32,819.91,822.12,824.82,827.04,828.14,827.53,826.68,825.98,825.35,824.80,824.49,824.51,824.96,825.84,827.08,828.40,829.83,831.01,831.14,828.87,826.19,824.00,823.32,825.79,828.19,830.16,831.77,833.24,834.67,834.92,833.29,829.62,825.63,821.70,818.65,816.45,814.51,812.65,811.78,812.02,813.34,814.74,815.59,815.91,815.69,815.01,814.25,813.84,813.72,813.73,813.73,813.79,813.99,814.24,813.98,813.67,813.36,813.08,812.87,812.39,812.14,812.10,812.20,812.31,812.56,812.59,812.32,812.02,811.83,811.86,811.89,811.51,810.82,807.80,803.49,799.40,798.21,797.29,796.40,795.64,795.24,795.45,795.59,795.52,795.47,796.15,797.48,798.92,800.18,801.17,801.81,802.51,802.55,800.51,797.60,795.67,794.82,795.02,795.88,797.81,800.24,802.77,804.92,806.10,806.67,806.90,807.06,807.99,807.80,805.72,802.02,799.04,797.18,795.99,795.26,794.99,794.83,794.79,794.78,794.78,794.87,794.85,794.87,795.04,795.52
852.69,852.71,852.24,851.61,851.07,850.67,850.50,850.15,849.54,849.00,849.03,849.56,850.38,851.36,852.44,852.28,851.24,849.55,847.23,844.84,842.60,840.68,839.44,838.65,837.94,837.23,836.55,835.95,835.64,835.64,835.91,836.36,836.65,836.76,836.71,836.40,835.31,834.35,833.33,832.07,831.00,830.85,832.10,834.36,836.26,837.16,837.18,836.53,835.29,833.65,832.73,832.89,834.02,835.06,835.80,836.19,836.34,836.20,834.85,833.44,832.46,832.12,832.09,832.21,833.06,833.90,832.51,830.46,828.51,826.69,824.81,822.82,821.42,820.74,820.80,821.28,821.75,823.27,825.63,827.99,830.10,831.88,832.47,831.11,828.60,825.65,824.80,826.01,826.55,825.70,824.37,823.96,825.75,827.83,829.43,830.44,830.58,829.32,827.39,825.88,825.08,825.04,825.84,827.29,828.63,829.28,829.61,830.23,830.61,830.53,829.81,826.43,821.89,816.63,811.23,809.44,808.58,807.86,807.13,806.44,806.61,807.25,808.09,808.98,809.96,811.41,813.34,815.63,817.53,818.58,819.34,820.53,823.27,826.12,828.34,829.55,829.32,828.71,827.93,827.11,826.35,825.84,825.83,826.03,826.52,827.72,829.06,830.73,832.13,832.24,829.82,827.15,825.17,824.80,827.43,829.96,832.06,833.81,835.32,836.72,836.76,834.82,830.85,826.75,822.79,819.72,817.52,815.86,814.74,814.41,814.93,816.35,817.62,818.02,817.94,817.51,816.75,815.70,814.99,814.70,814.70,814.70,814.71,814.83,814.95,814.63,814.31,814.03,813.76,813.46,813.29,813.24,813.31,813.46,813.54,813.49,813.25,812.86,812.46,812.22,812.03,811.79,811.36,810.69,807.26,802.86,799.33,798.17,797.20,796.27,795.51,795.25,795.52,795.53,795.52,796.05,797.48,799.12,800.74,802.25,803.49,804.25,804.72,804.04,800.84,798.17,796.47,795.75,795.92,796.33,797.97,800.07,802.45,805.29,807.72,808.98,809.38,809.43,809.87,809.82,808.24,805.04,801.93,799.37,797.74,796.79,796.06,795.45,795.26,795.31,795.47,795.80,796.19,796.48,796.72,797.15
851.93,851.60,850.91,850.02,849.11,848.80,848.79,848.60,848.13,847.65,847.42,847.65,848.23,848.98,849.92,850.50,850.44,849.43,847.28,844.83,842.50,840.59,839.50,838.78,838.13,837.46,836.82,836.28,836.22,836.42,836.77,837.27,837.67,838.00,838.23,838.25,837.53,836.88,835.92,834.32,832.62,832.14,833.44,836.01,838.19,839.31,839.43,838.78,837.42,835.72,834.23,833.87,834.86,836.09,837.24,837.92,838.18,838.01,836.76,835.57,834.86,834.76,834.85,834.91,835.22,835.00,832.29,830.02,828.31,826.78,825.02,823.15,822.04,821.70,822.11,822.86,823.54,825.02,827.20,829.55,831.54,833.38,833.98,832.40,829.66,827.35,827.17,828.71,829.28,828.24,826.63,825.97,827.64,829.71,831.41,832.28,832.05,830.88,829.37,828.38,828.02,828.13,828.64,829.67,830.62,830.97,831.03,830.98,830.72,830.22,829.27,826.07,822.05,817.46,812.52,809.98,808.87,808.15,807.41,806.70,806.83,807.41,808.20,809.05,810.12,811.96,814.36,816.98,819.11,820.20,820.72,821.51,824.17,827.23,829.36,830.46,830.61,830.18,829.44,828.58,827.74,827.18,827.20,827.28,827.49,828.38,829.78,831.67,833.27,833.44,830.77,828.19,826.46,826.23,828.54,831.47,833.93,835.83,837.34,838.64,838.80,836.93,832.73,827.94,824.04,821.11,818.99,817.60,817.12,817.25,817.95,819.18,820.16,820.25,819.74,818.87,817.90,816.68,815.93,815.66,815.66,815.66,815.63,815.63,815.61,815.28,814.98,814.72,814.49,814.27,814.28,814.35,814.37,814.24,813.91,813.46,813.04,812.67,812.35,812.17,811.89,811.50,811.09,810.50,806.72,802.25,799.25,798.12,797.14,796.19,795.43,795.27,795.54,795.46,795.61,796.87,798.89,800.73,802.48,804.17,805.63,806.59,807.01,805.87,801.71,798.79,797.27,796.72,796.84,796.96,798.14,799.92,802.27,805.54,808.67,810.36,810.99,811.14,811.29,811.06,809.80,807.25,803.98,800.83,798.92,797.92,796.98,796.09,795.88,796.09,796.50,796.97,797.71,798.63,799.52,799.91
850.74,850.35,849.53,848.34,847.13,847.29,847.27,847.05,846.72,846.44,846.02,846.08,846.57,847.24,847.63,848.04,848.19,847.61,845.77,843.29,841.18,839.83,839.32,838.84,838.27,837.66,837.10,836.76,836.89,837.19,837.54,838.00,838.50,839.06,839.64,840.14,840.24,839.68,838.48,836.66,834.68,833.75,834.82,837.40,839.63,840.87,841.07,840.44,839.10,837.44,835.74,835.01,835.66,837.04,838.42,839.44,840.00,839.83,838.76,837.88,837.49,837.64,837.76,837.78,837.00,835.01,831.60,829.50,827.95,826.47,824.85,823.22,822.76,823.09,823.88,824.68,825.45,826.64,828.36,830.59,832.69,834.71,835.53,834.07,830.80,829.32,829.73,831.20,831.74,830.43,828.79,828.06,829.29,831.36,833.14,833.95,833.51,832.42,831.44,830.86,830.69,830.80,830.87,831.28,831.76,832.02,831.81,831.00,830.05,829.13,828.08,825.55,822.55,818.97,814.43,810.73,809.19,808.42,807.67,806.95,807.04,807.60,808.37,809.21,810.42,812.79,815.67,818.34,820.33,821.64,822.29,822.78,824.63,827.85,829.94,830.90,831.36,831.08,830.49,829.76,828.98,828.51,828.59,828.70,828.74,829.08,830.57,832.61,834.41,834.82,831.96,829.59,828.06,827.67,829.23,832.80,835.80,837.87,839.35,840.38,840.75,839.21,834.88,829.00,825.34,822.84,820.99,819.89,819.82,820.25,820.94,821.74,822.29,822.13,821.18,819.67,818.41,817.21,816.68,816.63,816.62,816.61,816.51,816.38,816.22,815.92,815.66,815.43,815.28,815.30,815.31,815.30,815.10,814.43,813.31,812.41,811.90,811.75,811.65,811.70,811.50,811.12,810.70,810.07,805.94,801.48,799.07,797.95,797.01,796.08,795.36,795.25,795.49,795.36,795.79,797.84,800.21,802.20,804.05,805.87,807.54,808.74,809.29,808.05,803.38,799.61,798.03,797.66,797.74,797.84,798.48,799.96,802.44,805.91,809.06,810.88,811.76,812.19,812.33,811.67,810.46,808.47,804.90,801.36,799.35,798.48,797.62,796.71,796.62,797.08,797.76,798.28,799.30,801.20,803.34,803.75
849.25,848.61,847.74,846.69,845.75,845.84,845.71,845.43,845.14,844.91,844.74,844.58,844.53,844.75,845.02,845.33,845.29,844.55,843.14,841.46,840.19,839.48,839.08,838.67,838.18,837.71,837.38,837.32,837.58,837.93,838.30,838.72,839.20,840.23,841.48,842.19,842.63,841.63,839.86,837.83,835.79,834.71,835.53,837.78,839.75,841.19,842.00,841.78,840.13,838.52,836.93,836.19,836.70,838.03,839.54,840.95,841.85,841.50,840.72,840.10,839.79,839.78,839.75,839.55,838.14,835.13,830.98,828.95,827.51,826.09,824.63,823.32,823.54,824.44,825.52,826.56,827.39,828.39,829.81,831.88,834.13,836.22,837.58,837.40,835.13,833.26,832.99,833.89,833.92,832.51,831.11,830.59,831.64,833.49,834.91,835.49,835.08,834.16,833.40,832.93,832.71,832.62,832.44,832.60,832.60,832.04,831.29,829.93,828.34,826.86,825.90,824.79,822.84,819.86,815.67,811.08,809.28,808.55,807.82,807.14,807.20,807.72,808.45,809.29,810.61,813.21,816.40,819.36,821.14,822.52,823.44,824.00,824.95,827.53,829.57,830.83,831.64,831.97,831.55,830.88,830.21,829.76,829.85,829.98,830.01,830.16,831.55,833.52,835.48,836.46,834.25,831.93,830.14,829.43,830.87,834.64,837.90,840.18,841.63,841.97,841.22,839.11,835.24,830.07,826.98,825.32,824.45,823.84,823.74,823.88,824.11,824.27,824.05,823.08,821.62,820.00,818.83,817.95,817.59,817.52,817.43,817.34,817.17,817.00,816.86,816.56,816.28,816.13,816.10,816.12,816.09,815.58,814.73,813.69,812.41,811.30,810.76,810.81,810.93,811.20,811.14,810.78,810.17,808.12,803.85,800.09,798.50,797.44,796.50,795.69,795.17,795.21,795.40,795.26,796.11,799.04,800.98,802.92,804.92,806.90,808.78,809.94,810.36,809.45,805.90,800.83,798.81,798.50,798.54,798.63,799.07,800.45,802.85,805.98,809.00,810.94,812.18,813.05,812.88,811.95,810.53,808.33,804.57,801.19,799.38,798.64,797.83,796.96,797.05,797.67,798.38,799.08,801.08,804.17,807.22,807.80
847.43,846.66,845.83,845.03,844.43,844.36,844.12,843.89,843.75,843.66,843.64,843.37,842.94,842.61,842.59,842.69,842.52,841.84,840.96,840.10,839.53,839.21,838.85,838.47,838.11,837.84,837.76,837.89,838.21,838.58,838.96,839.37,840.25,841.86,843.63,844.48,844.63,843.03,840.75,838.55,836.52,835.55,836.10,837.78,839.51,841.24,842.86,843.19,841.15,839.37,837.89,837.24,837.68,838.90,840.60,842.40,843.52,842.88,842.14,841.56,841.18,840.99,840.70,840.14,838.36,835.02,830.56,828.60,827.21,825.82,824.52,823.70,824.44,825.69,826.93,828.17,829.28,830.41,831.77,833.65,835.90,837.86,839.38,840.05,838.93,837.12,836.37,836.66,836.30,834.98,833.90,833.61,834.39,835.39,835.94,836.02,835.63,835.04,834.51,834.09,833.79,833.55,833.27,833.18,832.77,831.64,830.41,828.57,826.46,824.50,823.41,823.34,822.38,820.01,816.01,811.15,809.30,808.63,807.93,807.30,807.38,807.88,808.59,809.41,810.91,813.75,817.15,820.15,821.78,823.20,824.40,825.23,825.68,827.34,829.20,830.79,831.83,832.66,832.54,832.00,831.42,830.99,831.05,831.19,831.24,831.30,832.55,834.42,836.46,837.98,837.18,835.26,833.32,832.21,833.36,836.41,839.01,840.64,841.20,840.55,839.09,837.10,834.53,831.31,829.29,828.76,829.10,829.01,828.60,827.74,826.90,826.38,825.46,823.87,822.09,820.43,819.29,818.66,818.40,818.28,818.13,817.97,817.78,817.62,817.48,817.19,816.95,816.87,816.87,816.71,816.32,815.33,814.06,812.79,811.51,810.22,809.50,809.50,809.73,810.34,810.53,810.00,808.39,805.19,801.56,798.93,797.88,796.87,795.95,795.31,795.04,795.19,795.30,795.18,796.36,799.98,801.62,803.46,805.49,807.52,809.42,810.53,810.98,810.54,808.22,803.00,800.52,799.75,799.46,799.60,800.03,801.36,803.62,806.46,809.25,811.23,812.72,813.85,813.21,812.00,810.32,807.85,804.15,801.00,799.36,798.69,797.95,797.27,797.41,797.99,798.70,799.51,802.28,806.18,809.76,810.52
845.20,844.52,843.89,843.35,843.01,842.82,842.55,842.50,842.73,842.93,842.81,842.57,842.13,841.27,840.63,840.37,840.26,840.12,839.84,839.57,839.27,838.97,838.65,838.28,838.12,838.14,838.32,838.47,838.74,839.10,839.48,839.99,841.91,844.15,846.10,847.03,846.13,843.88,841.30,838.98,837.02,836.45,836.69,837.56,839.21,841.27,843.77,844.77,842.45,840.19,838.69,838.10,838.51,839.64,841.69,843.71,844.75,843.71,842.63,841.75,841.17,840.88,840.27,839.19,837.35,834.44,830.40,828.53,827.15,825.77,824.59,824.51,825.49,826.76,828.02,829.36,831.06,832.77,834.39,836.06,838.07,839.60,840.63,841.10,840.81,840.02,839.51,839.35,838.94,837.91,837.16,836.95,837.23,836.58,835.72,834.98,834.54,834.46,834.23,833.90,833.57,833.35,833.12,832.71,832.01,830.90,829.39,827.14,824.70,822.43,820.84,820.94,820.76,819.10,815.11,810.88,809.30,808.68,808.01,807.43,807.60,808.14,808.82,809.60,811.42,814.61,818.06,820.70,822.30,823.77,825.22,826.47,827.03,827.72,829.20,830.92,832.00,833.04,833.38,833.16,832.59,832.21,832.20,832.32,832.39,832.40,833.51,835.28,837.28,839.16,840.51,839.58,837.72,836.16,836.58,837.69,838.36,838.09,836.57,834.74,833.62,833.02,832.75,832.68,832.38,833.26,834.90,835.36,834.45,831.79,829.11,827.84,826.41,824.72,822.92,821.21,819.92,819.31,819.03,818.87,818.72,818.56,818.40,818.24,818.07,817.79,817.69,817.66,817.54,816.98,815.81,814.54,813.27,811.97,810.72,809.24,808.12,807.66,807.80,808.80,809.33,808.36,804.78,801.37,799.46,798.31,797.35,796.30,795.46,795.05,795.04,795.18,795.22,795.12,796.48,800.39,802.20,803.94,805.82,807.71,809.37,810.54,811.32,811.39,809.93,806.45,803.65,801.74,800.72,800.93,801.51,802.76,804.84,807.61,810.08,811.99,813.55,814.58,813.33,811.79,809.87,807.27,804.02,801.02,799.39,798.74,798.09,797.79,797.76,798.07,798.75,799.52,802.48,806.52,810.17,811.10
842.99,842.25,841.91,841.77,841.65,841.66,841.69,841.86,842.11,842.15,841.94,841.69,841.29,840.50,839.97,839.73,839.62,839.56,839.40,839.25,839.02,838.73,838.50,838.29,838.35,838.57,838.79,838.99,839.21,839.53,840.16,841.61,843.94,846.41,848.38,848.93,847.59,845.02,842.15,839.65,838.18,837.84,837.83,838.09,839.32,841.42,844.03,845.79,845.10,842.49,840.29,839.29,839.83,841.67,843.87,844.61,843.83,842.23,841.07,840.09,839.39,839.03,838.41,837.06,835.18,832.82,830.02,828.48,827.19,825.88,824.84,825.17,826.25,827.50,828.80,830.39,832.50,834.62,836.59,838.31,839.75,840.88,841.46,841.32,840.86,840.31,839.97,839.87,839.70,838.67,837.50,836.48,835.67,834.48,833.37,832.68,832.55,832.64,832.51,832.29,832.09,832.06,831.93,831.56,830.92,829.94,828.48,826.17,823.73,821.45,819.52,819.07,818.06,815.95,812.81,810.27,809.19,808.63,808.05,807.63,807.88,808.44,809.07,809.83,811.91,815.20,818.58,821.11,822.83,824.38,825.94,827.41,828.29,828.82,829.85,831.17,832.29,833.41,834.09,834.20,833.80,833.43,833.34,833.42,833.51,833.53,834.48,836.08,837.82,839.38,840.79,840.08,838.21,836.19,835.58,835.57,835.27,834.28,832.41,830.96,830.17,830.09,830.74,831.82,833.31,835.55,838.07,839.50,839.30,836.28,832.18,828.91,827.17,825.55,824.02,822.68,821.48,820.55,819.88,819.45,819.30,819.14,818.99,818.85,818.72,818.51,818.40,818.22,817.82,816.92,815.44,813.97,812.58,811.24,810.03,808.58,807.22,806.15,805.48,805.43,805.29,804.28,801.62,799.58,798.48,797.67,796.74,795.81,795.23,795.02,795.07,795.13,795.14,795.15,796.62,800.50,802.36,804.15,806.05,807.90,809.43,810.71,811.77,812.20,811.11,809.24,807.10,805.05,803.55,803.39,803.79,804.49,805.74,808.17,810.48,812.50,814.23,815.17,813.57,811.69,809.57,807.01,804.15,801.56,799.94,799.10,798.66,798.46,798.29,798.33,798.74,799.46,802.02,805.78,809.49,810.90
840.61,839.93,840.14,840.60,840.67,840.88,841.17,841.47,841.67,841.51,841.24,840.98,840.62,840.05,839.77,839.59,839.46,839.36,839.21,839.07,838.86,838.61,838.48,838.40,838.63,838.97,839.22,839.54,839.92,840.41,841.36,843.51,845.92,848.31,850.12,850.28,848.67,845.96,843.00,840.54,839.67,839.50,839.26,839.06,839.91,841.98,844.54,846.83,847.75,845.59,843.21,841.96,842.32,843.83,845.00,844.19,842.04,840.20,839.07,838.05,837.20,836.64,836.07,834.53,832.76,831.07,829.53,828.34,827.17,826.00,825.16,825.69,826.80,828.04,829.41,831.27,833.62,836.02,838.26,840.10,841.18,841.84,841.88,841.10,840.06,839.17,838.67,838.58,838.64,837.82,836.37,834.62,832.89,831.45,830.41,829.98,830.14,830.31,830.26,830.12,830.01,830.08,829.98,829.70,829.19,828.37,827.34,825.35,823.11,820.89,818.72,817.36,815.39,812.94,810.75,809.70,809.08,808.55,808.09,807.89,808.21,808.75,809.35,810.21,812.51,815.70,818.87,821.35,823.38,825.16,826.86,828.42,829.51,830.16,830.89,831.82,832.91,833.92,834.65,834.92,834.71,834.42,834.34,834.39,834.47,834.49,835.13,836.38,837.74,838.80,839.62,838.84,836.94,834.62,833.27,832.67,831.95,830.81,829.26,828.38,827.79,827.89,828.92,830.42,833.05,836.13,839.15,841.49,842.45,839.96,835.31,830.40,828.19,826.71,825.56,824.61,823.49,822.31,821.26,820.53,820.28,819.94,819.70,819.53,819.39,819.18,818.96,818.57,817.90,816.74,815.14,813.54,812.02,810.62,809.36,807.97,806.50,805.00,803.62,802.52,801.66,800.70,799.35,798.57,797.89,797.13,796.28,795.52,795.17,795.07,795.10,795.08,795.08,795.33,796.89,800.42,802.36,804.25,806.21,808.09,809.66,810.98,812.22,812.94,812.34,811.62,810.27,808.51,806.78,806.17,806.26,806.41,806.88,808.71,810.86,813.02,814.89,815.74,813.91,811.73,809.44,807.01,804.62,802.48,800.86,799.82,799.45,799.21,798.94,798.77,798.87,799.42,801.33,804.62,808.37,810.45
837.84,837.56,838.86,840.26,840.46,840.69,840.98,841.26,841.41,841.21,840.97,840.69,840.38,840.02,839.77,839.59,839.44,839.30,839.15,839.04,838.91,838.75,838.67,838.64,838.88,839.24,839.59,840.18,841.19,842.32,843.59,845.44,847.54,849.43,850.75,850.79,849.00,846.30,843.64,841.79,841.49,841.46,841.06,840.60,841.31,843.39,845.94,848.25,849.63,849.56,848.49,847.62,847.03,845.44,843.15,841.14,839.58,838.36,837.32,836.23,835.11,834.10,833.48,831.83,830.44,829.64,828.94,828.03,826.97,826.02,825.55,825.99,827.05,828.32,829.78,831.86,834.26,836.72,839.05,840.96,842.30,842.34,841.61,840.37,838.44,836.40,835.06,834.59,834.71,834.67,833.67,831.94,829.96,828.22,827.37,827.13,827.30,827.57,827.66,827.56,827.37,827.23,826.92,826.68,826.25,825.57,825.58,824.56,822.83,820.69,818.35,815.70,813.43,811.57,810.08,809.47,808.99,808.51,808.15,808.22,808.60,809.07,809.71,810.94,813.39,816.19,818.89,821.36,823.96,826.31,828.26,829.75,830.72,831.59,832.45,833.31,834.15,834.70,834.93,834.99,834.94,834.89,834.98,835.04,835.06,835.05,835.07,835.63,836.42,837.01,837.04,835.94,834.04,831.85,830.56,830.05,829.55,828.87,828.05,827.28,826.59,826.62,827.70,829.18,831.46,834.21,837.18,840.03,842.43,841.59,838.04,833.03,829.89,828.60,827.91,827.16,825.98,824.86,823.71,822.72,822.12,821.23,820.71,820.38,820.08,819.67,819.25,818.64,817.75,816.50,814.93,813.31,811.71,810.14,808.65,807.28,805.90,804.48,803.03,801.69,800.58,799.64,798.76,798.10,797.47,796.83,796.18,795.66,795.37,795.20,795.09,795.03,795.02,795.74,797.44,800.11,802.20,804.25,806.31,808.34,810.16,811.42,812.56,813.55,813.92,813.44,812.65,811.49,809.99,809.00,808.67,808.57,808.72,809.60,811.49,813.70,815.64,816.38,814.41,812.01,809.63,807.41,805.66,803.91,802.33,801.12,800.51,800.06,799.76,799.54,799.39,799.45,800.49,803.15,806.93,809.90
834.80,836.47,838.66,840.20,840.46,840.70,840.96,841.22,841.43,841.39,841.20,840.92,840.61,840.30,839.99,839.76,839.59,839.45,839.36,839.29,839.17,839.02,838.92,838.86,839.07,839.41,839.83,840.83,842.26,843.82,845.46,847.27,849.14,850.86,851.89,851.32,849.59,847.32,845.26,844.05,843.90,843.80,843.29,842.75,843.49,845.43,847.80,849.96,851.19,850.73,848.96,846.95,845.00,842.86,840.79,839.09,837.75,836.68,835.63,834.51,833.34,832.23,831.48,830.36,829.53,829.09,828.57,827.84,827.14,826.57,826.25,826.24,827.19,828.47,829.89,831.92,834.32,836.79,839.22,841.38,842.46,841.94,840.67,839.08,836.58,833.94,832.14,831.46,831.58,831.57,830.75,829.11,826.89,825.19,824.39,824.17,824.37,824.73,824.87,824.75,824.39,823.77,823.16,822.88,822.69,822.55,823.14,823.24,822.37,820.50,818.03,814.95,812.43,810.67,809.72,809.25,808.84,808.50,808.35,808.53,808.94,809.38,810.14,811.97,814.47,817.07,819.71,822.50,825.51,827.94,829.71,830.91,831.86,832.81,833.67,834.34,834.76,834.96,835.00,835.00,835.00,835.01,835.10,835.17,835.20,835.16,834.84,834.58,834.63,834.99,834.64,833.27,831.59,830.02,828.97,828.49,828.03,827.46,826.79,826.06,825.39,825.52,826.83,828.44,830.52,832.97,835.57,837.98,840.54,841.15,839.61,836.16,833.12,831.51,830.55,829.71,828.50,827.29,826.05,824.93,824.14,823.00,822.19,821.63,821.10,820.14,819.38,818.61,817.64,816.31,814.73,813.23,811.79,810.32,808.81,807.39,805.97,804.50,802.99,801.49,800.29,799.40,798.71,798.05,797.39,796.78,796.30,796.05,795.88,795.76,795.65,795.47,795.38,796.18,797.71,799.63,801.49,803.55,805.62,807.60,809.42,810.77,811.88,812.78,813.37,813.45,813.69,813.82,813.45,812.35,811.72,811.42,811.35,811.69,813.02,814.93,816.72,817.35,815.39,813.02,810.62,808.38,806.73,805.17,803.75,802.64,802.06,801.49,800.90,800.36,799.97,800.18,801.22,803.39,806.49,809.63
832.09,835.80,838.76,840.22,840.51,840.76,840.99,841.26,841.54,841.68,841.57,841.31,841.00,840.68,840.31,840.06,839.87,839.70,839.66,839.59,839.48,839.34,839.19,839.08,839.23,839.52,840.00,841.31,842.95,844.76,846.69,848.60,850.36,852.02,852.99,852.14,850.60,848.79,847.34,846.68,846.54,846.29,845.64,845.04,845.75,847.49,849.81,851.71,851.99,850.47,847.53,844.27,841.40,839.63,838.59,837.54,836.38,835.34,834.31,833.25,832.17,831.12,830.30,829.80,829.46,829.12,828.53,827.94,827.58,827.36,827.10,826.64,827.35,828.53,829.91,831.85,834.20,836.65,839.20,841.68,842.05,840.92,839.22,837.28,834.46,831.69,829.81,829.01,829.06,828.88,828.08,826.49,824.11,822.51,821.75,821.52,821.72,822.09,822.22,822.10,821.64,820.72,819.93,819.62,819.65,820.00,820.85,821.70,821.51,819.99,817.48,814.35,811.74,810.05,809.49,809.09,808.76,808.58,808.63,808.86,809.26,809.77,810.77,813.09,815.60,818.13,820.86,823.95,827.20,829.43,830.82,831.68,832.56,833.48,834.28,834.81,834.90,834.82,834.79,834.78,834.77,834.81,834.89,835.06,835.25,835.27,834.68,833.63,832.91,832.96,832.38,830.95,829.60,828.65,827.82,827.30,826.79,826.20,825.52,824.84,824.19,824.38,825.78,827.55,829.46,831.59,833.76,835.64,838.05,839.73,839.95,838.18,835.68,833.84,832.55,831.57,830.44,829.16,827.74,826.42,825.52,824.45,823.49,822.69,821.86,820.43,819.40,818.47,817.46,816.23,814.73,813.38,812.10,810.74,809.32,807.85,806.34,804.80,803.25,801.64,800.36,799.45,798.81,798.12,797.42,796.88,796.60,796.61,796.56,796.52,796.44,796.16,796.00,796.64,797.80,799.12,800.61,802.58,804.64,806.56,808.32,809.74,810.78,811.50,811.98,812.49,813.47,814.73,815.72,815.16,814.80,814.56,814.38,814.34,815.01,816.46,817.96,818.43,816.68,814.37,811.92,809.57,807.81,806.36,805.10,804.09,803.50,802.77,801.92,801.08,800.60,801.20,802.54,804.37,806.70,809.58
830.70,835.23,838.63,840.27,840.52,840.81,841.06,841.32,841.61,841.82,841.87,841.70,841.39,841.07,840.69,840.59,840.43,840.08,839.95,839.86,839.77,839.66,839.50,839.31,839.36,839.58,840.04,841.22,842.65,844.33,846.32,848.50,850.35,852.07,853.46,853.85,852.61,851.02,849.85,849.45,849.32,848.84,847.94,847.11,847.48,849.00,851.81,853.23,850.75,848.57,844.94,841.65,839.66,838.53,837.46,836.55,835.76,834.88,834.09,833.34,832.57,831.76,831.14,830.84,830.56,830.08,829.28,828.78,828.55,828.40,828.11,827.57,827.70,828.47,829.86,831.83,834.11,836.49,839.19,842.07,840.84,838.88,836.84,834.49,831.70,829.86,828.61,827.83,827.66,827.44,826.46,824.70,822.39,820.76,820.09,819.93,820.03,820.18,820.23,820.13,819.89,819.48,819.06,818.83,818.88,819.25,819.69,820.00,819.67,818.43,816.17,813.29,811.07,809.77,809.35,809.01,808.91,808.92,809.02,809.25,809.57,810.43,811.98,814.26,816.72,819.39,822.25,825.24,828.33,829.96,830.80,831.34,832.01,832.65,833.36,833.97,834.17,834.02,833.92,833.86,833.85,834.01,834.16,834.70,835.48,835.81,834.94,833.33,831.87,831.14,830.40,829.47,828.55,827.73,826.89,826.17,825.53,824.92,824.28,823.65,823.03,822.95,823.85,825.65,827.35,829.10,830.95,832.92,835.46,837.28,837.64,836.19,834.64,833.34,832.24,831.31,830.58,829.38,827.49,825.58,824.70,824.40,823.77,822.80,821.55,820.16,819.22,818.13,817.00,816.46,815.32,814.08,812.76,811.30,810.05,808.55,807.01,805.50,803.90,802.28,800.78,799.57,798.88,798.13,797.46,797.14,797.31,797.54,797.53,797.46,797.36,797.12,797.01,797.11,797.63,798.74,799.75,801.54,803.59,805.58,807.33,808.60,809.47,810.00,810.16,810.30,810.66,811.84,814.00,815.74,817.30,817.98,817.82,817.54,817.56,818.37,819.36,819.56,818.42,816.09,813.39,810.84,808.95,807.51,806.25,805.08,804.06,803.06,802.19,801.47,801.21,802.41,804.14,806.01,807.96,809.90
830.57,834.94,838.41,840.25,840.52,840.79,841.06,841.35,841.65,841.90,842.07,842.01,841.82,841.65,841.50,841.53,841.45,841.17,841.24,841.49,841.43,840.93,840.11,839.66,839.53,839.63,839.98,840.93,842.24,843.88,845.82,847.80,849.52,851.07,852.61,854.11,854.54,853.62,852.70,852.56,852.46,851.76,850.53,849.41,849.87,851.52,852.99,852.58,849.10,846.38,842.94,840.26,838.99,838.28,837.57,836.98,836.37,835.53,834.75,834.01,833.40,832.97,832.69,832.59,832.27,831.52,830.32,829.67,829.53,829.48,829.08,828.52,828.20,828.52,829.69,831.52,833.90,836.43,839.28,842.17,839.57,836.97,834.78,832.45,830.13,828.68,827.57,826.69,826.34,826.01,824.78,822.91,821.00,819.85,819.33,819.12,819.11,819.15,819.15,819.07,818.90,818.65,818.36,818.15,818.17,818.44,818.50,818.44,817.88,816.66,814.70,812.05,810.37,809.61,809.32,809.16,809.18,809.27,809.40,809.60,809.91,810.82,812.42,814.70,817.02,819.32,821.56,823.78,826.18,827.83,829.11,830.19,831.02,831.57,832.20,832.77,832.91,832.67,832.49,832.40,832.45,832.77,833.91,835.52,837.11,837.75,837.00,834.87,832.29,830.15,829.17,828.35,827.56,826.78,825.97,825.16,824.40,823.72,823.09,822.44,821.84,821.55,821.87,823.03,824.47,826.16,828.13,830.59,833.39,835.06,835.21,833.77,832.26,830.46,828.78,827.49,826.62,825.84,824.67,823.47,823.00,823.23,823.01,822.17,820.67,818.80,817.45,816.21,815.19,815.02,814.54,813.99,813.12,811.70,810.58,809.29,807.79,806.04,803.99,802.00,800.48,799.44,798.81,798.12,797.71,797.68,798.02,798.36,798.42,798.37,798.23,798.04,797.92,797.89,798.13,798.80,799.66,801.08,802.84,804.71,806.26,807.35,808.14,808.63,808.68,808.87,809.38,810.64,812.89,815.33,817.50,818.89,819.40,819.28,819.24,819.70,820.22,820.15,819.16,816.79,813.97,811.33,809.36,807.94,806.69,805.47,804.31,803.36,802.54,802.00,802.15,803.70,805.55,807.42,809.15,810.46
831.30,835.08,838.39,840.42,840.80,841.05,841.33,841.63,841.93,842.22,842.40,842.43,842.39,842.43,842.55,842.69,842.73,842.70,843.13,843.81,843.80,842.85,841.22,840.38,839.98,839.85,840.05,840.77,841.99,843.57,845.34,846.89,848.36,849.69,851.25,853.55,855.91,856.05,855.60,855.75,855.70,854.84,853.29,851.92,852.57,854.40,853.91,851.36,847.85,844.86,842.02,840.09,839.26,838.63,838.38,838.07,837.53,836.65,835.76,835.00,834.55,834.56,834.66,834.73,834.30,833.22,831.60,830.82,830.82,830.87,830.30,829.62,828.88,828.71,829.50,831.13,833.70,836.48,839.38,841.77,838.23,835.15,832.87,830.78,829.06,827.74,826.55,825.55,825.00,824.49,823.08,821.26,819.92,819.38,818.99,818.69,818.54,818.51,818.51,818.42,818.25,818.01,817.71,817.49,817.42,817.46,817.20,816.91,816.14,814.82,813.14,810.89,809.81,809.56,809.38,809.41,809.51,809.65,809.83,810.02,810.36,811.10,812.43,814.62,816.74,818.51,819.96,821.23,822.74,824.49,826.42,828.30,829.49,830.20,830.88,831.43,831.49,831.17,830.89,830.78,830.93,831.51,833.88,836.70,839.08,839.95,839.46,836.89,833.20,829.68,828.46,827.57,826.71,825.90,825.07,824.22,823.38,822.59,821.94,821.26,820.67,820.25,820.11,820.45,821.58,823.26,825.50,828.55,831.63,833.05,832.78,831.01,828.89,826.29,824.04,822.48,821.44,821.14,821.02,820.94,821.05,821.67,821.80,821.10,819.36,816.86,814.91,813.55,812.82,812.90,813.13,813.43,813.19,811.95,810.94,809.89,808.41,806.33,803.81,801.45,800.00,799.27,798.73,798.14,798.07,798.32,798.72,799.11,799.29,799.25,799.07,798.92,798.78,798.86,799.04,799.27,800.05,801.01,802.29,803.83,805.11,806.04,806.80,807.34,807.51,807.98,808.90,810.29,812.16,814.46,816.54,818.35,819.64,819.85,820.01,820.35,820.67,820.50,819.34,816.84,813.92,811.24,809.37,808.01,806.78,805.56,804.45,803.68,802.93,802.59,803.19,804.92,806.79,808.62,810.18,811.07
833.11,836.29,839.30,841.44,842.23,842.52,842.77,843.02,843.27,843.50,843.41,843.36,843.45,843.66,843.78,843.91,844.17,844.67,845.58,846.39,846.48,845.62,843.79,842.36,841.38,840.80,840.75,841.42,842.53,843.82,845.11,846.18,847.39,848.66,850.18,852.39,855.30,857.19,858.19,858.59,858.77,857.79,856.19,854.82,855.24,856.82,855.23,851.79,848.78,846.41,844.16,842.43,841.24,839.85,839.62,839.34,838.67,837.68,836.57,836.14,836.25,836.67,837.03,837.13,836.54,835.15,833.28,832.84,833.16,833.37,832.64,831.28,829.97,829.24,829.50,830.95,833.70,836.79,839.38,839.99,836.65,833.40,830.95,829.23,827.79,826.56,825.42,824.36,823.44,822.67,821.41,820.12,819.46,819.09,818.72,818.36,818.07,817.89,817.86,817.77,817.60,817.36,817.06,816.78,816.40,815.87,815.54,815.23,814.41,813.01,811.49,810.33,809.83,809.71,809.62,809.67,809.88,810.16,810.48,810.81,811.09,811.47,812.22,813.82,815.61,817.24,818.50,819.29,820.11,821.14,822.83,824.97,826.56,828.14,829.33,830.06,830.29,830.03,829.70,829.50,829.74,830.95,833.82,837.13,839.86,840.72,840.32,837.51,833.48,829.77,828.44,827.37,826.33,825.30,824.21,823.31,822.46,821.63,820.86,820.20,819.63,819.26,819.17,819.31,819.91,821.26,823.54,826.97,830.16,831.40,830.54,827.60,823.91,821.37,819.87,819.16,818.73,818.59,818.65,818.97,819.71,820.56,820.72,819.70,817.31,814.62,812.25,810.90,810.64,811.15,811.77,812.45,812.65,811.88,811.05,809.91,808.22,805.97,803.60,801.44,800.07,799.34,798.86,798.41,798.46,798.82,799.32,799.81,800.16,800.14,799.86,799.71,799.65,799.95,800.33,800.52,801.00,801.44,801.99,802.81,803.86,804.71,805.44,806.15,806.91,807.76,808.78,810.08,811.72,813.49,815.10,816.71,818.09,818.58,818.79,819.50,820.46,820.83,819.16,816.23,813.05,810.36,809.11,807.89,806.68,805.60,804.78,804.07,803.32,803.12,804.03,805.79,807.74,809.41,810.67,811.48
835.13,837.39,840.02,842.41,843.91,844.33,844.58,844.80,844.90,844.62,844.07,844.03,844.46,844.96,845.13,845.26,845.59,846.33,847.69,848.94,849.19,848.26,846.32,844.42,843.24,842.62,842.35,842.60,843.56,844.72,845.86,846.82,847.86,849.00,850.42,852.55,855.62,858.08,859.56,860.06,860.32,859.68,858.62,857.75,857.95,858.62,856.60,853.23,850.59,848.63,846.97,845.59,844.34,842.79,842.15,841.06,839.55,838.44,837.67,837.60,838.00,838.65,839.28,839.45,838.77,837.19,835.17,835.03,835.61,835.89,835.05,833.31,831.54,830.24,829.89,831.22,834.02,837.37,839.76,838.77,835.29,831.95,829.44,827.87,826.54,825.41,824.37,823.33,822.23,821.29,820.33,819.52,819.14,818.83,818.46,818.07,817.71,817.42,817.26,817.13,816.95,816.71,816.41,816.12,815.63,814.84,814.29,813.84,813.11,812.07,811.02,810.41,810.13,810.00,809.94,810.16,810.51,810.92,811.33,811.68,811.94,812.22,812.69,813.63,814.65,815.96,817.13,817.81,818.50,819.26,820.51,822.28,824.09,826.13,827.56,828.42,828.92,828.85,828.61,828.61,829.21,830.86,833.93,837.36,840.19,841.04,840.55,837.75,833.77,830.04,828.58,827.35,826.10,824.83,823.57,822.66,821.80,820.91,820.00,819.26,818.67,818.30,818.24,818.51,819.03,820.13,822.18,825.65,828.48,828.88,827.15,823.69,819.96,817.82,816.80,816.54,816.51,816.56,816.90,817.58,818.60,819.57,819.39,817.95,815.34,812.60,810.44,809.16,808.92,809.92,810.83,811.67,812.02,811.44,810.66,809.50,807.93,806.04,804.14,802.30,800.83,799.79,799.20,798.76,798.85,799.29,800.02,801.11,801.32,801.01,800.55,800.42,800.74,801.48,802.13,802.32,802.65,802.64,802.58,802.72,803.18,803.90,804.66,805.47,806.42,807.45,808.47,809.58,810.84,812.17,813.47,814.86,816.15,816.86,817.38,818.44,819.85,820.78,819.16,816.04,812.64,809.86,808.85,807.79,806.75,805.85,805.15,804.46,803.73,803.65,804.78,806.59,808.45,809.93,810.98,811.79
837.32,838.52,840.72,843.35,845.61,846.30,846.52,846.61,846.42,845.46,844.50,844.57,845.41,846.23,846.52,846.69,846.99,847.76,849.54,851.44,851.86,850.65,848.62,846.48,845.39,844.91,844.44,844.10,844.85,846.03,847.25,848.35,849.38,850.42,851.72,853.78,856.73,858.88,860.12,860.60,860.83,860.74,860.60,860.51,860.46,859.97,857.98,855.25,852.80,851.07,850.00,849.06,848.00,846.69,845.40,843.13,840.53,839.26,839.12,839.48,840.04,840.72,841.50,841.67,840.89,839.17,837.09,837.22,837.98,838.29,837.33,835.41,833.27,831.50,830.72,831.87,834.61,838.22,840.52,838.00,834.03,830.68,828.24,826.65,825.39,824.37,823.41,822.42,821.30,820.32,819.68,819.26,818.89,818.57,818.20,817.82,817.43,817.07,816.78,816.57,816.39,816.15,815.86,815.59,815.13,814.32,813.55,812.92,812.37,811.87,811.40,810.93,810.60,810.40,810.36,810.80,811.33,811.84,812.28,812.60,812.87,813.24,813.68,814.05,814.18,815.02,816.04,816.76,817.60,818.40,819.24,820.33,822.19,824.27,825.67,826.59,827.37,827.59,827.66,828.06,829.14,831.08,834.15,837.48,840.20,841.00,840.23,837.59,833.92,830.29,828.73,827.36,825.91,824.42,823.07,822.18,821.32,820.36,819.31,818.42,817.76,817.37,817.38,817.96,818.72,819.69,821.41,824.65,826.57,825.78,823.13,819.63,816.75,815.18,814.46,814.33,814.52,814.85,815.56,816.56,817.63,818.64,817.91,816.06,813.60,810.97,809.19,807.96,807.56,808.90,810.17,811.08,811.37,810.80,810.04,808.91,807.65,806.34,805.03,803.53,801.92,800.49,799.67,799.16,799.23,799.78,800.90,802.74,802.62,801.88,801.24,801.09,801.95,803.23,804.21,804.44,804.71,804.32,803.79,803.38,803.15,803.62,804.34,805.13,806.00,807.04,808.00,808.88,809.73,810.71,811.78,812.96,814.11,815.02,816.03,817.37,819.00,820.39,819.50,816.40,812.80,809.86,808.75,807.85,807.07,806.37,805.65,804.93,804.20,804.18,805.44,807.26,808.96,810.26,811.19,812.04
839.83,840.40,842.12,844.51,846.88,848.15,848.12,847.55,846.74,845.70,845.01,845.31,846.29,847.26,847.85,848.08,848.32,849.09,851.29,853.84,854.23,852.44,850.29,848.61,847.59,846.88,846.18,845.67,846.18,847.28,848.65,849.95,851.34,852.63,854.03,855.96,858.20,859.69,860.55,860.94,861.14,861.31,861.85,862.42,861.90,860.97,859.36,857.17,854.69,853.10,852.59,852.08,851.14,849.99,848.05,845.47,842.82,841.18,841.40,842.46,843.41,843.83,844.15,843.80,842.54,840.54,838.62,839.04,839.92,840.20,839.10,836.78,834.30,832.65,832.29,833.05,835.57,839.62,842.00,837.35,832.57,829.40,827.22,825.52,824.64,823.66,822.63,821.59,820.57,819.82,819.35,819.02,818.68,818.32,817.94,817.56,817.18,816.85,816.67,816.48,816.27,816.03,815.79,815.47,815.04,814.46,813.88,813.34,812.88,812.47,812.02,811.52,811.15,810.94,810.97,811.49,812.08,812.67,813.19,813.52,813.93,814.41,814.92,815.33,815.31,815.62,816.07,816.45,817.00,817.80,818.65,819.65,821.23,822.75,823.90,824.80,825.60,826.28,827.06,827.99,829.28,831.40,834.41,837.53,839.92,840.25,838.85,836.28,833.13,830.02,828.47,827.00,825.51,824.01,822.57,821.67,820.83,819.88,818.75,817.69,816.84,816.55,817.01,817.91,818.88,820.03,821.75,824.45,824.44,822.72,819.87,816.25,813.51,812.45,812.15,812.25,812.77,813.51,814.45,815.53,816.65,817.67,816.60,814.62,812.56,810.45,807.82,806.42,806.49,807.38,809.48,810.58,810.68,810.21,809.82,808.80,807.56,806.32,805.08,803.76,802.42,801.13,800.09,799.50,799.56,800.50,802.37,804.08,803.79,802.94,802.18,801.82,803.04,804.69,806.01,806.51,806.61,805.96,805.17,804.58,804.29,804.22,804.39,804.83,805.61,806.60,807.45,808.24,809.03,809.68,810.35,811.24,812.35,813.59,815.07,816.62,818.18,819.71,820.77,817.99,814.08,810.82,809.31,808.66,808.16,807.54,806.69,805.83,804.87,804.68,805.88,807.50,809.13,810.43,811.39,812.29
842.05,842.43,843.69,845.70,848.04,849.73,849.33,848.21,847.05,845.99,845.55,846.05,847.12,848.20,849.10,849.66,850.18,851.22,853.67,856.34,856.93,855.29,852.84,850.90,849.46,848.41,847.70,847.16,847.50,848.49,849.97,851.71,853.44,854.97,856.43,858.05,859.47,860.26,860.63,860.80,860.89,861.19,861.97,862.72,862.02,861.07,859.82,858.26,856.44,855.04,854.89,854.77,854.08,852.96,850.62,847.89,845.29,843.54,844.12,845.71,847.00,847.27,846.87,845.77,844.03,841.94,840.43,840.92,841.58,841.48,840.01,837.55,835.36,834.14,834.03,834.36,836.49,840.77,842.95,836.00,830.88,827.90,826.01,824.66,824.01,823.10,822.07,821.05,820.15,819.59,819.19,818.86,818.52,818.14,817.75,817.43,817.21,817.01,816.95,816.81,816.58,816.37,816.12,815.78,815.36,814.89,814.44,813.97,813.54,813.13,812.64,812.14,811.72,811.49,811.64,812.19,812.84,813.49,814.11,814.51,815.07,815.63,816.17,816.64,816.66,816.75,816.88,816.94,817.18,817.75,818.45,819.29,820.53,821.77,822.95,824.04,825.06,826.13,827.25,828.31,829.54,831.78,834.45,837.12,839.10,839.06,837.34,834.88,832.11,829.42,827.75,826.28,824.90,823.55,822.11,821.14,820.30,819.36,818.20,817.06,816.05,815.81,816.63,817.77,818.93,820.25,821.80,823.25,822.02,819.42,816.26,813.10,811.08,810.47,810.44,810.71,811.40,812.33,813.38,814.50,815.64,816.62,815.59,813.78,811.99,810.14,807.27,806.23,806.81,806.74,808.66,809.81,810.02,809.75,809.65,808.97,807.97,806.79,805.56,804.32,803.12,801.91,800.77,800.18,800.54,802.10,804.52,805.29,804.57,803.58,802.84,802.71,804.13,805.98,807.57,808.37,808.26,807.39,806.44,805.74,805.38,805.00,804.82,804.96,805.54,806.26,806.94,807.66,808.42,808.94,809.40,810.05,811.01,812.46,814.24,815.90,817.42,819.00,821.13,819.27,815.80,812.46,810.56,809.98,809.59,808.92,807.77,806.65,805.46,805.16,806.40,807.92,809.43,810.64,811.59,812.49
843.91,844.45,845.34,846.88,849.12,851.11,850.23,848.70,847.50,846.42,846.11,846.72,847.87,849.02,850.22,851.36,852.54,854.07,856.53,858.80,859.72,858.88,856.18,853.42,851.21,849.76,849.17,848.67,848.94,849.80,851.26,853.51,855.53,857.21,858.61,859.73,860.32,860.41,860.26,860.05,859.97,860.41,861.10,861.58,861.00,860.24,859.24,858.31,857.70,856.66,856.76,857.03,856.79,855.68,853.18,850.36,847.77,846.15,847.08,848.99,850.55,850.83,849.56,847.61,845.49,843.62,842.65,842.90,842.94,842.14,840.18,837.88,836.57,835.97,835.82,835.77,837.38,841.40,842.93,834.03,829.11,826.33,824.77,824.09,823.47,822.67,821.75,820.81,820.05,819.57,819.18,818.80,818.41,818.03,817.66,817.47,817.50,817.50,817.55,817.45,817.25,817.07,816.79,816.43,816.01,815.56,815.09,814.63,814.20,813.78,813.25,812.76,812.30,812.07,812.37,812.95,813.63,814.35,815.06,815.57,816.22,816.83,817.38,817.89,818.09,818.26,818.28,818.08,818.08,818.26,818.62,819.21,820.14,821.42,822.87,824.33,825.72,827.08,828.15,829.00,829.98,832.14,834.23,836.29,837.84,837.58,835.91,833.61,831.08,828.59,826.70,825.26,824.07,822.95,821.62,820.58,819.68,818.75,817.62,816.53,815.42,815.14,816.12,817.39,818.68,820.09,821.22,820.90,819.19,815.92,812.49,810.33,809.56,809.29,809.34,809.71,810.40,811.27,812.32,813.48,814.61,815.48,814.80,813.37,811.70,809.75,807.40,807.17,808.20,807.06,807.81,808.83,809.42,809.39,809.43,809.27,808.71,807.71,806.52,805.29,804.06,802.83,801.72,801.39,802.39,804.61,807.09,806.38,805.04,803.86,803.22,803.74,805.24,807.11,808.85,809.90,809.61,808.60,807.57,806.80,806.28,805.87,805.58,805.52,805.86,806.18,806.61,807.20,807.92,808.45,808.92,809.41,810.15,811.62,813.50,815.22,816.76,818.36,820.56,820.13,817.86,814.69,812.51,811.69,811.10,810.19,808.68,807.25,805.94,805.70,807.07,808.58,809.89,810.94,811.80,812.66
845.23,846.15,846.91,848.08,850.08,852.64,851.17,849.15,848.03,847.01,846.63,847.19,848.30,849.45,850.88,852.70,854.67,856.68,858.75,860.27,860.80,860.28,858.75,856.55,854.20,852.34,851.48,850.76,851.26,851.97,852.77,854.71,857.01,858.68,859.62,859.95,859.77,859.41,858.87,858.17,857.83,859.02,860.11,860.38,859.58,858.50,857.37,856.51,856.25,856.20,857.09,858.17,858.84,858.33,855.86,852.87,850.16,848.66,849.50,851.59,853.46,853.89,852.01,849.37,847.37,846.26,845.49,844.79,843.74,842.27,840.39,838.65,837.98,837.75,837.63,837.47,838.40,840.55,840.36,832.30,828.10,825.77,824.43,823.79,823.17,822.45,821.69,820.94,820.24,819.71,819.29,818.88,818.46,818.12,817.82,817.73,817.90,818.04,818.13,818.09,817.95,817.78,817.50,817.13,816.72,816.25,815.80,815.33,814.90,814.47,813.89,813.37,812.89,812.75,813.34,813.99,814.71,815.47,816.15,816.49,817.11,817.80,818.47,819.12,819.87,820.05,819.73,819.15,819.01,819.11,819.43,820.03,820.95,822.21,823.64,825.13,826.59,827.99,829.15,830.08,830.92,832.25,833.66,835.37,836.76,836.28,834.97,832.94,830.50,827.96,825.90,824.19,822.79,821.66,820.63,819.77,818.91,817.99,817.02,816.04,814.93,814.47,815.14,816.40,817.67,818.82,819.26,817.77,815.31,812.61,810.43,809.35,808.88,808.60,808.64,809.04,809.64,810.35,811.36,812.57,813.70,814.34,813.70,812.49,810.89,808.27,806.82,807.07,808.14,807.93,807.60,808.17,808.86,808.79,808.85,808.90,808.77,808.33,807.44,806.27,805.03,803.79,802.88,803.95,806.03,807.92,808.60,807.35,805.85,804.44,803.67,804.69,806.24,808.00,809.58,810.52,810.42,809.54,808.60,807.89,807.35,806.90,806.52,806.38,806.73,807.02,807.11,807.33,807.84,808.29,808.71,809.17,809.87,811.23,813.00,814.79,816.47,818.12,820.23,821.22,820.18,817.32,815.26,813.36,811.55,809.92,808.62,807.18,806.46,806.72,807.99,809.37,810.45,811.37,812.22,813.07
846.49,847.63,848.49,849.61,851.46,854.23,852.17,849.63,848.46,847.55,847.05,847.46,848.46,849.50,850.83,852.90,855.33,857.77,859.80,860.95,861.42,861.35,860.74,859.24,857.15,855.27,854.21,853.46,854.11,854.56,854.59,855.79,857.71,858.74,858.81,858.33,857.52,856.90,856.22,855.43,855.19,856.80,858.07,858.19,857.23,855.94,854.87,854.20,854.21,855.11,856.64,858.41,859.87,859.89,858.13,855.49,852.88,851.63,852.41,854.53,856.44,856.84,855.18,852.19,849.76,848.42,847.63,846.39,844.74,843.00,841.56,840.43,840.17,840.20,840.23,840.38,840.83,840.52,838.00,831.61,827.91,825.70,824.37,823.70,823.06,822.36,821.69,821.06,820.38,819.83,819.39,818.99,818.56,818.24,818.05,818.07,818.30,818.53,818.65,818.69,818.64,818.49,818.21,817.84,817.40,816.95,816.50,816.03,815.62,815.22,814.55,813.97,813.47,813.38,814.15,814.99,815.84,816.65,817.28,817.48,817.97,818.76,819.81,821.10,822.41,822.82,822.42,821.59,821.27,821.42,821.67,822.02,822.83,823.97,825.21,826.45,827.63,828.92,830.11,831.12,831.94,832.73,833.68,834.90,835.78,835.04,833.98,832.27,829.97,827.27,825.03,822.99,821.42,820.38,819.62,818.92,818.11,817.23,816.35,815.43,814.39,813.74,813.93,814.99,816.09,816.96,816.97,814.79,812.18,810.30,809.22,808.78,808.40,808.04,808.03,808.45,809.00,809.65,810.64,811.85,812.92,813.22,812.54,811.28,809.47,806.86,806.27,806.80,807.72,808.23,807.78,807.94,808.30,808.17,808.23,808.33,808.42,808.38,807.99,807.13,806.00,804.81,804.18,806.44,808.89,810.09,809.45,808.00,806.47,804.97,804.15,805.42,806.92,808.50,809.92,810.84,811.23,810.62,809.77,809.05,808.36,807.78,807.44,807.40,807.73,807.99,807.80,807.71,808.07,808.47,808.85,809.30,810.01,811.33,813.06,814.94,816.78,818.53,820.59,822.38,821.98,819.19,816.93,814.10,811.44,809.41,808.32,807.12,807.01,807.71,808.88,810.07,811.00,811.85,812.70,813.55
847.79,848.95,850.15,851.62,853.45,855.89,853.28,850.24,848.79,847.98,847.36,847.57,848.35,849.14,850.00,851.72,854.09,856.85,859.40,860.76,861.74,862.40,862.13,861.14,859.73,858.31,857.27,856.76,857.34,857.44,856.76,856.85,857.50,857.11,855.87,854.68,853.48,852.79,852.30,851.93,852.24,853.65,854.69,854.76,853.80,852.62,851.92,851.73,852.13,853.66,855.53,857.69,859.69,860.01,859.73,858.12,856.01,855.20,855.96,857.93,859.46,859.56,859.11,856.26,852.75,849.84,848.70,847.64,846.12,844.69,844.06,843.46,843.36,843.45,843.68,844.34,844.51,841.61,836.60,832.22,828.64,826.05,824.45,823.80,823.11,822.37,821.68,821.04,820.37,819.86,819.45,819.07,818.69,818.38,818.33,818.45,818.68,818.91,819.08,819.23,819.33,819.24,818.93,818.51,818.06,817.61,817.20,816.70,816.35,816.03,815.24,814.59,814.05,813.95,814.71,815.84,816.92,817.84,818.46,818.60,818.92,819.89,821.60,824.05,825.85,826.69,826.62,825.76,825.25,825.54,825.59,825.33,825.84,826.71,827.60,828.34,828.92,829.89,830.98,832.02,832.96,833.75,834.51,835.01,834.96,833.92,832.87,831.46,829.35,826.42,823.92,821.66,820.08,819.27,818.74,818.08,817.33,816.50,815.58,814.66,813.72,812.91,812.57,813.22,813.93,814.64,814.58,812.28,810.39,809.30,808.72,808.32,807.93,807.50,807.45,807.86,808.40,809.16,810.17,811.30,812.23,812.08,811.26,809.67,807.44,805.92,805.99,806.60,807.24,807.74,808.30,808.15,807.74,807.60,807.64,807.68,807.70,807.76,808.01,807.75,806.92,805.88,805.65,808.42,810.23,810.60,809.66,808.25,806.78,805.38,804.65,805.84,807.16,808.55,809.84,810.91,812.05,811.87,811.15,810.28,809.27,808.47,808.29,808.53,808.77,808.87,808.54,808.32,808.61,809.04,809.41,809.86,810.60,811.99,813.80,815.80,817.78,819.66,821.80,823.52,822.99,819.91,816.96,813.60,810.86,808.99,807.97,807.29,807.63,808.55,809.66,810.64,811.52,812.37,813.22,814.06
849.06,850.51,852.25,854.12,855.88,857.71,854.88,851.42,849.38,848.67,848.09,848.04,848.39,848.84,849.49,850.78,852.81,855.51,858.10,859.87,861.22,862.30,862.98,862.68,861.82,860.76,859.84,859.43,859.64,859.47,858.69,858.05,857.09,855.21,852.99,851.55,850.66,850.13,849.77,849.60,849.90,850.81,851.49,851.56,850.91,850.15,849.83,849.94,850.50,851.89,853.98,856.52,858.98,859.88,860.05,859.42,858.49,858.16,858.54,859.51,860.24,860.28,860.25,858.84,856.12,852.72,850.12,848.90,847.76,846.96,847.10,847.07,846.55,845.79,844.82,843.36,841.95,839.22,835.68,832.71,829.42,826.47,824.49,823.76,822.94,822.19,821.52,820.88,820.21,819.75,819.40,819.12,818.86,818.60,818.62,818.79,819.02,819.25,819.46,819.83,820.26,820.35,819.77,819.22,818.78,818.35,817.88,817.39,817.12,816.91,816.10,815.33,814.67,814.46,815.20,816.41,817.61,818.77,819.72,819.97,820.56,822.03,824.34,827.12,828.57,829.28,829.45,829.15,828.80,828.85,828.70,828.38,828.68,829.39,830.03,830.52,830.83,830.96,831.80,832.87,833.86,834.74,835.01,834.93,834.63,834.05,832.78,830.99,828.45,825.04,822.13,820.32,819.17,818.43,817.89,817.24,816.52,815.75,814.86,813.93,813.04,812.22,811.66,811.84,811.99,812.36,812.38,810.67,809.48,808.72,808.19,807.76,807.37,806.93,806.82,807.15,807.61,808.24,809.04,809.99,810.85,810.42,808.70,807.05,806.27,805.90,806.27,806.89,807.53,808.06,808.37,808.03,807.44,807.09,807.08,807.11,807.10,807.06,807.20,807.34,807.25,807.00,807.14,809.41,810.91,811.02,809.76,808.47,807.15,805.85,805.07,805.88,807.11,808.30,809.35,810.31,811.58,812.42,812.44,811.56,810.23,809.34,809.24,809.61,809.87,809.70,809.20,808.89,809.13,809.62,810.22,810.89,811.71,812.88,814.57,816.46,818.44,820.53,822.96,824.14,823.20,820.12,816.72,813.12,810.49,808.88,807.99,807.85,808.43,809.33,810.29,811.18,812.04,812.89,813.73,814.53
850.81,852.54,854.61,856.65,858.29,859.43,856.49,852.90,850.48,849.51,848.87,848.66,848.74,848.93,849.39,850.24,851.79,854.17,856.58,858.64,860.30,861.73,863.23,863.82,863.60,862.91,862.06,861.63,861.44,861.02,860.25,859.20,857.12,854.21,851.31,849.65,848.97,848.47,848.00,847.68,847.85,848.31,848.75,848.93,848.60,848.19,848.15,848.48,849.17,850.30,852.50,855.38,858.30,859.73,860.08,860.09,860.04,860.01,860.08,860.22,860.33,860.36,860.51,860.36,858.85,855.86,852.27,850.70,849.87,849.56,849.85,849.56,848.20,846.34,844.04,840.91,838.45,836.41,834.53,832.46,829.54,826.55,824.43,823.62,822.70,821.96,821.31,820.70,820.10,819.72,819.46,819.26,819.08,818.87,818.90,819.07,819.30,819.56,819.95,820.64,821.47,821.88,821.09,820.39,819.78,819.10,818.54,818.11,817.94,817.80,816.97,816.13,815.35,815.02,815.67,816.88,818.13,819.56,821.02,821.67,822.66,824.36,826.65,829.05,829.99,830.50,830.90,831.18,831.20,831.23,831.13,830.98,831.19,831.80,832.30,832.62,832.73,832.18,832.66,833.64,834.62,835.29,835.01,834.45,834.01,833.84,832.88,830.76,827.61,823.75,820.62,819.23,818.41,817.67,817.07,816.40,815.71,814.96,814.12,813.22,812.37,811.58,810.92,810.77,810.54,810.61,810.59,809.51,808.85,808.24,807.67,807.20,806.78,806.33,806.19,806.40,806.65,807.01,807.51,808.16,808.84,808.42,806.60,805.42,805.88,806.26,806.73,807.30,807.88,808.24,808.11,807.68,807.10,806.56,806.48,806.55,806.55,806.44,806.36,806.58,807.05,807.71,808.64,810.33,811.44,811.28,809.77,808.59,807.40,806.24,805.49,805.94,806.92,807.91,808.79,809.65,810.85,812.49,813.36,812.86,811.37,810.38,810.27,810.69,810.97,810.56,809.88,809.46,809.65,810.31,811.21,812.11,813.00,814.00,815.44,817.05,818.83,820.98,823.74,824.50,823.19,820.09,816.44,812.73,810.24,808.90,808.24,808.52,809.23,810.04,810.86,811.71,812.56,813.41,814.23,814.99
853.50,855.34,857.25,859.04,860.42,860.82,857.84,854.61,852.39,850.48,849.57,849.42,849.62,849.78,849.95,850.39,851.37,853.06,855.11,857.16,859.05,860.82,862.62,864.36,864.99,864.70,863.83,863.21,862.67,862.00,861.17,860.21,858.08,855.04,851.91,849.90,848.87,848.05,847.09,846.11,846.09,846.36,846.84,847.28,847.10,846.80,846.88,847.36,848.20,849.22,851.38,854.53,857.96,859.68,860.12,860.16,860.10,859.98,860.02,860.07,860.10,860.15,860.37,860.54,860.16,858.75,855.66,853.55,852.73,852.44,851.71,849.62,846.94,843.93,840.76,838.00,836.07,834.39,832.70,830.84,828.33,825.94,824.21,823.36,822.45,821.70,821.08,820.56,820.15,819.92,819.75,819.57,819.35,819.18,819.15,819.26,819.51,819.86,820.69,821.84,823.10,823.98,823.31,822.46,821.35,819.88,819.24,818.96,818.85,818.65,817.81,816.96,816.12,815.67,816.14,817.28,818.52,820.19,822.29,823.80,825.21,826.48,827.66,828.79,829.25,829.74,830.34,830.97,831.59,832.18,832.54,832.72,833.03,833.64,834.11,834.34,834.25,833.61,833.62,834.27,835.15,835.06,834.25,833.33,832.62,832.41,832.82,830.79,827.05,822.86,819.97,818.61,817.76,817.00,816.27,815.63,814.92,814.16,813.37,812.51,811.75,811.01,810.34,810.09,809.95,809.80,809.50,808.87,808.36,807.79,807.20,806.67,806.15,805.73,805.58,805.63,805.51,805.44,805.56,805.79,806.00,806.09,805.98,806.08,806.57,806.90,807.23,807.65,807.99,807.79,807.41,807.03,806.56,805.97,805.87,805.95,806.04,806.03,805.84,805.65,806.18,807.67,810.14,811.59,811.98,811.28,809.65,808.52,807.42,806.50,805.98,806.25,806.67,807.41,808.30,809.17,810.19,811.97,813.58,814.15,812.83,811.72,811.45,811.79,812.04,811.46,810.61,810.03,810.14,811.17,812.39,813.48,814.42,815.43,816.53,817.61,818.88,820.80,823.85,824.63,823.12,819.80,816.23,812.50,810.13,809.07,808.74,809.23,809.93,810.65,811.39,812.23,813.08,813.92,814.74,815.45
855.80,857.50,859.15,860.68,861.72,861.04,858.21,855.34,853.18,851.28,850.63,850.84,851.46,852.11,852.58,852.81,853.14,853.96,855.57,857.29,858.84,860.40,862.43,864.61,865.74,865.83,865.06,864.11,863.31,862.62,861.91,860.95,859.42,856.83,853.84,851.67,850.21,848.99,847.75,846.48,845.52,844.93,845.03,845.54,845.60,845.61,846.37,847.47,848.39,849.53,851.61,854.66,858.06,859.69,860.06,859.80,859.22,858.58,858.40,858.44,858.70,859.30,860.03,860.35,860.45,860.07,858.40,856.84,855.19,853.33,851.04,848.04,845.15,842.30,839.42,836.69,834.30,832.42,830.67,828.41,826.45,824.92,823.81,823.05,822.18,821.47,820.98,820.65,820.40,820.25,820.06,819.84,819.62,819.45,819.38,819.48,819.88,820.81,821.93,823.22,824.59,825.75,825.84,825.31,824.05,822.12,821.09,820.81,820.44,819.66,818.59,817.60,816.63,816.12,816.71,817.76,818.90,820.45,822.37,823.67,824.97,826.00,826.80,827.52,827.97,828.54,829.21,829.91,830.60,831.29,831.82,832.14,832.34,832.65,833.14,833.71,834.20,834.47,834.50,834.84,835.41,834.70,833.62,832.51,831.55,830.92,830.91,829.32,826.15,822.13,819.48,818.08,817.20,816.50,815.79,815.32,814.76,814.11,813.42,812.53,811.65,810.86,810.19,809.65,809.40,809.12,808.72,808.26,807.79,807.26,806.70,806.15,805.61,805.37,805.37,805.50,805.55,805.53,805.63,805.80,805.89,806.11,806.31,806.59,806.96,807.13,807.27,807.57,807.78,807.35,806.83,806.36,805.89,805.50,805.85,805.65,805.50,805.60,805.49,805.70,807.15,809.46,811.64,812.72,812.26,811.00,809.53,808.53,807.51,806.83,806.64,806.91,807.21,807.61,808.16,808.94,809.78,811.49,813.48,814.90,814.40,813.39,812.92,812.95,812.88,812.17,811.28,810.69,810.78,811.56,812.82,814.17,815.48,816.82,817.95,818.98,820.21,822.03,824.67,824.87,822.93,819.46,816.02,812.53,810.28,809.33,809.31,809.86,810.54,811.24,811.95,812.76,813.59,814.41,815.15,815.85
857.81,859.32,860.74,861.92,862.33,860.71,858.01,855.59,853.83,852.38,852.11,852.63,853.61,854.75,855.65,856.09,855.99,855.69,856.77,858.14,859.41,860.76,862.78,864.99,866.26,866.46,865.57,864.26,863.31,862.66,862.11,861.23,860.34,858.40,855.86,853.82,852.00,850.42,848.97,847.48,845.50,843.88,843.42,843.90,844.20,844.76,846.26,847.96,849.09,850.40,852.38,855.04,857.79,858.83,858.98,858.38,857.30,856.20,855.86,855.94,856.55,857.79,859.07,859.75,860.30,860.70,860.36,859.41,856.48,852.56,848.96,845.50,842.74,840.30,837.89,835.20,832.42,830.26,828.41,826.11,824.76,823.96,823.34,822.70,821.95,821.36,821.02,820.87,820.72,820.60,820.38,820.12,819.92,819.77,819.69,819.87,820.57,822.07,823.40,824.72,826.09,827.40,828.17,828.05,826.90,824.84,823.38,822.80,821.94,820.55,819.23,818.12,817.07,816.55,817.24,818.19,819.19,820.47,821.93,822.84,823.88,824.77,825.47,826.08,826.60,827.21,827.88,828.57,829.24,829.92,830.50,830.87,830.96,831.00,831.54,832.48,833.57,834.73,835.08,835.28,835.44,834.31,833.08,831.88,830.71,829.60,828.84,827.58,825.18,821.57,819.16,817.80,816.99,816.41,815.77,815.48,815.08,814.55,813.94,812.98,811.92,810.98,810.23,809.43,808.98,808.55,808.09,807.70,807.24,806.74,806.22,805.71,805.25,805.15,805.27,805.52,805.88,805.90,806.00,806.18,806.34,806.51,806.64,806.80,807.02,807.04,807.12,807.35,807.50,806.94,806.33,805.77,805.45,805.67,806.66,806.41,806.08,806.11,805.94,806.60,808.74,811.43,812.98,813.56,812.37,810.70,809.42,808.54,807.61,807.20,807.35,807.69,808.01,808.13,808.33,808.91,809.52,811.10,813.28,815.36,815.78,815.02,814.40,814.08,813.62,812.83,811.94,811.38,811.46,811.91,813.04,814.52,816.19,817.85,819.18,820.45,821.91,823.75,825.79,825.18,822.74,819.25,816.01,812.86,810.73,809.77,809.96,810.52,811.19,811.87,812.58,813.34,814.13,814.85,815.46,816.07
859.34,860.76,862.08,862.66,861.70,859.82,857.03,855.32,855.06,854.49,854.42,854.91,855.84,857.06,858.27,859.90,859.99,858.09,858.42,859.72,861.30,862.88,864.31,865.97,866.72,866.25,864.48,862.89,861.96,861.38,860.96,860.45,859.76,858.51,857.03,855.80,853.85,852.07,850.44,848.66,845.95,843.39,842.30,842.58,843.11,844.65,846.61,848.55,850.20,851.67,853.57,855.28,856.14,855.41,855.09,854.37,853.24,852.25,852.00,852.25,853.19,854.94,856.58,858.33,859.80,860.71,860.66,859.52,854.73,848.83,844.99,841.63,838.98,836.58,834.19,831.81,829.73,827.54,825.58,824.77,824.13,823.51,822.89,822.30,821.82,821.53,821.36,821.26,821.10,820.85,820.63,820.47,820.37,820.28,820.24,820.76,822.05,823.68,825.15,826.45,827.70,829.01,829.69,829.81,829.19,827.70,825.97,824.35,822.68,820.98,819.51,818.46,817.55,817.08,817.58,818.40,819.24,820.13,821.06,821.92,822.76,823.60,824.37,824.96,825.41,825.88,826.46,827.18,828.03,828.72,829.24,829.58,829.73,829.86,830.50,831.50,832.60,833.81,834.85,835.38,835.08,833.92,832.73,831.53,830.25,828.84,827.77,826.37,824.28,821.44,819.20,818.18,817.69,817.33,816.80,816.56,816.21,815.71,815.10,814.10,812.81,811.50,810.40,809.65,808.87,808.18,807.64,807.24,806.79,806.32,805.86,805.49,805.30,805.13,805.12,805.39,805.98,805.65,805.46,805.62,806.01,806.05,806.19,806.33,806.39,806.47,806.77,807.13,807.22,806.63,806.02,805.49,805.78,807.54,809.29,809.88,809.80,809.30,808.53,809.11,810.54,812.35,813.85,813.74,812.24,810.52,809.29,808.46,807.71,807.58,808.03,808.51,808.85,809.00,809.09,809.24,809.47,810.89,813.09,815.43,816.52,816.25,815.68,815.08,814.32,813.48,812.62,812.10,812.17,812.55,813.24,814.51,816.25,817.95,819.62,821.51,823.60,825.69,827.19,825.55,822.62,819.44,816.55,813.84,811.78,810.65,810.76,811.35,811.99,812.65,813.35,814.06,814.72,815.21,815.53,815.84
860.61,861.87,862.54,862.36,860.95,858.69,857.53,857.18,857.20,856.74,856.70,857.14,858.00,859.24,860.54,861.70,861.70,860.45,860.69,861.80,863.31,864.93,866.40,867.66,867.47,865.92,863.44,861.49,860.37,859.57,858.89,858.29,857.36,856.23,855.21,854.61,853.47,852.47,851.33,849.59,846.72,843.56,841.74,841.54,842.37,844.06,846.38,848.78,850.74,852.30,853.51,854.20,854.07,852.79,851.81,850.93,850.06,849.30,849.21,849.86,851.29,853.50,855.64,857.97,859.77,860.74,860.57,857.89,852.35,846.36,842.33,838.61,835.64,833.18,831.02,828.86,827.25,825.77,824.55,824.09,823.62,823.15,822.71,822.32,822.04,821.86,821.71,821.56,821.44,821.25,821.10,821.00,820.93,820.92,821.02,821.68,823.14,825.10,826.82,828.16,829.21,830.12,830.66,830.67,830.12,828.90,827.07,825.15,823.24,821.40,819.81,818.85,818.07,817.62,817.87,818.54,819.28,819.99,820.66,821.40,822.08,822.79,823.49,824.06,824.57,825.16,825.78,826.39,827.09,827.73,828.23,828.62,828.99,829.36,830.28,831.63,833.07,834.27,835.46,835.96,835.36,834.14,832.90,831.63,830.22,828.52,827.04,825.38,823.46,821.33,819.54,818.81,818.51,818.26,817.82,817.61,817.31,816.89,816.30,815.23,813.83,812.37,811.04,809.93,808.97,808.13,807.43,806.90,806.43,806.09,805.97,806.23,806.83,807.43,807.74,807.62,807.12,806.25,805.71,805.53,805.54,805.53,805.59,805.70,805.86,806.12,806.51,806.91,807.11,806.72,806.38,805.87,806.19,808.23,810.21,811.39,811.73,811.28,810.63,811.00,812.06,813.51,814.85,814.12,812.36,810.60,809.37,808.66,808.03,808.01,808.56,809.14,809.76,810.07,810.14,810.17,810.34,811.67,813.75,816.03,817.32,817.17,816.59,815.88,815.03,814.18,813.30,812.78,812.88,813.24,813.75,814.63,815.93,817.55,819.22,821.11,823.33,825.84,827.86,826.20,823.13,819.98,817.29,814.84,813.28,812.61,812.58,812.83,813.17,813.69,814.46,815.21,815.76,816.07,816.28,816.60
861.68,862.57,862.45,861.58,860.21,858.14,858.83,859.68,859.57,859.09,859.02,859.41,860.18,861.34,862.42,862.72,862.72,862.80,863.21,864.19,865.46,866.93,868.51,869.38,868.22,865.62,862.45,860.15,858.72,857.55,856.44,855.52,854.26,853.11,852.34,852.20,852.04,851.99,851.51,850.02,847.29,843.85,841.43,840.66,841.59,842.98,845.53,848.41,850.61,852.18,852.66,852.50,851.79,850.37,848.79,847.81,847.29,846.83,847.05,848.21,850.11,852.60,855.16,857.73,859.67,860.70,860.31,855.99,850.25,844.81,840.66,836.59,833.17,830.52,828.50,826.47,825.26,824.62,824.22,823.74,823.31,822.97,822.73,822.56,822.39,822.25,822.08,821.90,821.82,821.74,821.65,821.58,821.52,821.60,821.84,822.52,823.96,826.26,828.24,829.67,830.59,831.06,831.32,831.05,830.38,829.26,827.43,825.52,823.59,821.72,820.10,819.24,818.59,818.15,818.16,818.69,819.35,819.98,820.53,821.14,821.71,822.31,822.90,823.46,824.06,824.86,825.63,826.18,826.63,827.18,827.67,828.10,828.69,829.28,830.53,832.27,834.07,835.28,836.42,836.78,835.94,834.70,833.37,831.99,830.46,828.54,826.77,825.01,823.30,821.72,820.43,819.99,819.79,819.53,819.18,818.87,818.50,818.07,817.50,816.36,814.93,813.42,811.88,810.32,809.21,808.26,807.39,806.70,806.25,806.10,806.35,807.21,808.56,810.16,810.92,810.31,808.51,807.18,806.38,805.86,805.35,805.30,805.33,805.37,805.52,805.87,806.28,806.69,806.93,806.74,806.74,806.52,806.88,808.62,810.52,812.10,812.89,812.80,812.51,812.71,813.50,814.71,815.73,814.49,812.57,810.79,809.55,808.95,808.43,808.44,808.97,809.59,810.53,811.15,811.45,811.58,811.83,813.02,814.87,816.93,818.15,817.96,817.33,816.58,815.72,814.86,813.94,813.43,813.59,813.95,814.40,814.91,815.67,817.07,818.58,820.27,822.45,825.35,828.13,826.95,824.01,820.74,818.13,816.06,815.20,815.14,815.00,814.65,814.49,814.81,815.72,816.55,816.96,817.14,817.29,817.69
862.50,862.24,861.54,860.59,859.69,859.90,860.89,861.51,861.49,861.60,861.54,861.86,862.55,863.32,863.34,863.77,864.46,865.17,865.78,866.92,867.97,868.84,869.92,870.18,868.63,865.56,861.60,859.02,857.21,855.57,853.95,852.53,851.23,850.34,849.89,849.87,849.93,850.12,850.00,849.04,846.79,843.70,841.22,839.96,840.19,840.94,843.32,846.43,848.97,850.33,850.74,850.42,849.35,847.60,845.89,844.99,844.70,844.61,845.67,847.41,849.47,851.75,854.13,856.52,858.73,860.33,860.03,855.57,849.96,844.75,840.69,836.95,833.27,830.06,827.54,825.52,824.71,824.32,824.01,823.72,823.48,823.28,823.10,822.93,822.73,822.65,822.58,822.47,822.39,822.32,822.24,822.16,822.12,822.29,822.52,823.10,824.39,826.74,828.86,830.51,831.66,832.07,831.66,830.97,830.10,828.93,827.18,825.32,823.42,821.63,820.36,819.61,819.02,818.59,818.54,818.97,819.57,820.16,820.71,821.26,821.86,822.47,823.07,823.62,824.22,825.19,826.28,827.16,827.51,827.87,828.28,828.74,829.24,829.79,831.23,833.20,834.95,836.32,837.49,837.70,836.70,835.61,834.20,832.70,831.07,829.14,827.67,826.55,825.33,823.83,822.87,822.70,822.49,822.03,821.71,820.91,820.00,819.23,818.66,817.47,816.17,814.64,812.81,810.94,809.57,808.51,807.60,806.80,806.57,806.71,807.07,807.71,809.03,811.17,812.23,811.45,809.42,808.11,807.39,806.93,806.43,806.22,806.44,806.35,805.68,805.64,806.08,806.40,806.37,805.94,806.11,807.15,808.47,809.58,811.06,812.68,813.85,814.33,814.34,814.59,815.09,815.72,816.03,814.55,812.71,811.05,809.81,809.22,808.81,808.83,809.21,809.71,810.71,812.09,813.28,813.84,814.28,815.06,816.48,818.24,818.97,818.72,818.05,817.23,816.36,815.41,814.47,814.01,814.29,814.67,815.11,815.58,816.12,816.90,818.21,819.89,822.10,825.03,827.92,827.65,825.25,821.74,819.03,818.01,817.97,818.27,818.12,816.82,815.83,815.86,817.04,817.85,818.18,818.29,818.35,818.60
