867.95,866.49,865.03,863.70,862.69,862.09,861.31,860.50,859.86,859.53,859.37,858.64,857.25,855.32,853.24,851.50,850.20,849.35,848.63,847.78,846.88,845.98,845.09,844.10,843.46,842.73,841.44,840.13,839.25,838.64,838.30,838.24,838.32,838.42,838.48,838.38,838.34,838.20,837.96,837.52,836.61,836.32,836.51,836.88,836.99,837.19,837.37,837.55,837.73,837.76,836.84,835.40,833.78,832.41,831.08,830.02,829.21,828.56,828.21,827.95,827.70,827.47,827.41,827.38,827.35,827.31,827.16,826.94,826.67,826.24,825.53,824.77,824.06,823.48,823.02,822.58,822.23,821.89,821.45,820.77,820.21,819.97,819.87,819.81,819.80,819.75,819.72,819.73,819.79,819.81,819.81,819.81,819.81,819.81,819.81,819.81,819.81,819.83,819.87,819.91,819.98,820.13,820.26,820.46,821.30,823.15,824.91,825.83,824.55,821.64,820.07,819.64,819.44,819.23,819.06,819.16,819.37,819.60,820.23,822.59,827.71,831.80,834.30,836.04,835.60,834.16,832.72,831.98,832.16,832.49,833.01,834.42,838.09,839.99,838.87,835.88,832.57,829.49,826.61,823.76,821.21,819.99,819.59,819.66,820.39,822.54,825.60,828.80,831.86,833.76,831.24,828.56,826.18,824.45,824.39,825.74,827.26,828.57,829.73,831.39,832.75,833.91,835.05,836.32,836.98,836.39,834.74,832.64,830.12,826.62,822.85,819.83,818.62,817.74,817.06,816.54,815.82,814.67,813.39,812.11,810.91,810.25,810.08,810.06,810.01,809.96,809.86,809.79,809.79,809.81,809.92,810.78,812.66,815.75,818.98,820.32,820.26,818.54,814.13,810.98,809.67,809.44,809.20,808.93,808.83,808.81,808.76,808.63,808.53,808.37,808.08,807.63,807.13,806.62,806.27,806.28,806.47,806.80,807.07,807.23,807.37,807.36,807.33,807.32,807.31,807.27,806.72,805.73,804.40,803.08,801.73,800.62,799.94,799.90,799.90,799.95,800.23,801.07,802.70,804.11,804.10,802.55,801.23,800.31,799.84,799.68,799.60,799.47,799.47,799.53,799.59,799.60,799.60,799.56,799.48,799.40
864.89,863.17,861.76,860.75,860.20,859.84,859.41,858.92,858.46,858.16,857.49,856.28,854.67,852.83,850.88,849.49,848.46,847.68,847.20,846.61,845.62,844.37,843.36,842.29,841.42,840.68,839.95,839.11,838.45,837.84,837.27,836.97,836.75,836.62,836.55,836.50,836.45,836.45,836.48,836.46,836.08,835.65,835.62,835.92,836.06,836.28,836.49,836.70,836.87,837.02,836.28,835.05,833.63,832.32,831.00,829.98,829.25,828.71,828.41,828.00,827.49,826.97,826.55,826.26,826.08,825.97,825.81,825.58,825.37,825.00,824.31,823.64,823.07,822.55,822.07,821.60,821.18,820.77,820.39,820.15,819.96,819.90,819.87,819.81,819.80,819.78,819.76,819.78,819.85,819.87,819.87,819.87,819.87,819.87,819.87,819.87,819.90,820.05,820.33,820.64,821.06,821.82,822.63,824.04,825.85,827.62,828.53,828.04,824.96,820.64,819.85,819.60,819.42,819.26,819.16,819.24,819.40,819.57,819.90,820.99,825.54,830.17,833.82,836.54,838.00,838.00,837.13,836.09,836.16,836.35,836.78,837.91,840.30,840.50,838.46,835.18,831.78,829.04,826.69,824.21,821.75,820.70,820.52,820.80,821.85,824.63,827.63,830.56,833.27,834.69,831.56,829.03,827.04,825.62,825.63,827.01,828.68,830.39,832.21,833.82,835.11,836.28,837.19,837.16,836.07,834.40,832.51,830.58,827.24,823.57,820.54,818.83,817.81,816.91,816.16,815.53,814.61,813.39,812.18,811.10,810.26,809.96,809.86,809.84,809.84,809.83,809.77,809.74,809.74,809.74,809.80,810.13,811.28,813.86,817.06,819.00,819.08,817.07,813.49,810.82,809.67,809.42,809.14,808.88,808.69,808.54,808.39,808.28,808.16,808.00,807.77,807.38,807.12,806.86,806.72,806.88,807.11,807.46,807.78,808.03,808.23,808.29,808.31,808.31,808.25,807.84,806.95,805.75,804.37,803.00,801.78,800.79,800.13,799.93,799.90,800.26,801.11,802.61,804.40,804.47,803.34,801.64,800.48,799.98,799.75,799.62,799.55,799.53,799.58,799.66,799.73,799.74,799.74,799.69,799.61,799.48
862.19,860.76,859.64,858.84,858.38,858.12,857.89,857.61,857.22,856.62,855.55,854.17,852.62,851.01,849.42,848.30,847.41,846.62,846.08,845.45,844.53,843.35,842.07,840.98,840.06,839.38,838.95,838.46,838.01,837.53,837.04,836.72,836.41,836.10,835.82,835.54,835.24,835.02,834.98,835.12,835.10,834.80,834.75,835.00,835.18,835.40,835.63,835.85,836.03,836.24,835.84,834.97,833.77,832.44,831.11,830.09,829.44,829.13,828.89,828.34,827.65,826.95,826.24,825.67,825.25,824.97,824.73,824.46,824.20,823.84,823.24,822.67,822.18,821.71,821.25,820.80,820.45,820.13,819.90,819.90,819.90,819.88,819.85,819.81,819.80,819.82,819.84,819.85,819.92,820.19,820.30,820.31,820.41,820.48,820.63,820.83,821.11,821.54,822.21,822.90,823.70,824.88,826.09,827.81,829.48,830.45,830.35,827.61,823.56,819.95,819.69,819.53,819.40,819.31,819.25,819.31,819.45,819.60,819.86,820.69,824.43,828.91,833.11,836.41,839.03,840.15,840.10,839.44,839.52,839.59,839.88,840.63,841.78,840.71,837.96,834.39,830.90,828.50,826.51,824.49,822.62,822.11,822.16,822.53,823.62,826.36,829.22,832.05,834.55,835.58,832.24,829.71,827.90,826.69,826.61,827.77,829.42,831.43,833.92,836.00,837.35,838.10,838.05,836.63,834.38,831.99,829.70,827.42,823.97,820.95,818.89,817.96,817.04,816.11,815.28,814.52,813.56,812.47,811.46,810.60,810.01,809.91,809.85,809.79,809.77,809.76,809.73,809.69,809.66,809.68,809.74,809.81,810.37,812.01,814.59,816.34,816.24,814.25,812.05,810.38,809.60,809.36,809.08,808.84,808.59,808.36,808.16,808.02,807.86,807.72,807.58,807.36,807.32,807.25,807.27,807.53,807.78,808.10,808.44,808.76,809.04,809.29,809.43,809.36,808.92,808.18,807.08,805.96,805.01,804.06,803.15,802.32,801.63,801.35,801.38,801.89,802.93,804.40,805.01,803.82,802.16,800.78,800.02,799.80,799.70,799.59,799.58,799.64,799.72,799.79,799.89,800.07,800.02,799.87,799.69,799.52
860.02,859.40,858.74,857.96,857.17,856.84,856.59,856.35,855.91,854.80,853.59,852.37,851.13,849.87,848.74,847.76,846.87,846.02,845.15,844.27,843.61,842.86,841.28,840.18,839.43,838.89,838.49,838.21,837.95,837.79,837.69,837.52,837.25,836.79,836.21,835.58,834.89,834.14,833.67,833.68,833.74,833.82,833.94,834.11,834.34,834.57,834.80,835.02,835.24,835.40,835.42,835.04,834.10,832.78,831.43,830.42,829.84,829.75,829.51,828.86,828.08,827.34,826.46,825.64,824.94,824.41,824.02,823.65,823.24,822.82,822.40,821.93,821.47,821.01,820.55,820.11,819.98,819.93,819.90,819.90,819.90,819.85,819.81,819.80,819.81,819.86,819.89,819.93,820.16,820.99,821.32,821.34,821.56,821.76,822.19,822.78,823.50,824.33,825.48,826.61,827.73,829.04,830.12,830.97,831.36,830.98,829.79,824.62,820.79,819.80,819.63,819.48,819.41,819.38,819.32,819.38,819.51,819.66,820.11,821.77,824.74,828.46,832.34,835.63,838.45,840.21,841.16,841.56,841.86,841.96,842.15,842.48,842.57,840.75,837.51,833.66,830.13,828.01,826.16,824.69,823.95,824.22,824.48,824.80,825.57,827.54,830.21,833.16,835.67,836.44,833.33,830.62,828.74,827.67,827.45,828.19,829.64,831.80,834.83,837.81,839.29,839.20,837.54,834.95,832.31,829.50,826.52,823.50,820.86,819.20,818.12,817.21,816.30,815.40,814.50,813.63,812.79,812.02,811.32,810.67,810.10,809.93,809.85,809.77,809.71,809.71,809.70,809.66,809.61,809.61,809.67,809.76,809.90,810.37,811.85,812.64,812.10,810.62,810.12,809.75,809.47,809.24,809.00,808.77,808.49,808.25,808.08,807.88,807.67,807.57,807.57,807.61,807.72,807.77,807.87,808.18,808.48,808.74,809.08,809.54,810.02,810.52,810.79,810.52,809.35,808.38,807.30,806.57,806.45,806.31,805.88,805.21,804.51,804.22,804.34,804.72,805.38,805.98,804.26,802.28,800.79,800.04,799.84,799.74,799.66,799.62,799.69,799.76,799.88,800.00,800.19,800.67,800.47,800.08,799.75,799.52
858.69,858.53,858.07,857.31,856.38,855.64,855.26,855.00,854.66,853.91,852.81,851.61,850.41,849.22,848.07,847.11,846.24,845.38,844.46,843.57,842.81,842.03,840.82,839.93,839.49,839.27,839.10,838.95,838.82,838.75,838.74,838.71,838.54,838.12,837.55,836.93,836.27,834.90,833.56,832.91,832.96,833.08,833.18,833.32,833.54,833.78,834.01,834.24,834.45,834.53,834.60,834.54,834.13,833.12,832.10,831.25,830.67,830.43,829.92,829.13,828.28,827.47,826.60,825.74,824.94,824.23,823.71,823.30,822.90,822.49,822.10,821.68,821.27,820.85,820.44,820.04,819.92,819.90,819.90,819.90,819.90,819.85,819.80,819.81,819.85,819.89,819.90,820.27,821.83,823.33,823.91,823.82,823.59,823.76,824.36,825.11,825.94,827.03,828.33,829.66,830.95,832.02,832.13,831.78,831.10,829.62,826.01,822.13,819.99,819.72,819.61,819.54,819.52,819.52,819.49,819.47,819.58,819.73,820.18,821.87,824.68,827.95,831.23,833.99,836.24,838.40,840.23,841.41,842.30,843.27,843.90,843.86,842.84,840.82,837.50,833.52,829.96,827.95,826.40,825.62,825.88,826.48,826.84,827.15,827.76,829.36,832.10,835.32,837.59,837.44,834.77,832.12,830.12,829.01,828.88,829.24,830.56,832.89,836.12,839.05,840.03,839.13,836.57,833.65,830.73,827.53,824.18,821.22,819.41,818.27,817.38,816.61,815.87,815.17,814.45,813.72,813.02,812.36,811.72,811.11,810.51,810.03,809.85,809.77,809.70,809.65,809.63,809.60,809.54,809.54,809.61,809.69,809.75,809.87,810.45,810.73,810.43,809.76,809.63,809.48,809.31,809.11,808.88,808.65,808.39,808.17,808.02,807.89,807.83,807.83,807.88,807.97,808.11,808.25,808.48,808.82,809.14,809.39,810.01,811.17,812.47,812.85,812.70,811.85,809.93,809.12,808.72,808.64,808.85,808.94,808.64,808.15,807.60,807.11,806.69,806.32,805.85,804.91,802.71,801.08,800.15,799.84,799.75,799.71,799.69,799.68,799.76,799.83,800.27,800.80,801.21,801.65,800.94,800.18,799.76,799.53
857.56,857.65,857.38,856.73,855.71,854.69,854.05,853.65,853.36,852.98,852.15,851.05,849.83,848.64,847.43,846.67,846.00,845.16,844.30,843.48,842.70,841.99,841.39,840.70,840.52,840.62,840.69,840.70,840.59,840.50,840.51,840.55,840.40,839.94,839.28,838.62,837.98,836.23,834.20,832.74,832.37,832.38,832.45,832.56,832.77,833.00,833.23,833.47,833.66,833.66,833.72,833.82,833.78,833.07,832.34,831.67,831.14,830.81,830.17,829.32,828.42,827.57,826.72,825.87,825.02,824.21,823.55,823.08,822.67,822.28,821.90,821.52,821.18,820.86,820.54,820.26,820.09,819.98,819.90,819.90,819.90,819.86,819.83,819.84,819.89,819.90,820.17,821.21,823.84,826.00,826.88,826.72,825.97,825.68,826.25,827.13,828.16,829.66,831.15,832.36,833.17,833.28,832.43,831.02,829.36,827.10,822.62,820.48,819.76,819.69,819.66,819.67,819.68,819.67,819.64,819.58,819.64,819.77,820.15,821.52,824.21,827.13,829.81,831.97,833.60,835.92,838.38,840.34,841.95,843.67,844.86,844.92,843.25,841.16,837.97,834.06,830.31,828.24,827.05,826.89,827.86,828.92,829.52,829.92,830.44,831.64,834.12,837.32,839.44,838.89,836.80,834.31,832.44,831.53,831.49,831.56,832.61,834.74,837.76,840.23,840.45,838.79,835.72,832.64,829.45,825.97,822.48,819.90,818.74,817.89,817.12,816.45,815.85,815.28,814.69,814.07,813.43,812.75,812.08,811.40,810.71,810.08,809.85,809.77,809.72,809.66,809.64,809.58,809.52,809.50,809.53,809.58,809.63,809.66,809.71,809.72,809.66,809.53,809.43,809.29,809.13,808.96,808.75,808.52,808.32,808.14,808.03,807.97,808.05,808.16,808.27,808.36,808.48,808.67,808.93,809.36,809.95,810.68,811.82,813.48,815.33,815.51,814.95,813.71,811.47,810.80,810.92,811.08,810.91,810.63,810.20,809.68,809.07,808.32,807.48,806.57,805.30,803.33,801.30,800.28,799.87,799.79,799.74,799.72,799.74,799.77,799.86,800.20,801.02,801.87,802.33,802.21,801.06,800.12,799.74,799.53
856.45,856.58,856.58,856.18,855.13,854.05,853.04,852.34,851.97,851.68,851.30,850.42,849.20,848.00,846.88,846.63,846.39,845.62,844.90,844.22,843.65,843.33,843.46,842.89,842.88,843.24,843.50,843.69,843.49,843.28,843.23,843.15,842.86,842.16,841.21,840.30,839.57,837.84,835.53,833.29,831.95,831.69,831.75,831.84,832.00,832.22,832.46,832.68,832.87,832.83,832.87,832.94,832.88,832.39,831.79,831.28,830.91,830.64,830.17,829.39,828.50,827.66,826.81,825.97,825.13,824.28,823.50,822.92,822.45,822.05,821.73,821.35,821.12,820.94,820.79,820.72,820.49,820.16,819.90,819.90,819.90,819.89,819.88,819.89,819.90,819.92,820.86,822.97,825.87,828.57,829.82,829.71,828.53,827.30,827.56,828.57,830.04,832.22,833.92,834.52,833.96,832.31,830.82,828.72,826.23,823.61,820.85,819.96,819.76,819.72,819.78,819.91,820.01,820.01,819.88,819.73,819.70,819.77,820.03,820.84,823.25,825.84,828.04,829.66,830.91,833.08,835.83,838.60,840.98,843.04,844.80,845.64,844.06,841.94,839.11,835.50,831.37,828.98,828.19,828.53,829.84,831.62,832.68,833.30,833.75,834.43,836.06,838.76,840.92,841.01,839.56,837.40,836.00,835.68,835.60,835.55,836.11,837.50,839.79,841.46,840.73,838.42,835.20,831.98,828.54,824.91,821.56,819.56,818.73,818.13,817.53,816.92,816.35,815.75,815.15,814.54,813.88,813.08,812.26,811.41,810.57,810.08,809.89,809.82,809.79,809.78,809.72,809.65,809.58,809.51,809.44,809.43,809.45,809.51,809.53,809.53,809.49,809.39,809.25,809.10,808.94,808.78,808.62,808.40,808.26,808.17,808.10,808.09,808.26,808.47,808.65,808.74,808.82,808.96,809.20,809.72,810.96,812.85,814.73,816.45,818.26,818.25,817.49,816.20,814.25,813.57,813.67,813.35,812.00,810.71,809.91,809.09,808.09,807.08,806.14,805.20,803.86,801.84,800.40,799.97,799.87,799.81,799.81,799.82,799.88,799.97,800.14,801.08,802.26,803.17,803.26,802.03,800.65,799.87,799.68,799.52
855.29,855.36,855.47,855.37,854.73,853.51,852.38,851.44,850.71,850.19,849.90,849.22,848.23,847.36,846.90,847.32,847.47,846.76,846.16,845.99,845.97,846.09,846.45,846.34,846.59,847.02,847.31,847.48,847.28,846.82,846.08,844.97,843.77,842.55,841.43,840.57,839.77,838.34,836.41,834.22,832.26,831.34,831.08,831.17,831.28,831.46,831.67,831.89,832.04,831.95,831.98,831.88,831.53,831.03,830.61,830.27,829.99,829.74,829.34,828.69,827.93,827.17,826.40,825.64,824.88,824.12,823.37,822.75,822.33,822.03,821.80,821.54,821.37,821.23,821.16,821.21,820.99,820.46,819.94,819.91,819.90,819.90,819.90,819.90,819.91,820.24,821.72,824.33,827.22,829.88,831.47,831.73,830.51,829.19,829.01,829.97,832.01,834.52,835.05,834.17,832.51,830.64,829.09,827.09,824.80,822.50,820.65,820.00,819.84,819.82,819.95,821.06,822.15,822.51,821.51,820.19,819.78,819.80,820.01,820.67,822.38,824.46,826.46,828.01,829.32,831.38,834.07,837.06,839.92,842.23,844.38,845.93,845.25,843.39,841.04,838.06,834.15,830.74,830.00,831.00,833.02,835.17,836.41,836.94,837.10,837.33,838.11,839.95,841.96,843.02,842.40,840.74,839.58,839.32,839.27,839.20,839.42,840.11,841.35,842.12,840.88,838.32,835.01,831.78,828.20,824.78,821.86,819.87,819.12,818.60,818.02,817.40,816.78,816.10,815.60,815.34,815.11,814.32,813.35,812.37,811.41,810.84,810.45,810.12,809.88,809.85,809.79,809.72,809.63,809.56,809.44,809.35,809.32,809.38,809.34,809.33,809.30,809.21,809.10,808.92,808.74,808.61,808.53,808.40,808.33,808.30,808.27,808.27,808.46,808.69,808.90,809.06,809.19,809.31,809.48,810.00,811.62,813.99,816.41,818.47,819.80,819.74,819.01,817.78,815.88,814.38,813.28,812.11,810.69,809.56,808.83,808.03,807.02,805.94,804.88,803.74,802.49,801.18,800.20,799.92,799.88,799.89,800.06,800.30,800.70,801.27,802.06,803.19,804.02,804.11,803.12,801.46,800.32,799.79,799.67,799.53
854.06,854.08,854.25,854.42,854.21,853.14,851.99,850.88,849.85,849.00,848.52,848.12,847.69,847.33,847.54,848.35,848.78,848.35,847.97,848.18,848.54,848.89,849.28,849.54,849.83,850.09,850.16,849.96,849.47,848.55,847.08,845.11,843.28,841.82,840.72,840.00,839.19,838.10,836.65,834.79,832.66,831.18,830.54,830.53,830.59,830.72,830.91,831.09,831.17,831.03,830.99,830.74,830.19,829.69,829.38,829.12,828.86,828.61,828.23,827.70,827.08,826.38,825.69,825.03,824.45,823.92,823.39,822.76,822.37,822.17,822.02,821.87,821.71,821.61,821.62,821.72,821.50,820.86,820.13,819.93,819.90,819.90,819.90,819.92,820.08,820.81,822.58,825.24,828.02,830.53,832.49,833.37,832.59,831.60,831.21,832.05,834.17,836.17,835.21,833.01,830.68,829.00,827.54,825.80,823.95,822.26,821.13,820.54,820.25,820.18,820.53,822.55,824.66,825.61,824.27,821.81,820.67,820.26,820.26,820.99,822.23,823.87,825.60,827.00,828.40,830.38,832.91,835.91,838.94,841.44,843.89,846.06,846.61,845.17,843.28,840.95,837.63,833.93,833.13,834.34,836.67,838.83,840.14,840.63,840.58,840.51,840.64,841.69,843.36,844.96,845.21,844.15,843.10,842.60,842.50,842.30,842.27,842.44,842.65,842.50,840.96,838.41,835.21,832.04,828.58,825.59,823.18,821.12,819.86,819.07,818.45,817.79,817.11,816.35,815.93,815.99,816.24,815.73,814.94,814.04,813.02,812.29,811.83,811.41,810.94,810.61,810.16,809.85,809.72,809.62,809.47,809.32,809.23,809.24,809.18,809.15,809.11,809.04,808.96,808.80,808.66,808.59,808.58,808.52,808.49,808.48,808.46,808.45,808.64,808.88,809.11,809.34,809.52,809.95,810.55,811.40,813.17,815.46,817.87,819.95,820.83,820.58,819.73,818.39,816.40,814.17,812.06,810.31,809.09,808.25,807.59,806.84,805.94,805.00,804.04,802.90,801.84,801.16,800.49,800.27,800.38,800.73,801.23,801.72,802.37,803.26,804.41,805.18,805.13,804.16,802.36,800.80,800.05,799.75,799.66,799.57
852.72,852.75,853.02,853.30,853.36,853.10,852.03,850.84,849.79,848.57,847.48,847.58,848.31,848.63,849.16,849.73,850.20,850.50,850.58,850.69,850.85,851.03,851.23,851.44,851.32,850.93,850.33,849.22,847.68,845.96,844.11,842.11,840.69,839.69,838.97,838.43,837.74,836.88,835.77,834.35,832.87,831.24,830.23,829.94,829.95,830.03,830.17,830.28,830.27,830.08,829.83,829.53,829.17,828.76,828.39,828.02,827.70,827.44,827.02,826.55,825.98,825.29,824.61,824.08,823.84,823.87,823.81,823.14,822.72,822.56,822.41,822.25,822.10,822.07,822.18,822.25,822.02,821.40,820.60,820.00,819.90,819.90,819.90,820.01,820.58,821.77,823.38,825.43,828.05,830.50,832.92,834.76,835.19,834.92,834.88,835.57,836.72,836.57,834.23,831.53,829.25,827.76,826.46,824.88,823.45,822.59,822.21,821.83,821.34,821.06,821.94,824.31,826.92,828.78,828.63,825.69,823.24,821.62,821.04,822.09,823.57,825.03,826.22,827.00,828.34,830.24,832.65,835.49,838.21,840.80,843.46,846.09,848.08,847.29,845.74,843.89,841.61,839.54,838.66,839.08,840.66,842.21,843.59,844.27,844.33,844.20,844.15,844.78,845.78,846.85,847.93,847.57,846.48,845.35,845.01,844.36,844.22,844.23,843.59,842.55,840.92,838.76,836.06,833.03,830.18,827.89,826.02,823.99,821.07,819.46,818.67,817.94,817.24,816.48,816.04,816.12,816.70,817.00,817.05,816.68,815.70,814.81,814.68,814.62,814.07,812.85,811.18,810.15,809.85,809.69,809.54,809.39,809.25,809.13,809.05,808.98,808.94,808.91,808.84,808.80,808.81,808.84,808.84,808.83,808.78,808.72,808.65,808.59,808.81,809.07,809.31,809.54,809.78,811.21,813.29,815.22,816.81,818.19,819.56,820.82,821.51,820.72,819.27,817.46,815.20,812.86,810.82,809.25,808.22,807.31,806.44,805.65,804.98,804.49,804.10,803.46,802.71,802.08,801.45,801.29,801.87,803.14,804.22,804.92,805.47,806.07,806.73,806.25,804.57,802.55,800.91,800.15,799.88,799.73,799.63,799.67
851.90,851.75,851.89,852.11,852.28,852.29,851.68,850.89,849.99,848.68,847.99,848.73,849.99,850.32,850.99,851.45,851.89,852.42,852.69,852.47,852.15,851.83,851.52,851.28,850.23,848.50,846.44,844.72,843.50,842.45,841.36,840.13,839.17,838.39,837.69,836.96,836.29,835.56,834.63,833.45,832.15,830.84,829.98,829.63,829.52,829.53,829.62,829.64,829.48,829.29,828.95,828.61,828.27,827.85,827.46,827.05,826.64,826.26,825.98,825.65,825.32,825.03,824.76,824.58,824.59,824.62,824.24,823.47,823.06,822.90,822.75,822.59,822.55,822.64,822.83,822.95,822.61,821.93,821.10,820.38,820.00,819.90,820.07,820.65,821.94,823.44,824.89,826.37,828.32,830.67,833.29,835.74,837.35,837.83,837.98,838.22,838.21,836.36,833.26,830.57,828.60,827.07,825.62,824.74,824.31,824.24,824.33,824.03,823.51,823.04,823.26,825.53,828.21,830.36,830.94,828.52,825.90,823.65,822.36,823.47,825.03,826.54,827.73,828.26,829.28,831.30,833.80,836.27,838.40,840.84,843.45,846.12,848.72,849.90,848.76,846.33,843.99,841.96,840.99,841.43,843.25,845.06,846.82,847.87,848.22,848.18,848.14,848.48,849.06,849.64,849.86,849.37,848.35,847.05,846.05,845.02,844.58,844.23,843.15,841.88,839.98,837.73,835.43,833.70,832.00,830.39,828.63,825.99,822.03,819.80,818.79,818.06,817.37,816.61,816.14,816.20,816.86,817.43,817.81,817.94,817.68,817.21,817.48,817.71,817.13,815.26,813.14,811.40,810.25,809.81,809.60,809.45,809.29,809.15,809.07,808.99,808.95,808.93,808.87,808.92,809.02,809.11,809.11,809.11,809.05,808.98,808.93,808.79,808.91,809.14,809.41,809.78,811.00,813.55,816.38,818.32,819.54,820.37,821.18,821.83,821.44,820.17,818.50,816.61,814.52,812.33,810.40,808.94,808.09,807.59,806.95,806.33,805.84,805.49,805.21,804.63,803.88,803.22,802.73,802.90,803.93,805.65,807.00,807.88,808.35,808.31,807.44,805.73,803.35,801.28,800.24,799.91,799.78,799.71,799.67,799.74
851.24,850.92,850.89,850.96,851.10,851.16,851.00,850.61,849.84,848.54,848.55,849.87,851.37,851.64,852.32,852.73,853.12,853.62,853.84,853.29,852.51,851.73,850.91,850.14,847.96,844.89,841.95,840.10,839.52,839.33,839.10,838.64,838.03,837.36,836.57,835.60,834.89,834.21,833.45,832.50,831.30,830.39,829.81,829.45,829.21,829.13,829.13,829.06,828.78,828.58,828.21,827.84,827.54,827.16,826.80,826.44,826.06,825.66,825.54,825.37,825.26,825.32,825.46,825.60,825.67,825.48,824.64,823.81,823.39,823.23,823.08,822.98,823.09,823.29,823.52,823.68,823.20,822.44,821.62,820.86,820.22,820.08,820.49,821.61,823.56,825.33,826.65,827.65,828.93,831.14,833.82,836.62,839.09,840.13,840.28,839.94,838.81,835.76,832.30,829.81,828.21,826.66,825.25,825.14,825.70,826.28,826.70,826.53,826.05,825.38,824.74,826.56,829.06,831.38,832.59,830.66,828.13,825.61,823.88,824.82,826.35,827.99,829.38,830.12,830.97,833.11,835.64,837.66,839.20,841.30,843.65,846.06,848.53,851.13,850.46,847.75,845.38,843.07,842.04,842.68,844.87,846.91,848.87,850.18,850.79,850.91,851.11,851.48,851.71,851.37,850.20,849.30,848.40,847.29,845.93,844.70,844.08,843.55,842.27,840.88,838.59,835.99,833.84,833.26,832.60,831.50,829.71,826.63,822.37,819.93,818.83,818.14,817.48,816.73,816.25,816.27,816.93,817.56,818.10,818.60,819.07,819.16,819.82,820.24,819.55,817.25,814.88,812.53,810.56,809.89,809.65,809.50,809.35,809.22,809.15,809.07,809.03,809.00,808.97,809.07,809.22,809.34,809.36,809.38,809.32,809.27,809.21,809.01,808.99,809.18,809.48,809.99,812.26,815.74,818.94,820.54,821.37,821.98,822.56,822.69,821.14,819.48,817.71,815.87,814.01,812.09,810.30,808.98,808.38,808.34,808.02,807.62,807.26,806.97,806.64,805.97,805.15,804.45,804.15,804.69,806.09,808.10,809.65,810.48,810.60,809.77,807.45,804.82,802.14,800.32,799.92,799.82,799.75,799.72,799.73,799.82
850.54,850.34,850.17,850.01,849.88,849.83,849.69,849.23,848.32,847.16,847.84,849.36,850.82,851.48,851.87,852.27,852.64,852.83,852.51,851.78,850.98,850.13,849.06,848.04,844.51,840.81,839.60,838.74,838.50,838.38,838.12,837.71,837.03,836.32,835.52,834.48,833.59,832.88,832.35,831.86,830.97,830.29,829.81,829.42,829.08,828.81,828.65,828.49,828.24,827.90,827.57,827.32,827.21,827.11,826.93,826.86,826.87,826.83,826.81,826.69,826.57,826.55,826.69,826.79,826.51,825.82,824.98,824.18,823.75,823.55,823.44,823.56,823.80,824.09,824.33,824.35,823.71,822.92,822.14,821.38,820.74,820.83,821.60,823.04,825.21,827.22,828.53,829.29,830.37,832.33,834.88,837.60,839.89,840.87,840.72,839.68,837.65,834.55,831.36,829.20,827.88,826.66,826.09,826.50,827.37,828.22,828.82,829.02,828.65,827.73,826.75,827.50,829.55,832.19,834.14,831.76,828.94,826.67,825.43,825.76,827.18,828.86,830.64,832.62,834.00,836.08,838.25,839.78,840.95,842.43,844.11,845.66,846.58,847.69,847.53,846.50,845.31,843.20,842.21,842.86,844.87,846.17,847.50,848.53,849.18,849.52,850.46,851.70,851.59,848.93,846.43,844.98,844.31,844.06,843.58,842.64,842.46,842.46,841.35,839.64,836.70,833.41,830.69,829.70,829.15,828.10,826.33,823.93,821.01,819.45,818.71,818.09,817.51,816.84,816.36,816.34,817.00,817.63,818.22,818.80,819.33,819.82,820.82,821.17,820.01,817.75,815.05,812.34,810.25,809.85,809.65,809.50,809.37,809.29,809.26,809.20,809.13,809.09,809.13,809.22,809.35,809.50,809.61,809.68,809.65,809.55,809.42,809.25,809.13,809.24,809.54,810.04,812.69,816.40,819.52,820.71,821.31,822.43,823.21,822.88,820.89,818.98,817.15,815.36,813.59,811.93,810.41,809.43,809.27,809.41,809.24,808.94,808.64,808.43,807.99,807.27,806.44,805.78,805.71,806.46,808.04,810.26,812.16,812.16,811.10,809.35,806.84,804.22,801.62,800.00,799.89,799.82,799.79,799.78,799.80,799.94
849.70,849.46,849.18,848.91,848.70,848.61,848.47,848.11,847.35,846.23,846.97,848.37,849.65,850.29,850.73,851.08,851.31,851.28,850.71,849.83,848.86,847.84,846.70,845.69,842.64,839.58,838.84,838.18,837.84,837.54,837.16,836.76,836.14,835.48,834.85,834.32,833.95,833.58,833.27,832.92,832.08,831.11,830.23,829.58,829.29,828.98,828.73,828.50,828.27,828.06,827.90,827.81,827.78,827.76,827.64,827.64,827.79,827.99,828.08,828.02,827.87,827.75,827.83,827.59,827.00,826.14,825.30,824.51,824.10,823.96,823.95,824.18,824.48,824.80,825.06,824.94,824.26,823.47,822.70,822.01,821.88,822.40,823.31,824.55,826.37,828.66,830.55,831.80,832.80,834.38,836.52,838.84,840.65,841.17,840.47,838.78,836.15,833.13,830.56,828.87,827.78,826.85,826.83,827.55,828.64,829.84,830.78,831.04,830.85,830.14,828.68,828.71,830.55,833.40,835.60,833.08,830.08,827.87,826.86,826.83,827.93,829.62,831.82,834.67,836.70,838.69,840.46,841.70,842.69,843.24,843.57,843.69,843.48,843.50,843.38,843.10,842.68,841.59,841.09,841.51,842.72,843.57,844.37,845.10,845.91,847.13,848.89,849.57,848.21,844.59,842.10,840.69,840.17,840.25,840.21,840.17,840.75,841.25,840.31,837.86,834.50,831.25,828.76,827.30,826.10,824.59,822.82,821.25,819.70,818.92,818.47,817.88,817.31,816.67,816.34,816.51,817.12,817.70,818.33,818.96,819.59,820.57,821.68,821.68,819.90,817.55,814.71,812.04,810.15,809.84,809.69,809.59,809.51,809.43,809.36,809.29,809.21,809.17,809.28,809.39,809.52,809.70,809.95,810.41,810.48,810.17,809.64,809.42,809.27,809.31,809.55,810.03,812.56,815.73,818.34,819.52,820.32,821.92,823.36,823.55,821.15,819.07,817.25,815.55,813.89,812.30,810.87,810.29,810.93,811.62,811.96,811.84,811.44,811.08,809.61,808.43,807.68,807.22,807.29,808.13,810.06,812.63,813.51,812.06,810.27,808.53,806.42,803.96,801.51,799.99,799.92,800.00,800.08,800.01,799.86,800.05
848.74,848.41,848.07,847.76,847.54,847.45,847.31,847.08,846.57,845.49,846.03,847.19,848.24,848.67,849.24,849.48,849.51,849.31,848.57,847.57,846.42,845.22,844.09,843.22,841.38,839.51,838.73,837.96,837.40,836.89,836.41,836.04,835.59,835.07,834.68,834.77,835.10,835.19,835.09,834.75,833.89,832.48,831.05,829.98,829.69,829.39,829.09,828.82,828.64,828.62,828.68,828.74,828.77,828.77,828.63,828.59,828.78,829.24,829.50,829.52,829.31,828.92,828.80,828.15,827.32,826.47,825.63,824.84,824.46,824.40,824.53,824.83,825.15,825.50,825.76,825.52,824.83,824.04,823.32,822.90,823.50,824.49,825.46,826.29,827.45,829.87,832.40,834.43,835.63,836.85,838.49,840.21,841.34,841.15,839.76,837.46,834.50,831.66,829.83,828.64,827.81,827.25,827.57,828.38,829.58,831.13,832.55,832.96,833.05,832.67,830.84,830.38,832.09,835.04,837.36,835.16,831.89,829.34,828.18,827.96,828.79,830.56,833.17,836.56,839.18,841.06,842.35,843.12,843.82,843.45,842.37,840.99,839.91,839.30,839.14,839.21,839.27,839.27,839.33,839.51,839.86,840.44,840.82,841.32,842.36,844.56,847.04,846.61,843.85,840.07,837.98,836.70,836.14,836.18,836.38,837.34,838.76,839.81,839.14,835.98,832.42,829.50,827.51,825.66,823.70,821.62,819.76,818.85,818.42,818.24,818.01,817.52,816.97,816.43,816.34,816.75,817.29,817.84,818.47,819.13,819.92,821.49,822.38,821.77,819.42,816.97,814.31,812.05,810.57,810.19,809.94,809.79,809.69,809.61,809.47,809.37,809.29,809.26,809.40,809.56,809.75,810.03,810.55,811.52,811.67,810.99,809.86,809.56,809.39,809.40,809.57,810.00,812.07,814.42,816.44,817.84,819.03,821.07,823.32,824.41,821.68,819.43,817.62,816.02,814.48,812.88,811.56,811.43,812.90,814.27,815.25,815.44,815.00,814.48,812.00,810.15,809.22,808.98,809.28,810.33,812.57,815.03,813.96,811.12,808.94,807.54,805.94,803.76,801.71,800.49,800.49,800.76,800.93,800.69,800.19,800.31
847.58,847.21,846.90,846.65,846.44,846.35,846.17,845.97,845.60,844.71,845.06,846.03,846.91,847.08,847.53,847.51,847.33,847.05,845.92,844.81,843.68,842.50,841.39,840.69,839.86,839.05,838.51,837.77,837.30,836.88,836.45,836.24,836.13,835.94,835.78,835.96,836.41,836.79,836.92,836.65,835.96,834.38,832.56,830.99,830.23,829.84,829.57,829.36,829.27,829.31,829.47,829.68,829.87,829.91,829.66,829.56,829.90,830.87,831.49,831.69,831.25,830.15,829.33,828.49,827.64,826.79,825.95,825.16,824.85,824.90,825.18,825.53,825.89,826.30,826.58,826.24,825.41,824.56,824.10,824.60,825.89,827.21,828.21,828.75,829.04,830.87,833.40,836.05,838.28,839.56,840.70,841.62,841.74,840.64,838.40,835.62,832.74,830.44,829.14,828.35,827.96,828.12,828.45,828.91,829.89,831.74,833.86,835.26,835.88,835.56,834.09,833.37,834.81,837.69,840.36,839.70,835.71,831.63,829.32,829.07,830.15,832.33,835.29,838.60,841.40,843.12,843.63,842.99,842.66,841.96,840.41,838.19,836.46,836.27,836.62,836.98,837.10,837.13,837.32,837.56,837.84,838.32,838.57,839.12,840.39,842.96,845.61,844.41,841.13,837.95,835.56,833.65,832.43,832.06,832.52,833.78,835.82,837.70,837.70,834.58,831.28,828.64,826.75,824.90,823.00,820.75,818.51,817.37,817.17,817.11,816.99,816.78,816.52,816.38,816.56,817.07,817.61,818.20,818.79,819.45,820.51,822.87,822.75,820.96,818.45,816.11,814.51,813.39,812.58,811.85,810.99,810.26,809.82,809.74,809.64,809.52,809.41,809.38,809.53,809.68,810.07,810.79,811.94,813.31,813.27,811.94,810.01,809.68,809.52,809.50,809.63,809.96,811.14,812.88,814.77,816.50,818.17,820.49,823.35,825.25,822.39,819.88,817.98,816.44,814.95,813.44,812.54,812.91,814.78,816.66,818.26,819.07,819.12,818.71,816.84,814.19,812.07,811.82,812.75,814.74,816.79,817.25,812.98,809.97,807.99,806.49,804.95,803.27,802.38,802.33,802.97,803.36,803.47,802.79,801.56,801.15
846.38,846.04,845.78,845.54,845.34,845.22,845.04,844.84,844.55,843.95,844.12,844.84,845.51,845.50,845.79,845.52,845.08,844.59,843.29,842.26,841.37,840.52,839.74,839.20,838.88,838.61,838.24,837.65,837.32,837.05,836.84,836.85,837.00,837.00,836.96,837.19,837.69,838.21,838.57,838.55,838.06,836.47,834.46,832.51,831.10,830.52,830.38,830.39,830.45,830.68,831.01,831.47,831.98,832.20,832.11,832.13,832.57,833.50,833.10,832.30,831.32,830.21,829.35,828.58,827.82,827.05,826.27,825.52,825.33,825.55,825.90,826.31,826.70,827.11,827.37,826.93,826.04,825.14,824.87,826.10,827.78,829.51,830.96,831.83,832.05,832.96,834.73,837.22,839.86,841.49,842.20,842.15,841.20,839.31,836.56,833.65,831.13,829.60,828.84,828.53,828.62,829.24,829.68,829.92,830.59,832.27,834.71,836.84,838.59,839.28,837.45,836.36,837.39,839.84,842.19,842.27,839.11,835.33,832.74,832.41,833.19,835.03,837.77,840.92,842.36,842.90,842.60,841.43,840.67,838.81,836.52,834.44,833.40,833.66,834.27,834.79,835.01,835.10,835.34,835.63,835.94,836.44,836.82,837.76,839.49,841.93,844.26,842.98,839.87,836.90,834.14,831.83,830.30,829.71,829.99,831.14,833.40,835.97,837.12,834.08,830.84,828.29,826.44,824.62,822.77,820.56,818.37,817.32,817.11,817.06,816.97,816.74,816.39,816.43,816.80,817.39,817.97,818.56,819.13,820.05,821.87,824.15,823.03,820.41,817.98,816.47,815.75,815.50,815.34,814.67,813.59,812.39,811.30,810.47,809.91,809.66,809.53,809.48,809.66,809.87,810.82,812.43,814.27,815.71,814.89,812.62,810.09,809.76,809.62,809.58,809.69,809.95,810.76,812.26,814.12,816.07,818.01,820.56,823.68,825.92,823.30,820.45,818.37,816.87,815.40,813.96,813.40,814.04,815.96,818.00,820.17,821.68,822.30,822.07,820.66,818.24,816.09,815.67,816.68,818.57,819.73,818.38,812.32,809.36,807.62,806.13,804.65,803.42,803.50,804.47,805.73,806.37,806.25,805.19,803.51,802.39
845.17,844.91,844.68,844.44,844.22,844.06,843.90,843.71,843.47,843.17,843.18,843.61,844.04,843.92,844.01,843.53,842.86,842.17,840.97,840.16,839.63,839.24,838.94,838.64,838.53,838.44,838.14,837.73,837.48,837.37,837.41,837.70,838.00,838.10,838.14,838.43,838.97,839.62,840.17,840.40,839.95,838.42,836.39,834.18,832.16,831.49,831.57,831.86,832.07,832.55,833.07,833.80,834.68,835.20,835.44,835.65,836.02,836.28,834.01,831.76,830.24,829.56,829.05,828.45,827.83,827.19,826.52,825.88,825.88,826.27,826.68,827.13,827.55,827.93,828.12,827.61,826.69,825.79,825.63,827.32,829.13,831.34,833.51,835.12,835.81,835.82,836.51,838.31,840.84,842.80,843.01,841.88,839.98,837.51,834.57,831.83,829.84,829.10,828.85,829.07,829.71,830.66,831.33,831.49,831.79,832.94,835.31,837.82,840.77,842.83,840.50,839.13,839.74,841.52,843.13,843.24,841.75,839.53,837.47,837.16,837.36,838.38,840.28,842.64,841.82,840.71,839.75,838.79,838.05,834.90,831.99,830.61,830.85,831.41,832.06,832.60,832.94,833.12,833.39,833.71,834.09,834.70,835.40,836.95,839.16,841.22,842.94,841.98,839.39,836.33,833.20,830.78,829.24,828.56,828.43,829.32,831.45,834.40,836.80,834.14,830.91,828.32,826.51,824.72,822.89,820.86,819.00,818.18,817.86,817.72,817.52,817.08,816.45,816.53,817.01,817.69,818.32,818.89,819.57,820.96,823.66,825.26,823.36,820.35,818.18,817.83,817.75,818.05,818.46,818.13,816.99,815.39,813.52,811.57,810.21,809.77,809.63,809.57,809.78,810.21,811.89,814.47,816.93,818.25,816.49,813.29,810.38,809.87,809.68,809.65,809.79,810.16,810.96,812.33,814.12,816.18,818.24,820.95,824.13,826.42,824.32,821.14,818.83,817.34,815.88,814.48,814.17,814.95,816.68,818.63,821.26,823.51,824.84,824.83,823.63,821.94,820.46,819.90,820.60,821.49,821.22,818.45,811.93,809.15,807.61,806.21,804.87,804.07,804.88,806.56,808.30,809.34,808.96,807.63,805.71,803.91
844.05,843.81,843.58,843.33,843.06,842.89,842.74,842.57,842.38,842.19,842.13,842.31,842.48,842.28,842.10,841.52,840.89,840.45,839.88,839.47,839.14,838.96,839.08,839.26,839.48,839.45,838.94,838.45,838.10,837.95,838.07,838.41,838.77,839.07,839.34,839.74,840.54,841.53,842.21,842.09,840.87,839.30,837.35,835.11,833.10,833.04,833.49,833.90,834.20,834.72,835.25,836.05,837.14,838.11,838.65,838.88,838.54,836.73,832.89,830.63,829.60,829.09,828.66,828.13,827.54,826.96,826.49,826.18,826.43,826.97,827.50,827.98,828.42,828.77,828.84,828.31,827.36,826.50,826.38,827.88,829.63,832.40,835.36,837.66,838.97,839.01,839.19,840.18,842.19,843.50,842.70,840.60,838.33,835.84,833.20,831.00,829.64,829.20,829.25,829.99,831.30,832.82,833.96,834.26,834.17,834.37,836.04,838.24,840.92,843.02,841.96,841.21,841.61,842.69,843.54,843.09,842.55,841.95,841.46,841.72,841.98,842.15,841.98,840.76,838.03,836.14,835.23,835.00,834.55,832.16,830.13,829.37,829.55,829.89,830.26,830.61,830.89,831.15,831.45,831.82,832.33,833.03,834.42,836.43,838.70,840.58,841.73,840.84,838.47,835.22,831.92,829.89,828.57,827.73,827.48,828.39,829.93,832.23,835.11,834.31,831.48,828.82,827.19,825.38,823.57,821.85,820.31,819.19,818.72,818.26,817.69,817.08,816.40,816.55,817.10,817.80,818.52,819.18,820.40,822.44,825.14,825.96,824.12,821.58,819.94,820.23,820.34,820.67,821.25,821.41,819.63,817.51,815.19,812.56,810.42,809.78,809.68,809.68,809.92,811.17,813.24,815.82,818.43,819.83,818.02,814.80,811.75,810.19,809.79,809.78,810.13,811.29,812.09,812.90,814.16,816.19,818.23,820.93,824.12,826.59,825.29,822.07,819.50,817.86,816.45,815.05,815.02,815.96,817.47,819.08,821.77,824.84,827.27,827.45,826.11,824.42,823.19,823.02,823.38,822.23,820.10,816.84,811.60,809.09,807.58,806.29,805.27,805.09,806.19,807.84,809.52,811.14,810.94,809.56,807.52,805.60
843.62,843.36,843.08,842.78,842.44,842.05,841.78,841.56,841.36,841.15,841.06,841.08,841.10,840.91,840.69,840.25,839.83,839.58,839.34,839.17,839.05,839.05,839.41,840.01,840.51,840.48,839.65,839.07,838.67,838.51,838.64,838.96,839.34,840.18,841.20,841.85,842.69,843.49,843.52,842.33,840.69,839.13,837.38,835.47,834.00,834.50,835.34,835.99,836.40,836.92,837.50,838.33,839.44,840.51,840.80,840.32,838.71,835.23,831.51,829.84,829.23,828.79,828.32,827.82,827.34,826.94,826.68,826.59,826.88,827.42,828.08,828.63,829.35,829.90,830.00,829.49,828.52,827.68,827.39,828.28,829.85,832.93,836.42,839.27,841.00,841.45,841.71,842.36,843.53,843.48,841.81,839.45,837.30,834.97,832.52,830.65,829.72,829.49,830.05,831.52,833.56,835.51,836.81,837.11,836.73,836.19,836.84,838.53,840.81,842.84,842.96,842.84,843.08,843.53,843.80,843.46,843.21,842.95,842.63,842.39,841.92,840.99,839.33,836.46,833.85,832.28,831.69,831.86,831.69,830.34,829.13,828.60,828.54,828.66,828.88,829.13,829.37,829.67,829.96,830.32,830.88,831.90,833.77,836.00,838.16,839.67,840.17,839.21,837.00,833.80,830.76,828.96,827.69,826.78,826.65,827.65,828.89,830.68,833.45,834.41,832.06,829.33,827.75,826.04,824.34,822.76,821.28,819.85,819.18,818.52,817.78,817.06,816.35,816.56,817.16,817.88,818.64,819.35,820.95,823.45,826.27,827.28,825.75,823.62,822.47,823.33,823.89,824.32,824.63,824.28,821.66,818.89,816.18,813.27,810.64,809.85,809.75,809.85,810.32,812.29,814.73,817.27,819.70,820.98,819.30,816.39,813.54,811.34,810.23,810.00,810.81,813.07,814.11,814.46,814.93,816.25,818.19,820.90,824.27,827.23,826.67,823.11,820.09,818.22,816.84,815.59,815.58,816.44,817.80,819.22,821.94,825.45,828.61,829.21,828.24,826.87,825.91,825.65,824.49,821.66,818.39,815.05,811.19,809.11,807.67,806.52,805.87,806.14,807.17,808.52,810.08,812.19,812.49,811.22,809.02,807.04
843.92,843.61,843.24,842.84,842.36,841.60,841.12,840.78,840.48,840.20,840.08,840.05,840.02,839.93,839.84,839.71,839.56,839.39,839.19,839.13,839.18,839.36,839.77,840.64,841.44,841.43,840.22,839.57,839.19,839.05,839.16,839.43,839.92,841.57,843.65,844.66,845.34,845.30,843.96,841.30,839.66,838.20,836.78,835.54,835.00,835.86,837.03,838.01,838.60,839.20,839.87,840.66,841.55,842.21,841.71,839.79,836.57,832.40,830.24,829.42,829.05,828.63,828.06,827.61,827.34,827.24,827.14,827.11,827.25,827.64,828.38,829.07,830.27,831.30,831.67,831.25,830.33,829.34,828.60,828.63,829.88,832.98,836.71,839.91,841.87,843.00,843.86,844.53,844.57,842.78,840.56,838.52,836.83,834.74,832.42,830.72,830.06,830.03,831.26,833.56,836.32,838.50,839.62,839.83,839.29,838.27,837.82,839.00,840.93,842.84,843.69,843.95,843.95,843.84,843.78,844.23,843.72,842.60,841.15,839.44,837.61,835.59,833.34,831.00,830.11,829.65,829.46,829.63,829.68,829.27,828.63,827.99,827.72,827.67,827.84,828.10,828.35,828.64,828.90,829.21,829.82,831.32,833.38,835.62,837.55,838.38,838.21,837.17,835.17,832.21,829.77,827.98,826.58,825.69,825.87,826.97,828.24,829.77,832.02,834.34,832.56,829.83,828.14,826.61,824.98,823.37,821.75,820.14,819.25,818.54,817.82,817.05,816.30,816.57,817.21,817.92,818.69,819.40,821.16,823.91,827.04,829.07,827.99,826.10,825.36,826.67,827.84,828.41,828.21,826.74,823.27,819.79,816.66,813.82,811.07,810.10,809.94,810.20,811.19,813.73,816.45,818.91,820.94,821.81,820.24,817.76,815.38,813.04,811.04,810.55,812.05,815.41,816.87,816.86,816.38,816.46,818.25,821.05,824.77,828.35,828.32,824.12,820.51,818.39,817.08,816.13,815.96,816.54,817.77,819.10,821.80,825.38,828.79,830.08,829.95,829.24,828.57,827.78,824.13,820.22,816.63,813.50,810.80,809.18,807.89,806.89,806.62,807.15,807.89,808.82,810.28,812.77,813.76,812.74,810.31,808.25
844.85,844.48,844.01,843.39,842.59,841.66,841.13,840.76,840.40,840.06,839.89,839.81,839.75,839.67,839.60,839.52,839.43,839.33,839.25,839.23,839.31,839.50,839.85,840.78,842.09,842.57,841.26,840.32,839.87,839.74,839.87,840.27,841.72,843.84,846.00,847.37,847.76,846.09,843.29,840.41,838.93,837.75,836.99,836.65,836.69,837.44,838.55,839.76,840.92,841.92,842.76,843.30,843.29,842.38,840.63,836.88,832.57,830.57,829.64,829.20,828.86,828.46,828.00,827.84,827.85,827.88,827.81,827.76,827.66,827.82,828.50,829.23,830.93,832.79,834.07,833.96,833.30,831.63,829.72,829.17,829.81,832.52,836.06,839.27,841.44,843.60,845.18,845.59,843.96,841.55,839.43,837.66,836.03,834.24,832.49,831.42,831.27,831.47,833.14,835.79,838.68,840.76,841.66,842.06,841.70,840.44,839.88,840.97,842.51,843.78,844.21,843.73,843.00,842.39,842.36,843.72,842.61,840.51,838.38,835.95,833.46,831.73,830.63,829.59,829.21,828.95,828.75,828.71,828.72,828.51,828.06,827.51,827.20,826.98,826.96,827.13,827.41,827.72,828.01,828.51,829.47,831.06,833.06,835.23,836.79,836.29,835.75,835.07,833.65,831.08,828.92,827.11,825.56,824.59,825.05,826.25,827.56,828.96,830.78,833.43,832.71,830.59,828.59,826.96,824.79,822.94,821.49,820.04,819.19,818.49,817.78,817.05,816.29,816.53,817.16,817.88,818.64,819.35,821.16,824.01,827.38,830.11,829.32,827.63,827.11,828.31,829.23,829.61,829.50,828.64,825.29,821.22,817.54,814.86,812.59,811.22,810.78,811.50,813.72,816.55,818.82,820.69,822.49,822.32,820.37,817.96,815.77,813.53,812.32,812.79,814.96,818.23,819.66,819.21,818.01,817.42,818.75,822.16,826.28,829.62,829.31,824.44,820.51,818.45,817.33,816.95,817.07,817.43,817.99,818.97,821.30,824.55,827.93,829.98,830.59,830.38,829.90,828.68,823.34,819.28,816.12,813.35,810.85,809.30,808.11,807.31,807.37,808.09,808.76,809.62,811.15,813.83,815.35,814.53,811.83,809.35
845.86,845.33,844.66,843.84,842.83,841.83,841.28,840.88,840.50,840.14,839.91,839.80,839.74,839.68,839.63,839.56,839.49,839.42,839.39,839.40,839.47,839.60,839.87,840.85,842.55,843.59,842.75,841.78,841.28,841.08,841.14,841.77,843.86,846.16,848.18,849.48,849.31,846.56,842.92,839.92,838.63,837.96,837.88,838.24,838.62,839.28,840.31,841.63,843.12,844.44,844.81,844.44,843.27,841.00,837.71,833.50,829.94,829.49,829.23,828.96,828.67,828.40,828.14,828.21,828.40,828.54,828.51,828.42,828.18,828.10,828.59,829.30,831.27,833.80,836.11,836.80,836.57,834.60,831.90,830.66,831.01,833.25,836.15,838.82,841.23,844.09,845.88,845.71,843.02,840.45,838.47,836.87,835.37,834.07,833.19,832.87,833.09,833.40,834.78,837.19,840.03,842.30,843.62,844.41,844.34,843.28,843.07,844.22,845.18,845.27,844.44,842.96,841.57,840.55,840.24,841.42,840.16,837.86,835.47,832.91,830.71,829.59,829.30,829.07,828.84,828.60,828.37,828.17,828.11,827.99,827.72,827.34,827.07,826.79,826.45,826.26,826.51,826.81,827.26,828.06,829.34,830.97,832.85,834.69,835.65,834.28,833.34,832.68,831.63,829.72,827.90,826.15,824.52,823.51,824.27,825.59,826.99,828.38,829.96,832.51,832.65,831.16,828.92,826.89,824.27,822.22,820.89,819.78,819.02,818.35,817.68,817.02,816.31,816.49,817.07,817.77,818.52,819.23,820.86,823.49,826.76,829.19,828.66,827.35,827.04,828.31,829.48,830.00,830.00,829.70,826.98,822.74,818.72,816.32,814.50,812.90,812.40,813.62,816.64,819.33,821.12,822.52,824.00,822.90,820.49,818.04,816.14,814.50,814.04,815.17,817.67,820.59,822.22,821.49,819.69,818.63,819.92,823.89,828.14,830.84,829.89,824.67,820.62,818.63,817.83,817.96,818.43,818.70,818.63,819.03,820.87,823.79,827.16,829.81,830.90,831.03,830.65,829.10,822.98,818.89,816.01,813.46,810.98,809.41,808.30,807.67,807.97,808.78,809.86,811.31,813.34,816.01,817.38,816.38,813.37,810.33
846.80,845.96,845.01,844.04,843.03,842.03,841.43,841.01,840.65,840.39,840.14,840.05,840.06,840.07,840.07,839.99,839.88,839.76,839.64,839.66,839.71,839.77,839.98,841.01,842.84,844.43,844.69,844.06,843.59,843.23,843.14,843.97,846.04,848.25,850.05,850.79,849.76,846.85,843.21,840.02,838.89,838.94,839.51,840.24,840.72,841.43,842.44,843.71,845.16,846.51,845.55,843.56,841.11,837.95,833.14,830.32,829.49,829.17,828.93,828.71,828.56,828.52,828.48,828.64,828.90,829.14,829.23,829.09,828.78,828.55,828.70,829.33,831.28,834.20,837.46,839.42,839.80,838.16,835.41,833.42,833.96,835.74,837.56,839.10,841.73,844.74,846.00,844.90,842.03,839.65,837.77,836.23,835.05,834.46,834.68,835.13,835.48,835.73,836.02,837.57,840.21,843.10,845.59,846.94,847.25,846.87,847.26,848.48,848.61,847.04,844.29,841.75,839.94,838.62,837.58,837.26,836.41,834.88,832.77,830.70,829.74,829.28,829.00,828.78,828.54,828.31,828.10,827.90,827.78,827.78,827.74,827.60,827.42,827.17,826.36,825.56,825.63,825.90,826.67,827.83,829.33,831.00,832.76,833.95,834.09,832.59,831.15,829.94,828.88,827.85,826.53,824.99,823.41,822.44,823.52,824.99,826.52,828.05,829.64,831.77,832.36,831.39,829.08,826.38,823.53,821.34,819.96,819.28,818.68,818.09,817.51,816.95,816.35,816.46,816.97,817.66,818.36,819.04,820.24,822.23,824.97,825.97,825.63,824.96,824.88,826.58,828.76,829.91,830.00,829.82,828.14,824.26,820.26,818.12,816.54,815.04,814.79,816.42,819.51,821.66,823.14,824.40,825.42,823.67,820.87,818.36,816.91,816.38,816.21,817.37,819.72,822.24,824.42,823.75,821.59,820.25,821.94,826.18,830.12,831.93,830.10,825.04,821.04,819.00,818.65,819.17,820.06,820.46,819.96,819.58,820.78,823.40,826.82,829.78,831.07,831.33,830.93,829.16,823.28,819.15,816.18,813.62,811.13,809.51,808.47,807.99,808.39,809.16,811.12,813.83,816.83,819.29,819.77,818.16,814.88,811.26
847.25,846.29,845.28,844.28,843.28,842.28,841.61,841.18,841.01,841.31,841.67,841.93,842.11,842.29,842.47,842.19,841.67,841.05,840.30,840.12,840.25,840.54,840.94,841.85,843.50,845.27,846.34,846.31,845.96,845.64,845.44,845.52,847.06,849.07,850.80,851.32,849.80,847.02,843.87,841.15,840.11,840.55,841.57,842.63,843.20,843.86,844.85,846.08,847.28,847.62,845.02,841.94,839.00,834.56,831.14,829.63,829.37,829.11,828.88,828.83,828.87,828.89,828.87,829.04,829.31,829.69,830.19,829.76,829.27,828.97,828.94,829.46,831.42,834.56,838.23,840.47,841.38,840.55,838.67,837.29,837.91,839.41,840.69,841.53,843.75,846.18,846.38,844.07,841.05,839.00,837.44,836.34,835.90,835.77,836.43,837.25,837.86,838.06,838.05,838.84,840.80,844.13,847.13,848.82,849.43,849.36,849.63,849.95,849.15,846.86,843.51,840.59,838.43,836.74,835.25,834.15,833.11,832.02,830.88,829.86,829.34,829.07,828.92,828.81,828.60,828.39,828.29,828.33,828.40,828.47,828.50,828.44,828.26,827.70,826.61,825.42,824.85,824.92,825.91,827.47,829.29,830.91,832.40,833.05,832.68,831.25,829.26,827.36,825.89,824.99,824.17,823.18,822.08,821.40,822.46,823.93,825.65,827.52,829.39,831.24,831.83,831.11,829.07,826.19,823.02,820.17,818.15,817.77,817.61,817.52,817.26,816.72,816.39,816.66,817.20,817.84,818.44,819.01,819.76,820.91,822.45,822.57,822.23,822.05,822.51,824.19,826.83,828.93,829.99,829.93,829.28,826.15,822.13,819.16,817.64,816.49,816.42,817.92,820.69,823.16,824.93,826.25,827.03,824.87,822.19,820.01,818.78,818.43,818.38,819.44,821.57,823.94,826.28,826.89,825.92,824.29,825.07,828.32,831.41,832.54,830.23,826.01,822.20,819.80,819.63,821.12,822.86,823.86,823.56,822.50,822.59,824.34,827.32,830.06,831.50,831.74,831.11,829.21,824.08,819.91,816.70,814.05,811.44,809.79,808.86,808.46,808.64,809.32,811.43,814.47,817.83,820.44,820.87,819.32,816.33,813.06
847.44,846.44,845.43,844.42,843.40,842.40,841.89,841.73,841.93,842.70,843.52,844.13,844.57,845.05,845.45,845.04,844.13,842.93,841.57,841.14,841.40,842.04,842.64,843.33,844.52,846.08,847.64,848.18,848.22,848.09,847.80,847.26,848.13,849.85,851.50,851.76,849.89,847.44,845.01,843.00,842.14,842.69,843.87,845.08,845.73,846.35,847.21,848.22,848.98,848.24,844.19,840.33,837.47,832.92,830.84,829.91,829.42,829.16,828.95,829.06,829.25,829.32,829.26,829.39,829.81,830.59,831.64,830.77,829.86,829.32,829.21,829.62,831.48,834.65,838.47,840.80,842.27,842.46,841.72,840.98,841.51,842.86,844.02,844.64,846.27,847.39,846.31,843.22,840.27,838.54,837.54,837.11,837.27,837.43,838.17,839.24,840.29,840.68,840.64,841.04,842.56,845.93,848.69,850.33,851.00,850.87,850.75,850.00,848.28,845.55,842.22,839.42,837.15,835.20,833.39,831.85,830.76,830.07,829.71,829.47,829.19,829.06,829.04,829.01,828.82,828.61,828.59,828.86,829.13,829.37,829.54,829.54,829.08,828.14,826.84,825.43,824.28,823.96,824.91,826.60,828.60,830.30,831.72,832.12,831.46,829.95,827.40,824.75,822.85,822.20,821.70,821.18,820.55,820.22,821.38,823.00,824.99,827.17,829.31,830.90,831.39,830.79,828.94,825.78,822.25,819.27,817.35,817.05,817.06,817.16,817.02,816.52,816.40,816.78,817.32,817.87,818.39,818.87,819.33,819.82,820.20,819.75,819.27,819.23,820.01,821.88,824.83,827.77,829.84,829.98,830.00,828.02,824.73,821.32,819.28,818.11,818.03,819.33,821.88,824.71,826.71,827.97,828.52,826.64,824.45,822.64,821.50,821.10,821.19,822.17,823.95,826.05,828.11,829.52,829.60,828.11,828.21,830.47,832.60,832.98,830.29,826.87,823.62,821.42,821.69,823.93,826.23,827.67,827.70,826.40,825.62,826.39,828.51,830.73,832.15,832.19,831.16,829.02,824.47,820.47,817.27,814.65,812.00,810.26,809.33,808.96,808.96,809.44,811.47,814.49,817.90,820.77,821.80,820.72,818.09,815.61
847.35,846.35,845.34,844.32,843.28,842.31,842.36,842.94,843.76,844.60,845.40,846.19,847.02,847.95,848.58,848.29,847.19,845.42,843.74,843.12,843.55,844.59,845.31,845.69,846.04,846.87,848.44,849.43,850.22,850.50,850.16,849.61,849.83,851.15,852.62,852.41,850.27,848.37,846.86,845.71,845.22,845.54,846.42,847.48,848.16,848.77,849.34,849.81,849.83,848.41,843.39,839.10,836.97,834.48,832.47,830.81,829.64,829.31,829.18,829.37,829.62,829.73,829.68,829.75,830.58,832.20,833.86,832.49,830.79,829.73,829.62,829.88,831.41,834.27,837.95,840.44,842.52,843.91,844.42,843.87,844.07,845.43,846.96,847.99,848.96,847.81,845.37,842.39,839.85,838.41,838.27,838.75,839.15,839.34,839.84,841.06,842.83,843.79,843.92,844.58,846.25,848.99,850.43,851.42,851.68,850.97,850.32,848.64,846.10,843.06,840.32,838.24,836.27,834.25,832.27,830.62,829.97,829.71,829.51,829.30,829.26,829.34,829.43,829.40,829.20,828.94,828.89,829.25,829.64,830.26,830.80,830.84,829.69,828.34,826.90,825.45,824.08,823.10,823.53,824.84,826.67,828.65,830.43,831.09,830.46,828.54,825.49,822.06,819.89,819.95,819.50,819.16,818.81,818.83,820.45,822.56,824.86,827.23,829.50,830.79,831.18,830.58,828.59,824.82,820.95,818.99,818.65,818.11,817.71,817.31,816.87,816.44,816.34,816.67,817.11,817.55,818.01,818.48,818.94,819.17,818.76,818.07,817.32,816.93,817.53,820.05,823.32,826.76,829.49,829.93,830.00,829.64,828.39,825.73,822.36,820.44,820.05,821.24,823.87,826.70,828.54,829.44,829.69,829.21,827.89,826.40,825.27,824.81,825.19,826.08,827.33,828.79,829.98,830.87,831.10,830.49,830.92,832.68,833.89,833.31,830.29,827.34,825.19,824.37,825.68,828.00,830.12,831.53,831.85,830.97,830.04,829.87,830.62,831.99,833.12,832.68,831.04,828.40,823.92,820.47,817.78,815.43,812.93,811.01,809.94,809.54,809.49,809.69,811.46,814.23,817.42,820.52,822.97,822.78,820.46,819.13
846.74,845.68,844.67,843.83,843.37,843.16,843.52,844.14,844.91,845.83,846.77,847.70,848.71,849.85,850.62,850.14,848.85,847.10,845.32,844.96,845.74,847.07,847.97,848.18,847.99,848.20,849.46,850.75,852.04,852.76,852.71,852.27,852.23,853.16,854.20,853.70,851.84,850.32,849.21,848.45,848.23,848.43,848.92,849.51,849.88,850.22,850.43,850.46,850.06,848.41,843.13,838.56,836.26,834.03,832.11,830.63,829.64,829.32,829.41,829.87,830.44,830.84,830.76,831.19,832.48,834.49,836.41,835.50,834.13,833.13,832.67,832.31,832.69,834.13,836.63,839.22,841.24,843.26,845.20,846.47,846.93,847.92,849.26,850.35,850.17,848.04,845.22,842.39,840.16,839.14,839.48,840.54,841.57,841.91,842.49,843.72,845.47,846.53,847.13,848.17,849.75,851.41,851.52,851.41,850.96,849.84,848.39,846.33,843.71,840.97,839.13,837.64,835.87,833.85,831.88,830.40,829.83,829.63,829.49,829.39,829.46,829.69,829.88,829.71,829.45,829.21,829.19,829.63,830.50,831.65,832.27,831.82,829.99,828.44,826.94,825.45,824.04,822.90,822.44,822.52,823.01,823.64,825.49,827.41,828.18,826.03,822.77,820.19,818.87,818.91,818.65,818.40,818.37,818.81,820.21,822.42,824.89,827.40,829.63,830.49,830.62,829.29,826.13,822.62,820.20,819.13,818.87,818.33,817.82,817.30,816.78,816.40,816.40,816.48,816.73,817.16,817.63,818.09,818.53,818.61,817.83,816.89,816.49,816.70,817.78,820.29,823.59,827.03,829.70,829.96,830.00,830.03,829.67,828.46,826.64,825.63,825.41,825.97,827.25,828.62,829.52,829.97,830.12,830.05,829.48,828.77,828.23,828.00,828.30,828.85,829.51,830.25,831.04,831.80,832.30,832.44,833.11,834.49,835.24,834.28,830.94,828.46,827.38,827.79,829.98,832.62,834.21,834.82,834.71,834.44,833.82,833.33,833.27,833.81,834.06,833.02,831.03,828.21,823.63,820.29,817.90,815.98,813.94,812.50,811.77,811.47,811.24,811.60,812.86,814.89,817.64,820.74,823.95,824.65,823.07,822.34
846.01,844.93,844.11,843.68,843.85,844.36,844.90,845.39,845.93,846.85,847.89,848.96,850.14,851.46,852.21,851.41,849.93,848.33,846.64,846.64,847.70,849.24,850.51,850.72,850.24,850.02,850.90,852.33,853.87,854.85,854.97,854.53,854.27,854.64,855.08,854.50,853.25,852.24,851.51,851.06,850.95,850.94,850.99,851.02,850.98,850.98,850.88,850.65,850.03,848.17,842.85,838.11,835.45,833.01,831.23,830.15,829.58,829.34,829.64,830.36,831.25,832.04,832.23,833.16,834.78,836.87,838.83,838.65,837.96,837.25,836.56,835.64,834.84,834.76,835.85,837.99,839.70,842.06,845.15,848.36,849.47,850.25,851.32,852.29,850.91,848.32,845.55,843.05,841.25,840.69,841.33,842.66,844.10,844.68,845.47,846.75,848.39,849.53,850.10,850.90,851.86,852.22,851.19,850.02,848.89,847.61,845.81,843.74,841.43,839.28,838.18,837.09,835.53,833.61,831.71,830.47,829.92,829.67,829.55,829.56,829.80,830.31,830.69,830.13,829.68,829.45,829.50,830.07,831.57,833.26,833.74,832.52,830.14,828.49,826.97,825.45,824.03,822.88,821.68,820.65,819.90,819.24,820.80,823.37,825.12,823.24,820.45,819.06,818.61,818.42,818.29,818.18,818.43,819.13,820.12,822.10,824.33,826.43,828.01,828.38,828.28,826.62,823.12,820.53,819.70,819.26,818.77,818.30,817.77,817.23,816.72,816.36,816.50,816.37,816.40,816.78,817.24,817.70,818.10,818.07,817.11,816.18,816.32,817.21,818.77,821.31,824.67,827.84,829.97,830.00,830.00,830.04,830.09,830.08,830.02,830.00,830.01,830.01,830.01,830.01,830.05,830.14,830.28,830.33,830.31,830.30,830.33,830.35,830.49,830.68,830.89,831.08,831.61,832.28,832.95,833.62,834.53,835.81,836.50,835.65,832.42,830.52,830.43,831.69,833.66,835.60,836.18,835.90,835.41,835.63,835.53,835.28,835.10,835.20,834.78,833.31,831.16,828.36,823.80,820.39,818.10,816.59,815.14,814.45,814.21,814.00,813.56,814.22,815.09,816.38,818.50,821.37,824.87,826.35,825.72,825.37
845.36,844.38,844.30,844.71,845.18,845.77,846.33,846.78,847.17,847.81,848.75,849.98,851.48,853.04,853.44,852.23,850.49,848.95,847.76,847.95,848.98,850.62,852.72,853.24,852.93,852.71,853.31,854.57,855.89,856.57,856.34,855.48,854.79,854.19,853.72,853.50,853.33,853.28,853.31,853.30,852.95,852.49,851.98,851.44,850.91,850.62,850.42,850.30,849.84,847.42,842.09,837.35,834.48,832.00,830.50,829.77,829.51,829.51,829.89,830.66,831.69,832.93,834.24,835.72,837.30,838.98,840.61,841.24,841.23,840.96,840.59,839.67,838.26,837.28,837.13,837.46,838.67,840.98,844.38,848.62,850.89,852.16,853.25,853.88,851.54,848.87,846.54,844.80,843.85,843.78,844.51,845.57,846.51,847.46,848.57,850.08,851.98,853.47,852.46,851.27,850.39,849.23,847.58,845.79,844.31,843.43,842.69,841.16,839.60,838.35,837.32,836.25,834.99,833.40,831.50,830.56,830.08,829.80,829.69,829.77,830.41,831.62,832.39,830.94,829.96,829.65,829.84,830.70,832.94,835.09,835.07,832.73,830.17,828.49,826.97,825.45,824.02,822.78,821.55,820.46,819.63,819.08,819.61,820.42,820.94,820.58,819.84,819.29,818.86,818.48,818.20,818.40,818.79,819.25,819.86,820.99,822.00,822.38,821.74,821.58,821.47,821.06,820.27,819.71,819.39,819.09,818.71,818.24,817.71,817.17,816.65,816.32,816.64,816.52,816.34,816.41,816.85,817.31,817.66,817.51,816.53,816.32,817.03,818.10,819.63,822.80,826.58,829.07,829.99,830.00,830.00,830.01,830.01,830.01,830.00,830.00,830.03,830.08,830.09,830.09,830.09,830.14,830.30,830.43,830.55,830.66,830.78,830.85,830.84,830.91,831.08,831.25,831.48,831.86,832.37,833.09,834.31,836.14,837.51,837.58,835.63,834.52,835.32,836.50,835.44,833.82,832.40,831.52,831.36,831.63,832.23,833.19,834.32,835.06,834.94,833.57,831.53,829.11,825.04,821.34,818.79,817.51,816.80,817.06,817.31,817.11,816.49,817.42,818.43,819.34,820.49,822.72,825.78,827.79,828.32,828.17
845.14,844.87,845.25,845.93,846.57,847.15,847.70,848.15,848.53,849.03,850.06,851.46,853.11,854.70,854.90,853.75,852.31,851.16,850.05,850.03,850.93,852.56,854.61,855.61,855.71,855.62,855.97,856.68,856.76,856.25,855.26,854.07,853.09,852.19,851.48,851.20,850.82,851.26,851.93,852.27,852.06,851.41,850.51,849.47,848.40,847.59,847.34,847.38,847.01,844.36,840.20,836.37,833.51,831.09,830.05,829.69,829.62,829.73,830.14,830.85,831.86,833.23,834.82,836.39,837.93,839.50,841.08,842.30,843.13,843.50,843.19,842.20,841.07,840.16,839.54,839.02,839.58,841.58,844.89,849.14,851.94,853.74,855.03,855.51,853.46,850.76,848.67,847.54,847.28,847.58,848.26,849.17,850.19,851.36,851.86,851.85,851.63,851.73,850.25,848.35,846.44,844.57,843.30,842.14,841.23,840.78,840.47,839.55,838.47,837.43,836.39,835.35,834.25,832.96,831.46,830.75,830.34,830.09,830.06,830.45,831.62,833.28,834.25,832.44,830.87,830.41,830.99,832.61,835.14,836.55,835.54,832.49,829.97,828.33,826.85,825.37,823.97,822.81,821.69,820.63,819.75,819.21,819.20,819.41,819.62,819.64,819.48,819.23,818.94,818.62,818.28,818.36,818.66,819.08,819.49,820.05,820.42,820.32,819.60,819.37,819.24,819.17,819.17,819.16,819.04,818.82,818.52,818.12,817.63,817.10,816.63,816.40,816.78,816.77,816.53,816.29,816.47,816.88,817.10,816.93,816.40,816.84,817.70,818.60,819.62,821.70,826.48,829.46,830.00,830.00,830.00,829.25,827.81,826.11,825.59,826.17,827.06,827.93,828.60,828.73,828.94,829.41,830.08,830.31,830.41,830.47,830.45,830.31,830.08,830.21,830.61,830.76,830.79,830.85,831.07,831.64,832.70,834.86,837.15,838.75,838.65,838.00,836.84,835.06,832.50,830.28,828.74,827.94,827.91,828.31,829.29,830.74,832.38,833.66,834.42,833.79,832.25,830.16,826.92,823.49,820.82,819.40,819.15,819.90,820.31,820.04,819.40,820.38,821.57,822.58,823.59,825.52,827.72,829.16,829.63,829.61
845.34,845.82,846.48,847.20,847.92,848.50,849.01,849.54,850.10,850.71,851.82,853.28,854.94,856.43,856.54,855.66,854.75,854.14,853.24,852.87,853.46,854.88,856.53,857.80,858.21,858.18,858.13,858.02,856.76,855.06,853.36,851.89,850.73,849.77,849.04,848.56,847.69,848.10,848.86,849.13,849.02,848.36,847.37,846.15,844.83,843.71,843.43,843.58,843.25,840.81,838.09,835.32,832.60,830.38,829.79,829.72,829.76,829.98,830.42,831.05,831.96,833.27,834.82,836.30,837.77,839.29,840.87,842.47,844.03,845.14,845.20,844.43,843.87,843.36,842.70,841.82,841.67,843.19,846.17,849.95,852.96,855.21,856.74,857.21,855.96,853.40,851.46,850.76,851.04,851.65,852.21,852.78,853.53,854.23,853.69,851.97,849.56,848.05,846.48,844.47,842.20,840.28,839.60,839.27,839.06,838.94,838.78,838.36,837.61,836.57,835.48,834.57,833.70,832.78,831.82,831.26,830.87,830.64,830.71,831.41,833.01,834.99,836.18,834.65,832.70,831.99,832.75,835.00,837.56,837.93,835.81,832.13,829.68,828.11,826.76,825.47,824.26,823.17,822.07,820.97,819.99,819.42,819.11,819.15,819.36,819.34,819.20,819.04,818.88,818.70,818.38,818.23,818.38,818.77,819.07,819.26,819.27,819.16,818.99,818.84,818.70,818.64,818.70,818.71,818.66,818.52,818.28,817.96,817.54,817.04,816.62,816.52,816.91,817.06,816.82,816.36,816.19,816.47,816.55,816.45,816.54,817.38,818.16,818.78,819.26,819.98,824.93,828.59,829.69,829.81,829.69,827.86,824.67,821.19,820.32,821.43,823.08,824.67,825.94,826.29,826.78,827.73,829.01,829.41,829.53,829.46,829.17,828.78,828.42,828.65,829.29,829.51,829.45,829.31,829.36,829.84,830.66,833.00,836.13,839.29,841.03,840.51,836.80,831.72,828.41,826.44,825.25,824.65,824.70,825.31,826.58,828.25,830.10,831.84,833.46,833.78,832.98,831.32,828.98,826.10,823.55,822.00,822.05,822.97,823.32,822.91,822.28,823.15,824.54,825.83,826.88,828.44,829.69,830.28,830.35,830.40
846.36,847.02,847.71,848.41,849.11,849.72,850.14,850.93,852.24,853.60,854.59,855.75,857.11,858.35,858.50,858.07,857.73,857.81,858.01,857.35,857.16,857.81,858.97,859.54,859.62,859.23,858.24,856.89,855.23,853.43,851.64,850.08,848.85,847.88,847.09,846.45,845.70,844.87,843.92,842.92,842.29,841.90,841.58,841.21,840.69,840.16,840.04,840.01,839.57,838.53,836.66,834.31,831.89,830.28,829.85,829.77,829.87,830.23,830.78,831.40,832.18,833.26,834.61,835.97,837.30,838.62,840.02,841.61,843.26,845.10,847.04,847.51,847.42,847.25,847.00,846.21,845.38,846.17,848.46,851.37,854.33,856.76,858.43,859.08,858.82,856.83,855.04,854.32,854.91,855.81,856.09,855.56,854.14,852.20,850.34,848.45,846.55,844.93,843.13,841.50,840.17,839.31,838.74,838.38,838.14,838.00,837.79,837.38,836.76,835.88,834.76,834.31,834.06,833.78,833.36,832.75,832.22,831.91,831.99,832.75,834.38,836.39,838.13,838.39,836.89,835.62,835.64,837.46,839.76,839.51,836.46,831.90,829.43,827.84,826.91,826.30,825.65,824.49,822.96,821.42,820.20,819.56,819.11,819.03,819.15,819.09,818.95,818.75,818.58,818.48,818.34,818.14,818.15,818.38,818.62,818.75,818.70,818.56,818.40,818.25,818.18,818.17,818.19,818.25,818.30,818.22,818.03,817.77,817.45,816.97,816.61,816.63,817.04,817.34,817.21,816.69,816.26,816.22,816.22,816.36,816.91,817.46,817.91,818.35,818.81,819.33,821.00,824.50,828.35,828.96,828.32,825.23,821.02,817.71,817.64,818.45,819.41,820.36,821.22,821.97,822.71,823.75,825.31,826.08,826.51,826.41,825.65,825.14,825.14,825.43,825.92,826.54,826.62,826.73,827.13,827.98,828.83,831.14,834.60,838.60,841.45,840.35,835.64,829.84,826.37,823.83,822.17,821.36,821.54,822.55,824.20,826.09,828.08,830.10,831.85,833.01,833.33,832.43,830.77,828.79,826.99,825.84,825.98,826.58,826.50,825.76,825.09,825.58,827.24,828.77,829.41,830.02,830.51,830.69,830.63,830.67
847.29,848.06,848.80,849.48,850.07,850.59,851.01,851.80,853.17,854.79,856.05,857.36,858.65,859.51,859.68,859.53,859.41,859.57,859.91,859.48,859.22,859.46,860.03,860.18,859.82,858.86,857.22,855.50,853.74,851.97,850.25,848.67,847.35,846.24,845.29,844.54,843.77,842.49,841.11,839.98,839.23,838.90,838.79,838.72,838.42,838.12,838.03,837.89,837.36,836.65,835.32,833.38,831.27,830.34,830.03,829.96,830.15,830.84,831.54,832.26,833.03,833.88,834.65,835.46,836.53,837.80,839.00,840.34,841.85,843.92,846.82,849.05,849.96,850.30,850.29,849.70,848.78,849.34,851.32,853.83,856.55,858.43,859.54,860.01,860.03,858.92,857.75,856.93,856.43,856.23,855.45,853.93,851.65,849.05,847.04,845.31,843.67,842.23,840.94,839.89,839.11,838.66,838.08,837.63,837.32,837.09,836.83,836.46,836.02,835.52,834.97,835.10,835.33,835.42,835.23,834.63,834.00,833.50,833.35,834.09,835.33,837.12,839.15,840.60,839.84,838.74,838.53,839.90,841.71,840.69,837.12,832.37,829.61,828.41,827.91,827.62,827.21,826.02,824.30,822.28,820.39,819.62,819.14,818.96,818.95,818.84,818.72,818.57,818.47,818.47,818.40,818.23,818.14,818.16,818.21,818.25,818.19,818.05,817.87,817.74,817.68,817.68,817.72,817.80,817.87,817.86,817.74,817.50,817.23,816.85,816.59,816.75,817.18,817.57,817.54,817.05,816.53,816.21,816.06,816.19,816.78,817.19,817.52,817.90,818.36,818.82,819.29,821.47,824.72,826.24,826.07,823.10,819.24,816.76,816.54,816.67,817.18,818.11,819.04,819.71,820.26,820.88,821.74,822.30,822.71,822.72,822.25,822.00,822.14,822.36,822.67,823.27,823.73,824.22,824.95,826.12,827.63,830.16,833.59,837.42,839.92,838.80,834.53,829.16,825.36,822.08,820.17,819.37,819.54,820.52,822.06,823.90,825.94,828.08,829.96,831.59,832.68,832.77,832.06,830.82,829.60,828.81,828.89,829.04,828.77,828.19,827.74,827.96,829.10,830.19,830.55,830.56,830.57,830.52,830.47,830.57
848.16,848.96,849.73,850.38,850.86,851.28,851.72,852.38,853.42,854.97,856.55,858.15,859.44,859.93,860.22,860.26,860.21,860.16,860.18,860.13,860.13,860.21,860.25,860.08,859.15,857.51,855.43,853.84,852.23,850.60,849.01,847.49,846.08,844.78,843.63,842.75,841.92,840.72,839.64,838.97,838.27,837.86,837.69,837.59,837.21,836.89,836.76,836.57,835.96,835.02,833.99,832.51,830.86,830.52,830.36,830.29,830.59,831.68,832.61,833.47,834.29,834.95,835.08,835.25,835.94,837.08,838.04,839.00,840.25,842.24,845.52,849.38,851.46,852.48,852.83,852.56,851.96,852.63,854.49,856.73,858.92,859.93,860.26,860.35,860.27,859.94,859.35,858.27,856.23,854.45,852.37,850.01,847.63,845.43,843.95,842.60,841.16,840.10,839.57,839.10,838.59,838.18,837.62,837.16,836.79,836.49,836.17,835.86,835.60,835.50,835.73,836.38,836.95,837.29,837.22,836.69,835.95,835.18,834.74,835.42,836.18,837.58,839.63,841.74,841.99,841.52,841.40,842.30,843.45,841.70,838.09,833.80,830.85,830.15,829.84,829.45,828.91,827.42,825.38,822.89,820.43,819.60,819.17,818.94,818.82,818.67,818.59,818.50,818.49,818.63,818.58,818.46,818.31,818.14,817.91,817.88,817.83,817.71,817.53,817.43,817.34,817.30,817.35,817.39,817.44,817.45,817.39,817.18,816.95,816.70,816.61,816.86,817.31,817.76,817.83,817.44,816.91,816.38,816.06,816.04,816.36,816.73,817.07,817.44,817.90,818.37,818.83,819.44,820.57,822.78,823.39,821.38,818.66,817.17,816.33,815.71,815.97,817.19,818.33,818.67,818.84,818.91,818.74,818.80,818.99,819.18,819.29,819.43,819.58,819.71,819.87,820.23,821.05,821.91,822.95,824.53,826.94,829.73,832.82,835.83,837.37,836.63,833.55,829.22,825.06,821.07,819.01,818.22,818.20,818.96,820.15,821.73,823.63,825.65,827.72,829.65,831.31,832.42,832.66,832.11,831.41,830.96,830.91,830.64,830.34,830.09,829.95,830.02,830.33,830.67,830.78,830.37,829.92,829.69,829.77,830.07
848.99,849.67,850.35,850.96,851.47,851.97,852.40,852.89,853.63,854.90,856.16,857.42,858.46,859.02,859.85,860.25,860.34,860.27,860.21,860.11,860.10,860.17,860.13,859.33,857.56,855.22,852.85,851.41,850.37,849.18,847.73,846.30,844.90,843.50,842.18,841.10,840.31,839.56,838.84,838.17,837.48,836.91,836.60,836.42,836.04,835.67,835.47,835.19,834.54,833.58,832.58,831.71,831.15,831.05,830.96,830.88,831.26,832.75,833.98,834.97,835.82,836.48,836.63,836.65,836.76,837.07,837.63,838.24,839.14,840.94,844.34,848.34,850.97,853.01,854.64,855.08,855.07,856.04,857.74,859.09,860.11,860.56,860.61,860.38,860.18,859.62,858.38,856.45,854.18,851.99,849.36,846.53,844.00,841.94,841.05,840.49,839.88,839.38,839.04,838.66,838.26,837.95,837.83,837.71,837.51,837.20,836.84,836.51,836.23,836.13,836.65,837.37,838.13,838.79,839.13,838.79,837.64,836.55,836.15,836.79,837.54,838.47,839.86,842.05,843.85,844.22,844.21,844.69,844.90,842.99,840.38,837.78,835.59,834.89,833.79,832.36,830.99,827.90,824.34,821.46,819.88,819.37,819.15,819.08,819.03,818.85,818.84,818.70,818.66,818.94,818.99,818.92,818.77,818.51,818.10,818.06,818.01,817.91,817.89,817.77,817.60,817.45,817.35,817.21,817.11,817.04,816.98,816.90,816.70,816.63,816.73,816.99,817.43,817.86,818.02,817.82,817.30,816.76,816.35,816.06,815.96,816.23,816.58,816.99,817.45,817.91,818.38,818.84,819.45,820.43,820.78,820.06,818.80,817.56,816.44,815.62,815.83,817.02,817.80,817.84,817.88,817.91,817.60,817.26,817.27,817.47,817.69,817.94,818.12,818.27,818.41,818.66,819.30,820.14,821.59,824.14,826.94,829.60,831.81,833.50,834.89,834.72,832.89,829.75,825.67,821.24,818.97,817.72,816.88,817.66,818.67,819.72,820.84,822.22,824.53,826.96,829.20,830.94,831.58,831.81,831.82,831.71,831.64,831.31,830.99,830.76,830.73,830.79,830.82,830.69,830.27,829.27,827.98,827.36,827.70,828.77
849.73,850.29,850.85,851.42,851.96,852.35,852.60,852.84,853.25,854.16,855.21,856.20,856.94,857.36,858.38,859.13,859.49,859.42,859.01,858.73,858.80,859.13,859.17,857.82,855.53,852.97,850.77,849.54,848.80,847.83,846.44,845.05,843.66,842.26,840.95,839.96,839.24,838.68,838.09,837.39,836.69,836.02,835.55,835.25,834.84,834.45,834.19,833.89,833.35,832.74,832.12,831.75,831.74,831.70,831.61,831.52,831.93,833.60,835.09,836.30,837.30,838.04,838.27,838.18,837.96,837.81,838.10,838.41,839.02,840.54,843.66,847.34,850.29,853.07,855.69,857.17,857.78,858.73,859.93,860.58,860.75,860.73,860.55,860.12,859.19,857.97,856.34,854.27,851.91,849.28,846.25,843.39,841.45,840.04,839.55,839.34,839.11,838.85,838.64,838.42,838.21,838.16,838.36,838.46,838.36,838.04,837.65,837.33,836.98,836.80,837.36,838.14,839.09,840.08,840.81,840.33,838.95,837.79,837.50,838.16,839.08,840.04,841.30,843.49,845.67,846.44,846.59,846.82,846.53,844.76,842.84,841.20,839.49,838.02,835.93,833.62,831.47,827.46,823.14,820.25,819.49,819.33,819.27,819.28,819.25,818.91,819.06,818.91,818.77,819.06,819.40,819.30,818.98,818.57,818.20,818.37,818.40,818.30,818.30,818.16,817.95,817.75,817.59,817.36,817.17,817.00,816.86,816.80,816.74,816.82,816.99,817.22,817.56,817.96,818.23,818.20,817.69,817.17,816.72,816.31,816.01,816.01,816.20,816.53,817.00,817.46,817.92,818.38,818.78,819.07,819.24,819.14,818.66,817.70,816.50,815.60,815.77,816.87,817.16,817.02,817.00,816.99,816.63,816.12,815.90,815.94,816.16,816.46,816.70,816.89,817.08,817.34,818.02,818.97,820.55,823.13,825.68,827.98,829.75,831.10,832.74,832.74,831.24,828.50,824.70,821.06,818.97,817.42,816.03,816.32,817.11,817.89,818.60,819.54,821.43,823.60,825.95,828.29,829.42,830.28,830.96,831.37,831.44,831.33,831.14,830.98,830.90,830.88,830.72,830.18,829.06,827.53,825.69,824.70,825.00,826.55
850.40,850.84,851.30,851.79,852.26,852.38,852.35,852.31,852.39,852.94,853.91,854.69,855.10,855.20,856.12,857.09,857.69,857.62,856.78,856.28,856.50,857.23,857.53,855.85,853.38,850.99,849.26,848.25,847.53,846.54,845.16,843.79,842.43,841.10,839.98,839.26,838.63,838.01,837.36,836.65,835.94,835.24,834.71,834.33,833.91,833.53,833.25,832.94,832.58,832.52,832.47,832.46,832.49,832.41,832.28,832.17,832.57,834.27,835.96,837.44,838.69,839.60,839.90,839.73,839.42,839.20,839.35,839.50,839.94,841.14,843.63,846.71,849.82,853.03,856.25,858.82,859.98,860.62,861.06,861.21,860.88,860.42,859.96,859.24,857.30,855.26,853.51,851.83,849.43,846.34,843.18,840.77,839.90,839.41,839.15,838.95,838.74,838.48,838.41,838.38,838.42,838.67,839.03,839.28,839.27,838.91,838.50,838.14,837.73,837.44,837.92,838.74,839.91,841.27,842.33,841.50,840.09,839.05,838.92,839.68,840.87,842.21,843.78,845.88,847.48,848.19,848.48,848.58,848.06,846.33,844.63,843.28,841.69,838.88,835.85,833.03,830.32,826.18,822.02,819.53,819.31,819.51,819.59,819.61,819.46,818.88,819.22,819.13,818.88,819.05,819.91,819.78,819.16,818.49,818.30,818.76,818.92,818.79,818.69,818.54,818.33,818.12,817.93,817.70,817.45,817.19,816.95,816.87,817.02,817.20,817.36,817.52,817.70,818.07,818.44,818.57,818.07,817.59,817.14,816.74,816.42,816.07,815.96,816.12,816.54,817.00,817.46,817.87,818.20,818.37,818.52,818.48,818.20,817.59,816.48,815.56,815.67,816.58,816.41,816.18,816.12,816.07,815.66,815.14,814.69,814.48,814.62,814.91,815.21,815.48,815.73,816.13,817.00,818.17,819.64,821.50,823.35,825.19,826.94,828.68,830.56,830.23,828.38,825.58,822.34,820.30,818.72,817.11,815.48,814.92,815.45,816.18,816.82,817.58,818.64,820.06,822.11,824.85,826.53,827.92,829.20,830.22,830.66,830.90,830.97,830.89,830.66,830.41,829.99,829.01,827.19,825.28,823.27,822.03,822.06,823.72
851.12,851.32,851.69,852.00,851.97,851.82,851.63,851.50,851.48,851.70,852.49,852.97,853.05,853.04,853.78,854.31,854.54,854.49,853.96,853.50,853.70,854.61,855.56,854.30,852.08,849.93,848.49,847.35,846.38,845.26,843.96,842.76,841.53,840.43,839.52,838.88,838.26,837.61,836.89,836.09,835.36,834.95,834.82,834.81,834.61,834.38,834.08,833.66,833.16,833.12,833.17,833.21,833.20,833.08,832.93,832.79,833.16,834.88,836.71,838.38,839.93,841.22,841.71,841.53,841.34,841.33,841.41,841.74,842.47,843.54,845.02,847.48,850.43,853.68,857.05,859.82,861.10,861.28,860.91,860.56,860.02,859.21,857.99,856.21,854.10,851.80,849.88,848.24,846.03,842.95,840.89,839.85,839.38,839.05,838.95,838.92,838.89,838.84,838.83,838.80,838.81,838.99,839.39,840.20,840.59,839.96,839.28,838.76,838.34,838.14,838.61,839.28,840.67,842.51,843.94,843.04,841.68,840.85,841.00,842.03,843.38,844.94,846.63,848.21,849.08,849.41,849.52,849.37,848.13,845.01,842.63,841.46,839.53,835.41,832.13,829.71,827.15,823.92,821.20,819.61,819.42,820.03,820.38,820.32,819.81,818.98,819.38,819.50,819.24,819.20,821.02,821.34,820.40,819.06,819.05,819.37,819.44,819.27,819.09,818.89,818.63,818.34,818.03,817.75,817.42,817.10,816.91,817.06,817.28,817.50,817.69,817.84,818.00,818.27,818.63,818.86,818.45,817.99,817.62,817.29,816.91,816.44,816.08,815.94,816.10,816.50,816.91,817.25,817.50,817.65,817.77,817.77,817.58,817.07,816.37,815.56,815.38,815.79,815.57,815.29,815.22,815.15,814.70,814.17,813.68,813.30,813.14,813.36,813.66,813.96,814.32,814.97,815.96,817.11,818.35,819.62,820.77,822.46,824.48,826.31,826.70,825.21,823.21,821.21,819.42,818.32,817.30,816.05,814.58,813.53,813.80,814.43,815.08,815.84,816.80,818.02,819.58,821.56,823.52,825.53,827.31,828.76,830.00,830.52,830.64,830.52,830.15,829.19,827.99,826.40,824.36,822.58,821.11,820.05,819.81,821.23
851.91,851.85,851.90,851.85,851.48,851.16,850.88,850.70,850.63,850.63,851.07,851.25,851.16,851.13,851.56,851.72,851.72,851.68,851.50,851.17,851.34,852.26,853.67,852.76,850.92,849.12,847.83,846.57,845.39,844.21,843.02,841.93,840.82,839.91,839.17,838.56,837.93,837.27,836.50,835.70,835.25,835.22,835.44,835.70,835.71,835.58,835.26,834.71,834.01,833.88,833.93,834.03,834.09,833.91,833.66,833.45,833.76,835.34,837.21,838.97,840.77,842.58,843.58,843.79,843.92,844.12,844.19,844.66,845.57,846.48,847.20,849.06,851.80,854.94,858.11,860.67,861.47,860.98,859.86,858.88,858.09,857.17,855.72,853.47,850.91,848.17,845.97,844.38,842.84,840.68,839.65,839.40,839.17,839.00,839.04,839.16,839.26,839.34,839.35,839.26,839.16,839.23,839.60,840.94,842.02,841.68,840.40,839.50,839.00,838.96,839.51,840.37,842.03,844.13,845.74,845.13,844.14,843.67,844.09,845.27,846.36,847.54,848.76,849.64,849.96,850.01,849.95,849.32,846.45,842.56,839.76,838.23,836.00,831.98,829.06,827.15,825.20,823.47,821.90,820.70,820.25,820.97,821.50,821.47,820.91,820.10,820.28,820.30,820.03,820.07,822.42,823.63,823.41,822.43,822.53,822.13,820.89,819.60,819.30,819.02,818.72,818.39,818.03,817.69,817.34,817.06,816.97,817.27,817.53,817.79,818.01,818.17,818.35,818.54,818.84,819.09,818.81,818.42,818.10,817.80,817.38,816.87,816.39,816.04,815.90,816.03,816.33,816.60,816.79,816.92,817.02,817.07,816.94,816.50,816.03,815.46,815.24,815.40,815.29,815.14,815.09,814.91,814.20,813.45,812.80,812.23,811.83,811.88,812.16,812.52,813.00,813.81,814.85,815.96,817.06,818.08,819.02,820.49,822.36,823.89,823.13,821.19,819.33,817.87,816.85,816.14,815.54,814.69,813.43,812.28,812.29,812.75,813.36,814.15,815.14,816.36,817.73,819.24,821.16,823.35,825.41,827.23,829.08,830.03,830.21,829.83,828.98,827.42,825.58,823.63,821.73,820.29,819.29,818.46,818.14,819.45
852.74,852.38,851.89,851.37,850.88,850.54,850.18,849.94,849.86,849.78,849.71,849.63,849.57,849.55,849.57,849.57,849.57,849.58,849.62,849.50,849.68,850.48,851.93,851.16,849.78,848.39,847.14,845.86,844.56,843.38,842.34,841.27,840.26,839.48,838.85,838.23,837.62,836.94,836.19,835.52,835.66,836.03,836.42,836.77,836.95,836.87,836.53,835.87,834.96,834.70,834.71,834.92,835.17,834.98,834.53,834.20,834.38,835.63,837.43,839.13,841.08,843.44,845.31,846.39,847.05,847.41,847.54,848.08,848.97,849.74,850.13,851.48,853.99,856.80,859.43,861.41,861.16,859.79,857.99,856.31,855.15,854.35,853.32,851.39,848.01,844.64,842.14,840.76,840.26,839.80,839.45,839.23,839.16,839.25,839.46,839.71,839.92,840.04,840.03,839.80,839.48,839.45,839.80,841.64,843.64,844.15,842.09,840.65,840.04,840.15,840.87,842.23,844.14,846.19,847.70,847.68,847.32,847.30,847.90,849.04,849.46,849.69,849.91,850.04,850.08,849.98,849.67,848.29,843.24,839.53,836.76,834.39,832.02,829.50,827.49,825.99,824.95,824.96,824.08,822.77,821.84,822.32,822.92,823.08,822.80,822.32,822.07,821.68,821.35,821.68,823.99,826.38,827.83,828.26,828.41,826.92,823.39,819.93,819.35,818.94,818.61,818.29,817.96,817.59,817.26,817.10,817.17,817.48,817.78,818.08,818.33,818.50,818.72,818.89,819.10,819.28,819.17,818.90,818.59,818.24,817.78,817.31,816.85,816.40,816.00,815.69,815.80,815.99,816.12,816.19,816.31,816.39,816.30,815.91,815.51,815.32,815.37,815.59,815.71,815.82,815.83,815.45,814.29,813.12,812.14,811.35,810.79,810.57,810.80,811.22,811.79,812.64,813.69,814.79,815.89,817.00,818.24,819.37,820.60,821.44,820.25,818.73,817.25,815.89,814.74,813.96,813.59,813.07,812.10,811.20,810.99,811.21,811.72,812.49,813.52,814.88,816.41,817.95,819.56,821.48,823.55,825.68,827.81,829.28,829.54,828.71,827.09,825.19,823.00,820.99,819.56,818.56,817.82,817.18,817.01,818.43
853.21,852.55,851.82,851.13,850.60,850.14,849.74,849.43,849.23,849.10,848.83,848.64,848.52,848.45,848.44,848.45,848.47,848.52,848.60,848.67,849.03,849.69,850.39,849.69,848.59,847.42,846.23,845.01,843.72,842.53,841.49,840.51,839.74,839.11,838.54,837.96,837.35,836.68,836.15,836.00,836.41,836.87,837.31,837.73,838.07,838.12,837.79,837.07,836.05,835.54,835.52,835.85,836.30,836.25,835.77,835.24,835.07,835.82,837.34,838.77,840.40,842.63,845.61,848.05,849.50,850.04,850.27,850.97,852.05,853.13,854.01,855.38,857.33,859.32,860.92,861.68,860.38,858.23,855.89,853.83,852.28,851.45,850.64,848.98,845.53,842.40,840.52,839.87,839.64,839.52,839.43,839.38,839.42,839.56,840.05,840.83,841.73,842.21,842.01,841.05,839.92,839.82,840.89,843.69,846.35,847.05,845.41,844.05,843.38,843.42,844.15,845.42,847.06,848.60,849.39,849.48,849.36,849.36,849.63,850.10,850.19,850.20,850.21,850.16,850.07,849.46,848.10,845.50,841.10,837.91,835.29,832.82,830.47,828.64,827.18,825.94,824.99,825.04,825.22,824.78,823.75,823.78,824.29,824.76,824.96,824.76,824.48,824.02,823.39,823.13,825.30,827.81,829.52,830.23,830.46,829.61,826.05,821.72,819.71,819.05,818.67,818.32,817.95,817.57,817.25,817.20,817.42,817.73,818.03,818.35,818.62,818.82,819.05,819.22,819.41,819.59,819.56,819.41,819.11,818.69,818.23,817.76,817.33,816.91,816.48,815.97,815.82,815.86,815.91,815.81,815.72,815.71,815.64,815.45,815.47,815.67,815.98,816.32,816.52,816.68,816.68,816.24,815.00,813.77,812.61,811.57,810.69,810.17,810.18,810.36,810.71,811.54,812.62,813.84,815.10,816.36,817.54,818.55,819.21,819.19,817.97,816.61,815.27,813.98,812.75,811.81,811.43,811.16,810.73,810.32,810.17,810.22,810.46,810.93,812.10,813.59,815.17,816.77,818.36,820.12,822.12,824.32,826.45,827.60,827.73,826.87,824.96,822.97,820.89,819.09,817.88,817.22,816.50,815.93,815.99,817.50
854.30,853.56,852.75,851.93,851.13,850.07,849.52,849.19,848.93,848.73,848.39,848.09,847.85,847.62,847.56,847.56,847.60,847.68,847.75,847.95,848.38,848.86,848.92,848.25,847.32,846.27,845.13,843.99,842.79,841.64,840.64,839.85,839.27,838.74,838.19,837.63,837.05,836.49,836.24,836.51,837.07,837.59,838.09,838.59,839.08,839.42,839.13,838.30,837.20,836.40,836.40,836.85,837.44,837.57,837.11,836.45,835.95,836.13,837.15,838.32,839.61,841.51,845.19,848.80,851.12,852.14,852.82,853.70,854.89,856.23,857.55,858.87,860.28,861.37,861.84,861.40,859.35,856.69,854.00,851.68,849.92,848.91,848.03,846.53,843.52,841.02,839.81,839.68,839.59,839.55,839.61,839.79,840.06,840.40,841.24,842.50,843.91,844.76,844.63,843.34,841.68,841.37,842.92,846.07,848.80,849.47,848.56,847.57,846.99,846.95,847.51,848.46,849.49,850.23,850.39,850.48,850.46,850.41,850.38,850.35,850.28,850.25,850.23,850.10,849.58,848.02,845.60,842.53,839.29,836.53,833.99,831.53,829.26,828.09,827.13,826.10,825.07,824.83,825.67,826.11,825.53,825.17,825.63,826.34,826.98,827.18,826.96,826.32,825.32,824.52,826.33,828.62,830.23,830.92,831.22,830.99,828.30,824.00,820.13,819.20,818.79,818.39,818.00,817.62,817.28,817.27,817.55,817.88,818.23,818.56,818.86,819.12,819.37,819.59,819.88,820.21,820.37,820.17,819.72,819.17,818.71,818.25,817.85,817.45,816.97,816.33,815.90,815.86,816.02,815.90,815.69,815.57,815.48,815.42,815.72,816.19,816.67,817.10,817.37,817.56,817.54,817.08,815.85,814.65,813.44,812.24,811.17,810.45,810.12,809.95,810.02,810.66,811.75,813.10,814.49,815.76,816.86,817.68,817.80,817.04,815.80,814.51,813.25,812.08,811.11,810.31,809.98,809.88,809.81,809.74,809.66,809.63,809.68,809.92,810.93,812.32,813.82,815.30,816.97,818.75,820.74,822.96,824.97,825.66,825.60,824.87,823.10,820.96,819.01,817.36,816.17,815.70,815.03,814.68,815.08,816.65
856.38,855.96,855.26,854.28,852.87,850.59,849.72,849.38,849.10,848.84,848.48,848.07,847.62,847.14,846.79,846.71,846.77,846.84,846.91,847.10,847.39,847.64,847.47,846.85,845.96,844.93,843.84,842.75,841.70,840.72,839.88,839.34,838.86,838.35,837.79,837.21,836.73,836.43,836.43,836.85,837.49,838.11,838.71,839.31,839.98,840.85,840.59,839.56,838.40,837.30,837.36,837.92,838.56,838.92,838.48,837.80,837.13,836.68,836.98,837.88,838.97,840.47,844.08,848.42,851.65,853.57,855.17,856.25,857.41,858.77,860.20,861.22,862.12,862.40,861.77,860.44,858.04,855.28,852.51,850.07,848.36,847.00,845.70,844.21,842.16,840.55,839.78,839.73,839.81,839.90,840.13,840.56,841.26,842.06,843.33,844.81,846.28,847.37,847.74,846.90,845.41,844.68,846.09,848.50,850.43,850.95,850.81,850.40,850.10,850.06,850.22,850.65,850.65,850.37,850.20,850.26,850.27,850.22,850.14,850.08,850.07,850.09,850.08,849.75,848.25,845.28,842.17,839.90,837.68,835.05,832.42,829.97,827.87,827.48,827.04,826.18,825.15,824.66,825.38,826.41,826.96,826.42,826.91,827.76,828.65,829.38,829.25,828.23,826.83,825.84,827.01,828.92,830.30,830.88,831.21,831.07,829.79,826.41,820.55,819.38,818.94,818.52,818.13,817.74,817.36,817.28,817.51,817.89,818.33,818.73,819.08,819.38,819.71,820.07,820.59,821.28,821.80,821.29,820.47,819.71,819.23,818.77,818.39,817.96,817.34,816.60,815.89,815.90,816.45,816.61,816.46,816.25,816.09,816.05,816.23,816.73,817.29,817.76,818.13,818.38,818.39,817.93,816.72,815.59,814.44,813.28,812.20,811.46,810.67,810.10,809.86,810.12,811.23,812.64,814.01,815.13,816.15,816.62,816.22,814.99,813.63,812.38,811.18,810.25,810.02,809.81,809.70,809.64,809.62,809.54,809.47,809.46,809.55,809.73,810.13,811.09,812.25,813.37,815.14,817.15,819.29,821.49,823.35,823.62,823.36,822.84,821.67,819.22,817.26,815.65,814.25,813.76,813.31,813.44,814.36,815.91
857.69,857.76,857.45,856.84,855.90,853.78,852.28,851.07,850.01,849.39,848.92,848.45,847.91,847.29,846.73,846.28,846.08,846.12,846.04,846.00,846.18,846.37,846.01,845.38,844.57,843.63,842.55,841.46,840.63,839.94,839.35,838.87,838.41,837.90,837.42,837.12,836.85,836.67,836.73,837.16,837.79,838.45,839.10,839.88,841.23,842.72,842.51,841.24,839.89,838.68,838.26,838.54,839.44,840.65,840.07,839.12,838.31,837.66,837.35,837.75,838.53,839.78,842.50,847.45,851.34,853.54,855.58,857.27,858.86,860.48,861.98,862.35,862.24,861.73,860.66,858.78,856.30,853.55,850.89,848.84,847.22,845.78,844.40,843.00,841.37,840.33,839.87,839.95,840.54,841.27,842.06,842.91,843.78,844.43,845.48,846.86,848.38,849.58,849.98,849.49,848.56,848.05,848.80,850.21,851.31,851.46,851.20,850.93,850.70,850.51,850.33,849.74,848.64,847.40,846.60,846.93,846.83,846.95,847.54,847.61,848.67,849.60,849.63,847.80,844.73,841.83,839.51,837.83,836.18,833.60,830.68,828.09,826.91,826.61,826.25,825.67,825.01,824.52,825.19,826.31,827.26,827.59,828.11,828.88,829.70,830.13,830.01,829.28,828.13,827.08,827.81,829.36,830.49,830.90,831.17,830.96,829.73,826.49,820.75,819.50,819.03,818.58,818.16,817.76,817.35,817.30,817.61,818.00,818.45,818.86,819.25,819.71,820.49,821.08,821.74,822.53,823.12,822.48,821.50,820.57,819.88,819.35,818.89,818.35,817.63,816.86,816.09,815.97,816.45,816.90,817.11,817.01,816.82,816.64,816.19,816.60,817.45,818.35,818.79,819.16,819.28,818.89,817.71,816.57,815.43,814.30,813.25,812.29,811.28,810.42,809.87,810.00,811.04,812.12,813.18,814.37,815.43,815.38,814.49,813.02,811.67,810.86,810.22,809.76,809.64,809.56,809.48,809.43,809.42,809.35,809.27,809.27,809.37,809.53,809.74,810.23,810.81,811.46,812.90,815.07,817.51,819.89,821.72,821.77,821.16,820.46,819.73,817.23,814.99,813.37,812.40,811.86,811.85,812.49,813.80,815.62
859.02,859.52,859.72,859.60,859.16,857.58,855.74,853.82,852.00,850.74,849.67,848.91,848.30,847.61,846.91,846.16,845.66,845.50,845.18,844.90,844.94,845.05,844.53,843.87,843.14,842.29,841.30,840.35,839.75,839.30,838.91,838.50,838.11,837.67,837.31,837.20,837.12,836.99,837.05,837.45,838.05,838.72,839.43,840.54,842.84,844.75,844.63,843.27,841.75,840.35,839.30,839.08,840.09,842.19,841.82,840.67,839.51,838.66,837.97,837.92,838.37,839.32,841.02,846.16,850.56,853.16,855.48,857.75,859.84,861.68,862.97,862.54,861.36,860.06,858.62,856.50,854.17,851.72,849.43,847.79,846.21,844.74,843.50,842.55,841.56,841.08,840.85,840.96,841.79,843.06,844.38,845.61,846.61,847.13,847.82,848.90,850.33,851.52,851.84,851.53,850.99,850.77,850.95,851.38,851.61,851.28,850.50,849.92,849.43,848.96,848.53,847.16,845.38,843.62,842.44,842.84,842.69,842.97,843.97,844.09,845.65,847.35,847.86,845.34,841.38,838.77,837.15,835.85,834.57,832.22,829.44,827.10,826.60,826.13,825.65,825.18,824.76,824.49,825.17,826.23,827.29,828.37,829.02,829.69,830.29,830.34,830.23,829.90,829.19,828.26,828.66,829.77,830.59,830.87,830.97,830.36,828.69,825.48,820.67,819.42,818.92,818.50,818.10,817.72,817.36,817.40,817.79,818.20,818.64,819.06,819.56,820.32,821.59,822.41,823.13,823.87,824.40,823.70,822.65,821.62,820.74,820.08,819.41,818.68,817.89,817.12,816.35,816.04,816.29,816.98,817.53,817.68,817.58,817.29,816.42,816.39,817.19,818.50,819.38,820.06,820.14,819.60,818.49,817.35,816.20,815.11,814.07,812.92,811.82,810.80,810.02,809.99,810.74,811.45,812.29,813.57,814.58,814.05,812.79,811.33,810.22,809.85,809.71,809.60,809.45,809.36,809.29,809.24,809.21,809.15,809.08,809.08,809.17,809.31,809.47,809.62,809.76,810.04,810.99,813.18,815.82,818.36,820.06,819.77,818.66,817.56,816.91,814.66,812.55,811.20,810.73,810.26,810.62,811.70,813.38,815.46
860.87,861.58,862.34,862.65,862.19,861.17,859.78,858.03,855.92,853.60,850.88,849.31,848.63,847.93,847.24,846.48,845.74,845.04,844.36,843.92,843.77,843.66,843.01,842.32,841.62,840.89,840.18,839.66,839.28,838.92,838.56,838.29,838.13,837.95,837.74,837.55,837.45,837.32,837.33,837.65,838.24,838.91,839.81,841.53,845.05,846.89,846.89,845.79,844.21,842.41,840.65,839.73,840.40,843.12,843.84,842.72,840.80,839.47,838.78,838.59,838.74,839.21,840.07,844.53,849.23,852.81,855.40,857.96,860.41,862.27,862.72,861.35,859.30,857.17,855.15,853.24,851.46,849.88,848.44,846.92,845.27,843.71,842.88,843.17,843.63,843.80,843.73,843.62,843.93,845.20,846.71,848.15,849.39,850.12,850.54,851.15,852.12,853.05,853.36,852.90,852.17,852.02,852.09,851.74,851.09,850.16,848.47,846.84,845.50,844.56,844.03,842.78,841.24,839.85,839.06,838.90,838.95,839.25,839.66,839.53,839.80,841.45,843.38,842.67,839.68,836.98,835.01,833.74,832.65,830.97,829.39,828.25,827.47,826.70,825.91,825.10,824.39,824.68,825.49,826.44,827.40,828.36,829.33,829.95,830.21,830.21,830.13,830.05,829.78,829.34,829.61,830.02,830.39,830.62,830.43,828.72,826.33,823.40,820.11,818.89,818.45,818.18,817.91,817.60,817.47,817.68,818.13,818.58,818.98,819.42,820.18,821.55,823.14,824.15,824.82,825.33,825.67,824.93,823.88,822.86,822.00,821.13,820.03,818.97,818.15,817.38,816.61,816.09,816.05,816.79,817.52,818.09,818.34,818.07,817.55,816.42,816.30,817.75,819.82,821.18,820.91,819.70,818.73,817.65,816.56,815.48,814.40,813.25,812.15,811.18,810.39,809.92,809.99,810.52,811.47,812.73,813.43,812.60,811.29,810.20,809.82,809.67,809.55,809.40,809.26,809.17,809.09,809.02,808.97,808.94,808.88,808.89,808.96,809.06,809.20,809.36,809.49,809.63,810.05,811.97,814.54,817.03,818.34,817.34,815.52,813.73,812.50,811.00,810.08,809.62,809.42,809.33,809.74,811.04,813.12,815.34
863.91,864.37,865.12,865.44,864.80,863.87,862.56,860.95,858.97,856.32,852.54,850.11,849.00,848.30,847.61,846.80,845.91,844.97,844.16,843.56,843.12,842.68,841.96,841.33,840.71,840.14,839.70,839.38,839.07,838.85,838.74,838.66,838.58,838.48,838.33,838.11,837.95,837.76,837.69,837.90,838.48,839.10,840.51,843.19,847.27,848.89,848.96,848.08,846.46,844.47,842.62,841.75,842.59,845.55,846.68,845.80,843.64,841.22,839.61,839.18,839.35,839.87,841.04,844.51,848.59,852.36,855.36,858.43,861.38,862.93,861.63,859.38,856.79,854.23,852.05,850.83,849.76,848.74,847.66,846.34,844.74,843.91,843.99,844.91,845.96,846.68,846.98,846.83,846.46,847.18,848.52,850.12,851.69,853.00,853.48,853.71,853.86,853.51,853.06,852.60,852.21,852.04,851.75,851.08,849.64,847.16,844.47,842.68,841.46,840.66,840.29,839.51,838.36,837.28,836.80,836.60,836.75,837.01,837.15,836.95,836.84,838.37,840.49,840.13,837.78,835.29,833.19,831.69,830.90,829.85,828.84,827.99,827.14,826.29,825.44,824.67,824.22,824.79,825.64,826.54,827.46,828.36,829.21,829.69,829.74,829.51,829.25,829.33,829.60,829.86,830.06,830.25,830.18,829.45,827.38,825.07,822.91,820.88,819.02,818.49,818.37,818.32,818.17,817.78,817.54,817.72,818.22,818.72,819.19,820.05,821.51,823.53,824.85,825.86,826.54,826.90,826.96,826.16,825.11,824.09,823.13,821.69,820.19,818.88,817.89,817.18,816.51,816.08,816.03,816.59,817.36,818.10,818.64,818.84,818.65,817.48,816.93,817.90,820.45,821.78,821.15,819.61,818.75,817.83,816.85,815.82,814.74,813.70,812.71,811.83,811.03,810.33,809.92,810.22,811.05,812.08,812.20,811.33,810.40,809.85,809.67,809.55,809.41,809.26,809.11,809.03,808.97,808.90,808.80,808.76,808.72,808.72,808.77,808.85,808.96,809.12,809.32,809.53,809.82,811.48,813.61,815.52,816.51,815.44,813.43,811.41,810.35,809.43,808.94,808.68,808.55,808.72,809.25,810.45,812.36,814.69
867.22,867.33,867.80,867.94,867.06,865.76,864.20,862.59,860.84,858.33,854.17,851.11,849.47,848.70,847.96,847.08,846.08,845.03,844.15,843.42,842.73,842.03,841.29,840.70,840.16,839.74,839.51,839.29,839.04,838.97,839.12,839.21,839.18,839.10,838.98,838.75,838.51,838.25,838.07,838.15,838.70,839.25,841.19,844.80,849.12,850.59,850.72,850.05,848.48,846.49,844.83,844.25,845.37,848.29,849.56,848.94,846.75,843.34,840.73,840.15,840.56,841.33,842.91,845.38,848.63,852.30,855.64,859.17,862.20,863.09,860.24,857.39,854.44,851.67,849.59,848.97,848.48,847.80,846.91,845.82,844.49,844.57,845.52,846.76,848.08,849.28,849.97,849.92,849.10,849.26,850.36,851.98,853.78,855.49,855.73,855.36,854.63,853.06,851.92,851.58,851.71,851.59,851.03,849.85,847.49,843.72,840.44,838.72,837.75,837.18,836.97,836.65,835.90,835.12,834.90,834.82,835.02,835.21,835.21,835.00,834.86,836.01,837.55,836.96,835.23,833.29,831.42,829.90,829.38,828.85,828.14,827.29,826.44,825.59,824.86,824.31,824.17,824.82,825.64,826.52,827.42,828.22,828.82,829.06,828.93,828.49,828.02,828.18,828.82,829.59,829.68,829.65,828.94,827.01,823.55,821.30,819.91,818.96,818.36,818.49,818.63,818.67,818.56,818.04,817.61,817.68,818.19,818.74,819.28,820.74,823.13,825.91,826.90,827.68,828.25,828.45,828.23,827.38,826.18,824.93,823.74,821.79,820.06,818.63,817.53,816.84,816.40,816.23,816.28,816.53,817.04,817.73,818.51,819.30,819.80,819.07,818.36,818.75,821.29,822.29,821.27,819.48,818.70,817.92,817.04,816.05,815.01,814.07,813.21,812.41,811.62,810.81,810.08,810.11,810.70,811.36,811.03,810.32,809.84,809.74,809.59,809.45,809.30,809.16,809.04,808.97,808.94,808.88,808.75,808.65,808.60,808.57,808.57,808.64,808.72,808.89,809.16,809.47,809.77,811.05,812.56,813.83,814.60,813.90,812.05,810.05,809.27,808.71,808.29,807.96,807.85,808.23,808.87,809.86,811.39,813.67
870.17,870.03,870.04,869.79,868.61,866.01,863.57,861.55,859.91,858.27,855.28,852.38,850.21,849.12,848.20,847.20,846.14,845.08,844.11,843.35,842.66,841.98,841.32,840.66,840.15,839.80,839.58,839.40,839.31,839.38,839.59,839.78,839.80,839.75,839.63,839.39,839.11,838.73,838.40,838.34,838.78,839.32,841.52,845.49,849.77,851.41,851.74,851.25,850.02,848.45,847.20,846.94,848.09,850.50,851.77,851.25,849.11,845.69,842.72,842.42,843.41,844.54,845.66,847.46,850.16,853.51,856.87,860.48,862.21,861.59,858.68,856.12,853.07,850.43,848.78,848.02,847.46,846.82,846.03,845.14,844.72,845.42,846.63,847.89,849.25,850.78,851.80,852.05,851.67,851.91,852.76,854.08,855.72,856.85,855.58,853.82,852.46,850.88,849.94,850.01,850.65,850.91,850.57,847.79,844.07,840.83,838.33,836.49,835.23,834.49,834.15,833.97,833.48,833.00,833.00,833.04,833.23,833.35,833.27,833.06,833.04,833.12,832.89,831.67,830.88,830.18,829.50,828.88,828.47,828.10,827.49,826.64,825.79,824.94,824.69,824.63,824.28,824.64,825.39,826.25,827.07,827.67,827.99,827.85,827.41,827.05,826.55,826.57,826.96,827.40,827.18,826.48,824.45,821.46,819.80,819.25,819.23,819.39,819.55,819.63,819.55,819.28,818.83,818.25,817.72,817.67,818.07,818.61,819.15,821.36,824.95,828.82,829.82,829.90,829.86,829.80,829.43,828.55,826.74,824.58,822.86,820.89,819.48,818.37,817.36,816.52,816.58,816.92,817.14,816.93,816.37,816.61,817.46,818.81,821.12,821.25,820.76,820.89,822.64,823.08,821.59,819.48,818.70,817.87,816.98,816.01,815.01,814.08,813.26,812.48,811.72,810.98,810.18,809.95,810.09,810.24,810.11,809.88,809.71,809.61,809.47,809.36,809.23,809.13,809.15,809.15,809.14,809.08,808.92,808.79,808.61,808.46,808.37,808.39,808.45,808.67,808.97,809.27,809.58,810.08,810.83,811.78,812.60,812.93,811.89,810.18,809.25,808.51,807.82,807.31,807.23,807.80,808.48,809.25,810.27,811.97
871.97,871.28,870.75,869.99,868.31,865.31,862.40,859.84,857.74,856.11,854.30,852.55,850.91,849.38,848.30,847.24,846.18,845.13,844.10,843.34,842.63,841.97,841.39,840.82,840.38,840.03,839.78,839.61,839.55,839.84,840.63,841.72,841.87,841.64,841.13,840.16,839.51,839.04,838.70,838.61,839.00,839.46,841.84,846.05,850.10,851.92,852.62,852.54,851.61,850.57,849.86,849.87,850.88,852.80,853.79,852.85,850.34,847.20,845.12,845.32,846.53,847.77,848.71,850.08,852.31,855.32,858.56,861.83,861.89,859.71,856.97,854.60,851.91,849.69,848.30,847.33,846.84,846.37,845.79,845.25,845.22,846.11,847.36,848.59,849.94,851.62,853.08,854.02,854.26,854.68,855.40,856.46,857.48,856.44,854.10,851.65,849.54,847.60,846.53,846.88,848.05,848.57,847.35,844.18,840.80,838.46,836.50,834.59,832.89,831.73,831.65,831.61,831.36,831.13,831.24,831.33,831.44,831.48,831.38,831.20,831.11,830.82,830.22,829.29,828.88,828.57,828.26,827.95,827.57,827.26,826.74,825.95,825.14,824.77,824.94,825.04,824.43,824.45,825.09,825.88,826.52,826.87,827.03,826.74,826.14,825.72,825.20,824.89,824.70,824.41,823.78,822.80,821.24,819.54,819.22,819.39,819.74,820.12,820.42,820.55,820.32,819.85,819.24,818.62,818.07,817.75,817.82,818.39,819.03,821.18,825.03,829.76,830.84,830.69,830.42,830.24,829.82,828.22,825.70,823.12,821.44,819.98,818.90,817.95,817.06,816.56,816.98,817.62,818.07,818.01,817.39,816.81,817.10,819.10,822.17,823.34,823.46,823.46,824.44,823.73,821.68,819.49,818.58,817.66,816.71,815.72,814.70,813.76,812.88,812.04,811.26,810.61,810.02,809.77,809.72,809.71,809.64,809.59,809.55,809.49,809.38,809.32,809.27,809.25,809.32,809.33,809.33,809.27,809.11,808.92,808.70,808.47,808.27,808.15,808.22,808.46,808.75,808.99,809.26,809.45,809.81,810.38,810.95,811.45,811.04,810.00,809.14,808.36,807.56,806.88,806.59,807.11,807.75,808.43,809.21,810.28
872.66,871.38,870.29,869.00,866.97,864.15,861.10,858.08,855.32,853.25,852.36,851.93,851.20,849.43,848.26,847.20,846.18,845.17,844.12,843.34,842.65,842.03,841.51,841.09,840.71,840.36,840.09,840.01,839.97,840.59,842.21,844.35,844.59,843.99,842.80,840.89,839.80,839.25,838.97,838.93,839.27,839.67,842.15,846.47,850.22,852.13,853.29,853.77,853.35,852.86,852.75,853.07,853.92,855.33,855.80,854.35,851.50,848.64,847.74,848.42,849.70,850.93,851.83,852.93,854.78,857.49,860.66,862.75,861.09,857.71,855.16,852.90,850.85,849.19,847.99,846.95,846.66,846.40,846.04,845.80,845.84,846.69,847.87,849.06,850.41,852.19,854.09,855.78,856.66,857.28,857.91,858.66,858.85,855.17,851.94,849.08,846.31,843.97,842.73,843.15,844.52,845.08,842.96,840.12,837.73,836.25,834.69,832.81,830.82,829.33,829.63,829.68,829.61,829.60,829.73,829.82,829.85,829.83,829.74,829.58,829.38,829.07,828.68,828.32,827.99,827.67,827.36,827.04,826.67,826.38,825.93,825.27,824.69,824.95,825.40,825.44,824.61,824.24,824.73,825.40,825.82,825.94,826.03,825.69,825.00,824.43,823.89,823.26,822.45,821.45,820.57,819.71,819.31,819.52,820.07,820.44,820.72,820.94,821.12,821.33,821.01,820.40,819.72,819.08,818.49,817.91,817.59,818.18,818.91,820.61,824.29,829.74,830.85,830.71,830.32,829.90,829.25,826.74,823.78,821.28,819.92,819.09,818.28,817.44,816.76,816.80,817.48,818.30,819.05,819.57,819.47,818.32,818.06,820.56,823.71,825.56,826.11,825.82,825.86,824.01,821.56,819.44,818.37,817.35,816.35,815.31,814.26,813.32,812.34,811.41,810.62,810.09,809.83,809.68,809.59,809.56,809.48,809.44,809.43,809.40,809.34,809.32,809.37,809.43,809.51,809.53,809.53,809.47,809.30,809.06,808.82,808.54,808.22,807.94,808.00,808.24,808.49,808.65,808.85,808.98,809.14,809.39,809.65,809.92,809.93,809.59,808.90,808.17,807.37,806.57,806.00,806.29,806.85,807.50,808.16,808.70
871.16,869.70,868.05,866.44,864.90,862.90,860.23,857.21,854.11,851.38,850.45,850.25,849.96,848.96,848.00,847.03,846.09,845.18,844.17,843.36,842.76,842.29,841.81,841.41,841.06,840.76,840.60,840.90,841.10,842.33,844.82,847.16,847.31,845.92,843.70,841.34,839.95,839.39,839.23,839.29,839.55,840.00,842.46,846.59,849.98,851.80,853.32,854.69,855.55,855.58,856.06,856.86,857.80,858.60,858.20,856.75,854.36,851.32,850.46,851.24,852.57,853.80,854.70,855.74,857.44,860.09,863.49,862.05,859.00,855.81,853.14,851.05,849.77,848.71,847.74,847.36,847.48,847.40,847.05,846.68,846.45,847.11,848.19,849.37,850.89,852.89,855.04,857.01,858.29,859.05,859.42,859.64,859.03,853.70,849.47,846.09,843.13,840.97,839.91,839.85,840.24,840.11,839.00,837.05,835.09,833.69,832.50,831.06,829.52,828.40,828.86,828.86,828.80,828.82,828.91,828.99,829.05,829.05,828.96,828.81,828.64,828.35,827.95,827.54,827.16,826.79,826.45,826.13,825.81,825.47,825.06,824.75,825.00,825.61,825.94,825.71,824.81,824.04,824.23,824.64,824.83,824.96,825.10,824.69,823.85,823.11,822.53,821.81,820.92,820.00,819.58,819.67,819.96,820.31,820.72,821.09,821.41,821.66,821.83,822.05,821.69,821.03,820.28,819.54,818.83,818.11,817.66,818.13,818.80,820.00,823.44,829.46,830.42,830.30,829.53,828.14,826.39,823.49,821.24,819.86,818.96,818.25,817.52,816.89,816.63,817.19,818.04,818.99,820.16,821.76,822.57,822.47,822.87,825.06,827.55,828.46,828.03,826.64,825.13,823.08,820.97,819.18,818.05,816.98,815.96,814.92,813.87,812.93,811.94,810.96,810.17,809.97,809.98,809.97,809.90,809.79,809.65,809.58,809.52,809.46,809.39,809.42,809.49,809.57,809.65,809.71,809.72,809.66,809.49,809.20,808.91,808.56,808.13,807.76,807.77,807.92,808.11,808.25,808.32,808.43,808.61,808.84,809.07,809.18,809.12,808.87,808.34,807.75,807.05,806.30,805.63,805.44,805.88,806.51,807.09,807.46
