979.47,983.62,987.31,990.23,991.84,992.92,994.60,996.43,997.87,997.93,997.25,996.22,995.23,994.50,992.64,990.13,987.03,983.36,979.70,977.17,974.84,972.57,970.91,969.70,969.01,967.49,964.03,961.06,957.36,953.38,949.55,946.48,945.29,945.19,945.24,944.58,944.14,943.14,941.15,937.56,931.96,929.42,928.30,928.04,929.35,932.02,936.78,941.18,942.30,941.15,938.04,934.81,933.11,934.93,936.90,939.35,942.21,944.88,945.94,944.48,942.58,941.66,940.94,938.55,935.02,931.21,928.56,926.32,925.70,926.14,926.73,926.63,925.65,924.82,924.72,925.45,926.29,926.47,925.89,924.72,923.51,922.42,921.68,921.73,923.31,925.22,927.38,929.81,932.47,935.28,938.21,940.93,943.09,945.04,944.45,942.57,940.12,937.29,934.72,934.01,934.78,935.64,936.35,937.13,938.02,938.92,939.42,937.40,934.34,930.97,927.57,923.78,920.92,919.22,918.75,919.07,920.47,922.40,924.47,926.00,923.91,920.59,916.71,912.07,909.57,908.99,910.20,913.53,918.38,920.04,920.70,921.35,921.76,921.24,920.03,918.18,915.59,912.93,910.78,909.80,910.15,910.51,909.87,908.92,907.89,906.63,905.22,903.88,902.36,900.46,898.61,897.00,895.67,894.81,894.95,896.28,898.09,899.49,899.27,897.47,894.70,891.98,890.04,889.32,888.57,888.13,887.45,885.11,882.52,880.87,880.09,879.93,879.86,879.54,879.12,878.64,878.02,877.29,876.41,875.48,874.66,874.14,874.25,874.57,874.79,874.79,875.10,875.28,875.36,875.64,875.80,876.23,876.79,877.30,877.84,878.57,879.59,880.69,881.07,880.24,877.78,874.80,872.92,871.35,870.42,870.01,869.66,868.06,865.87,863.56,861.25,858.92,856.15,852.80,850.31,850.04,849.79,849.60,849.41,849.23,849.16,849.31,849.59,850.00,850.50,850.30,849.77,849.28,848.98,848.76,848.76,848.83,848.90,848.97,848.93,849.01,849.29,849.75,850.00,849.45,848.62,847.71,846.77,846.81,847.52,848.56,849.98,853.48,857.83,861.49,863.74,866.01,868.33,870.24,871.42,871.59
979.63,983.94,987.84,991.17,993.61,995.74,997.67,999.29,1000.34,1000.42,1000.00,999.04,997.49,995.06,991.69,988.56,985.47,982.26,979.52,977.88,976.39,974.76,973.07,971.22,968.37,964.62,960.30,956.43,952.40,948.30,944.56,942.32,941.50,941.14,940.45,938.88,938.85,938.65,937.26,934.21,930.77,929.60,929.53,930.44,933.35,937.05,940.79,943.10,942.40,940.26,936.88,935.13,936.17,938.47,940.29,942.51,945.27,947.99,948.87,947.45,945.19,943.09,941.19,938.17,934.25,930.39,928.37,926.73,926.73,927.74,928.72,929.10,927.88,926.63,926.29,926.97,927.37,927.00,926.01,924.81,923.66,922.88,922.60,923.13,924.88,926.72,928.74,931.02,933.55,936.09,938.86,941.56,943.81,946.12,945.08,942.71,940.17,937.58,936.57,936.79,937.77,938.98,939.85,940.58,941.23,941.56,940.63,937.39,933.35,929.50,926.71,923.21,921.30,920.84,921.22,922.36,924.39,926.50,927.94,927.72,924.58,920.69,916.68,912.49,909.95,909.86,912.48,917.56,921.00,921.65,921.65,921.88,922.26,921.35,920.05,918.42,916.20,913.92,912.64,912.10,911.85,910.99,909.64,908.18,906.78,905.48,904.04,902.77,901.39,899.61,897.81,896.08,894.56,893.36,892.80,893.69,894.69,895.19,894.65,892.91,891.26,889.80,888.61,887.95,887.08,886.08,884.94,883.38,881.07,879.83,879.36,879.08,878.95,878.70,878.34,877.90,877.38,876.79,876.10,875.40,874.91,874.86,875.20,875.73,876.28,876.59,876.85,877.28,877.83,878.22,878.39,878.57,878.82,879.19,879.76,880.47,881.26,881.78,881.00,879.06,876.01,872.73,870.53,869.07,868.11,867.59,867.21,865.65,863.52,861.48,859.59,857.40,854.58,851.74,849.86,849.73,849.60,849.49,849.40,849.35,849.43,849.59,850.21,851.39,852.93,853.05,851.27,849.61,849.33,849.14,849.12,849.17,849.26,849.39,849.47,849.60,850.19,851.54,852.30,850.90,849.24,848.14,847.15,847.05,847.42,848.05,849.02,850.93,855.12,859.24,861.70,864.19,866.79,869.11,870.74,871.10
979.58,984.22,988.27,991.78,994.65,997.52,999.81,1001.56,1002.61,1002.58,1002.27,1001.11,998.83,995.13,991.16,988.04,985.26,982.59,980.56,979.12,977.57,975.70,973.53,970.67,966.01,960.78,956.36,952.13,948.39,945.49,943.63,942.70,942.35,941.82,940.68,938.84,938.48,937.89,936.38,933.94,932.21,931.87,932.39,933.94,937.38,941.18,943.77,944.29,942.07,939.33,936.88,936.74,939.25,941.58,943.42,945.57,948.12,950.57,950.89,948.95,946.09,943.22,940.51,937.20,933.32,929.71,928.23,927.42,927.90,929.16,930.42,930.88,929.49,928.12,927.77,928.22,928.07,927.29,926.12,924.97,924.08,923.55,923.55,924.37,926.15,927.95,930.12,932.73,935.50,937.86,940.42,943.03,945.33,947.25,945.86,943.36,941.03,939.11,939.32,940.21,941.31,942.66,943.22,943.41,943.29,942.58,940.65,936.88,932.55,928.64,926.27,923.94,923.25,923.77,924.69,926.07,927.91,929.50,930.07,928.54,924.19,920.01,916.53,913.13,911.37,912.40,915.80,920.58,922.66,922.82,922.46,922.25,922.44,921.36,920.06,918.67,916.93,914.99,913.90,913.10,912.06,910.42,908.69,907.26,906.09,904.88,903.15,901.81,900.50,898.76,897.00,895.22,893.55,892.11,891.10,891.38,891.68,891.63,891.07,889.85,889.11,888.47,887.62,886.77,885.84,884.56,883.10,881.93,880.18,879.32,878.98,878.64,878.40,878.09,877.72,877.30,876.86,876.40,875.90,875.50,875.47,875.77,876.18,876.74,877.43,878.00,878.48,879.30,880.37,881.05,881.47,881.67,881.63,881.40,881.40,881.58,881.74,881.50,880.02,877.19,873.77,870.54,868.36,866.97,865.91,865.18,864.61,863.07,861.29,859.67,858.17,856.35,854.01,851.55,849.88,849.73,849.60,849.53,849.50,849.53,849.69,850.08,851.28,853.22,855.42,856.21,854.28,851.80,850.35,849.61,849.48,849.53,849.76,850.55,851.63,852.59,853.56,854.49,854.13,851.81,849.62,848.38,847.37,847.47,847.87,848.28,848.74,849.34,852.27,855.89,858.93,861.97,864.91,867.55,869.58,870.35
979.49,984.70,988.95,992.43,995.24,998.38,1001.01,1003.24,1004.72,1004.48,1004.14,1002.45,999.30,995.07,991.47,988.84,986.55,984.33,982.57,980.51,977.92,974.97,971.99,967.91,962.23,956.59,952.59,948.71,946.03,945.53,946.94,947.61,947.87,947.39,946.28,944.81,943.52,941.46,939.15,937.23,936.25,936.15,936.82,938.37,941.13,944.05,945.60,944.90,941.52,938.73,938.38,939.79,942.24,944.25,946.29,948.50,950.76,952.50,951.90,948.88,945.27,942.18,939.15,935.85,932.38,929.37,928.27,928.41,929.28,930.57,931.92,931.99,930.51,929.33,929.16,929.13,928.41,927.36,926.24,925.27,924.78,924.39,924.44,925.37,927.07,928.88,931.45,934.81,938.15,940.48,942.85,945.38,947.66,948.54,946.92,944.63,942.77,941.94,942.86,944.15,945.39,946.51,946.25,945.40,944.03,941.97,939.56,935.85,931.89,928.41,926.29,925.87,926.47,927.53,928.70,929.80,930.61,930.98,930.49,928.16,922.71,918.65,916.33,914.02,913.87,916.44,919.74,922.04,923.23,923.52,923.16,922.51,922.33,921.27,920.04,918.86,917.63,915.96,914.33,912.70,911.01,909.26,907.68,906.88,906.46,905.22,902.80,901.12,899.72,897.94,896.15,894.37,892.64,891.09,890.03,889.66,889.58,889.51,889.21,888.71,888.27,887.68,886.78,885.70,884.77,883.51,882.00,880.67,879.74,879.12,878.68,878.35,878.00,877.63,877.27,876.93,876.55,876.20,875.88,875.78,876.23,876.68,877.11,877.60,878.26,879.05,880.05,881.41,882.91,883.99,884.65,884.92,884.53,883.27,882.20,881.48,880.75,879.76,878.15,874.84,871.30,868.35,866.51,865.10,863.87,862.86,861.98,860.49,859.32,858.20,856.99,855.65,854.15,851.83,849.95,849.80,849.72,849.75,849.81,849.90,850.13,850.95,852.81,855.33,857.74,859.45,858.58,855.82,852.26,850.38,850.07,850.24,850.87,852.84,855.50,857.78,858.93,858.06,855.09,852.00,849.72,848.44,847.48,848.07,848.88,849.37,849.35,849.23,849.98,852.18,856.01,859.79,862.97,865.70,867.93,869.26
979.55,985.56,990.27,993.93,996.83,999.99,1002.89,1005.31,1006.82,1006.56,1006.13,1003.42,999.29,995.77,992.77,990.29,987.97,985.53,982.68,979.78,976.71,973.47,969.92,964.36,958.48,953.27,949.57,947.58,947.78,949.49,952.06,953.99,955.02,954.57,952.82,950.36,948.82,946.63,944.10,941.90,940.99,940.82,941.38,942.77,945.07,947.41,947.13,944.63,941.09,939.39,940.53,942.84,945.37,947.31,949.51,951.70,953.60,954.45,952.48,948.67,944.42,940.64,937.61,934.50,931.61,929.51,929.16,929.89,931.20,932.77,934.10,933.32,931.91,930.99,930.66,929.69,928.64,927.56,926.60,926.05,925.63,925.21,925.27,926.27,927.85,929.92,932.99,936.82,940.30,943.01,945.65,948.18,950.02,950.20,948.61,946.66,945.28,945.21,946.44,947.90,948.94,948.79,947.31,945.45,943.37,940.91,937.89,934.23,931.17,929.31,928.77,929.17,929.90,930.69,931.38,932.09,931.87,931.17,929.56,925.04,920.35,917.72,916.75,915.93,916.77,918.96,920.95,921.69,922.33,922.79,923.02,922.90,922.18,921.00,919.92,919.02,918.09,916.41,914.52,912.55,910.67,909.38,908.73,908.64,908.30,906.08,903.39,901.08,899.07,897.20,895.33,893.45,891.72,890.29,889.50,888.99,888.72,888.54,888.25,887.88,887.45,886.85,885.95,884.86,883.76,882.64,881.51,880.47,879.79,879.30,878.88,878.54,878.29,877.90,877.52,877.20,876.82,876.50,876.30,876.37,876.91,877.38,877.88,878.43,879.12,880.30,882.00,883.74,885.21,885.93,885.11,883.74,882.09,880.24,878.94,878.19,877.62,876.92,875.62,872.88,869.86,867.10,864.93,863.29,861.96,860.85,859.89,858.77,857.83,856.86,855.76,854.56,853.20,851.44,850.06,849.88,849.83,850.43,851.10,851.63,852.18,852.96,854.66,857.14,859.97,862.37,861.67,858.91,855.28,852.62,852.42,853.43,855.13,857.45,859.44,860.46,860.20,858.11,854.51,851.46,849.45,848.48,847.73,848.48,849.77,850.95,851.28,850.39,850.09,851.31,854.49,858.25,861.42,863.98,865.98,867.44
979.65,985.93,991.06,995.17,998.56,1002.14,1005.33,1007.64,1008.76,1008.61,1008.12,1004.87,1000.22,997.01,994.45,991.65,988.80,985.86,982.10,978.43,974.99,971.52,967.14,960.63,954.94,950.69,948.36,948.67,951.20,954.20,956.97,959.37,960.86,960.59,958.68,955.65,953.92,951.77,949.30,947.04,945.82,945.44,945.89,947.12,948.85,949.88,947.96,944.45,941.52,941.21,943.25,946.03,948.73,950.85,953.16,955.17,956.41,955.87,952.64,948.24,943.63,939.48,936.59,934.06,932.13,931.05,931.25,932.31,933.80,935.33,936.20,934.97,933.67,932.67,931.74,930.05,928.86,927.92,927.23,926.95,926.50,926.04,926.12,927.12,928.48,930.69,934.07,938.20,941.74,944.80,947.73,950.34,952.03,952.12,950.82,949.27,948.26,948.55,949.78,950.87,951.12,949.68,947.34,944.78,942.24,939.61,936.26,933.25,931.45,931.09,931.73,932.52,932.95,933.02,932.86,932.90,931.96,930.25,927.43,922.32,919.09,917.58,917.14,917.13,918.42,919.87,920.69,920.65,921.03,921.70,922.44,922.79,921.81,920.45,919.29,918.41,917.62,916.21,914.84,913.28,911.56,910.58,910.45,910.33,909.20,905.59,902.82,900.41,898.23,896.33,894.42,892.55,890.94,889.75,889.16,888.61,888.21,887.89,887.56,887.22,886.83,886.27,885.48,884.57,883.61,882.69,881.81,880.95,880.23,879.67,879.23,878.91,878.72,878.33,877.91,877.54,877.18,876.88,876.78,876.97,877.50,877.99,878.56,879.27,880.30,882.06,884.21,886.04,887.04,886.42,884.16,881.46,878.81,876.48,874.91,874.25,874.03,873.84,873.07,871.00,868.47,865.88,863.46,861.61,860.27,859.19,858.23,857.32,856.44,855.50,854.47,853.35,852.17,851.09,850.35,850.27,850.68,851.90,853.18,854.23,855.21,855.76,856.78,858.79,862.15,865.28,864.77,861.83,857.92,855.21,855.32,856.98,859.38,861.64,862.17,861.50,859.75,856.70,853.10,850.63,849.16,848.43,847.93,848.66,850.04,851.87,853.87,853.63,853.12,853.30,854.75,857.24,860.03,862.50,864.53,866.41
979.78,985.52,990.91,995.81,1000.19,1004.83,1008.31,1010.14,1010.46,1010.50,1010.00,1007.07,1002.65,998.85,996.32,992.65,988.67,985.04,981.06,976.78,972.96,969.13,963.59,956.96,951.84,949.20,949.79,952.44,955.85,958.79,960.95,962.81,964.25,964.42,963.18,960.61,958.63,956.44,954.31,952.48,950.66,949.95,950.31,951.37,952.21,950.82,947.81,944.71,943.27,944.35,946.64,949.44,952.38,954.92,957.25,958.83,958.99,956.49,952.29,947.54,942.95,939.08,936.47,935.08,934.52,934.53,934.88,935.93,937.20,938.10,938.00,936.96,935.79,934.22,932.19,930.27,929.12,928.51,928.18,927.85,927.33,926.90,927.02,927.95,928.92,931.03,934.43,938.62,942.19,945.47,948.56,951.35,953.46,954.30,953.66,952.58,951.75,951.84,952.62,952.60,951.36,948.91,946.30,943.56,940.83,938.11,935.00,933.53,933.31,933.87,934.56,935.34,935.13,934.10,932.79,931.88,930.65,928.09,924.18,921.17,919.72,918.46,917.26,916.98,918.05,918.83,919.10,919.10,919.58,920.51,921.46,921.94,921.11,919.53,917.94,916.66,915.85,915.12,915.24,914.98,913.80,912.85,912.43,911.17,908.20,903.00,900.32,898.64,897.07,895.23,893.38,891.69,890.39,889.52,888.92,888.36,887.86,887.42,887.07,886.81,886.55,886.16,885.60,885.08,884.68,884.03,883.10,882.11,881.10,880.27,879.71,879.44,879.19,878.78,878.30,877.83,877.50,877.25,877.24,877.49,878.02,878.55,879.09,880.13,882.03,884.56,886.67,888.14,888.15,885.08,881.98,878.91,875.93,873.20,871.10,870.44,870.50,870.79,870.67,869.05,866.80,864.38,862.06,860.11,858.87,857.94,857.03,856.00,855.06,854.12,853.15,852.20,851.46,851.09,850.96,851.16,852.55,854.33,856.05,857.60,859.10,859.29,859.27,860.40,864.29,868.19,868.12,864.76,859.80,857.97,858.58,860.34,862.57,864.26,862.89,860.71,857.93,854.22,850.99,849.64,848.92,848.30,848.00,848.59,849.45,851.64,856.83,859.25,859.48,858.58,857.36,857.10,858.99,861.48,864.02,866.77
980.32,985.88,991.42,996.78,1001.97,1007.25,1010.25,1011.59,1011.76,1011.50,1010.75,1008.43,1004.90,1000.94,997.22,992.56,987.98,984.09,979.94,975.29,971.09,967.00,961.38,954.29,950.82,951.04,954.08,957.32,960.36,962.57,963.95,965.63,967.36,967.77,966.65,964.33,962.86,961.54,960.13,958.47,956.49,955.40,954.91,954.63,953.76,950.56,947.35,945.47,945.88,947.58,950.08,952.98,955.96,958.51,960.33,960.91,959.89,956.49,951.71,947.13,942.88,939.25,937.51,937.30,937.77,938.43,938.78,939.47,939.95,940.08,939.64,938.41,937.08,935.33,933.10,931.09,929.87,929.37,929.16,928.61,927.92,927.55,927.77,928.68,929.57,931.48,934.56,938.35,941.55,945.03,948.41,951.46,953.98,956.27,957.00,956.69,955.76,954.75,953.83,952.38,950.16,947.07,944.04,941.27,938.81,936.81,935.71,935.66,936.10,936.55,936.32,935.73,934.27,932.37,930.63,929.27,927.90,926.22,924.21,922.43,920.68,918.93,917.32,916.35,917.00,917.53,917.63,917.50,917.95,919.36,920.73,921.35,920.52,918.53,916.40,914.66,913.73,913.06,913.09,913.15,913.02,913.32,912.78,910.52,906.46,901.15,898.56,897.05,895.69,894.14,892.60,891.12,890.02,889.33,888.76,888.25,887.95,887.78,887.58,887.38,887.16,886.88,886.53,886.28,886.04,885.44,884.50,883.53,882.47,881.53,880.80,880.29,879.68,879.18,878.70,878.23,877.85,877.65,877.71,877.98,878.44,878.93,879.43,881.17,884.59,887.40,888.77,889.10,887.94,884.00,880.38,876.92,873.69,870.92,869.00,868.21,868.14,868.39,868.13,866.74,864.68,862.41,860.44,858.90,857.79,856.81,855.82,854.79,853.87,853.29,852.97,852.66,852.39,852.20,852.08,852.23,853.81,855.76,857.72,859.62,861.48,862.13,862.24,863.22,866.79,869.69,869.82,867.34,863.31,861.94,862.53,863.92,864.88,863.43,860.99,858.21,855.11,851.80,849.99,849.23,848.74,848.30,848.18,848.64,849.29,851.32,856.75,860.84,862.61,862.86,862.09,860.89,860.89,862.30,864.81,867.56
981.79,986.96,992.30,997.76,1003.47,1008.98,1011.57,1012.60,1012.70,1011.94,1010.74,1008.49,1005.20,1000.96,996.19,991.22,986.69,982.78,978.50,973.75,969.35,965.12,959.81,952.95,951.49,954.25,958.62,961.86,964.47,966.18,967.10,968.46,970.29,970.80,969.83,967.89,967.04,966.53,965.68,964.09,961.93,960.42,958.97,957.03,953.90,949.92,947.38,946.96,948.86,950.97,953.62,956.49,959.31,961.69,962.49,961.84,959.76,955.88,950.93,946.72,943.09,940.17,939.49,940.41,941.63,942.51,942.66,942.69,942.15,941.37,940.64,939.23,937.73,935.97,933.93,932.07,930.79,930.16,929.78,929.06,928.32,928.14,928.59,929.62,930.74,932.56,935.08,938.07,940.94,944.44,948.00,951.35,954.46,957.88,959.49,959.63,958.49,956.43,954.05,951.48,948.59,945.11,941.86,939.49,937.79,936.85,937.38,938.11,938.52,938.28,936.93,935.11,933.03,931.03,929.49,928.16,926.83,925.79,924.99,923.46,921.09,918.97,917.24,915.69,915.83,916.16,916.18,915.90,916.27,918.01,919.67,920.40,919.51,917.24,914.77,912.71,911.53,910.78,910.48,910.58,911.25,912.74,912.49,909.78,905.15,900.13,897.72,896.23,894.91,893.53,892.15,890.80,889.81,889.21,888.68,888.32,888.29,888.39,888.34,888.23,888.02,887.81,887.68,887.64,887.48,886.89,885.96,885.01,883.91,882.81,881.79,880.88,879.99,879.44,878.99,878.52,878.12,878.05,878.19,878.47,878.83,879.24,880.10,882.73,887.18,889.61,890.18,889.54,887.53,883.28,879.39,875.74,872.39,869.65,868.11,867.07,866.49,866.24,865.69,864.35,862.50,860.55,858.97,857.82,856.76,855.75,854.79,854.07,853.47,853.33,853.58,853.78,853.82,853.67,853.42,853.40,854.81,856.75,858.77,860.81,863.03,864.56,865.31,866.31,868.98,870.72,870.91,869.51,866.99,866.02,866.39,866.85,866.00,861.85,858.56,855.38,852.35,850.04,849.43,849.04,848.69,848.46,848.45,848.72,849.21,850.77,855.12,860.61,864.01,865.86,866.52,865.37,864.21,864.60,866.50,868.59
985.02,989.13,993.62,998.59,1004.32,1009.49,1012.20,1013.29,1013.06,1011.63,1009.77,1006.25,1001.50,996.48,991.60,987.86,984.48,980.79,976.49,972.02,967.81,963.66,958.85,953.87,954.61,958.55,962.16,965.09,967.80,969.89,971.11,971.72,973.02,973.49,972.94,971.85,971.41,971.02,970.21,968.56,965.94,963.96,961.72,958.14,952.09,949.18,948.66,949.75,952.12,954.63,957.30,959.86,962.20,964.25,963.27,961.18,958.38,954.29,949.84,946.18,943.59,942.39,942.86,944.77,946.25,946.71,946.29,945.23,943.47,941.65,940.38,938.98,937.44,935.84,934.32,933.00,931.73,930.63,929.70,928.92,928.48,928.75,929.63,931.06,932.91,934.94,936.58,938.16,940.98,944.17,947.59,951.31,955.31,958.84,959.95,959.63,958.27,955.70,953.09,950.23,947.02,943.50,940.55,939.37,939.23,939.52,939.99,940.20,939.59,938.01,935.72,933.79,932.67,932.09,931.57,931.00,929.97,928.19,925.58,922.70,920.13,918.30,916.89,915.23,914.76,914.80,914.72,914.33,914.56,916.21,917.84,918.53,917.52,915.36,913.06,910.97,909.32,908.56,908.27,908.36,909.08,910.92,911.72,909.65,905.19,900.46,898.43,896.97,895.49,893.91,892.34,890.86,889.81,889.21,888.71,888.72,888.90,889.07,889.12,889.11,888.89,888.75,888.85,888.96,888.90,888.37,887.44,886.47,885.24,883.76,882.19,880.76,879.90,879.41,878.99,878.55,878.25,878.40,878.67,878.96,879.23,879.52,881.60,885.25,889.33,890.27,890.33,889.54,887.41,883.19,879.43,876.00,872.76,869.97,868.83,867.39,865.72,864.24,863.51,862.00,860.50,859.18,857.95,856.85,855.74,854.77,854.19,854.30,854.60,854.91,855.19,855.40,855.44,855.29,854.97,854.70,855.59,857.31,859.12,860.96,863.63,866.47,868.28,869.29,870.34,871.50,871.63,871.01,870.07,869.61,869.57,868.23,865.09,860.61,856.49,852.83,850.29,849.60,849.23,849.00,848.89,848.88,848.83,848.82,849.09,849.81,851.90,858.76,863.49,866.68,869.10,869.11,868.89,868.96,869.36,869.87
989.13,992.17,995.89,1000.33,1005.69,1010.43,1013.26,1014.04,1012.92,1010.90,1007.82,1003.25,997.75,992.36,988.21,985.00,982.05,978.93,975.51,971.53,967.21,962.65,958.08,955.19,957.33,961.66,965.04,967.93,970.87,973.31,974.88,975.53,976.42,976.86,976.77,976.34,975.85,974.80,973.18,970.88,967.86,964.88,961.55,957.42,952.30,951.14,952.01,953.83,956.17,958.42,960.65,962.84,964.72,965.49,963.01,959.81,956.47,952.65,949.07,946.93,946.09,946.38,947.23,948.50,949.13,948.68,946.98,944.76,942.51,940.47,938.82,937.39,935.86,934.35,932.97,931.78,930.96,930.30,929.71,929.25,929.27,930.31,931.94,933.84,935.98,937.87,939.11,940.06,942.06,944.79,947.97,951.75,956.19,959.32,960.13,959.66,958.18,955.34,952.40,949.38,946.24,943.14,941.22,940.82,941.23,941.72,941.23,940.34,939.20,937.86,936.47,935.24,933.95,932.69,931.67,930.58,929.19,927.13,924.30,921.31,918.84,917.00,915.63,914.49,913.65,913.39,913.18,912.76,912.87,913.99,915.08,915.46,914.58,912.78,910.60,908.37,906.48,905.96,906.02,906.61,907.95,910.07,911.37,910.04,906.39,902.03,899.39,897.62,896.07,894.45,892.83,891.26,890.10,889.43,889.00,889.14,889.46,889.76,889.89,889.90,889.71,889.59,889.67,889.74,889.69,889.18,888.16,886.71,885.12,883.49,881.90,880.50,879.80,879.42,879.09,878.76,878.53,878.76,879.08,879.51,880.35,882.00,884.98,888.16,890.40,890.47,890.32,889.66,887.93,884.35,881.11,878.04,874.96,871.94,869.83,867.86,865.82,863.85,862.45,860.95,859.60,858.40,857.21,856.04,855.43,855.13,855.06,855.48,856.00,856.44,856.78,857.02,857.07,856.87,856.43,855.89,856.16,857.53,859.07,860.85,864.20,867.74,869.97,871.02,871.63,872.44,872.39,871.80,871.07,870.56,870.20,868.41,865.06,861.11,856.28,852.20,849.76,849.50,849.30,849.25,849.30,849.38,849.31,849.21,849.24,849.50,850.67,856.10,861.23,865.60,868.95,869.85,870.06,870.10,870.13,870.24
993.53,995.85,999.11,1003.06,1007.63,1011.79,1014.41,1014.61,1012.46,1009.81,1005.63,1000.29,994.43,988.97,985.45,982.44,979.64,977.06,974.53,971.02,966.61,961.70,957.49,956.69,959.87,964.38,967.84,970.89,974.09,976.86,978.81,979.92,980.74,981.12,981.12,980.75,979.65,977.65,975.06,971.97,968.40,964.38,960.28,956.48,953.81,954.26,955.98,958.07,960.19,962.06,963.85,965.69,967.15,966.70,963.00,958.94,955.35,952.09,949.36,948.64,949.29,950.56,951.19,951.25,950.66,949.15,946.19,943.12,940.71,938.71,936.81,935.45,934.14,932.87,931.69,930.69,930.46,930.43,930.35,930.20,930.71,932.43,934.69,936.99,939.21,940.86,941.88,942.54,943.69,945.91,948.90,952.75,957.30,959.69,960.22,959.68,958.10,955.07,951.83,948.76,945.94,943.59,942.70,942.77,943.23,943.40,942.00,940.24,938.91,938.13,937.43,936.44,934.55,932.31,930.48,928.67,926.79,924.69,922.27,919.66,917.41,915.66,914.47,913.91,912.94,912.32,911.84,911.33,911.25,911.75,912.21,912.23,911.48,909.99,908.03,905.94,904.25,903.65,903.93,905.05,907.03,909.39,910.98,910.46,907.82,903.73,900.30,898.18,896.63,895.01,893.39,891.81,890.56,889.77,889.41,889.66,890.07,890.41,890.53,890.54,890.39,890.25,890.22,890.18,890.03,889.44,888.25,886.37,884.48,882.84,881.45,880.36,879.86,879.55,879.30,879.05,878.85,879.10,879.46,880.24,882.20,885.30,888.41,890.21,890.07,889.39,889.16,888.75,887.53,884.68,881.94,879.14,876.26,873.33,870.44,868.14,866.04,863.95,861.92,860.42,859.11,857.86,856.64,855.63,855.64,856.03,856.39,856.90,857.45,858.00,858.50,858.88,858.94,858.52,857.78,857.02,856.75,857.74,859.05,860.84,864.75,868.61,871.02,872.19,872.84,873.24,872.83,871.97,870.98,870.20,869.39,867.49,864.54,861.43,856.38,852.15,849.75,849.56,849.48,849.60,849.92,850.32,850.30,849.99,849.63,849.47,850.18,853.48,858.44,863.48,867.28,869.21,869.95,870.17,870.20,870.27
997.97,1000.68,1004.34,1007.91,1010.78,1014.00,1015.40,1014.49,1011.52,1008.04,1003.64,998.22,992.47,987.49,983.50,980.30,977.53,975.04,972.53,969.27,965.04,960.45,957.31,958.37,962.27,966.97,970.98,974.63,978.06,981.03,983.47,985.55,987.24,987.48,986.42,984.38,981.47,978.38,975.12,971.37,966.77,962.08,958.42,956.57,957.38,958.38,959.81,961.54,963.39,965.14,966.90,968.56,969.68,969.12,964.71,960.31,957.08,954.92,952.61,952.06,952.71,953.58,952.91,951.61,949.72,947.12,943.66,940.74,938.48,936.51,934.67,933.71,933.18,932.74,932.32,932.10,932.42,932.76,932.85,932.70,933.50,935.37,937.66,939.91,942.13,943.55,944.44,945.09,946.00,947.65,950.79,954.99,959.09,960.25,960.31,959.61,957.89,954.71,951.36,948.46,946.34,945.37,944.75,944.71,944.65,943.98,942.68,941.25,940.38,939.60,937.20,934.18,931.56,929.33,927.26,925.28,923.22,921.33,919.67,917.87,915.88,914.77,914.45,914.11,913.50,912.36,911.17,910.36,909.80,909.84,909.89,909.63,908.81,907.24,905.78,904.85,904.44,902.57,902.40,903.62,905.76,908.26,910.09,910.44,908.86,904.72,900.77,898.57,897.15,895.54,893.92,892.48,891.24,890.28,889.89,890.43,890.89,891.00,890.77,890.74,890.62,890.47,890.33,890.14,889.64,888.63,887.14,885.39,883.65,882.19,881.20,880.76,880.47,880.08,879.73,879.43,879.17,879.33,879.80,881.49,885.63,889.01,890.18,889.17,886.50,884.82,884.63,884.53,883.66,881.32,878.62,875.64,873.03,871.33,869.53,867.69,865.84,863.96,861.96,860.26,858.79,857.45,856.32,856.27,856.75,857.30,857.73,858.15,858.77,859.67,860.73,861.47,861.60,860.44,858.93,858.10,857.64,858.32,859.52,861.45,865.23,868.90,871.34,872.82,873.87,873.39,872.27,870.89,869.49,868.42,866.66,864.32,861.76,859.48,855.69,852.08,849.84,849.75,849.73,849.93,850.96,852.55,852.73,851.74,850.54,849.72,850.01,851.75,855.70,860.03,863.59,867.20,869.26,870.07,870.12,870.15
1003.71,1006.11,1009.41,1012.40,1014.29,1016.51,1016.44,1014.34,1010.70,1006.69,1002.18,996.35,990.38,986.23,982.25,979.02,976.25,973.72,971.06,968.49,965.06,960.93,957.92,960.10,964.80,969.91,974.19,978.10,981.45,984.49,987.18,989.15,990.55,990.31,988.54,985.56,981.53,977.71,973.94,969.84,965.09,961.18,959.28,959.56,961.44,962.61,963.80,965.14,966.58,968.07,969.53,970.73,971.22,970.14,966.65,963.07,960.22,958.22,956.14,954.97,954.43,953.94,952.34,950.09,947.28,944.10,941.02,938.57,936.94,935.84,934.96,934.40,934.10,933.89,933.80,934.13,934.67,935.18,935.45,935.40,936.40,938.32,940.59,942.83,945.04,946.39,947.25,947.91,948.85,950.75,954.06,957.68,960.01,960.46,960.31,959.53,957.74,954.60,951.45,949.04,947.55,946.99,946.33,945.90,945.38,944.46,943.37,942.19,941.21,939.78,936.07,932.09,929.08,926.74,924.45,922.40,920.66,919.21,917.96,916.47,915.48,915.45,916.05,916.31,915.61,914.11,912.32,910.65,909.43,908.81,908.40,907.94,907.18,906.47,906.35,906.70,906.70,903.56,901.83,902.01,903.93,906.42,908.60,909.52,908.41,904.19,900.57,898.62,897.41,896.05,894.62,893.36,892.20,891.19,890.49,890.42,890.51,890.49,890.25,890.21,890.13,889.97,889.71,889.30,888.61,887.45,885.89,884.26,883.15,882.47,882.14,882.08,881.83,881.21,880.42,879.71,879.45,879.59,880.93,883.88,888.46,890.76,889.54,886.33,882.56,880.60,880.25,880.21,879.73,878.04,875.24,872.55,870.54,869.44,868.38,866.87,865.14,863.37,861.62,860.08,858.71,857.45,856.51,857.00,857.77,858.53,859.32,860.14,861.43,863.05,864.71,865.73,865.38,863.19,860.54,858.96,858.29,858.88,860.87,864.11,867.39,870.06,872.00,873.49,874.56,873.53,871.99,870.11,867.89,866.12,864.05,861.82,859.63,857.62,854.52,851.86,850.29,850.20,850.59,851.63,853.35,855.30,855.85,854.77,853.09,851.66,851.48,852.22,854.44,857.37,860.44,863.28,865.10,866.57,867.88,868.74
1009.99,1011.84,1014.32,1016.53,1017.80,1018.87,1017.23,1013.97,1009.82,1005.54,1000.95,994.81,988.77,985.61,981.98,978.89,976.26,973.83,971.06,968.95,966.00,962.10,958.89,961.89,967.30,972.83,977.28,981.20,984.40,987.42,990.13,991.62,992.22,991.35,989.02,985.22,980.53,976.28,972.22,968.06,964.02,961.72,961.88,963.87,965.79,967.01,968.03,969.02,970.00,971.04,971.75,972.10,971.78,970.06,967.73,965.22,962.77,960.59,958.52,956.51,954.57,952.66,950.44,947.50,944.18,940.96,938.73,937.08,936.36,936.28,936.45,936.15,935.80,935.57,935.64,936.35,937.01,937.67,938.17,938.28,939.44,941.46,943.76,946.00,948.15,949.53,950.43,951.17,952.36,954.53,957.59,960.08,960.46,960.46,960.04,959.06,957.27,954.55,951.92,950.05,948.94,948.31,947.49,946.60,945.67,944.71,943.77,942.72,941.33,938.93,934.24,930.11,927.08,924.65,922.20,920.15,918.81,917.80,916.83,915.65,915.82,916.85,918.22,919.20,918.27,916.49,914.22,911.62,909.64,908.42,907.66,907.12,906.52,906.87,908.16,909.54,909.39,905.23,901.72,900.51,901.97,904.32,906.66,907.80,906.87,902.85,899.99,898.41,897.37,896.29,895.11,894.02,893.00,891.97,890.88,890.05,889.69,889.56,889.40,889.37,889.27,889.05,888.68,888.11,887.30,886.14,884.74,883.51,883.25,883.41,883.67,883.77,883.41,882.41,881.13,879.99,879.82,880.19,882.64,886.69,890.74,891.46,888.03,883.20,879.01,876.94,876.20,876.03,875.89,874.94,872.24,870.07,868.67,867.82,867.15,865.89,864.31,862.66,861.21,859.92,858.73,857.63,856.92,857.74,858.68,859.80,861.26,862.79,864.85,867.07,869.08,870.27,869.38,866.24,862.46,859.82,858.91,859.68,862.75,867.45,870.12,871.65,872.97,874.25,875.02,873.65,871.88,869.57,866.49,863.79,861.64,859.72,857.83,855.82,853.33,851.71,850.91,850.84,851.87,853.95,856.27,858.28,859.29,858.44,856.47,854.48,853.86,853.90,854.25,855.53,857.88,859.19,860.26,862.20,864.86,866.81
1016.20,1017.64,1018.85,1019.95,1020.75,1020.16,1017.00,1012.86,1008.54,1004.39,999.76,994.15,989.14,987.00,984.18,981.69,979.73,978.12,975.78,972.36,967.85,962.96,959.98,963.81,969.46,975.03,979.80,983.38,986.65,989.53,991.78,993.13,992.99,991.55,988.51,983.20,978.50,974.30,970.35,966.91,965.23,965.27,966.51,968.45,970.35,971.85,972.89,973.68,974.31,974.45,973.12,971.65,970.36,968.11,965.30,962.90,960.89,958.76,956.26,953.84,951.63,949.59,947.28,943.96,940.97,938.88,937.87,937.83,938.14,938.41,938.37,937.89,937.35,937.13,937.45,938.27,939.28,940.36,941.18,941.50,942.90,945.29,947.87,950.09,951.96,953.48,954.59,955.63,957.45,958.68,959.85,960.67,960.61,960.29,958.91,957.13,955.46,954.32,952.85,951.22,949.75,948.85,947.89,946.70,945.42,944.21,943.01,941.90,939.86,936.31,931.22,928.19,925.94,923.76,921.40,919.45,917.95,916.90,916.37,916.29,917.07,918.36,919.96,921.47,920.53,918.46,915.90,913.07,910.34,909.04,908.42,908.05,907.77,908.36,909.98,911.36,910.34,906.00,901.81,899.70,900.39,902.43,903.99,904.50,903.62,900.89,899.09,897.75,896.60,895.49,894.48,893.59,892.70,891.65,890.29,889.53,889.13,888.87,888.63,888.54,888.23,887.80,887.37,886.91,886.01,884.93,884.15,884.44,884.99,885.30,885.44,885.39,884.54,882.96,881.42,880.43,880.66,882.11,885.26,889.16,891.93,891.45,887.14,881.85,877.50,874.71,873.09,872.43,872.42,872.30,870.59,869.06,867.91,866.95,866.01,864.96,863.74,862.38,861.09,859.89,858.73,857.73,857.34,858.25,859.35,861.21,864.14,866.74,868.89,870.66,872.13,873.19,872.28,869.10,864.86,861.11,859.82,861.37,865.18,869.98,872.14,873.39,874.47,875.30,875.18,873.65,871.88,869.46,865.97,862.14,859.80,857.99,856.16,854.14,852.76,852.02,851.64,851.75,853.70,856.31,858.97,861.34,862.84,862.40,860.31,857.88,856.97,856.53,855.66,855.46,856.64,857.59,858.53,860.15,862.48,864.94
1021.00,1022.08,1022.63,1022.90,1022.73,1020.99,1016.94,1012.18,1007.54,1003.51,999.08,994.79,991.49,990.08,988.04,986.07,984.24,982.24,979.02,974.42,969.02,963.84,961.38,965.43,971.14,976.72,981.48,985.03,988.35,991.22,993.38,994.63,993.59,991.26,987.40,981.25,976.73,972.82,969.72,968.11,968.57,969.91,971.55,973.32,975.16,976.48,977.01,976.71,975.56,974.31,972.00,969.68,967.63,965.10,962.28,959.93,957.96,955.79,953.18,950.72,948.45,946.24,943.82,941.19,939.29,938.40,938.40,939.15,939.98,940.50,940.35,939.37,938.89,939.01,939.75,941.03,942.40,943.63,944.53,944.98,946.54,949.18,951.92,954.05,955.75,957.12,958.14,959.04,960.20,960.58,960.66,960.48,959.78,958.48,956.45,954.34,952.74,952.26,951.70,950.79,949.60,948.29,946.98,945.58,944.24,943.04,941.77,939.73,936.66,932.75,928.91,926.60,924.67,922.68,920.57,918.81,917.61,917.03,917.10,917.56,918.57,920.17,922.10,923.55,922.67,920.68,918.27,915.58,912.52,910.78,909.97,909.83,910.11,911.11,912.61,913.28,911.14,906.76,902.13,899.30,899.25,900.68,901.49,901.58,900.91,899.35,898.11,896.90,895.69,894.56,893.62,892.78,891.96,891.04,889.86,889.17,888.76,888.43,888.08,887.89,887.52,887.07,886.61,886.18,885.56,885.01,884.91,885.82,886.80,887.36,887.38,886.66,885.06,883.13,881.91,881.84,882.70,884.38,887.23,890.55,892.75,891.45,886.93,881.55,876.72,872.82,870.88,870.17,870.13,870.16,869.11,867.95,866.90,865.91,865.00,864.20,863.30,862.21,861.02,859.93,858.88,858.00,857.73,858.59,859.56,861.49,864.92,868.25,870.97,873.22,875.09,876.40,875.76,872.51,868.06,864.18,862.82,864.39,867.83,871.91,873.95,875.12,875.77,875.82,874.81,873.23,871.41,868.77,864.88,860.89,858.50,856.63,855.00,854.01,853.13,852.63,852.36,852.57,855.06,857.76,860.60,863.51,865.77,866.17,864.77,862.56,860.90,859.07,857.23,856.38,857.13,858.08,859.11,860.69,862.97,865.74
1024.80,1025.68,1025.89,1025.46,1024.08,1021.60,1017.10,1011.96,1007.09,1003.30,999.40,996.70,995.17,994.25,992.81,991.07,988.81,985.58,980.80,975.29,969.61,964.71,962.96,966.85,972.57,978.20,982.78,986.56,989.93,992.86,995.05,995.88,993.87,990.51,985.89,979.60,975.60,972.43,970.73,971.28,973.31,975.10,976.70,978.21,979.64,980.25,979.71,977.79,974.41,971.78,969.25,966.71,964.13,961.55,959.04,956.74,954.56,952.31,949.80,947.55,945.40,943.19,940.85,939.51,938.97,939.10,939.80,940.74,941.71,942.44,942.42,941.10,940.89,941.44,942.58,944.45,946.12,947.38,948.24,948.85,950.52,953.18,955.81,957.68,959.13,959.99,960.64,961.05,960.95,960.62,960.13,959.34,957.89,955.49,953.23,951.16,949.53,949.10,949.13,949.10,948.54,946.88,945.21,943.73,942.40,941.11,939.61,936.45,932.60,929.05,927.15,925.19,923.27,921.42,919.72,918.39,917.88,918.07,918.78,919.44,920.54,922.42,924.57,925.62,924.85,923.16,921.08,918.71,915.80,913.58,912.47,912.52,913.39,914.63,915.50,914.99,911.85,907.50,902.54,899.13,898.42,899.09,899.31,899.16,898.75,898.07,897.06,895.89,894.70,893.59,892.65,891.79,891.03,890.35,889.61,889.01,888.60,888.25,887.84,887.58,887.29,886.93,886.47,886.06,885.86,886.01,886.51,887.38,888.58,889.31,889.10,887.52,885.18,883.15,882.63,883.79,885.33,886.76,888.83,891.35,893.27,891.42,887.03,881.69,876.22,871.30,869.44,868.83,868.59,868.40,867.70,866.73,865.69,864.80,864.14,863.55,862.88,862.01,860.92,859.97,859.08,858.36,858.07,858.79,859.45,861.01,864.17,867.89,871.42,874.74,877.61,879.35,879.11,876.10,871.87,868.37,867.10,868.15,870.61,873.67,875.67,876.68,876.70,875.80,874.04,872.44,870.54,867.58,863.39,859.89,857.57,855.73,854.57,855.05,854.39,853.75,853.30,853.38,855.90,858.42,861.32,864.79,867.97,869.39,869.09,867.54,865.08,861.44,858.80,857.83,858.71,860.08,861.36,863.09,865.46,868.29
1028.07,1029.37,1028.97,1027.45,1025.30,1022.43,1017.61,1012.56,1008.29,1005.37,1002.91,1000.94,999.61,999.02,997.38,994.75,991.22,986.62,981.00,975.13,969.63,965.41,964.53,968.28,974.17,980.10,984.71,988.84,992.40,995.34,996.99,995.78,992.99,988.94,983.99,978.79,976.42,975.64,975.77,976.77,978.77,980.25,981.51,982.35,981.89,980.70,978.18,974.78,971.19,968.62,965.99,963.28,960.61,958.19,955.82,953.50,951.26,949.04,946.63,944.64,943.12,942.01,940.91,940.50,940.45,940.68,941.45,942.33,943.26,944.13,944.72,944.82,945.02,945.51,946.54,948.47,950.16,951.61,952.80,953.80,955.70,957.69,959.37,960.42,960.67,960.45,960.18,959.94,959.60,958.67,957.34,955.74,953.83,951.77,950.26,948.46,946.45,946.13,946.18,946.19,945.81,944.56,943.17,941.86,940.09,937.42,934.24,931.66,929.31,927.18,925.62,923.79,921.85,920.16,919.20,919.05,919.56,920.42,921.48,922.63,924.12,925.80,927.36,928.12,927.54,925.94,923.92,921.85,919.81,918.21,917.34,917.33,918.16,918.28,917.29,915.27,912.16,908.04,902.82,898.98,897.83,897.88,897.95,897.75,897.30,896.72,895.82,894.77,893.69,892.62,891.73,890.87,890.25,889.87,889.49,889.22,888.90,888.56,888.30,888.32,888.24,887.96,887.53,887.28,887.21,887.47,888.05,888.87,890.30,890.39,889.31,887.43,885.16,883.59,883.72,885.46,887.22,888.84,890.73,892.56,893.32,891.20,886.68,881.12,875.42,870.85,869.05,868.02,867.22,867.00,866.42,865.52,864.63,864.03,863.55,862.96,862.27,861.52,860.64,859.85,859.13,858.52,858.24,858.76,859.30,860.39,862.69,866.33,870.24,874.36,878.08,879.88,880.06,878.82,876.21,872.58,871.18,871.67,873.57,876.16,877.45,877.58,876.61,874.88,872.88,871.26,869.06,865.88,861.89,859.00,856.90,855.91,856.08,857.09,857.14,856.43,855.31,854.45,855.92,858.01,860.85,864.62,868.65,870.58,871.01,870.32,868.17,863.53,860.13,859.02,860.56,863.42,865.18,866.93,869.05,871.27
1031.44,1033.03,1032.00,1029.46,1026.51,1023.28,1019.03,1015.01,1011.96,1010.02,1008.31,1006.62,1004.92,1003.09,1000.38,996.50,991.79,986.39,980.51,974.57,969.33,965.85,966.38,970.73,976.70,982.57,987.19,991.22,994.86,997.76,998.81,995.80,991.92,987.55,983.15,979.71,978.88,979.57,980.74,982.01,983.61,984.15,984.09,983.31,981.13,978.27,974.71,971.02,967.86,965.44,962.82,960.12,957.53,955.13,952.83,950.64,948.66,947.10,945.57,944.27,943.32,942.79,942.45,942.56,942.70,942.88,943.47,944.21,945.08,945.98,946.82,947.65,948.47,949.43,950.72,952.56,954.42,955.94,957.12,958.13,959.63,960.52,960.96,961.02,960.45,959.14,957.78,956.73,956.11,955.00,953.61,952.08,950.48,949.03,947.71,945.71,943.36,943.17,943.24,943.21,942.84,941.86,940.72,938.87,936.39,933.35,930.18,928.30,926.86,925.46,924.02,922.38,920.82,919.95,920.53,921.67,922.94,924.16,925.26,926.22,927.34,928.40,929.23,929.58,929.19,927.82,926.09,924.51,923.22,922.02,921.07,920.53,920.47,919.49,917.50,914.92,912.04,908.09,902.85,898.92,897.59,897.03,896.79,896.46,895.97,895.35,894.54,893.76,892.98,892.13,891.43,890.76,890.38,890.25,889.95,889.66,889.31,888.98,888.84,889.06,889.43,889.39,888.84,888.72,888.75,889.18,890.00,890.99,891.25,890.32,888.69,886.80,884.73,884.12,884.96,886.96,889.14,891.05,892.52,893.26,892.55,890.06,885.32,879.94,875.03,871.11,869.15,867.71,866.48,865.88,865.25,864.51,863.83,863.38,862.98,862.36,861.69,861.05,860.38,859.76,859.17,858.68,858.46,858.80,859.22,859.94,861.61,865.39,869.56,874.14,878.31,880.06,880.53,880.33,879.06,876.41,875.03,875.29,876.61,878.27,878.55,877.63,875.89,873.74,871.57,869.52,866.94,863.82,860.52,858.35,856.80,856.58,857.65,859.15,859.87,858.93,857.13,855.66,855.96,857.59,860.20,863.82,868.37,870.97,872.20,872.21,870.33,866.10,862.20,860.81,863.11,866.66,868.57,870.11,871.87,873.74
1034.87,1036.51,1034.88,1031.46,1027.79,1024.31,1021.31,1018.98,1017.41,1016.31,1014.50,1012.55,1010.00,1005.83,1001.53,996.31,990.71,985.09,979.37,973.67,968.83,966.24,968.65,974.16,980.09,985.50,990.00,993.58,997.17,999.94,1000.37,996.02,990.93,986.65,983.60,982.27,982.68,983.77,985.14,986.56,987.37,986.42,984.30,981.36,977.84,973.75,970.17,967.19,964.71,962.39,959.88,957.37,954.93,952.46,950.34,948.53,947.19,946.70,946.56,946.19,945.63,945.12,945.00,945.27,945.47,945.53,945.81,946.37,947.20,948.11,948.92,949.78,951.35,953.15,954.90,956.52,958.57,959.95,960.67,961.25,961.78,961.42,960.63,959.80,958.84,956.64,954.28,952.41,951.40,950.40,949.58,948.85,948.09,947.24,945.64,943.18,940.58,940.36,940.38,940.25,939.83,938.93,937.88,935.10,931.90,929.52,927.81,926.47,925.24,924.05,922.88,921.51,920.65,921.10,923.58,925.71,927.28,928.51,929.36,929.59,929.74,929.91,930.00,929.77,929.44,928.37,927.09,926.12,925.33,924.21,922.91,921.54,920.10,918.32,916.27,914.00,911.35,907.50,902.54,898.91,897.63,896.51,895.85,895.36,894.88,894.24,893.57,893.13,892.74,892.22,891.77,891.39,891.30,891.37,890.95,890.34,889.84,889.53,889.51,889.93,890.95,891.31,890.59,890.50,890.67,891.25,892.28,893.23,891.34,889.31,887.55,885.85,884.21,884.81,886.33,888.37,891.19,893.07,893.72,893.11,891.00,888.12,883.24,878.47,875.00,871.73,869.48,867.74,866.29,865.12,864.42,863.92,863.44,862.95,862.48,861.83,861.20,860.66,860.17,859.70,859.23,858.85,858.74,858.95,859.25,859.81,861.35,865.54,869.79,874.36,878.51,880.13,880.75,880.78,880.42,879.63,878.45,878.71,879.43,879.81,878.98,877.00,874.74,872.47,870.10,867.32,864.36,861.58,859.34,857.92,857.19,857.56,859.04,861.19,862.51,861.22,858.75,856.97,856.18,857.35,859.57,862.75,867.51,870.88,872.97,873.53,871.76,868.95,864.88,863.15,866.05,869.43,871.18,872.45,873.87,875.72
1037.81,1039.05,1036.86,1033.08,1029.47,1026.40,1024.18,1022.64,1021.50,1019.92,1017.33,1013.62,1009.16,1004.44,999.51,993.96,988.23,982.60,977.00,972.06,968.57,967.76,971.91,978.06,983.72,988.44,992.25,995.61,999.23,1001.56,1000.99,995.94,990.71,987.42,986.05,986.11,987.05,988.09,989.06,989.60,988.51,985.39,981.89,978.32,974.03,970.12,966.95,964.31,961.95,959.80,957.60,955.32,952.98,950.75,949.56,948.97,948.76,948.88,948.95,948.57,947.97,947.48,947.55,947.99,948.23,948.20,948.27,948.67,949.60,950.90,952.35,953.85,955.83,957.53,958.64,959.62,961.07,961.60,961.26,960.84,960.54,959.94,959.16,958.28,957.07,954.87,952.62,950.76,949.45,948.21,947.45,946.94,946.29,945.54,944.46,942.51,939.89,938.51,937.61,937.20,936.88,935.97,934.96,932.54,929.91,928.11,926.60,925.38,924.87,925.04,925.14,924.11,923.78,924.86,927.46,928.59,929.21,929.68,930.05,930.09,930.10,929.86,929.19,927.90,927.00,925.80,924.62,923.81,923.10,921.99,920.67,919.19,917.53,915.95,914.12,911.97,909.31,905.39,901.43,898.71,897.59,896.48,895.83,895.50,895.29,894.94,894.55,894.19,893.76,893.16,892.62,892.22,892.21,892.44,892.13,891.46,890.84,890.58,891.09,892.35,893.96,894.81,894.48,894.29,894.43,894.61,894.29,892.48,890.23,888.30,886.63,885.30,885.22,886.30,887.80,889.91,893.36,892.95,891.94,890.82,888.74,886.04,882.09,878.11,874.73,871.29,869.13,867.50,866.14,865.34,865.28,864.90,864.26,863.53,862.45,861.61,860.98,860.50,860.04,859.65,859.29,859.01,859.00,859.24,859.53,860.68,863.51,868.12,871.75,875.31,878.56,879.94,880.48,880.85,881.11,881.07,880.39,880.35,880.50,880.34,879.11,876.41,873.65,871.04,868.20,864.99,862.14,859.97,858.62,857.74,857.78,858.55,860.30,863.65,865.57,864.05,860.87,858.31,856.97,857.57,859.46,862.62,867.30,870.94,873.63,874.76,873.00,870.58,867.10,865.53,867.81,870.54,872.46,874.12,875.79,877.59
1040.11,1040.70,1038.33,1034.71,1031.33,1028.43,1026.19,1024.41,1022.78,1020.36,1016.76,1011.84,1006.41,1001.59,996.53,990.68,984.78,979.36,974.19,970.59,969.20,970.65,975.99,981.94,987.01,991.11,994.44,997.73,1001.43,1003.23,1001.64,996.48,991.84,989.60,989.37,990.12,991.12,991.26,990.91,989.99,987.28,983.01,978.88,975.06,970.62,966.97,964.09,961.65,959.43,957.42,955.49,953.67,952.03,950.71,950.56,951.02,951.67,952.11,952.21,951.73,951.05,950.55,950.54,951.04,951.54,951.82,951.90,952.40,953.44,954.84,956.39,957.87,959.61,960.92,961.55,961.99,962.45,962.03,960.82,959.41,958.64,958.00,957.36,956.62,955.52,953.73,951.93,950.32,948.78,947.30,946.27,945.49,944.64,943.90,943.20,941.84,939.62,937.37,935.60,934.62,934.04,933.12,932.25,930.49,928.55,927.09,925.75,924.67,924.68,925.76,926.76,926.53,926.82,927.95,929.49,929.25,928.85,928.69,928.82,928.95,929.03,928.58,927.41,925.50,924.06,922.69,921.52,920.75,920.12,919.07,917.70,916.12,914.45,913.21,911.61,909.54,906.91,903.12,900.21,898.37,897.44,896.70,896.38,896.27,896.25,896.13,895.89,895.51,894.97,894.29,893.66,893.17,893.17,893.51,893.33,892.70,892.06,891.96,893.15,895.04,896.88,897.97,898.01,897.66,897.16,896.17,894.29,891.06,889.03,887.47,886.25,885.71,886.71,888.11,889.83,891.75,893.00,890.77,888.85,887.60,885.97,883.66,880.62,877.31,873.97,870.62,868.68,867.27,866.22,866.09,866.49,866.26,865.48,864.40,862.80,861.57,860.77,860.32,859.93,859.62,859.33,859.13,859.19,859.46,860.14,861.99,865.47,869.50,871.97,874.25,876.61,878.34,879.36,880.32,881.21,881.75,881.61,881.35,881.03,880.41,878.84,875.74,872.58,869.52,866.12,862.77,860.45,859.10,858.55,858.11,858.42,859.55,861.96,866.33,868.40,867.12,863.77,859.99,858.03,858.06,859.64,862.77,867.24,870.95,874.02,875.68,874.32,872.23,869.32,867.81,869.26,871.51,873.66,875.16,876.18,877.56
1041.68,1041.49,1039.39,1036.43,1033.22,1030.01,1026.86,1023.85,1020.89,1017.49,1012.73,1007.62,1002.59,997.81,992.95,986.70,980.59,975.70,971.54,969.92,971.21,975.11,980.81,985.66,989.81,993.45,996.69,1000.09,1003.87,1005.21,1002.84,998.04,994.57,993.19,993.26,993.79,994.23,992.61,990.05,987.28,983.66,979.63,975.64,971.74,967.78,964.25,961.42,959.13,957.21,955.36,953.67,952.61,952.38,952.63,953.44,954.56,955.62,956.12,956.32,955.85,955.16,954.58,954.17,954.56,955.49,956.51,956.89,957.76,958.86,959.95,960.83,961.34,962.18,962.97,963.44,963.50,962.73,961.49,959.79,957.58,956.69,956.03,955.40,954.85,954.26,953.15,951.91,950.61,948.91,947.25,945.73,944.30,943.02,942.27,941.54,940.58,939.12,936.76,934.45,932.70,931.48,930.59,929.94,928.88,927.50,926.07,925.15,924.28,924.45,925.64,926.79,927.73,928.67,929.25,928.78,927.25,926.10,925.64,925.90,926.34,926.59,926.08,924.76,922.85,921.09,919.58,918.38,917.60,917.16,916.27,914.83,912.98,911.25,910.26,908.82,906.83,904.39,901.10,899.13,897.96,897.25,897.19,897.42,897.57,897.57,897.53,897.26,896.77,896.13,895.45,894.82,894.21,894.15,894.57,894.54,894.02,893.45,893.63,895.50,897.57,899.22,900.24,900.41,899.82,897.97,895.14,891.92,889.49,888.01,886.97,886.59,887.29,888.54,890.26,892.45,893.56,889.62,886.68,884.85,883.71,882.73,880.90,878.50,875.69,872.62,869.91,868.26,867.15,866.64,867.30,867.83,867.70,866.89,865.39,863.49,861.70,860.54,860.10,859.84,859.60,859.36,859.22,859.32,859.59,861.00,863.41,866.42,868.72,869.69,870.71,872.44,875.14,877.33,879.17,880.73,881.87,882.22,881.88,881.20,880.11,878.09,874.91,871.50,867.95,864.06,860.88,859.47,859.15,859.32,859.16,859.09,860.59,864.12,869.05,870.78,870.24,867.37,862.13,859.29,858.76,860.08,863.13,867.28,870.95,874.16,876.26,875.86,874.31,871.81,870.15,870.69,872.72,875.06,875.63,874.79,875.22
1043.20,1042.57,1040.72,1037.93,1034.03,1029.89,1026.23,1022.71,1019.02,1014.73,1009.20,1003.75,998.78,994.10,988.43,982.65,977.75,974.50,973.01,973.90,976.64,980.66,985.08,988.81,992.34,995.75,999.08,1002.94,1006.64,1008.29,1006.61,1001.53,998.29,997.06,996.44,994.60,992.81,990.08,986.90,983.59,979.81,975.87,972.03,968.32,964.67,961.58,959.00,956.98,955.67,954.77,954.17,954.08,954.67,955.83,957.07,958.58,960.00,960.69,960.93,960.64,960.11,959.48,958.61,958.42,959.18,960.49,961.27,962.07,962.93,963.76,964.36,964.35,964.68,964.93,964.65,963.58,962.26,961.04,959.47,956.71,955.06,954.22,953.69,953.19,952.67,951.80,950.63,949.10,947.02,945.43,944.03,942.66,941.28,940.17,938.88,937.53,936.13,934.42,932.79,931.46,930.44,929.62,928.92,928.16,927.09,925.65,924.74,924.06,924.35,925.45,926.05,926.50,926.88,926.75,925.46,923.73,922.56,922.11,922.51,923.47,923.87,923.37,922.05,920.12,918.25,916.54,915.18,914.39,914.27,913.86,912.71,910.84,908.77,907.30,905.73,903.97,902.11,900.26,899.12,898.25,897.64,897.96,898.50,898.83,898.93,898.89,898.51,897.95,897.29,896.55,895.84,895.17,895.08,895.56,895.78,895.32,894.91,895.20,896.83,898.61,900.31,901.21,900.79,899.32,896.40,893.11,890.21,888.56,887.75,887.59,887.98,889.09,891.25,893.71,894.31,892.05,887.55,884.11,881.72,880.15,879.24,877.84,875.82,873.42,870.97,869.21,867.85,867.29,867.58,868.53,869.30,868.94,867.69,865.87,863.88,861.95,860.60,859.98,859.76,859.54,859.39,859.35,859.49,859.69,860.79,862.82,865.41,866.87,867.62,868.66,870.40,873.01,875.81,878.29,880.34,881.80,882.44,881.80,880.79,879.46,876.81,873.59,870.25,866.85,863.36,860.47,859.82,860.42,861.16,860.62,859.85,861.65,866.04,870.38,872.41,872.08,869.51,864.72,860.37,859.22,860.59,863.96,868.24,871.73,874.87,877.33,878.12,877.65,876.11,874.39,873.52,874.70,876.68,876.56,874.40,872.95
1044.42,1043.05,1041.37,1038.82,1034.46,1029.66,1025.66,1021.83,1017.60,1012.26,1006.03,1000.21,995.11,990.48,984.39,979.71,976.60,975.27,976.20,979.09,982.54,985.92,988.93,991.77,994.83,998.11,1001.63,1005.83,1009.30,1010.88,1009.50,1004.51,1001.17,999.23,997.23,993.42,990.01,986.69,983.24,979.50,975.62,971.84,968.22,964.82,961.79,959.19,957.27,956.01,955.49,955.44,955.66,956.24,957.41,959.48,961.42,963.26,964.81,965.58,965.84,965.68,965.21,964.35,963.09,962.42,962.88,964.20,965.25,965.97,966.59,967.15,967.49,967.08,966.68,966.05,964.93,963.13,961.57,960.24,958.53,955.54,953.34,952.39,951.97,951.51,950.87,950.00,948.71,946.87,944.50,942.96,941.84,940.88,939.94,938.99,937.76,936.45,935.21,934.10,933.17,932.39,931.55,930.31,929.25,928.49,927.53,926.04,924.78,923.89,923.84,924.40,924.38,924.21,923.98,923.36,921.93,920.44,919.49,919.16,919.61,920.81,921.15,920.60,919.31,917.39,915.44,913.67,912.24,911.42,911.49,911.44,910.61,908.85,906.59,905.30,904.24,903.14,902.03,901.10,899.85,898.69,898.14,898.73,899.55,900.14,900.40,900.31,899.78,899.11,898.37,897.60,896.81,896.09,896.00,896.57,897.01,896.62,896.34,896.68,897.93,899.47,901.09,901.59,900.24,897.79,894.23,891.14,889.11,888.29,888.11,888.81,890.00,891.55,894.08,895.66,894.16,889.73,885.78,882.16,879.39,877.46,876.26,874.87,873.14,871.30,869.64,868.63,867.80,867.81,868.67,869.86,870.65,869.78,867.87,865.65,863.40,861.64,860.46,859.85,859.67,859.51,859.46,859.51,859.66,859.87,860.70,862.29,864.39,865.58,866.57,867.91,869.78,872.27,875.42,878.32,880.61,881.91,882.16,881.12,879.81,878.25,875.38,872.21,868.97,865.80,863.01,861.33,861.67,862.98,863.98,862.75,861.36,863.20,867.81,871.39,873.79,873.56,871.25,867.27,861.74,860.10,861.44,864.95,869.38,872.88,875.98,878.54,879.76,880.00,879.32,877.99,876.57,877.00,878.27,877.37,874.13,870.99
1045.10,1042.38,1040.65,1038.56,1034.55,1029.83,1025.66,1021.58,1016.83,1010.18,1003.29,997.08,991.71,987.07,981.80,978.96,978.01,978.62,980.76,984.50,987.80,990.19,992.24,994.63,997.38,1000.61,1004.44,1008.59,1011.56,1012.09,1009.70,1005.60,1001.95,998.15,994.08,989.93,986.59,983.33,979.58,975.17,970.96,967.53,964.26,961.31,959.48,957.42,956.75,957.02,957.46,957.75,958.01,958.69,960.30,963.48,966.72,968.95,970.20,970.80,971.02,970.89,970.22,968.85,967.33,966.59,966.82,967.77,968.81,969.58,970.06,970.30,970.21,969.42,967.72,965.72,963.82,962.31,960.76,958.73,956.23,953.44,951.31,950.48,950.18,949.74,948.84,947.71,946.15,944.13,941.81,940.24,939.43,939.23,939.48,939.69,939.79,939.57,938.93,937.96,937.33,936.80,935.75,933.28,931.38,930.24,929.14,927.52,925.52,923.76,922.61,922.01,921.50,921.11,920.67,920.05,919.16,918.22,917.62,917.44,917.78,918.61,918.55,917.81,916.53,914.69,912.75,911.17,909.91,909.08,908.99,908.94,908.30,906.81,904.81,905.14,905.73,905.96,905.69,904.38,901.45,899.10,898.63,899.36,900.55,901.55,902.06,901.86,901.15,900.25,899.36,898.56,897.73,897.00,896.96,897.63,898.22,897.90,897.72,898.04,899.05,900.62,901.79,901.39,898.86,895.57,892.03,889.73,888.86,888.94,889.35,890.68,892.69,894.99,896.63,894.38,890.87,887.38,884.00,880.72,878.16,876.19,874.35,872.25,870.76,869.76,869.05,868.30,868.41,868.94,869.88,871.38,871.66,869.93,867.21,864.45,861.56,860.34,859.89,859.71,859.56,859.56,859.62,859.70,859.87,860.26,861.32,862.71,864.21,865.78,867.25,868.84,870.80,873.56,876.82,879.83,881.95,882.37,881.10,879.63,878.05,876.20,873.88,870.88,867.69,864.73,862.86,863.90,865.61,867.26,868.03,865.87,864.11,865.48,869.37,872.36,874.99,874.92,872.91,869.63,863.74,861.88,862.93,866.07,870.49,874.30,877.54,879.75,880.03,880.08,879.92,879.63,879.38,879.46,879.69,877.77,873.66,869.56
1044.80,1041.39,1038.45,1035.44,1031.82,1027.97,1024.21,1019.91,1014.43,1007.12,999.98,993.82,988.90,985.63,983.33,982.47,982.75,984.19,986.66,989.57,991.89,993.61,995.43,997.63,1000.32,1003.58,1007.47,1011.50,1012.84,1011.33,1007.26,1002.34,998.13,994.07,990.09,986.45,983.29,979.50,975.29,971.09,967.49,964.17,961.44,959.54,958.80,958.14,958.38,959.19,960.07,960.63,961.36,963.00,965.76,968.98,972.05,974.21,975.50,976.07,976.12,975.72,974.90,973.65,972.33,972.08,972.25,972.68,973.53,973.55,973.26,972.68,971.54,970.00,967.36,964.65,962.51,960.98,958.80,956.17,953.45,951.09,949.34,948.51,948.01,947.33,946.28,945.01,943.68,942.40,941.38,940.93,941.41,942.17,942.53,942.98,942.99,942.67,942.09,941.43,940.89,940.23,939.00,936.37,932.73,930.62,929.28,927.71,925.65,923.64,922.18,921.29,920.51,919.86,919.20,918.59,918.12,917.63,917.04,916.39,915.97,916.48,916.08,915.09,913.86,912.69,911.79,911.15,910.59,909.89,908.90,908.15,907.51,906.88,906.37,907.47,908.52,909.10,908.84,906.44,902.37,899.49,899.16,899.66,901.04,902.63,903.75,903.38,902.58,901.69,900.67,899.47,898.59,897.89,897.90,898.68,899.51,899.31,899.34,899.88,900.87,902.22,901.77,900.11,897.61,894.35,891.26,889.60,889.41,890.22,891.73,893.67,895.67,896.97,895.62,892.04,888.40,885.37,882.36,879.62,877.31,875.28,873.31,871.32,870.20,869.64,869.31,868.91,869.17,870.53,872.49,873.41,871.70,869.03,866.26,863.73,861.19,860.15,859.81,859.74,859.68,859.73,859.88,860.24,861.04,861.97,863.09,864.20,865.26,866.68,868.20,870.13,872.55,875.42,878.50,881.21,882.40,880.98,879.07,877.45,875.84,874.04,871.93,869.31,866.72,865.05,865.64,867.50,869.25,870.60,870.90,868.34,865.92,866.67,870.11,872.93,875.96,876.92,875.62,872.02,866.82,865.24,866.03,868.30,871.26,875.08,878.24,880.08,880.14,880.11,880.08,880.04,880.00,880.00,880.00,877.78,873.27,868.56
1044.64,1040.85,1036.76,1032.69,1029.12,1025.84,1022.21,1017.67,1011.75,1004.10,997.01,991.49,987.81,986.46,986.89,987.47,988.39,990.08,992.49,994.39,995.77,996.97,998.70,1000.81,1003.51,1006.89,1010.87,1014.06,1013.34,1009.68,1003.95,997.95,993.40,989.56,986.10,983.01,979.99,975.70,971.23,967.51,964.57,961.65,959.72,959.07,959.59,960.50,961.52,962.57,963.55,964.22,965.21,967.59,971.31,974.39,977.01,978.96,980.26,980.87,980.89,980.38,979.56,978.52,977.42,977.50,977.58,977.46,977.62,976.59,975.37,973.92,971.85,969.39,966.18,963.23,961.03,959.18,956.36,953.44,950.87,948.97,947.57,946.81,946.23,945.46,944.51,943.49,942.73,942.44,942.87,943.58,944.99,946.25,946.39,946.69,946.33,945.54,944.58,943.76,942.99,941.88,940.13,937.15,932.67,930.13,928.74,927.36,925.53,923.53,922.01,921.06,920.19,919.42,918.77,918.33,918.21,918.01,917.29,916.13,914.94,915.04,914.54,913.62,912.71,912.46,912.62,912.94,913.11,912.60,910.69,909.20,908.54,908.74,909.56,910.91,911.63,911.66,910.86,907.79,903.26,900.18,899.82,900.21,901.66,903.70,905.36,905.03,904.23,903.42,902.32,900.77,899.90,899.01,898.99,900.01,901.09,900.97,901.22,901.97,902.73,903.22,901.21,898.60,896.38,893.48,891.38,890.59,891.02,892.39,894.74,896.87,898.23,897.87,893.99,890.04,886.64,883.74,880.96,878.75,876.66,874.68,873.04,871.70,871.06,870.75,870.54,870.41,870.89,872.95,875.44,875.01,871.40,868.21,865.75,863.56,861.45,860.37,859.92,859.82,859.84,860.19,860.66,861.39,862.74,864.12,865.23,866.10,866.83,867.93,869.52,871.83,874.71,877.69,880.50,882.15,881.84,879.05,876.84,875.06,873.46,871.83,869.87,867.79,866.29,866.30,868.94,871.02,872.56,873.50,873.26,870.46,867.53,867.70,870.73,873.63,876.98,878.76,878.13,874.52,870.17,869.03,869.68,871.13,872.67,875.91,878.64,880.12,880.16,880.11,880.09,880.06,880.00,880.00,879.99,877.72,873.06,867.97
1045.54,1041.66,1037.44,1032.97,1028.56,1024.47,1019.89,1015.06,1009.53,1001.93,995.38,991.68,990.66,991.71,992.62,993.17,993.87,995.15,997.12,998.85,999.95,1000.74,1002.25,1004.36,1007.04,1010.72,1015.06,1015.65,1012.55,1007.13,1000.30,993.91,989.68,986.14,982.78,979.65,976.61,972.36,968.20,965.06,962.22,960.59,960.05,960.70,962.92,965.25,967.03,968.21,968.81,969.21,969.62,971.54,975.19,978.43,981.02,982.69,983.71,984.42,984.88,984.91,984.41,983.33,982.27,981.80,981.51,980.90,979.22,976.99,974.81,972.77,970.57,967.00,963.90,961.42,959.26,956.53,953.50,951.04,949.16,947.62,946.32,945.85,945.68,945.41,945.16,945.27,945.63,946.33,947.65,948.73,949.47,949.84,949.78,949.62,949.12,947.85,945.70,943.44,941.72,939.65,936.53,931.93,929.59,928.39,927.53,926.56,925.16,923.43,921.92,920.85,920.19,919.74,919.62,919.77,920.01,919.69,918.77,917.40,915.90,915.30,915.32,915.34,915.45,916.22,916.80,917.56,918.18,917.92,915.56,913.75,913.12,913.61,914.50,915.41,914.55,912.50,910.38,908.21,904.62,901.66,900.75,901.58,903.03,904.94,906.69,907.01,906.40,905.66,904.59,903.08,902.42,900.75,900.49,902.10,903.32,903.15,903.57,904.35,904.18,902.33,899.80,897.31,895.07,892.80,892.76,893.58,894.73,896.40,898.54,899.79,899.47,897.03,893.41,889.66,886.08,882.81,880.18,878.24,876.24,874.57,874.12,874.19,874.22,874.02,873.61,873.50,874.97,877.17,878.28,875.09,870.97,868.37,866.56,864.45,862.30,860.88,860.11,859.89,859.99,861.35,862.72,863.88,865.09,866.40,867.51,868.31,868.84,869.54,871.54,874.30,877.42,880.54,883.13,882.07,879.28,877.07,874.74,872.62,870.93,869.58,867.83,866.58,867.03,868.90,871.39,873.62,875.25,875.97,875.16,872.13,869.32,869.14,871.64,874.96,878.31,879.74,879.34,877.25,873.39,872.74,873.57,874.74,875.96,877.30,878.86,880.10,880.11,880.04,880.01,880.01,880.00,880.00,879.95,877.75,873.26,868.14
1046.50,1042.32,1037.90,1033.11,1028.10,1023.40,1018.44,1013.35,1007.80,1000.90,996.29,994.81,995.57,997.26,998.36,999.00,999.92,1001.49,1003.25,1004.02,1004.45,1005.02,1006.30,1008.89,1012.44,1015.91,1017.62,1014.86,1009.93,1003.59,996.52,990.67,986.78,983.44,980.13,976.75,973.43,969.53,966.27,964.55,963.67,963.46,964.08,965.59,967.95,970.41,972.46,974.11,975.23,975.38,973.90,974.72,978.76,982.05,984.36,985.97,987.10,987.86,988.49,988.66,988.26,987.18,985.63,984.02,982.56,981.04,978.76,976.28,973.87,971.33,968.18,963.88,960.99,958.88,956.85,954.02,951.41,949.49,948.20,947.39,947.03,947.09,947.24,947.27,947.36,947.91,948.65,949.59,950.90,951.84,952.09,951.79,951.16,950.52,949.11,946.77,943.67,940.85,938.19,935.43,932.38,929.05,927.54,926.76,926.19,925.52,924.31,923.04,922.11,921.55,921.18,921.23,921.69,922.34,922.76,922.38,921.01,919.09,917.30,917.03,917.36,917.93,918.75,919.96,920.70,921.10,921.25,920.95,919.33,917.92,917.25,917.09,916.42,915.38,913.47,911.24,909.43,907.46,904.70,902.66,902.37,903.53,904.95,906.60,908.22,909.14,908.68,908.04,907.44,906.91,906.85,905.48,904.74,905.16,905.57,905.30,905.31,905.23,903.99,901.40,898.85,896.51,894.53,893.57,894.56,896.21,897.96,899.70,901.42,901.46,899.80,896.64,893.06,889.49,885.87,882.42,879.75,877.83,876.47,875.72,875.88,876.65,877.20,877.26,876.87,876.85,878.20,879.47,878.96,874.26,870.35,868.12,866.61,864.85,863.06,861.51,860.78,860.98,861.70,863.78,865.71,867.06,867.90,869.12,870.41,871.49,872.22,872.86,874.51,877.27,880.51,882.67,882.40,880.17,877.51,875.54,873.23,871.46,870.37,869.66,868.36,867.41,868.19,870.39,873.12,875.66,877.52,878.35,877.60,874.99,872.41,871.70,873.25,876.47,879.07,880.07,879.89,878.85,876.30,876.17,876.98,877.78,878.39,878.83,879.50,880.13,879.89,878.60,877.45,876.84,876.95,877.54,878.48,876.96,872.80,868.10
1047.15,1042.66,1037.99,1032.89,1027.49,1022.38,1017.13,1011.76,1006.29,1000.95,998.84,999.48,1001.45,1003.21,1004.44,1005.06,1006.06,1007.87,1009.31,1009.16,1009.10,1009.71,1011.01,1014.03,1017.77,1020.03,1018.30,1012.78,1006.66,999.93,993.01,988.08,984.56,981.36,978.00,974.33,970.71,967.44,965.42,965.42,966.84,967.91,969.37,971.32,973.28,975.56,977.72,979.64,980.98,980.43,977.65,977.78,982.04,985.44,987.53,989.15,990.46,991.20,991.56,991.44,990.87,989.66,987.36,984.63,982.06,979.73,977.34,974.93,972.45,969.43,965.32,960.87,958.26,956.37,954.39,951.81,949.91,948.65,947.97,948.00,948.73,949.41,949.91,950.22,950.45,951.05,951.81,952.62,953.33,953.65,953.33,952.42,951.01,949.58,947.09,943.79,940.14,937.14,934.02,931.11,928.69,927.19,926.13,925.47,925.03,924.58,923.65,922.96,922.67,922.68,922.62,923.20,924.21,925.26,925.83,925.50,923.62,921.17,919.23,919.45,920.18,920.95,921.70,922.57,923.06,922.85,922.35,921.87,921.19,920.39,919.67,918.69,916.35,913.55,911.16,909.46,908.39,906.52,904.54,903.55,904.11,905.43,906.82,908.26,909.80,911.31,911.13,910.68,910.60,911.08,911.56,910.62,909.26,908.10,907.56,907.08,906.40,905.24,903.17,900.52,898.14,896.05,894.58,894.95,896.47,898.55,900.77,902.52,903.50,902.32,899.69,896.31,892.69,889.29,885.78,882.26,879.56,877.78,877.20,877.39,877.95,879.17,880.11,880.38,880.02,880.07,880.78,880.79,878.72,873.00,869.65,867.75,866.35,864.95,863.57,862.18,861.76,862.62,864.07,866.57,868.82,870.35,871.04,872.13,873.57,875.03,876.21,876.90,878.06,880.52,883.36,883.57,880.50,877.92,876.15,874.52,872.58,871.47,871.08,870.95,869.97,868.92,869.37,871.37,874.43,877.30,879.32,880.28,879.84,877.97,875.89,874.79,875.33,877.99,879.61,880.18,880.18,879.87,878.74,878.96,879.61,880.04,880.07,880.09,880.13,880.00,879.11,876.43,874.02,872.72,872.95,874.23,876.43,875.86,872.18,867.89
1046.67,1042.10,1037.05,1031.65,1026.28,1021.20,1015.26,1009.49,1004.97,1003.27,1003.89,1005.79,1008.13,1010.17,1011.65,1011.70,1011.85,1012.85,1013.32,1013.38,1013.89,1015.19,1017.40,1020.08,1020.69,1018.90,1014.63,1009.19,1003.46,997.03,990.55,986.72,983.67,980.46,976.86,972.97,969.35,967.26,966.94,968.59,971.27,972.99,974.49,976.06,977.64,980.21,982.44,983.65,983.05,980.29,979.72,981.32,984.69,988.48,990.90,992.53,993.74,994.41,993.28,991.90,990.52,988.71,985.35,982.29,979.76,977.55,975.15,972.71,969.88,966.38,962.16,959.10,956.88,954.78,952.55,950.44,949.48,949.17,949.35,950.10,951.43,952.73,953.82,954.53,954.70,954.82,955.25,955.64,954.85,953.54,952.14,950.50,948.14,944.87,941.61,938.43,935.34,932.40,930.50,928.80,927.18,926.00,925.69,925.17,924.57,924.23,924.26,924.21,924.17,924.19,924.32,925.42,926.80,928.05,928.84,928.78,926.57,924.04,922.45,922.48,924.16,924.28,922.78,921.44,920.55,919.84,919.14,918.45,917.97,917.51,916.88,915.67,913.24,911.07,909.54,908.49,907.62,906.41,905.07,904.62,905.46,906.50,907.82,909.44,911.37,913.45,914.01,914.03,914.12,914.54,914.94,913.54,911.37,909.36,908.71,907.62,906.05,904.18,902.14,899.91,897.75,896.16,895.69,896.74,898.21,900.30,902.76,904.58,903.98,901.95,899.11,895.66,891.96,888.79,885.57,882.27,879.78,878.82,878.81,879.29,880.17,881.87,883.00,883.19,882.58,882.53,882.22,881.08,877.97,871.35,868.88,867.42,866.03,864.66,863.38,862.75,863.24,864.87,866.74,869.02,871.23,873.18,874.67,875.58,876.80,878.56,880.60,881.35,882.42,884.13,884.87,881.19,878.65,876.69,875.29,874.67,874.13,873.85,873.75,873.49,872.12,870.29,870.18,871.99,875.19,878.28,880.05,880.80,880.72,879.93,879.13,878.41,878.20,879.40,880.06,880.31,880.35,880.26,879.92,880.01,880.22,880.31,880.27,880.25,880.16,879.32,876.58,873.41,870.67,869.13,869.42,871.00,874.14,874.69,871.82,867.35
1044.78,1039.68,1034.72,1029.66,1024.31,1018.90,1013.26,1008.93,1007.02,1008.21,1010.67,1013.16,1015.28,1016.79,1017.42,1016.72,1016.36,1017.15,1017.56,1017.83,1018.77,1020.35,1021.81,1021.78,1019.46,1015.43,1010.25,1004.85,999.70,994.30,989.02,985.62,982.58,978.79,974.65,971.25,968.83,968.68,970.60,974.08,976.95,978.89,980.32,981.65,983.42,985.56,986.95,986.94,984.89,981.74,982.28,984.37,987.01,990.51,993.57,995.47,995.96,994.63,992.54,990.16,987.78,985.33,982.17,979.47,977.19,975.12,972.81,970.05,966.84,963.37,959.97,957.72,955.74,953.64,951.56,950.37,950.38,950.91,951.72,952.91,954.55,956.17,957.47,958.16,958.05,957.26,956.39,955.43,953.82,951.69,949.19,946.34,943.03,939.26,936.07,933.53,931.50,929.47,928.24,927.48,926.98,926.60,926.50,925.88,925.12,924.78,925.28,925.65,925.82,925.86,926.01,927.24,928.71,929.98,930.63,930.20,928.49,926.69,925.53,925.28,925.44,924.02,921.33,919.09,917.58,916.46,915.52,914.77,914.47,914.27,913.76,912.68,910.92,909.48,908.44,907.64,906.97,906.32,905.76,905.83,906.73,907.71,909.03,910.91,913.25,915.65,916.83,917.24,917.42,917.64,917.69,915.65,912.82,910.25,909.05,907.41,905.40,903.27,901.23,899.40,897.64,896.68,897.05,898.30,900.38,902.89,905.31,906.52,904.43,901.56,898.49,895.12,891.53,888.66,886.27,884.22,882.50,881.68,881.94,882.74,883.48,884.77,884.86,884.29,883.61,883.05,881.98,879.62,875.62,870.22,868.35,867.16,865.93,864.75,863.82,863.66,864.50,866.26,868.18,870.23,872.58,875.04,877.18,878.75,880.49,882.70,885.07,885.76,885.81,885.53,884.13,880.02,878.22,877.09,876.38,876.27,876.20,876.34,876.45,876.14,874.54,872.38,871.63,872.73,875.74,878.65,880.50,881.38,881.45,881.13,880.80,880.34,879.93,880.22,880.38,880.41,880.39,880.35,880.24,880.23,880.24,880.22,880.18,880.17,879.63,878.02,874.63,871.08,868.11,866.48,866.88,868.77,871.78,873.31,872.16,867.98
1042.09,1036.21,1031.48,1027.02,1021.81,1016.34,1012.03,1010.14,1011.20,1014.44,1018.00,1020.60,1022.19,1022.86,1022.38,1021.02,1020.41,1021.29,1022.09,1022.51,1023.38,1024.41,1024.01,1020.45,1015.80,1010.82,1005.63,1000.19,995.55,991.26,987.27,984.03,980.85,976.56,972.13,969.79,969.32,971.40,975.36,980.15,982.77,984.81,986.25,987.47,989.46,990.85,990.91,989.46,986.48,984.17,985.22,987.28,989.43,992.36,995.92,997.89,997.19,993.13,990.28,987.12,983.87,980.97,978.55,976.43,974.44,972.47,970.28,967.06,963.64,960.60,958.36,956.50,954.70,952.90,951.44,951.36,952.24,953.39,954.63,956.07,957.83,959.54,960.73,960.98,960.32,958.40,955.93,953.38,951.25,948.72,945.14,941.00,937.06,933.79,931.28,929.60,928.70,927.89,927.15,927.15,927.75,928.24,927.89,926.98,926.09,925.79,926.50,927.15,927.52,927.61,927.74,928.94,930.33,931.34,931.42,930.31,929.29,928.37,927.55,927.02,924.92,921.97,918.87,916.47,914.69,913.26,912.15,911.47,911.29,911.23,910.88,910.15,909.28,908.45,907.70,907.06,906.64,906.43,906.56,907.07,907.95,909.00,910.52,912.72,915.38,917.84,919.35,920.00,920.19,920.09,919.61,917.01,913.78,910.88,908.94,906.85,904.69,902.53,900.48,899.04,897.84,897.57,898.59,900.05,902.94,905.99,908.22,908.12,904.91,901.38,898.12,895.02,891.80,889.35,887.92,887.32,886.50,885.52,885.81,886.69,886.82,886.87,885.41,883.96,883.32,882.22,880.43,877.02,872.62,869.43,868.01,866.97,865.96,865.04,864.57,864.72,865.59,867.11,868.82,870.58,873.14,876.17,878.91,881.44,883.97,886.59,888.91,889.38,888.07,885.64,882.64,879.95,878.84,878.56,878.62,878.76,878.77,879.16,879.41,878.94,877.02,874.80,873.46,873.69,876.16,878.69,880.76,881.91,881.90,881.64,881.34,881.05,880.77,880.56,880.53,880.45,880.29,880.09,879.78,879.55,879.45,879.43,879.44,879.60,878.63,876.38,873.02,869.19,865.95,864.18,864.63,866.74,869.39,871.81,872.65,869.22
1039.12,1032.48,1027.50,1023.23,1018.77,1015.17,1014.21,1014.84,1016.85,1020.45,1024.02,1026.15,1027.09,1027.48,1027.15,1025.90,1025.27,1026.11,1027.25,1027.52,1026.64,1024.71,1021.63,1016.12,1011.00,1006.26,1001.19,995.81,991.05,986.61,982.63,979.99,977.10,973.68,970.75,970.30,972.22,976.01,980.21,983.81,986.58,989.06,990.96,992.29,993.37,994.30,993.06,990.26,987.34,986.85,988.50,990.72,992.95,995.61,998.53,999.10,996.62,991.17,986.99,983.32,980.15,977.60,975.32,973.30,971.36,969.42,967.27,963.65,960.73,958.63,956.91,955.14,953.60,952.82,953.07,954.00,955.21,956.43,957.69,959.22,960.93,962.49,963.05,961.98,960.19,957.16,953.91,950.82,947.81,944.68,940.26,935.53,932.16,930.55,929.44,928.54,927.94,927.91,928.19,928.91,929.84,930.28,928.96,927.51,926.64,926.78,927.83,928.62,929.13,929.42,929.62,931.05,932.18,932.22,930.71,929.18,927.77,926.55,925.62,924.90,922.95,920.40,917.68,915.07,912.70,911.22,910.38,909.95,909.63,909.44,909.27,909.02,908.45,907.72,907.40,907.39,907.40,907.37,907.62,908.16,909.04,910.30,912.60,915.27,917.86,919.78,920.81,921.30,921.29,920.59,919.35,916.84,913.91,911.07,908.65,906.44,904.25,902.06,900.10,899.02,898.76,899.17,900.45,903.07,906.15,909.38,911.23,908.57,905.46,901.90,898.71,896.55,894.23,892.54,891.53,891.00,890.38,889.57,889.44,889.38,887.98,885.18,882.78,881.37,880.91,880.00,877.00,873.43,870.39,868.93,867.93,866.95,865.99,865.24,865.19,865.64,866.44,867.53,868.80,870.09,872.72,876.34,879.91,882.80,885.61,888.18,889.95,889.89,887.82,885.23,882.92,881.49,880.78,880.93,881.41,881.79,882.43,883.37,883.53,882.20,879.24,876.90,875.52,875.24,876.47,878.63,880.83,881.93,881.46,880.91,880.63,880.49,880.39,880.27,880.29,880.22,879.86,879.05,877.89,876.98,876.48,876.39,876.46,877.45,876.85,874.57,871.37,867.55,863.75,861.33,861.42,863.47,866.92,870.29,872.15,870.32
1036.65,1029.72,1024.34,1020.39,1017.87,1017.16,1018.62,1020.88,1023.48,1026.51,1029.72,1031.66,1032.45,1032.63,1032.24,1031.08,1030.36,1030.64,1030.64,1029.58,1027.05,1023.23,1018.52,1012.19,1007.02,1002.41,997.20,991.73,986.65,982.14,978.65,976.99,975.40,973.85,972.86,973.56,976.37,980.34,984.16,987.30,990.81,993.87,995.87,996.83,997.16,996.94,994.36,990.85,988.69,989.63,991.79,994.15,996.44,998.73,1000.31,999.26,995.55,989.80,984.60,980.58,977.41,974.86,972.47,970.43,968.43,966.38,964.29,961.06,958.66,957.04,955.73,954.64,953.83,953.80,954.73,956.09,957.44,959.00,960.80,962.75,964.32,964.58,963.53,961.29,958.82,955.28,951.62,948.18,944.68,940.47,935.84,931.84,929.74,929.05,928.74,928.50,928.38,928.91,930.43,931.74,932.12,930.77,928.99,927.79,927.44,928.14,929.61,930.71,931.43,931.92,932.38,933.00,932.74,931.51,929.52,927.78,926.11,924.62,923.41,922.43,920.88,918.84,916.50,914.05,911.82,910.61,910.06,909.74,909.42,909.10,908.88,908.71,908.26,907.80,907.84,908.19,908.47,908.50,908.68,909.29,910.56,912.50,915.24,917.90,920.08,921.44,921.99,921.91,921.29,920.01,918.18,915.79,913.18,910.60,908.33,906.28,904.26,902.26,900.48,899.72,900.01,900.74,902.01,904.98,907.52,909.80,910.73,907.84,905.05,901.77,898.75,896.70,894.94,893.75,893.00,892.58,892.27,891.68,891.04,889.84,887.06,883.03,880.43,878.96,878.12,877.08,874.13,871.31,869.46,868.76,867.94,867.03,866.14,865.54,865.73,866.33,867.06,867.89,868.82,869.76,872.40,876.34,880.34,883.62,886.70,889.15,890.41,890.24,888.29,886.19,884.63,883.89,883.20,883.56,884.52,885.52,886.85,887.75,887.33,885.10,881.58,878.98,877.50,877.02,877.62,879.41,881.11,881.56,880.34,879.20,878.58,878.36,878.45,878.78,879.39,879.37,878.52,876.85,875.12,873.79,873.00,872.90,873.49,875.19,875.11,873.04,869.75,865.51,861.66,859.23,859.10,860.94,864.59,868.48,871.18,870.46
1034.53,1027.86,1022.30,1018.94,1018.95,1021.23,1024.10,1027.36,1030.60,1032.59,1035.16,1037.10,1038.07,1038.02,1037.37,1036.07,1034.93,1034.11,1032.05,1029.03,1025.19,1020.61,1015.22,1008.94,1003.83,999.08,993.53,987.91,982.66,978.64,976.40,975.93,976.06,976.63,977.51,978.82,981.40,984.39,987.48,990.82,995.24,998.80,1000.59,1000.88,1000.61,998.82,995.17,991.67,990.76,992.63,995.10,997.52,999.72,1001.38,1001.17,998.52,994.10,988.81,983.13,978.94,975.70,972.85,970.21,968.01,965.83,963.61,961.58,959.25,957.38,956.02,955.14,955.03,955.16,955.53,956.30,957.67,959.17,961.31,963.92,966.37,967.53,965.70,962.54,959.42,956.64,953.08,949.29,945.57,941.86,936.46,932.25,929.83,929.21,928.81,928.81,929.16,929.90,931.01,933.63,935.02,933.99,930.13,928.43,928.06,928.57,929.91,931.86,933.36,934.29,934.83,935.33,934.28,932.10,929.78,928.18,926.39,924.64,922.98,921.44,920.13,918.92,917.27,915.27,913.33,911.85,911.16,910.84,910.55,910.32,909.93,909.52,909.11,908.65,908.55,908.88,909.46,909.95,910.02,910.06,910.77,912.62,915.41,918.21,920.50,922.08,922.75,922.79,921.90,920.45,918.65,916.41,914.08,911.79,909.66,907.93,906.25,904.58,902.91,901.41,900.93,901.34,902.02,903.04,905.61,907.16,907.82,907.62,906.17,903.87,901.05,898.10,895.43,893.81,892.84,892.27,892.08,892.25,892.04,891.04,888.86,885.00,881.06,878.72,877.12,875.61,874.24,872.25,870.62,869.58,868.88,868.04,867.17,866.38,865.92,866.20,866.82,867.53,868.25,868.99,869.85,872.49,876.45,880.48,884.09,887.38,889.72,890.60,890.66,889.48,888.16,887.18,886.57,885.58,885.96,887.34,889.07,890.83,891.19,889.96,887.22,883.90,881.15,879.57,879.07,879.51,880.78,881.37,880.67,878.62,876.76,875.57,875.13,875.38,876.33,877.85,878.00,876.59,873.92,871.78,870.16,869.17,869.16,870.66,873.00,873.47,871.74,868.12,863.29,859.76,857.77,857.55,859.23,862.54,866.50,869.75,869.63
1032.09,1026.74,1022.71,1020.73,1021.84,1024.36,1027.65,1032.13,1036.86,1038.45,1040.03,1041.55,1042.49,1042.13,1041.28,1039.04,1036.15,1033.16,1030.22,1026.33,1022.07,1017.53,1012.24,1006.53,1001.08,995.67,989.96,984.27,980.36,978.98,979.77,980.13,980.42,980.94,982.10,984.47,987.01,988.93,991.09,994.31,998.44,1001.55,1003.06,1003.04,1001.82,999.21,996.07,993.95,994.42,996.49,998.61,1000.74,1002.52,1002.58,1000.62,996.78,991.98,987.37,982.61,978.83,975.64,972.67,969.83,966.85,964.21,962.02,960.06,958.10,957.08,956.77,956.81,956.86,956.98,957.25,957.88,959.38,961.65,964.31,967.00,969.01,968.61,965.02,960.68,957.34,954.33,950.91,947.19,943.29,939.22,933.93,930.83,929.67,929.38,929.24,929.39,930.64,933.16,935.65,938.03,937.07,933.35,929.68,928.88,929.15,930.25,932.40,934.83,936.51,937.38,937.27,935.74,932.80,930.37,928.68,927.37,925.63,923.79,922.01,920.37,918.85,917.38,915.80,914.24,913.17,912.76,912.53,912.33,912.14,912.05,911.72,911.19,910.54,909.90,909.59,910.34,911.71,912.89,913.09,913.21,913.96,915.75,918.45,920.85,922.86,924.02,923.27,922.28,920.85,919.01,916.79,914.25,911.91,910.04,908.62,907.28,905.99,904.76,903.57,902.47,902.18,902.12,902.13,902.55,904.31,905.19,905.16,904.58,903.89,902.57,899.91,896.32,892.61,890.59,889.45,888.94,889.12,890.10,890.96,890.70,888.68,884.35,880.49,878.22,876.72,875.40,874.15,872.69,871.41,870.35,869.28,868.31,867.36,866.57,866.24,866.54,867.20,867.97,868.76,869.58,871.25,874.01,877.48,881.09,884.46,887.55,889.72,890.59,891.10,890.65,889.93,889.06,887.70,886.36,886.44,887.58,889.06,889.96,889.37,888.08,886.62,885.50,883.88,882.52,881.81,882.01,881.84,880.47,878.39,876.07,873.93,872.40,871.76,872.10,873.36,875.36,876.23,875.08,871.50,868.33,865.96,864.72,865.16,867.81,871.00,872.03,870.44,866.41,861.68,858.44,856.59,856.28,858.46,861.46,864.75,867.46,867.44
1030.38,1026.67,1024.78,1024.50,1026.14,1028.32,1031.94,1036.65,1041.31,1043.11,1044.39,1045.65,1046.35,1045.39,1043.39,1040.02,1035.72,1031.09,1027.49,1023.13,1018.75,1014.32,1009.06,1003.53,998.01,992.47,986.90,981.88,980.27,981.56,984.43,985.32,985.37,985.52,986.58,989.35,991.66,992.83,994.31,997.14,1000.75,1003.65,1005.18,1004.97,1002.57,999.51,997.45,996.97,998.38,1000.47,1002.12,1003.54,1004.33,1002.82,999.64,995.19,990.28,986.01,981.88,978.39,975.26,972.30,969.46,966.21,963.23,960.84,959.12,957.87,957.67,958.26,959.17,959.38,959.37,959.51,960.11,961.51,964.06,966.88,969.30,970.26,968.02,963.46,958.86,955.55,952.40,948.96,945.20,941.26,937.36,932.99,931.25,931.14,930.98,931.34,932.37,934.37,937.31,939.89,940.74,937.79,932.72,929.71,929.76,930.83,932.58,935.11,937.53,939.00,939.49,938.55,935.12,931.29,928.96,927.70,926.51,924.98,923.34,921.73,920.15,918.48,916.75,915.17,914.02,913.81,914.10,914.14,914.01,913.90,913.88,913.66,913.16,912.46,911.85,911.78,912.99,914.87,916.30,916.48,916.71,917.55,919.25,921.53,923.39,924.37,924.26,922.70,921.06,919.14,916.93,914.45,912.04,910.06,908.61,907.57,906.40,905.28,904.25,903.28,902.40,902.12,901.69,901.25,901.24,902.34,902.61,902.09,901.27,901.00,900.48,898.28,894.61,890.22,887.78,886.15,885.39,885.66,886.93,888.70,889.35,888.12,884.40,880.75,878.57,877.14,875.88,874.40,872.96,871.62,870.40,869.30,868.31,867.44,866.81,866.65,866.87,867.46,868.21,869.02,869.88,871.97,874.76,877.88,880.98,883.60,886.22,888.46,889.96,890.92,890.64,889.78,888.53,886.74,885.21,885.12,886.08,887.36,887.69,886.46,885.05,884.27,884.29,883.91,883.36,882.99,882.94,881.51,878.95,876.11,873.49,871.01,868.89,867.85,868.19,870.10,872.81,874.63,874.00,869.75,865.56,862.62,861.26,862.03,865.39,869.27,870.65,868.89,864.11,859.87,856.97,855.07,854.51,856.83,860.05,863.09,865.27,865.46
1029.83,1028.00,1028.53,1030.05,1031.79,1033.39,1037.19,1041.04,1044.00,1046.45,1048.19,1049.33,1049.46,1047.56,1043.58,1039.11,1034.09,1028.66,1024.52,1019.91,1015.42,1010.93,1005.50,999.75,994.56,989.58,984.63,981.23,982.50,985.92,989.50,990.76,990.51,990.30,991.05,993.42,995.20,995.95,996.97,999.24,1002.35,1005.43,1007.30,1006.99,1003.32,1000.22,999.57,1000.63,1002.42,1004.40,1005.43,1005.68,1004.87,1002.09,998.33,993.88,989.19,984.89,980.89,977.43,974.30,971.38,968.76,965.83,962.73,959.98,958.67,958.53,959.15,960.40,962.04,962.58,962.42,962.49,963.16,964.23,966.42,968.85,970.54,969.86,965.87,961.25,957.21,954.08,950.88,947.21,943.33,939.56,936.36,933.60,933.31,934.08,934.15,935.31,937.72,940.10,941.81,942.88,941.24,937.23,932.62,930.52,931.25,933.21,935.57,937.92,939.78,940.63,940.43,938.60,933.96,930.30,928.15,926.83,925.56,924.31,923.11,921.90,920.55,918.85,916.94,915.44,914.71,915.23,915.73,915.85,915.78,915.71,915.70,915.62,915.27,914.72,914.44,915.13,916.81,918.77,920.03,920.14,920.51,921.46,922.95,924.41,925.47,924.70,922.62,921.01,919.17,916.85,914.28,911.82,909.94,908.65,907.58,906.52,905.31,904.14,903.04,901.98,901.01,900.49,899.83,899.23,899.08,899.83,899.59,898.62,897.57,897.44,897.40,896.11,893.15,888.74,885.88,883.49,882.17,882.21,883.14,885.37,886.87,886.86,884.77,881.63,879.54,878.03,876.50,874.41,872.58,870.95,869.62,868.86,868.04,867.45,867.16,867.21,867.24,867.64,868.26,869.00,869.78,871.65,874.32,877.27,879.85,881.43,883.49,886.05,888.64,890.02,889.31,887.60,885.57,883.78,882.26,882.17,883.17,884.51,884.77,883.24,881.51,880.43,880.20,880.91,881.75,882.33,882.08,879.80,876.95,873.98,870.99,868.04,865.18,863.56,863.87,866.71,870.39,873.29,873.33,868.70,863.66,860.41,859.07,859.98,863.47,867.67,869.17,867.03,861.34,857.78,855.16,853.13,852.24,854.15,857.99,861.33,863.36,863.89
1031.79,1032.50,1034.81,1037.04,1038.49,1039.32,1041.49,1044.10,1046.66,1049.18,1051.06,1051.46,1050.09,1046.54,1042.07,1037.45,1032.49,1027.32,1023.17,1017.94,1012.34,1006.73,1001.21,995.88,991.25,987.22,984.21,983.98,986.74,990.49,994.05,996.32,996.83,996.33,996.19,997.95,998.81,998.67,999.03,1000.99,1004.15,1007.39,1009.53,1009.37,1005.37,1003.19,1003.47,1005.05,1006.72,1007.92,1007.54,1005.92,1003.22,999.93,996.26,992.33,988.32,984.44,980.54,976.83,973.29,970.08,967.50,964.87,962.15,959.81,958.97,959.55,961.39,963.82,966.01,966.88,966.74,966.75,967.33,968.03,969.79,970.67,969.93,967.01,962.71,958.86,955.56,952.50,949.11,945.36,941.75,938.52,935.91,935.07,935.84,937.30,938.71,940.72,942.62,943.90,944.08,942.58,939.75,936.19,933.38,933.79,935.35,937.27,939.09,940.53,941.47,941.44,940.48,938.23,933.93,930.41,928.13,926.49,924.77,923.29,922.04,920.94,919.87,918.47,916.70,915.86,916.09,916.98,917.37,917.55,917.59,917.53,917.52,917.45,917.25,917.03,917.29,918.51,920.34,922.33,924.00,925.10,925.97,926.44,926.28,925.48,924.55,922.73,920.32,918.41,916.60,914.17,911.73,909.97,908.62,907.54,906.54,905.48,904.26,903.09,901.92,900.53,898.72,897.28,895.95,895.18,895.42,896.46,896.08,894.63,893.01,892.72,893.15,893.18,891.89,888.65,885.16,882.06,880.17,879.72,880.14,881.63,883.24,884.22,883.73,882.14,879.96,877.59,875.25,872.98,871.29,870.02,869.06,868.43,867.93,867.80,867.90,868.03,868.01,868.09,868.35,868.82,869.45,870.45,872.44,874.99,877.27,878.99,881.38,884.19,886.91,888.56,887.31,885.02,882.63,880.59,879.10,879.07,880.35,882.27,882.22,880.19,877.80,876.05,875.82,877.26,879.24,880.88,880.94,878.39,875.02,871.53,868.15,865.03,862.26,860.77,861.13,863.97,868.22,872.08,872.90,868.32,862.77,859.28,857.95,858.87,861.85,865.13,866.43,864.81,859.72,855.93,852.99,851.12,850.72,851.53,854.75,858.49,861.49,862.33
1035.43,1037.63,1040.70,1043.30,1044.81,1045.16,1045.85,1047.32,1049.58,1051.95,1053.08,1052.17,1049.21,1044.35,1039.96,1035.66,1031.11,1026.31,1022.03,1016.00,1009.45,1003.04,997.11,992.30,988.88,986.66,985.99,987.82,991.10,994.85,998.58,1001.65,1003.32,1003.24,1002.64,1003.14,1002.48,1001.81,1002.01,1003.70,1006.64,1009.66,1011.70,1011.63,1008.01,1006.87,1007.63,1009.08,1010.08,1009.98,1008.22,1005.09,1001.02,997.30,993.56,989.95,986.49,983.10,979.62,975.92,972.26,968.99,966.52,964.11,961.80,959.98,959.64,961.18,964.02,967.20,969.67,970.83,970.84,970.87,971.37,971.88,972.53,971.45,968.46,964.06,959.94,956.72,953.88,950.91,947.61,943.97,940.73,938.18,936.47,936.94,938.65,941.00,943.63,945.77,946.39,946.00,944.56,941.45,938.42,936.14,935.40,937.45,939.49,941.14,942.15,942.36,942.31,941.57,940.02,937.49,933.78,930.49,928.12,926.19,924.15,922.34,920.96,919.89,919.00,918.06,916.89,916.78,917.73,918.91,919.37,919.57,919.67,919.67,919.65,919.59,919.49,919.51,920.13,921.51,923.46,925.67,927.72,929.08,929.45,928.86,927.30,925.02,922.78,920.51,918.22,916.04,914.11,911.81,909.75,908.53,907.51,906.50,905.49,904.44,903.27,902.12,900.73,898.77,895.97,893.79,892.11,891.41,892.09,893.50,892.77,890.95,889.10,888.57,889.17,889.93,889.82,887.88,884.48,881.27,879.07,878.07,877.82,878.61,880.09,881.51,881.89,881.32,879.16,876.35,873.60,871.45,870.15,869.31,868.71,868.25,868.11,868.36,868.73,868.92,868.87,868.69,868.61,868.76,869.25,869.66,871.15,873.43,875.68,877.74,880.35,882.84,884.77,886.54,885.13,882.60,879.94,877.59,875.95,875.86,877.33,879.82,879.70,877.27,874.37,872.19,871.98,873.80,876.44,878.82,879.41,876.88,873.08,868.99,865.17,862.26,859.97,858.91,859.40,861.79,866.39,870.87,872.32,868.04,862.06,858.32,856.94,857.87,860.43,862.83,863.98,863.08,859.10,854.84,851.59,849.88,849.86,849.93,851.94,855.33,858.89,860.14
1040.76,1042.72,1045.29,1047.98,1050.19,1050.52,1050.52,1051.23,1052.91,1054.90,1054.11,1051.26,1046.92,1041.52,1037.51,1033.93,1029.99,1025.39,1020.61,1013.63,1006.75,1000.35,993.63,989.41,988.10,988.70,990.38,992.22,995.06,998.90,1003.23,1006.54,1009.60,1010.94,1010.62,1009.03,1006.19,1005.69,1006.55,1007.94,1010.13,1012.36,1013.81,1013.70,1011.21,1010.86,1011.48,1012.08,1011.76,1009.89,1007.07,1003.29,998.72,994.50,990.20,986.42,983.16,980.27,977.59,974.42,971.17,968.33,966.08,963.86,961.90,960.57,960.76,963.53,966.91,970.06,972.48,973.92,974.22,974.36,974.79,975.31,973.92,970.71,966.36,961.84,958.11,955.01,952.16,949.38,946.57,943.30,940.52,938.75,938.41,939.26,941.81,945.29,948.50,949.66,948.53,946.17,943.16,940.23,938.12,937.79,938.99,940.93,942.79,944.04,944.13,942.89,941.93,940.78,938.92,936.25,933.07,930.18,927.83,925.78,923.70,921.62,920.17,919.10,918.31,917.90,917.88,918.45,919.60,921.10,921.94,922.14,922.18,922.34,922.30,922.23,922.14,922.22,922.88,923.93,925.98,928.56,930.68,930.97,929.34,927.14,925.02,922.84,920.71,918.71,916.71,914.37,912.07,910.18,908.70,907.63,906.60,905.58,904.53,903.46,902.40,901.32,899.47,896.65,892.94,890.48,889.02,888.71,889.73,891.31,889.86,887.90,886.43,885.63,885.94,886.41,886.48,885.62,883.44,880.97,878.88,877.37,876.29,876.78,877.96,879.06,879.26,878.59,876.70,874.29,871.92,870.25,869.50,869.01,868.60,868.45,868.68,869.16,869.66,869.94,869.83,869.50,869.12,868.91,869.34,869.80,871.26,873.55,876.05,878.36,880.80,882.24,882.41,883.94,882.93,880.53,877.63,874.93,872.96,872.60,874.04,876.82,877.05,874.51,871.50,869.34,869.08,870.89,873.55,876.15,877.37,875.12,871.09,866.46,862.16,859.91,858.41,858.00,858.65,860.32,864.98,869.63,871.40,867.71,861.34,857.28,855.79,856.72,859.18,861.13,862.24,862.05,859.44,854.77,851.44,849.85,849.75,849.80,850.21,852.18,855.27,857.02
1045.44,1047.37,1049.61,1052.07,1054.22,1054.39,1054.48,1055.30,1056.73,1057.41,1054.81,1050.53,1045.46,1040.19,1036.02,1032.29,1028.22,1023.26,1017.38,1010.43,1004.00,998.03,991.73,989.67,990.25,992.00,994.06,996.10,999.49,1003.63,1007.80,1010.88,1014.45,1016.53,1016.22,1012.93,1010.00,1009.98,1011.21,1012.47,1013.96,1015.65,1016.88,1017.04,1015.39,1014.26,1013.28,1012.10,1010.39,1008.01,1005.13,1001.52,997.25,993.04,987.78,983.19,979.68,977.17,974.69,972.12,969.66,967.49,965.46,963.80,962.83,962.59,963.08,965.32,968.53,971.91,974.75,976.82,977.46,977.50,977.18,976.08,973.64,970.06,965.80,961.40,957.08,953.40,950.36,947.84,945.35,942.76,941.10,940.63,941.07,942.77,945.68,948.88,951.03,950.94,949.03,946.08,942.78,940.61,939.89,940.59,942.27,944.11,944.72,944.12,942.81,941.16,939.78,938.13,936.20,934.02,931.64,929.22,927.07,925.12,923.16,921.21,920.10,919.42,919.02,918.97,919.44,920.48,922.05,923.98,925.09,925.19,925.12,925.46,925.50,925.45,925.37,925.36,925.62,926.33,927.42,928.56,929.27,928.91,927.11,924.83,922.60,920.47,918.95,917.69,916.25,914.13,912.06,910.52,909.43,908.62,907.44,906.22,904.98,903.73,902.47,901.25,898.95,895.47,891.26,888.90,887.19,886.61,887.41,888.15,886.62,884.93,883.73,882.84,882.61,882.62,882.60,882.23,881.11,879.67,878.20,876.81,875.53,875.02,875.25,875.78,876.00,875.41,873.57,871.68,870.49,869.60,869.10,868.81,868.68,868.82,869.19,870.19,871.51,872.55,872.30,870.86,869.63,869.25,869.69,870.89,872.82,875.09,877.22,879.47,882.34,884.04,883.45,882.26,880.87,878.64,875.55,872.26,870.40,870.05,871.19,873.53,874.01,872.21,869.74,867.66,867.10,868.92,871.55,874.00,875.09,873.19,869.27,864.62,860.44,858.58,857.22,856.96,857.78,859.30,863.62,868.34,870.61,867.50,860.66,856.16,854.39,855.10,857.05,858.65,859.47,859.30,857.60,854.26,851.41,849.82,849.66,849.64,849.73,850.59,852.20,853.63
1049.69,1051.90,1054.21,1056.59,1058.51,1058.46,1058.59,1059.27,1060.00,1059.07,1055.16,1049.96,1044.45,1039.32,1034.75,1030.54,1025.93,1020.30,1013.64,1007.23,1001.40,996.13,991.76,991.95,993.93,996.27,998.38,1000.55,1004.15,1008.29,1012.24,1015.26,1018.88,1020.97,1020.31,1016.15,1013.98,1014.54,1016.02,1017.20,1018.18,1019.22,1019.69,1019.25,1017.69,1015.63,1013.22,1010.63,1008.00,1005.61,1002.88,999.50,995.51,991.54,985.95,980.83,976.89,974.31,971.93,969.94,968.23,966.69,965.13,964.32,964.38,965.04,965.65,967.07,969.90,973.44,976.73,979.24,979.97,979.66,978.43,975.85,972.86,969.23,965.08,960.64,955.75,951.74,948.65,946.39,944.48,942.85,942.40,943.13,944.18,946.48,949.37,951.78,952.41,951.19,948.85,945.88,943.01,942.17,942.80,944.04,945.41,946.21,945.14,942.94,940.64,938.91,937.66,936.22,934.68,932.89,930.55,928.40,926.47,924.64,922.80,921.06,920.34,920.15,920.19,920.41,921.29,922.76,924.72,926.98,928.38,928.48,928.37,928.80,928.74,928.64,928.53,928.37,928.16,928.17,927.97,927.48,926.76,925.92,924.34,922.36,920.20,918.06,917.12,916.48,915.59,913.92,912.34,911.13,910.24,909.50,908.13,906.65,905.18,903.68,902.14,900.50,898.10,894.70,890.48,888.22,886.18,884.98,884.99,884.75,883.47,882.24,881.35,880.59,880.00,879.71,879.58,879.43,878.93,878.20,877.26,876.12,874.85,873.57,872.91,872.83,872.90,872.48,870.98,869.74,869.49,869.24,868.96,868.83,868.88,869.15,869.64,871.30,873.59,875.42,875.09,872.61,870.42,869.64,870.24,872.32,874.77,877.07,879.03,881.34,884.55,886.59,885.69,882.16,879.79,877.33,874.14,870.41,868.63,868.02,868.53,870.18,870.78,869.79,867.96,865.99,865.27,867.17,869.84,872.11,872.73,870.77,866.84,862.53,859.12,857.61,856.25,855.94,856.78,858.44,862.13,866.75,869.35,866.53,859.65,854.84,852.75,853.08,854.31,855.50,855.97,855.69,854.72,853.02,851.08,849.78,849.60,849.49,849.58,849.73,850.07,850.92
1053.38,1056.46,1059.55,1062.34,1064.05,1063.76,1063.35,1062.87,1061.82,1059.13,1054.92,1049.62,1043.91,1038.57,1033.38,1028.49,1022.93,1016.25,1009.80,1004.47,999.18,994.97,995.06,996.83,999.29,1001.94,1004.48,1006.45,1009.05,1012.47,1016.47,1020.03,1023.21,1024.13,1022.54,1019.00,1018.24,1019.45,1021.07,1022.23,1023.03,1023.02,1021.36,1018.37,1015.49,1012.99,1010.33,1007.60,1005.10,1003.02,1000.37,996.88,992.78,989.14,984.82,980.16,975.67,972.14,969.96,968.47,967.21,966.11,965.54,965.95,966.77,967.62,968.17,969.07,971.46,974.88,978.41,980.72,981.01,979.95,977.81,974.91,971.89,967.91,963.14,958.20,953.37,949.89,947.23,945.17,944.49,944.23,944.79,946.17,947.83,949.92,952.23,953.59,952.59,950.68,948.13,945.57,944.02,945.35,946.96,948.21,948.37,946.19,943.15,940.64,938.53,936.83,936.58,936.96,936.58,934.61,930.59,928.27,926.47,924.70,922.89,921.29,920.90,921.16,921.62,921.98,923.39,925.34,927.53,929.81,931.64,932.02,932.00,932.33,931.73,931.46,931.21,930.82,930.25,928.84,927.25,925.72,924.32,923.17,921.66,919.93,918.00,915.76,914.97,914.51,913.90,913.01,912.09,911.20,910.25,909.10,907.51,905.81,904.06,902.28,900.45,897.88,896.09,894.24,890.83,888.48,886.18,884.01,882.30,881.45,880.70,880.13,879.73,879.38,879.03,878.80,878.67,878.48,877.76,876.93,876.03,875.04,873.92,872.70,871.73,871.03,870.54,870.34,869.94,869.52,869.28,869.22,869.21,869.22,869.23,869.34,869.96,872.44,875.65,877.95,877.73,874.90,871.83,870.09,871.12,873.97,876.75,879.21,881.78,884.52,887.56,889.38,888.55,884.80,880.72,877.20,874.01,870.39,868.29,866.71,866.03,866.85,867.35,866.88,865.52,863.75,863.24,865.36,868.21,870.41,870.32,867.38,863.06,859.54,857.96,856.78,855.55,855.00,855.58,857.64,860.36,864.59,867.08,863.93,857.98,853.18,850.71,850.53,850.77,851.40,851.57,851.27,850.86,850.50,850.04,849.69,849.57,849.38,849.45,849.57,849.69,849.84
1057.09,1060.85,1064.43,1067.31,1068.65,1067.84,1065.95,1063.56,1060.68,1057.08,1052.92,1047.58,1041.56,1035.85,1030.70,1026.02,1020.17,1012.70,1006.70,1001.45,998.16,997.59,1000.49,1003.73,1006.76,1009.41,1011.45,1012.95,1014.49,1017.24,1021.42,1025.61,1028.11,1027.78,1025.24,1022.10,1022.30,1024.17,1026.02,1026.94,1027.03,1024.03,1020.21,1016.55,1013.17,1010.13,1007.12,1004.15,1001.28,998.54,995.58,992.46,989.25,985.96,982.43,978.54,974.54,971.13,969.40,968.30,967.61,967.41,967.27,967.74,968.83,970.31,971.63,972.56,974.52,977.30,980.21,982.03,981.42,979.18,975.95,972.91,969.15,964.64,959.76,955.15,951.18,948.53,946.84,945.94,945.83,946.03,946.75,948.13,950.28,952.58,954.41,954.69,952.29,949.88,947.61,946.10,946.05,947.92,949.92,950.49,949.09,945.37,941.66,939.36,938.06,937.55,938.16,938.90,938.83,936.88,931.61,928.68,926.67,924.85,923.06,922.13,922.16,922.61,923.15,923.58,925.09,927.03,929.30,932.11,934.32,935.56,936.03,935.71,934.72,934.05,933.18,931.97,930.69,929.08,927.19,925.22,923.34,921.58,920.26,919.21,918.14,916.50,914.88,913.39,912.16,911.39,910.43,909.86,909.22,908.00,906.45,904.75,902.95,900.77,897.45,894.12,892.51,891.77,890.19,888.05,885.53,882.96,880.84,880.11,879.64,879.24,878.87,878.56,878.25,877.94,877.67,877.37,876.55,875.66,874.75,873.83,872.94,872.00,871.17,870.48,869.96,869.75,869.59,869.47,869.42,869.49,869.60,869.62,869.55,869.64,870.81,873.72,877.24,879.85,880.08,877.73,874.55,872.07,872.63,875.55,878.63,881.44,884.30,887.19,889.16,889.49,887.65,884.51,881.36,878.42,875.48,872.10,869.46,867.19,865.33,864.25,864.08,864.05,863.15,861.53,861.19,862.89,865.48,867.33,866.19,863.27,860.21,857.92,856.73,855.61,854.42,853.86,854.48,856.94,859.38,862.85,865.12,863.16,858.15,852.96,850.04,849.86,849.87,850.11,850.16,850.00,849.87,849.81,849.72,849.61,849.48,849.29,849.28,849.34,849.38,849.29
1060.92,1065.25,1069.03,1071.63,1072.23,1070.60,1067.21,1063.08,1058.69,1054.42,1050.11,1044.72,1038.65,1032.93,1027.97,1023.40,1017.33,1009.46,1003.89,999.25,998.62,1001.94,1006.61,1010.92,1014.40,1016.96,1018.46,1019.37,1020.07,1022.38,1026.67,1030.95,1032.50,1030.99,1027.80,1025.34,1026.16,1028.36,1030.18,1030.63,1029.75,1024.01,1018.49,1014.58,1010.92,1007.44,1004.15,1000.90,997.49,993.98,990.68,987.90,985.53,982.62,979.72,976.63,973.46,970.75,969.46,968.70,968.68,969.44,969.71,970.00,971.14,973.18,975.33,976.51,978.07,980.12,982.15,982.87,981.16,977.83,973.72,970.45,966.02,961.25,956.57,952.35,949.49,947.84,947.20,947.41,947.59,947.94,948.70,950.12,952.55,955.06,956.29,955.42,951.95,949.25,947.52,947.21,948.49,950.48,952.25,951.84,949.13,944.79,940.84,938.87,938.46,939.21,940.33,940.87,940.73,938.80,932.80,929.17,926.82,924.91,923.29,923.25,923.77,924.38,924.86,925.19,926.58,928.41,930.78,934.24,936.70,938.53,939.29,938.45,937.08,935.85,934.27,932.31,930.44,929.02,927.32,925.34,923.28,921.13,920.00,919.48,919.09,918.00,915.51,912.87,910.74,909.62,908.36,908.05,907.78,906.62,905.19,903.59,901.70,898.95,894.17,890.57,889.04,888.89,888.85,886.95,884.39,881.86,879.93,879.46,879.14,878.75,878.32,877.92,877.56,877.15,876.75,876.34,875.59,874.81,874.01,873.22,872.54,871.78,871.08,870.47,869.95,869.68,869.53,869.52,869.72,870.18,870.59,870.59,870.24,870.13,871.81,874.91,878.41,881.21,882.18,880.63,877.71,874.77,874.55,877.08,880.25,883.37,886.38,889.24,889.92,888.47,885.38,882.96,881.25,879.33,876.86,873.86,870.89,868.08,865.16,862.26,861.32,861.49,860.98,859.64,859.41,860.53,862.69,864.13,862.21,859.68,857.90,856.59,855.38,854.22,853.15,852.65,853.29,855.93,858.39,861.17,863.20,862.63,858.53,853.07,849.87,849.80,849.79,849.77,849.77,849.77,849.76,849.69,849.62,849.51,849.37,849.23,849.14,849.13,849.13,848.97
1065.18,1069.83,1073.22,1074.73,1073.62,1070.47,1066.40,1061.84,1056.94,1051.94,1046.49,1041.01,1035.85,1031.24,1026.37,1020.69,1013.96,1006.64,1001.34,999.80,1002.49,1007.96,1012.80,1017.11,1020.48,1023.04,1024.68,1024.95,1025.57,1028.09,1032.25,1034.84,1034.80,1032.37,1029.42,1028.73,1029.62,1031.08,1032.00,1031.49,1029.26,1023.49,1017.75,1013.11,1009.00,1005.51,1002.20,998.68,994.72,990.97,987.65,984.65,981.97,979.61,977.27,974.76,972.49,971.22,970.02,969.67,970.34,971.93,973.07,973.52,974.56,976.52,978.85,980.43,981.75,983.19,984.38,982.47,979.41,975.70,971.55,967.64,963.42,959.38,955.28,950.91,949.17,948.77,948.88,949.11,949.33,949.77,951.10,953.25,955.39,957.76,957.88,955.72,952.00,949.39,948.59,949.28,951.27,953.64,953.76,952.09,949.24,945.71,941.60,939.84,939.94,941.02,941.74,941.78,941.19,939.09,933.54,929.40,926.60,924.67,923.59,924.62,925.78,926.64,927.02,926.84,927.80,929.67,932.46,936.35,938.71,939.66,939.82,939.31,937.52,935.37,933.30,931.42,929.61,928.50,927.41,926.13,924.58,923.01,921.98,921.16,920.24,918.89,916.31,913.31,910.40,908.05,906.42,906.18,906.10,905.12,903.76,902.31,899.99,896.28,891.32,888.77,887.40,886.68,886.27,884.51,882.43,880.67,879.58,879.10,878.71,878.32,877.91,877.46,876.97,876.54,876.12,875.72,875.46,875.26,874.96,874.51,873.97,872.95,871.88,870.87,870.00,869.73,869.70,869.76,870.17,871.86,873.30,873.33,872.13,871.09,872.78,875.70,878.82,881.54,883.83,883.17,880.90,878.24,877.12,878.54,881.21,884.32,887.36,889.84,889.41,886.59,882.50,880.37,879.11,877.94,876.42,874.01,871.60,868.52,864.91,861.45,859.96,859.68,859.40,858.78,858.43,859.21,860.79,861.83,860.33,858.37,856.41,854.81,853.69,852.55,851.83,851.41,851.73,853.87,856.56,859.20,861.10,861.08,857.75,852.83,849.87,849.79,849.73,849.67,849.64,849.64,849.63,849.57,849.49,849.41,849.31,849.22,849.14,849.08,848.99,848.78
1070.09,1074.55,1077.16,1076.89,1073.17,1069.26,1065.11,1060.55,1055.52,1050.18,1043.90,1038.43,1033.72,1028.87,1023.04,1016.95,1010.68,1004.64,1000.59,1002.28,1007.21,1013.27,1018.15,1022.27,1025.82,1028.68,1030.45,1031.05,1032.01,1034.33,1037.60,1039.00,1037.77,1035.22,1032.94,1032.74,1033.28,1033.52,1033.04,1031.46,1028.55,1023.43,1017.99,1013.02,1008.79,1005.42,1002.24,998.56,993.94,989.57,985.72,982.41,979.77,977.83,976.28,974.72,973.38,972.82,972.04,971.92,972.89,974.97,976.62,977.30,978.22,979.88,982.22,983.86,984.98,985.38,984.38,981.26,977.44,973.41,969.34,965.38,961.47,957.79,954.34,951.40,950.66,951.58,952.88,953.78,954.42,954.76,955.83,957.67,959.33,960.74,959.69,956.78,953.42,951.68,951.73,953.01,954.97,955.99,954.52,952.03,949.41,947.12,943.59,941.97,942.00,942.82,942.62,941.86,940.46,937.75,932.57,928.91,926.25,924.61,924.64,926.15,927.70,928.87,929.34,928.80,929.69,931.84,934.87,938.17,939.66,940.04,939.95,939.34,937.07,934.51,932.14,930.00,927.93,926.88,925.98,924.89,923.55,922.22,920.81,919.38,917.97,916.59,914.89,912.87,910.29,906.83,904.62,904.34,904.49,903.70,902.43,900.26,896.90,892.76,889.48,887.66,886.33,885.27,884.49,882.96,881.36,880.12,879.42,878.93,878.48,878.04,877.64,877.32,876.98,876.69,876.40,876.18,876.27,876.38,876.33,876.00,875.30,874.20,872.92,871.64,870.58,870.05,870.52,871.32,872.40,874.82,876.49,876.43,874.95,873.47,873.98,876.11,878.89,881.63,884.51,885.41,884.32,881.88,880.39,881.32,883.65,886.45,888.82,890.36,888.90,885.18,880.46,877.88,876.36,875.40,874.64,873.40,871.48,868.29,864.37,860.75,859.30,858.65,858.22,857.87,857.56,858.02,859.02,859.58,858.28,856.66,854.82,853.15,851.95,851.16,850.79,850.56,850.64,851.78,853.80,855.75,857.09,857.01,854.35,851.43,849.82,849.75,849.67,849.65,849.64,849.64,849.64,849.60,849.56,849.51,849.43,849.35,849.27,849.20,849.11,848.97
1075.09,1078.91,1080.39,1078.23,1072.15,1067.79,1063.74,1059.34,1054.35,1048.80,1041.95,1036.46,1031.85,1026.21,1019.35,1013.21,1007.86,1003.58,1001.77,1006.06,1012.19,1018.12,1023.00,1027.10,1030.91,1034.04,1035.88,1037.09,1038.42,1040.32,1042.45,1043.07,1041.10,1038.81,1037.14,1036.58,1036.32,1035.20,1033.37,1030.89,1027.71,1023.44,1018.57,1013.62,1009.43,1006.11,1002.97,999.11,993.86,988.85,984.36,980.85,978.59,977.20,976.37,975.68,975.17,975.05,974.76,974.75,975.76,978.13,980.13,981.07,981.88,983.20,985.48,986.91,987.50,986.59,983.31,979.63,975.34,971.06,967.09,963.31,959.88,956.74,954.20,953.06,953.14,955.16,957.57,959.18,960.23,960.45,961.05,962.27,963.49,963.85,961.86,958.60,955.86,955.19,955.91,957.25,958.40,957.54,954.78,951.82,949.52,948.33,945.71,944.24,943.91,944.05,942.83,941.18,938.87,935.52,930.91,928.11,925.92,924.84,926.05,927.77,929.62,931.15,931.88,931.20,932.20,934.54,937.42,939.60,940.06,940.10,939.89,939.00,936.36,933.63,931.13,928.81,926.52,925.21,924.10,922.87,921.46,919.96,917.97,915.91,914.12,912.82,912.22,911.62,909.89,905.46,902.72,902.47,902.88,902.30,900.79,897.52,893.33,889.44,888.17,886.83,885.51,884.31,883.25,881.95,880.78,879.90,879.36,878.87,878.35,877.91,877.58,877.44,877.34,877.20,877.10,877.15,877.51,877.80,877.85,877.50,876.56,875.40,874.00,872.57,871.41,870.59,871.66,873.42,875.27,878.04,879.74,879.59,878.00,876.29,875.42,876.63,879.06,881.84,884.97,887.36,887.53,885.53,884.06,884.75,886.69,888.89,890.27,890.69,888.40,884.18,879.18,875.91,873.68,872.54,872.28,872.26,870.74,867.69,863.86,860.35,859.06,858.07,857.34,856.98,856.74,856.88,857.29,857.35,856.15,854.76,853.25,851.77,850.57,850.13,850.03,849.99,849.94,850.10,851.11,852.16,852.83,852.54,850.64,849.92,849.76,849.70,849.64,849.68,849.71,849.72,849.72,849.71,849.71,849.69,849.62,849.55,849.47,849.40,849.35,849.33
