747.57,745.45,744.03,744.08,746.17,748.20,749.74,750.88,751.60,751.92,752.12,752.32,752.51,752.67,752.82,752.98,752.68,751.81,751.25,751.38,751.97,752.84,753.86,754.86,755.67,756.06,755.89,755.82,755.82,755.96,756.30,756.82,757.17,757.37,757.48,757.52,756.91,756.69,756.97,757.62,758.04,758.38,758.64,758.72,758.41,757.52,754.76,751.92,751.42,753.20,755.22,755.71,754.22,752.08,750.30,749.43,749.29,749.60,750.62,751.93,753.12,754.38,757.28,759.21,760.07,759.66,757.37,753.91,750.31,746.86,743.73,741.30,740.15,739.89,740.71,743.48,747.57,750.37,751.16,749.85,748.30,746.72,745.24,744.33,745.06,746.05,746.07,744.68,742.00,739.97,738.59,737.98,738.43,739.36,740.41,741.51,742.54,743.08,742.23,741.05,739.77,738.11,736.26,734.61,733.32,732.54,731.93,731.15,730.80,730.98,731.29,731.62,731.91,731.98,731.56,730.94,730.34,729.82,729.35,728.84,728.30,727.72,727.13,726.49,725.53,724.48,723.44,722.44,721.50,720.71,719.31,717.33,715.97,717.67,719.68,721.22,722.30,723.40,724.22,724.62,724.61,724.58,724.95,726.13,727.88,730.07,735.93,740.99,744.65,746.88,747.11,745.53,742.67,739.38,737.78,736.93,737.73,739.99,743.26,745.88,745.80,744.04,741.55,739.76,738.83,738.69,739.27,740.46,742.10,743.86,745.46,746.70,747.62,747.83,747.99,748.39,749.13,750.49,751.53,751.98,751.81,751.45,751.93,753.71,756.73,759.34,762.89,767.20,773.07,782.28,790.80,797.54,803.14,808.17,812.50,816.45,821.04,826.28,830.65,834.27,837.91,841.63,845.13,848.10,850.41,852.58,854.65,855.78,857.22,858.66,860.43,863.65,867.58,873.27,879.36,884.31,888.65,891.67,894.15,896.33,897.80,898.26,898.37,898.30,897.91,897.27,894.92,891.79,888.82,886.80,886.78,888.25,890.44,892.03,891.96,891.33,891.00,891.71,893.74,895.99,897.59,898.17,898.03,897.95,898.36,899.41,901.25,903.47,904.89,904.95,903.61,902.66,901.57,900.19,898.12,894.53
746.22,744.11,743.29,743.90,745.79,747.67,749.17,750.17,750.71,751.02,751.25,751.44,751.61,751.76,751.91,752.07,751.83,751.04,750.30,750.73,751.60,752.59,753.65,754.64,754.91,754.66,754.25,754.19,754.24,754.48,754.93,755.46,755.98,756.32,756.50,756.51,756.02,755.84,756.04,756.54,756.99,757.37,757.35,756.87,755.95,755.12,752.58,750.29,750.79,752.73,754.72,755.29,753.98,751.95,750.23,749.11,748.58,748.71,749.15,749.70,750.40,751.63,754.21,756.47,758.08,758.27,755.42,752.17,748.88,745.57,742.42,740.17,739.14,738.95,739.74,742.18,746.03,748.86,749.90,748.85,747.43,745.94,744.48,743.40,743.88,744.81,745.30,744.64,741.94,739.86,738.33,737.56,738.00,739.11,740.18,741.23,742.20,742.70,741.88,740.87,739.82,738.27,736.41,734.31,732.27,730.69,730.09,729.79,729.75,729.94,730.26,730.63,731.00,731.22,731.03,730.52,730.02,729.57,729.16,728.69,728.17,727.62,727.02,726.25,725.23,724.20,723.27,722.46,721.73,721.01,719.95,718.24,715.90,716.56,718.55,720.58,721.72,722.86,723.41,723.59,723.58,723.62,724.38,725.75,727.46,729.47,733.80,738.35,741.86,743.37,743.18,741.58,739.60,737.67,736.09,736.08,737.33,739.36,741.71,743.24,742.88,741.48,739.80,738.80,738.00,737.85,738.37,739.30,740.44,741.84,743.33,744.78,745.98,746.27,746.45,746.90,747.60,748.57,749.29,749.63,749.60,749.77,751.03,753.36,756.65,760.14,763.95,768.38,774.24,782.95,790.93,797.50,802.96,807.50,811.22,814.51,818.12,822.42,827.26,830.79,834.09,837.31,840.23,843.32,846.55,849.52,851.90,853.69,855.32,857.13,859.48,862.95,867.41,874.38,881.28,885.46,889.52,892.43,895.16,897.94,899.91,900.60,900.84,900.90,900.55,899.29,896.69,893.62,890.99,889.76,890.14,891.53,893.55,895.63,895.90,896.08,896.47,897.11,898.68,899.80,900.48,900.77,900.70,900.65,900.97,901.73,903.05,905.04,904.63,902.89,901.07,899.91,898.81,897.25,895.06,892.23
744.48,742.86,742.83,743.97,745.72,747.55,748.71,749.43,749.85,750.16,750.37,750.54,750.69,750.85,751.00,751.13,750.95,750.34,749.75,750.37,751.36,752.38,753.36,753.88,753.76,753.28,752.75,752.47,752.62,753.00,753.51,754.06,754.77,755.27,755.52,755.52,755.02,754.82,754.99,755.49,755.94,755.96,755.52,754.70,753.67,752.75,750.94,749.58,750.40,752.23,754.13,754.86,753.94,752.10,750.45,749.26,748.48,748.08,748.00,748.25,748.80,749.78,751.54,753.59,755.47,756.23,754.07,751.31,748.18,744.88,741.73,739.52,738.33,738.12,738.99,741.03,744.27,747.34,749.02,747.89,746.55,745.14,743.74,742.65,742.67,743.51,744.38,744.31,741.78,739.66,737.95,737.00,737.44,738.75,739.96,740.96,741.72,742.18,741.65,740.87,739.95,738.48,736.45,734.20,731.98,730.14,729.28,728.76,728.61,728.85,729.35,729.83,730.27,730.57,730.51,730.11,729.67,729.27,728.88,728.45,728.00,727.50,726.89,726.06,725.16,724.30,723.50,722.77,722.07,721.44,720.61,719.31,717.31,716.44,717.04,718.75,721.01,722.18,722.53,722.58,722.56,722.67,723.49,724.87,726.56,728.38,731.15,734.91,738.20,739.57,739.33,738.30,737.16,736.07,734.91,734.94,736.18,738.04,739.81,740.77,740.54,739.68,738.63,737.83,737.06,736.97,737.56,738.41,739.28,740.28,741.45,742.83,744.21,744.65,744.94,745.44,746.11,746.91,747.44,747.80,748.35,749.27,751.29,754.30,758.04,761.60,765.16,769.47,775.04,782.39,789.58,795.22,799.71,803.57,807.09,809.53,812.04,815.57,820.93,825.36,829.23,832.72,835.85,839.33,842.62,846.24,850.25,853.04,855.61,858.08,860.80,864.59,869.45,876.03,882.28,886.19,889.97,892.39,894.44,896.50,898.19,898.97,899.68,900.44,900.91,900.30,898.07,895.48,893.65,893.26,894.37,895.91,897.45,898.78,899.16,899.48,899.88,900.35,901.24,901.95,902.39,902.58,902.56,902.13,902.25,903.09,904.38,904.95,903.69,901.51,899.20,897.37,895.81,894.02,891.88,889.59
742.67,741.90,742.61,744.11,745.70,747.40,748.22,748.68,749.05,749.34,749.53,749.69,749.83,749.96,750.07,750.15,750.00,749.55,749.28,750.10,751.16,752.13,752.94,752.94,752.51,751.92,751.35,750.89,751.12,751.59,752.14,752.79,753.63,754.24,754.55,754.56,754.05,753.81,753.97,754.48,754.91,754.60,753.86,752.90,751.91,750.92,749.70,749.09,750.08,751.74,753.51,754.44,754.01,752.38,750.83,749.64,748.69,747.78,747.22,747.17,747.53,748.27,749.37,751.07,752.92,754.06,752.73,750.47,747.55,744.32,741.24,739.08,737.64,737.36,738.41,740.16,742.91,746.12,748.24,746.95,745.55,744.25,743.01,741.93,741.47,742.13,743.26,743.73,741.56,739.43,737.55,736.42,736.76,738.20,739.54,740.53,741.15,741.59,741.40,740.88,740.05,738.67,736.55,734.29,732.11,730.20,729.01,728.11,727.64,727.72,728.36,728.91,729.39,729.75,729.87,729.64,729.29,728.91,728.52,728.13,727.75,727.26,726.65,725.93,725.25,724.56,723.86,723.16,722.48,721.91,721.25,720.34,719.00,717.24,716.20,716.83,719.74,721.22,721.58,721.57,721.58,721.76,722.50,723.83,725.50,727.12,728.74,731.60,734.37,735.55,735.50,735.08,734.63,734.16,733.56,733.52,734.66,736.39,737.76,738.50,738.48,738.08,737.52,736.84,736.09,736.07,736.76,737.58,738.30,738.99,739.85,741.02,742.41,743.00,743.44,744.01,744.64,745.46,746.08,746.72,747.91,749.52,752.18,755.69,759.66,762.99,766.20,770.23,775.29,781.21,787.16,791.80,795.52,798.92,802.40,804.18,805.83,808.75,814.31,819.65,824.31,828.33,831.94,835.75,839.09,843.43,849.16,853.04,856.62,859.83,862.98,866.99,871.83,877.42,882.58,886.24,889.57,891.44,892.75,894.00,895.32,896.26,897.47,898.97,900.35,900.87,899.40,897.51,896.55,896.81,898.34,899.85,900.87,901.41,901.83,902.09,902.29,902.55,902.89,903.30,903.63,903.82,903.90,903.11,903.10,904.02,905.09,904.34,902.78,900.73,898.25,896.00,893.86,891.67,889.49,887.59
740.94,741.61,742.84,744.25,745.64,746.87,747.53,747.97,748.32,748.57,748.79,748.97,749.09,749.11,749.08,749.08,748.87,748.49,748.71,749.81,750.94,751.79,752.25,751.89,751.27,750.65,750.13,749.77,749.93,750.34,750.92,751.88,752.66,753.23,753.59,753.65,753.19,752.96,753.11,753.57,753.95,753.67,753.05,752.26,751.32,750.38,749.09,748.48,749.71,751.37,752.89,754.00,754.21,752.80,751.41,750.23,749.18,748.14,747.22,746.49,746.32,747.00,748.16,749.49,750.98,752.00,751.02,749.11,746.53,743.62,740.78,738.83,737.08,736.69,738.09,739.94,742.67,745.63,747.42,745.95,744.24,743.16,742.25,741.14,740.32,740.62,741.77,742.72,741.24,739.19,737.20,735.87,735.94,737.25,738.61,739.69,740.43,740.89,741.03,740.74,740.02,738.81,736.88,734.82,732.77,730.84,729.35,728.17,727.16,726.55,727.07,727.56,727.99,728.43,728.91,729.08,728.84,728.45,728.06,727.68,727.29,726.75,726.18,725.90,725.59,724.98,724.24,723.56,722.92,722.36,721.80,721.17,720.41,719.60,717.30,715.48,717.14,719.65,720.45,720.53,720.67,720.90,721.53,722.79,724.39,725.73,727.31,729.18,730.66,731.20,731.64,731.54,731.40,731.43,731.44,731.60,732.75,734.37,735.56,736.58,736.70,736.46,736.19,735.81,735.11,735.15,735.90,736.68,737.39,738.09,738.81,739.63,740.57,741.32,741.97,742.58,743.23,744.34,745.70,747.16,748.76,750.87,753.81,757.27,760.84,763.73,766.68,770.20,774.43,779.31,783.10,787.13,791.18,794.76,798.36,800.08,801.56,804.12,809.03,814.68,819.97,824.68,828.81,832.65,836.60,841.90,848.69,853.66,857.87,861.84,865.75,869.63,873.53,877.76,881.76,884.85,887.27,888.71,889.87,891.06,892.33,893.65,895.28,897.15,899.11,901.03,900.84,899.97,899.69,900.08,901.05,901.91,902.50,903.03,903.50,903.65,903.65,903.72,903.90,903.78,903.83,904.18,904.50,903.72,903.83,904.59,904.55,903.63,902.45,900.98,899.14,897.40,894.69,891.76,889.16,887.42
740.60,741.77,743.11,744.39,745.46,746.28,746.83,747.25,747.61,747.88,748.09,748.24,748.30,748.22,748.11,748.08,747.86,747.56,748.28,749.48,750.57,751.29,751.40,750.94,750.35,749.80,749.32,748.96,749.16,749.60,750.19,751.12,751.78,752.29,752.66,752.71,752.36,752.12,752.21,752.65,752.99,752.70,752.10,751.34,750.48,749.54,748.32,747.85,749.16,750.72,752.07,753.18,753.76,753.18,752.03,750.87,749.82,748.85,747.88,746.81,745.97,745.81,746.82,747.97,749.24,750.16,749.54,747.59,745.15,742.58,740.08,738.08,736.26,736.09,737.96,739.96,742.62,745.12,746.30,744.50,742.64,741.65,740.99,740.21,739.46,739.61,740.68,741.76,740.72,738.85,736.89,735.38,734.96,736.19,737.46,738.52,739.38,740.09,740.45,740.37,739.85,738.74,736.90,734.93,732.95,731.01,729.39,728.08,726.87,725.91,725.80,726.20,726.71,727.28,727.87,728.31,728.27,728.00,727.59,727.10,726.60,726.01,725.46,725.20,725.02,724.66,724.20,723.74,723.13,722.46,721.82,721.26,720.76,720.28,717.99,715.35,715.15,717.82,719.11,719.53,719.76,720.04,720.50,721.47,722.85,724.29,725.88,727.51,728.75,729.29,729.73,729.80,729.84,729.96,730.12,730.34,731.15,732.41,733.72,734.80,734.94,734.74,734.56,734.34,734.03,734.27,735.01,735.78,736.48,737.18,737.87,738.58,739.35,740.15,740.92,741.67,742.51,743.79,745.40,747.16,748.96,751.14,753.77,757.11,760.86,763.07,765.39,768.27,771.80,775.84,778.97,782.42,786.67,791.62,795.20,797.19,798.75,800.76,804.41,809.74,815.62,821.24,825.90,830.36,835.85,842.44,849.48,854.42,858.78,862.95,866.90,870.38,873.64,877.06,880.25,882.66,884.42,885.63,886.60,887.62,889.14,891.24,893.35,895.37,897.43,899.55,900.37,900.66,901.02,901.22,901.63,902.04,902.38,902.64,902.76,902.75,902.67,902.62,902.65,902.56,902.69,903.22,904.10,904.00,904.34,904.88,904.52,904.49,903.93,902.76,901.04,899.38,896.53,893.33,890.27,887.90
740.78,742.10,743.33,744.39,745.14,745.64,746.12,746.55,746.90,747.21,747.39,747.48,747.47,747.32,747.15,747.10,746.93,746.82,747.91,749.10,750.09,750.65,750.49,750.04,749.56,749.10,748.65,748.30,748.56,749.05,749.62,750.39,750.92,751.38,751.73,751.76,751.51,751.27,751.32,751.73,752.02,751.74,751.12,750.32,749.48,748.50,747.53,747.33,748.61,749.99,751.17,752.19,753.00,753.30,752.55,751.51,750.52,749.66,748.76,747.52,746.10,744.99,745.48,746.49,747.63,748.50,748.21,746.13,743.72,741.41,739.20,737.12,735.40,735.55,737.84,740.01,742.58,744.60,745.13,742.98,741.12,740.15,739.64,739.21,738.64,738.83,739.81,740.87,740.16,738.48,736.61,734.95,734.02,735.07,736.22,737.23,738.19,739.18,739.76,739.86,739.48,738.49,736.79,734.89,732.95,731.03,729.40,728.08,726.87,725.72,724.82,724.95,725.51,726.17,726.79,727.40,727.64,727.51,727.04,726.44,725.82,725.19,724.63,724.27,724.13,723.99,723.86,723.69,723.11,722.30,721.55,720.97,720.53,720.11,718.34,715.68,713.76,716.07,717.76,718.58,718.89,719.19,719.52,720.18,721.29,722.86,724.46,726.08,727.45,728.27,728.56,728.73,728.85,728.95,729.11,729.31,729.77,730.65,732.01,733.06,733.20,733.05,732.97,732.88,732.96,733.38,734.09,734.85,735.57,736.28,736.98,737.67,738.38,739.22,740.09,741.02,742.06,743.42,745.09,746.92,748.73,750.67,752.68,755.65,759.49,761.28,763.25,765.76,768.81,772.24,775.40,778.54,782.98,789.24,792.79,795.08,796.79,798.38,800.82,805.60,811.73,817.96,823.09,828.34,835.27,842.90,849.97,854.73,859.02,863.04,866.75,870.09,873.06,876.01,878.49,879.93,881.07,882.13,882.98,883.86,885.75,888.67,891.35,893.57,895.57,897.49,898.99,900.16,900.94,900.89,900.89,901.11,901.40,901.39,901.09,900.88,900.71,900.51,900.41,900.58,901.03,901.90,903.41,904.18,904.66,904.77,904.24,905.11,905.22,904.46,903.10,901.51,898.73,895.19,891.42,888.55
741.12,742.42,743.31,743.92,744.46,744.93,745.44,745.88,746.19,746.50,746.68,746.68,746.57,746.40,746.20,746.09,746.15,746.55,747.60,748.62,749.35,749.70,749.59,749.22,748.81,748.39,747.97,747.79,748.10,748.54,748.99,749.53,750.01,750.44,750.75,750.79,750.59,750.43,750.48,750.76,751.05,750.80,750.15,749.23,748.22,747.21,746.83,747.18,748.25,749.30,750.21,751.10,751.97,752.61,752.72,752.15,751.24,750.44,749.59,748.36,746.85,745.27,744.35,745.07,746.28,747.24,747.13,745.03,742.52,740.15,738.04,736.00,734.66,735.14,737.57,739.96,742.41,744.02,744.11,741.85,740.13,739.12,738.53,738.12,737.66,738.20,739.26,740.13,739.62,738.14,736.38,734.65,733.39,733.93,734.89,735.89,736.91,738.01,738.93,739.14,738.70,737.88,736.58,734.83,732.93,731.15,729.58,728.58,727.64,726.43,724.80,724.19,724.44,725.07,725.69,726.31,726.87,726.91,726.28,725.66,725.00,724.35,723.78,723.36,723.18,723.03,723.03,723.15,722.61,721.72,720.89,720.23,719.61,719.07,718.02,716.07,713.61,714.88,716.66,717.79,718.11,718.41,718.77,719.32,720.18,721.52,723.05,724.65,726.17,727.31,727.59,727.75,727.90,728.04,728.19,728.31,728.75,729.50,730.39,731.32,731.52,731.57,731.81,731.96,732.06,732.45,733.11,733.89,734.64,735.40,736.13,736.84,737.59,738.51,739.53,740.63,741.77,743.02,744.64,746.39,747.83,748.97,750.01,751.91,754.89,757.33,760.37,763.52,766.67,770.01,773.77,777.54,782.22,788.22,791.81,794.13,796.01,797.78,799.85,804.13,809.42,814.93,820.26,826.32,833.25,840.73,848.06,853.34,857.42,860.79,864.14,868.49,872.05,875.00,876.65,876.36,876.67,877.70,878.63,879.56,881.88,885.30,888.73,891.64,893.67,895.46,896.80,897.73,898.21,898.17,898.25,898.83,899.60,899.57,899.06,898.60,898.17,897.71,897.53,898.06,899.19,900.88,902.86,904.39,904.58,903.67,902.58,903.15,903.68,904.14,904.48,903.53,900.99,896.34,891.00,889.06
741.21,742.19,742.83,743.29,743.75,744.22,744.74,745.17,745.48,745.77,745.88,745.81,745.65,745.46,745.26,745.17,745.41,746.14,747.16,748.11,748.69,748.85,748.69,748.37,747.98,747.56,747.22,747.34,747.71,748.14,748.56,749.02,749.40,749.68,749.86,749.88,749.74,749.59,749.59,749.83,750.09,749.95,749.40,748.51,747.44,746.43,746.25,746.79,747.77,748.62,749.33,750.09,750.92,751.65,752.15,752.13,751.67,750.93,750.14,749.04,747.53,745.65,743.96,744.07,745.01,746.09,746.39,744.33,741.69,739.16,736.96,734.87,733.94,734.78,737.34,739.84,742.12,743.51,743.47,741.36,739.81,738.71,737.83,737.14,736.89,737.64,738.67,739.37,738.88,737.46,735.79,734.12,732.80,732.79,733.58,734.60,735.68,736.88,738.04,738.38,737.98,737.22,736.23,734.92,733.41,731.80,730.35,729.41,728.29,726.73,724.80,723.48,723.39,724.01,724.63,725.25,725.96,726.21,725.73,725.02,724.25,723.55,722.95,722.42,722.21,722.17,722.34,722.59,721.95,721.03,720.14,719.36,718.60,717.91,717.14,715.81,713.75,714.00,715.68,717.00,717.29,717.63,718.04,718.62,719.43,720.57,721.99,723.50,725.00,726.27,726.61,726.75,726.88,727.00,727.16,727.38,727.90,728.60,729.30,730.09,730.43,730.63,730.90,731.07,731.16,731.50,732.10,732.87,733.64,734.44,735.28,736.17,737.11,738.15,739.26,740.40,741.50,742.66,744.06,745.50,746.63,747.56,748.44,749.74,751.94,755.26,759.23,763.00,766.46,770.05,774.80,779.17,783.77,788.98,792.08,793.52,795.10,797.42,799.97,803.95,808.55,813.42,818.70,825.47,832.57,839.70,846.47,851.69,855.49,858.60,862.13,867.76,871.55,873.68,874.04,872.59,872.09,873.07,874.43,875.97,878.71,882.38,886.02,889.22,891.62,893.29,894.36,894.98,895.13,895.06,895.56,896.55,897.51,897.41,896.85,896.06,895.24,894.56,894.29,895.39,897.50,900.30,903.03,904.02,903.47,902.05,900.74,900.74,901.24,902.19,903.54,904.26,902.59,898.30,893.01,890.95
741.04,741.63,742.11,742.58,743.05,743.52,744.03,744.45,744.76,745.06,745.04,744.90,744.73,744.52,744.34,744.34,744.74,745.66,746.65,747.57,748.03,748.02,747.80,747.51,747.11,746.70,746.50,746.92,747.35,747.78,748.22,748.65,748.91,749.01,749.01,749.00,748.93,748.77,748.72,748.93,749.14,749.15,748.76,747.98,746.94,745.92,745.74,746.26,747.20,747.92,748.52,749.19,749.96,750.68,751.30,751.75,751.82,751.20,750.52,749.57,748.12,746.03,744.02,743.32,743.79,744.99,745.74,743.84,741.10,738.30,735.76,733.60,733.09,734.35,737.09,739.67,741.76,743.03,743.07,741.26,739.86,738.64,737.43,736.35,736.21,737.00,737.94,738.51,738.03,736.62,735.02,733.50,732.25,731.73,732.31,733.33,734.47,735.76,737.08,737.59,737.30,736.52,735.73,734.93,733.90,732.52,731.25,730.24,728.76,726.72,724.67,722.76,722.37,722.96,723.58,724.21,725.00,725.48,725.32,724.52,723.62,722.85,722.17,721.52,721.28,721.40,721.76,722.04,721.23,720.30,719.37,718.47,717.62,716.77,716.03,715.14,713.85,713.27,714.75,716.16,716.47,716.85,717.33,718.01,718.88,719.85,721.15,722.54,723.97,725.24,725.60,725.72,725.81,725.90,726.09,726.51,727.12,727.82,728.50,729.14,729.62,729.94,730.10,730.19,730.27,730.56,731.09,731.86,732.67,733.57,734.59,735.77,736.91,738.05,739.20,740.33,741.40,742.55,743.72,744.82,745.75,746.79,747.82,748.91,750.69,754.83,759.58,763.91,767.77,771.83,777.29,781.94,786.15,790.30,792.49,792.62,793.69,796.65,800.16,804.15,808.34,812.78,818.01,825.30,832.52,839.11,844.85,849.91,853.59,856.77,860.76,867.33,871.12,872.14,871.18,869.01,867.68,868.49,870.34,872.83,876.11,880.00,883.58,886.75,889.53,890.96,891.72,892.00,891.88,891.85,892.95,894.33,895.30,895.12,894.61,893.54,892.30,891.42,891.14,892.93,896.07,899.99,903.53,903.31,901.75,900.02,898.65,898.09,898.50,899.64,901.49,904.04,903.73,900.78,896.52,893.90
740.38,740.86,741.36,741.87,742.34,742.91,743.33,743.67,744.00,744.38,744.21,744.00,743.83,743.65,743.45,743.66,744.27,745.20,746.14,746.94,747.23,747.07,746.89,746.65,746.26,745.96,746.05,746.53,747.00,747.43,747.82,748.16,748.27,748.27,748.21,748.16,748.14,748.05,748.00,748.08,748.25,748.36,748.08,747.37,746.45,745.47,745.25,745.70,746.51,747.17,747.78,748.47,749.31,750.16,750.78,751.24,751.47,751.23,750.70,749.89,748.50,746.37,744.30,742.71,742.62,743.83,744.72,743.38,740.73,737.38,733.86,731.82,731.71,733.42,736.57,739.46,741.34,742.56,742.84,741.38,740.04,738.72,737.38,736.13,735.45,735.97,736.79,737.36,737.09,735.76,734.30,732.94,731.73,730.89,731.17,732.10,733.35,734.61,736.00,736.68,736.52,735.69,734.91,734.22,733.44,732.47,731.50,730.47,728.77,726.36,724.00,721.99,721.44,721.86,722.49,723.21,724.03,724.75,725.02,724.24,723.33,722.45,721.60,720.81,720.50,720.81,721.33,721.51,720.55,719.58,718.65,717.73,716.82,715.92,715.08,714.21,713.22,712.57,713.82,715.18,715.67,716.08,716.71,717.51,718.40,719.30,720.43,721.78,723.21,724.40,724.56,724.63,724.70,724.83,725.11,725.67,726.34,727.04,727.71,728.30,728.75,729.07,729.26,729.35,729.47,729.75,730.23,730.97,731.98,733.26,734.68,736.07,737.21,738.31,739.41,740.57,741.90,743.40,744.68,745.77,746.84,747.87,748.74,750.10,752.67,756.96,762.28,767.02,771.22,776.07,780.31,783.96,787.30,790.14,790.94,789.98,790.55,793.86,798.56,803.34,807.90,812.56,818.18,825.45,832.16,837.71,842.35,848.05,852.34,856.17,860.52,866.26,869.89,870.44,868.97,866.56,864.33,864.46,866.44,869.96,874.35,878.83,882.37,885.15,887.59,888.36,888.62,888.64,888.53,888.88,890.52,892.21,893.19,892.94,892.57,891.52,890.08,888.90,889.07,891.62,895.45,899.92,903.87,902.38,899.64,897.33,895.87,895.25,896.25,897.92,899.81,902.68,904.37,903.62,900.85,898.24
739.64,740.09,740.62,741.18,741.73,742.29,742.62,742.92,743.30,743.65,743.41,743.13,742.93,742.78,742.69,743.12,743.88,744.77,745.66,746.24,746.36,746.14,745.98,745.76,745.45,745.33,745.66,746.15,746.63,747.04,747.36,747.52,747.56,747.50,747.43,747.36,747.32,747.28,747.23,747.21,747.38,747.51,747.32,746.74,745.91,744.96,744.73,745.10,745.81,746.46,747.15,747.93,748.82,749.70,750.33,750.75,750.97,750.92,750.63,749.98,748.67,746.54,744.43,742.46,741.80,742.55,743.59,742.87,740.34,736.46,732.08,730.50,730.58,732.20,735.28,738.63,740.70,741.96,742.34,741.26,740.06,738.70,737.27,735.87,734.73,734.95,735.65,736.25,736.19,734.96,733.58,732.28,731.05,729.98,730.10,730.99,732.32,733.63,735.06,735.85,735.79,734.89,734.08,733.42,732.77,732.01,731.16,729.86,727.91,725.43,723.02,721.14,720.56,720.87,721.52,722.29,723.11,723.92,724.45,723.93,723.07,722.14,721.21,720.33,720.02,720.41,720.91,720.87,719.90,718.94,718.01,717.09,716.16,715.23,714.33,713.44,712.56,711.93,713.05,714.34,714.90,715.37,716.14,717.04,717.96,718.84,719.85,721.13,722.48,723.50,723.50,723.52,723.60,723.76,724.22,724.87,725.55,726.22,726.89,727.46,727.87,728.16,728.35,728.46,728.75,729.17,729.73,730.54,731.78,733.29,734.87,736.38,737.59,738.69,740.00,741.56,743.07,744.73,746.11,747.21,748.26,749.54,750.89,752.77,755.82,760.61,766.05,770.88,775.13,779.53,782.85,785.20,787.03,788.38,788.34,787.43,788.33,792.01,797.19,802.27,807.10,812.07,817.84,824.19,830.37,835.57,839.90,845.85,850.93,855.30,859.43,863.91,866.93,867.63,866.51,864.05,861.40,861.41,863.82,868.19,873.17,878.06,881.56,883.73,884.91,884.89,884.81,884.85,885.20,886.43,888.52,890.17,890.86,890.58,890.05,888.94,887.47,886.38,887.65,890.70,894.66,898.82,901.47,899.83,897.14,894.66,892.84,892.55,894.15,896.26,898.15,900.70,902.85,903.43,902.46,901.09
738.87,739.30,739.88,740.54,741.18,741.65,741.89,742.19,742.62,742.89,742.63,742.30,742.03,741.92,742.06,742.69,743.54,744.39,745.20,745.50,745.46,745.24,745.07,744.86,744.70,744.79,745.30,745.78,746.23,746.61,746.82,746.78,746.77,746.72,746.65,746.58,746.50,746.48,746.42,746.34,746.52,746.63,746.52,746.10,745.32,744.41,744.17,744.49,745.14,745.83,746.63,747.48,748.35,749.17,749.81,750.18,750.32,750.32,750.27,749.79,748.60,746.58,744.45,742.47,741.28,741.23,742.37,742.31,739.97,735.69,730.67,729.66,729.73,730.86,733.45,737.29,739.89,741.27,741.63,740.95,739.92,738.57,737.08,735.55,734.09,734.00,734.54,735.19,735.31,734.16,732.79,731.47,730.21,729.00,729.07,729.98,731.38,732.77,734.22,735.10,735.13,734.13,733.26,732.61,732.01,731.27,730.34,728.59,726.39,724.02,721.83,720.28,719.77,720.02,720.66,721.45,722.24,723.05,723.68,723.57,722.81,721.88,720.93,720.01,719.72,720.11,720.47,720.16,719.29,718.36,717.43,716.50,715.58,714.65,713.73,712.81,711.97,711.38,712.41,713.60,714.14,714.70,715.60,716.57,717.50,718.44,719.38,720.56,721.75,722.52,722.42,722.43,722.51,722.75,723.39,724.08,724.73,725.38,726.06,726.62,726.99,727.24,727.44,727.68,728.20,728.84,729.56,730.49,731.96,733.51,735.09,736.66,738.01,739.18,740.89,743.08,744.73,746.42,747.92,749.15,750.20,751.91,754.13,756.72,760.07,765.37,770.48,775.00,778.83,781.79,784.37,785.38,785.48,785.41,785.06,785.09,786.96,791.07,796.16,801.17,806.13,811.28,816.86,821.76,827.47,832.93,837.69,843.51,849.20,853.82,857.43,860.62,862.81,863.93,863.58,861.28,858.76,859.36,862.47,867.40,872.45,877.37,880.70,882.14,881.62,880.85,880.57,880.91,882.13,884.43,886.70,887.94,888.12,887.81,886.97,885.77,884.50,883.95,886.61,889.93,893.50,896.54,896.82,895.92,894.28,892.09,889.76,890.09,892.17,894.48,896.18,897.94,899.37,900.46,901.19,901.66
737.96,738.44,739.19,740.01,740.64,740.93,741.15,741.50,741.95,742.13,741.85,741.48,741.18,741.12,741.59,742.36,743.23,744.09,744.72,744.78,744.61,744.38,744.18,743.99,744.06,744.38,744.92,745.44,745.84,746.05,746.08,746.00,745.95,745.91,745.88,745.79,745.71,745.69,745.65,745.59,745.65,745.76,745.75,745.45,744.68,743.82,743.60,743.92,744.60,745.34,746.16,746.91,747.53,748.16,748.75,749.17,749.39,749.38,749.29,748.88,748.03,746.55,744.55,742.59,740.95,740.14,741.04,741.65,739.83,735.67,730.48,729.42,729.36,729.92,731.68,735.58,738.91,740.66,741.03,740.60,739.61,738.27,736.77,735.24,733.76,733.20,733.42,734.09,734.41,733.13,731.58,730.24,729.13,728.05,728.12,729.02,730.48,731.96,733.44,734.42,734.56,733.43,732.49,731.79,731.20,730.46,729.00,726.86,724.48,722.20,720.56,719.61,719.31,719.49,720.03,720.70,721.49,722.26,722.88,723.16,722.53,721.63,720.64,719.59,719.33,719.62,719.84,719.51,718.69,717.77,716.85,715.92,714.99,714.07,713.14,712.29,711.64,711.08,711.85,712.82,713.38,714.04,714.96,715.98,717.02,718.04,719.02,720.13,721.05,721.48,721.37,721.34,721.52,721.92,722.56,723.25,723.89,724.53,725.21,725.77,726.07,726.36,726.84,727.54,728.26,728.94,729.69,730.79,732.24,733.77,735.34,736.94,738.42,739.88,741.91,744.50,746.61,748.43,750.42,752.47,754.28,756.35,758.90,762.33,766.75,771.09,775.16,778.27,780.30,781.55,782.54,782.67,782.26,781.71,781.57,782.86,785.90,790.55,795.51,800.54,805.39,810.11,814.73,818.67,824.16,830.23,836.09,841.80,846.53,850.68,854.36,857.20,858.99,859.81,859.43,857.69,856.50,858.86,862.94,867.65,872.12,875.97,878.47,879.30,878.07,876.94,876.69,877.81,880.44,883.00,884.21,884.44,884.11,883.68,882.82,881.85,881.33,882.17,885.43,888.81,891.25,892.09,890.94,891.06,890.92,889.68,887.27,888.30,890.47,892.10,892.51,893.10,893.63,894.52,895.68,896.60
737.09,737.66,738.48,739.28,739.80,740.07,740.39,740.83,741.29,741.40,741.11,740.69,740.39,740.53,741.21,742.05,742.91,743.69,744.09,744.00,743.77,743.56,743.35,743.31,743.58,744.05,744.56,745.05,745.31,745.38,745.31,745.25,745.18,745.14,745.10,745.02,744.96,744.93,744.88,744.82,744.79,744.91,744.98,744.81,744.09,743.28,743.04,743.35,744.05,744.67,745.30,745.88,746.38,746.89,747.43,747.84,748.05,747.96,747.80,747.47,746.91,745.96,744.49,742.73,740.90,739.55,739.83,740.93,739.63,735.73,730.47,729.29,729.06,729.29,730.48,733.73,737.15,739.29,740.14,740.07,739.29,738.01,736.50,734.93,733.38,732.42,732.31,732.92,733.39,732.21,730.65,729.24,728.20,727.21,727.25,728.13,729.61,731.15,732.63,733.74,734.02,732.78,731.75,730.93,730.23,729.34,727.50,725.15,722.77,720.74,719.66,719.09,718.86,718.97,719.47,720.05,720.76,721.47,722.13,722.68,722.17,721.32,720.28,718.98,718.68,718.84,718.98,718.77,718.07,717.19,716.26,715.34,714.41,713.48,712.63,711.91,711.37,710.85,711.32,712.04,712.62,713.34,714.31,715.36,716.44,717.49,718.53,719.56,720.30,720.48,720.38,720.35,720.60,721.13,721.75,722.41,723.07,723.71,724.37,724.95,725.40,725.92,726.67,727.65,728.51,729.25,730.05,731.28,732.73,734.22,735.75,737.31,738.84,740.72,743.13,745.96,748.60,751.04,753.67,756.25,758.40,761.20,764.11,767.47,771.15,773.48,775.90,777.56,778.18,777.87,777.60,777.49,777.50,777.75,778.79,781.32,785.20,790.13,795.03,799.95,804.57,808.85,812.69,815.86,820.61,826.55,832.93,838.27,842.45,846.73,851.04,853.95,854.96,854.44,853.56,853.54,854.99,858.91,863.39,867.53,871.24,874.20,875.93,876.18,874.60,873.27,873.42,875.34,878.75,881.14,881.32,880.65,879.81,879.15,878.52,878.15,878.67,880.79,883.76,885.69,886.35,885.71,884.43,885.28,886.32,886.24,884.38,885.42,887.46,888.64,888.13,887.71,887.63,888.36,889.85,891.63
736.24,736.94,737.70,738.33,738.72,739.10,739.63,740.19,740.62,740.67,740.36,739.91,739.70,740.18,740.90,741.76,742.58,743.16,743.31,743.15,742.96,742.78,742.62,742.83,743.26,743.77,744.22,744.61,744.67,744.61,744.55,744.53,744.47,744.39,744.32,744.25,744.23,744.18,744.11,744.04,743.97,744.07,744.21,744.17,743.56,742.81,742.53,742.79,743.46,743.78,744.05,744.43,744.93,745.41,745.93,746.26,746.31,746.10,745.88,745.63,745.28,744.75,744.12,742.76,741.06,739.44,738.76,740.03,739.20,735.67,730.47,729.21,728.79,728.92,729.85,731.85,734.66,737.14,738.82,739.28,738.94,737.79,736.27,734.62,732.90,731.63,731.26,731.71,732.24,731.46,730.06,728.60,727.46,726.47,726.46,727.28,728.76,730.30,731.79,733.03,733.46,732.15,730.99,729.99,729.04,727.89,725.92,723.59,721.42,719.80,719.20,718.71,718.38,718.39,718.92,719.47,720.03,720.67,721.43,722.11,721.72,720.96,719.88,718.27,717.84,717.82,717.91,717.91,717.43,716.60,715.68,714.75,713.83,712.92,712.22,711.65,711.12,710.64,710.81,711.27,711.85,712.62,713.63,714.71,715.78,716.80,717.86,718.83,719.45,719.54,719.49,719.47,719.77,720.40,721.01,721.64,722.30,722.97,723.61,724.25,725.05,725.94,726.91,727.90,728.84,729.68,730.59,731.91,733.42,734.87,736.30,737.77,739.26,741.69,744.53,747.54,750.71,754.17,757.41,760.07,762.09,765.82,768.97,771.15,772.17,771.90,772.37,772.88,772.76,771.33,770.41,770.63,771.79,773.88,776.91,780.52,784.81,789.74,794.65,799.32,803.62,807.51,810.81,813.30,816.77,821.78,828.02,832.85,837.19,842.30,847.57,850.46,850.20,847.68,846.22,849.02,854.07,859.09,863.32,866.64,869.50,871.94,873.11,872.86,871.23,869.93,870.87,873.50,876.89,878.79,878.16,876.75,875.38,874.43,874.26,874.87,876.56,879.46,881.24,880.48,878.99,877.84,877.57,878.81,880.53,881.60,880.85,881.19,882.85,883.93,883.19,882.16,881.92,882.68,884.55,887.76
735.37,736.08,736.68,737.27,737.93,738.48,739.04,739.57,739.94,739.82,739.33,739.05,739.23,740.02,740.71,741.46,742.12,742.49,742.49,742.35,742.16,742.00,742.04,742.43,742.93,743.45,743.87,744.05,744.02,743.94,743.88,743.82,743.75,743.68,743.60,743.52,743.47,743.44,743.39,743.31,743.24,743.30,743.41,743.40,743.00,742.34,742.04,742.22,742.77,742.91,742.93,743.08,743.47,743.97,744.47,744.63,744.51,744.28,744.04,743.81,743.51,743.09,742.66,741.87,740.81,739.41,737.71,738.38,737.90,735.18,730.59,729.28,728.58,728.45,729.12,730.47,732.65,734.92,736.79,737.69,738.22,737.40,735.87,734.14,732.39,730.98,730.34,730.52,731.02,730.74,729.69,728.28,726.95,725.67,725.63,726.48,727.91,729.41,730.96,732.25,732.68,731.25,730.01,728.79,727.61,726.31,724.35,722.46,720.82,719.61,719.03,718.43,717.93,717.80,718.29,718.78,719.31,719.93,720.66,721.33,721.19,720.62,719.64,718.13,717.36,716.94,716.79,716.85,716.66,715.97,715.10,714.16,713.26,712.53,711.96,711.45,710.91,710.44,710.35,710.55,711.05,711.93,712.99,714.04,715.08,716.13,717.21,718.03,718.53,718.69,718.76,718.82,719.23,720.00,720.63,721.24,721.90,722.62,723.39,724.24,725.18,726.15,727.11,728.11,729.09,730.06,731.12,732.50,734.11,735.55,736.90,738.30,739.81,742.69,746.02,749.46,753.14,756.92,759.91,762.25,764.59,767.76,769.39,769.30,767.88,767.00,767.34,767.77,767.76,766.99,766.36,767.03,768.93,772.02,776.06,780.07,784.41,789.24,794.11,798.77,802.72,805.89,808.22,809.93,812.24,816.44,822.72,827.83,833.04,838.77,843.58,843.88,841.99,839.61,839.78,845.24,852.25,857.70,861.58,864.10,865.90,868.19,869.20,868.85,867.86,867.63,869.50,872.50,875.46,876.63,875.20,872.98,870.97,869.98,870.43,872.22,874.49,876.20,876.16,874.46,872.41,871.01,871.54,873.12,874.90,876.19,876.14,875.80,876.50,877.40,877.66,877.34,877.74,878.87,881.00,884.94
734.52,735.26,735.87,736.51,737.32,737.97,738.54,739.02,739.26,738.99,738.37,738.24,738.71,739.63,740.25,740.87,741.40,741.71,741.66,741.53,741.35,741.27,741.57,742.09,742.62,743.09,743.39,743.41,743.35,743.27,743.19,743.12,743.04,742.96,742.88,742.81,742.73,742.69,742.66,742.60,742.52,742.54,742.59,742.61,742.40,741.85,741.55,741.63,742.00,742.03,741.93,741.91,742.10,742.52,742.89,742.91,742.66,742.43,742.20,741.98,741.74,741.43,741.15,740.82,740.33,739.28,737.16,736.86,736.34,734.38,730.71,729.38,728.47,728.08,728.48,729.48,731.11,732.95,734.63,735.72,736.93,736.78,735.54,733.62,731.73,730.27,729.47,729.38,729.87,729.90,729.07,727.75,726.34,724.87,724.73,725.49,726.79,728.11,729.97,731.51,732.00,730.51,729.21,727.88,726.57,725.23,723.49,721.98,720.72,719.72,719.07,718.38,717.73,717.37,717.61,718.01,718.55,719.18,719.87,720.54,720.69,720.34,719.51,718.20,717.20,716.49,716.08,715.95,715.80,715.28,714.52,713.63,712.83,712.23,711.73,711.23,710.72,710.25,709.99,710.01,710.40,711.31,712.33,713.36,714.40,715.48,716.54,717.20,717.58,717.79,718.00,718.24,718.79,719.63,720.32,721.00,721.71,722.50,723.40,724.39,725.39,726.32,727.16,728.05,728.96,729.89,730.95,732.38,734.12,735.81,737.36,738.83,740.63,743.89,747.57,751.24,755.11,758.78,761.31,763.13,765.10,766.91,766.80,765.10,762.67,761.83,762.39,763.00,763.22,763.13,763.03,764.38,767.07,770.88,775.28,779.45,783.71,788.21,792.67,797.17,800.63,802.96,804.39,805.84,807.88,811.68,817.53,822.77,828.10,833.76,837.93,836.35,833.20,831.07,832.47,839.42,847.31,853.75,858.05,860.22,861.75,863.66,864.53,864.61,864.98,866.28,868.91,871.95,874.33,874.67,872.66,869.61,866.75,866.02,867.38,870.05,872.35,872.43,870.21,867.80,865.64,864.34,865.39,867.29,869.06,870.35,870.86,870.57,870.80,871.68,873.02,874.04,875.42,877.05,879.60,884.79
733.73,734.60,735.46,736.24,736.89,737.51,738.12,738.52,738.60,738.23,737.60,737.52,738.03,738.85,739.38,739.88,740.40,740.86,740.82,740.67,740.56,740.65,741.21,741.81,742.32,742.67,742.76,742.71,742.63,742.56,742.49,742.40,742.33,742.25,742.18,742.10,742.02,741.95,741.90,741.88,741.81,741.75,741.75,741.80,741.74,741.32,741.05,741.01,741.17,741.14,741.06,740.97,740.92,741.09,741.22,741.10,740.82,740.60,740.37,740.19,740.04,739.94,739.90,739.86,739.64,738.97,737.28,735.83,734.76,733.28,730.80,729.49,728.46,727.86,727.96,728.92,730.12,731.38,732.53,733.47,734.95,735.84,735.34,733.12,730.94,729.52,728.62,728.29,728.79,728.83,728.03,726.78,725.49,724.06,723.70,724.20,725.25,726.24,728.69,730.77,731.49,730.13,728.76,727.46,726.20,724.91,723.64,722.33,721.09,720.05,719.34,718.64,717.87,717.20,716.92,717.13,717.71,718.39,719.08,719.76,720.21,720.10,719.44,718.41,717.41,716.63,715.98,715.39,714.91,714.55,713.98,713.19,712.59,712.04,711.51,711.00,710.52,710.05,709.75,709.70,710.01,710.78,711.69,712.69,713.75,714.82,715.83,716.36,716.61,716.81,717.17,717.73,718.43,719.23,720.05,720.88,721.71,722.59,723.55,724.53,725.52,726.35,726.96,727.62,728.29,728.97,729.83,731.27,733.22,735.46,737.56,739.36,741.77,745.36,749.10,752.61,756.08,759.24,761.30,762.44,763.00,762.86,761.29,759.29,757.73,757.27,758.05,758.85,759.28,759.42,760.00,762.27,765.84,770.12,774.29,778.44,782.51,786.36,789.81,793.83,796.66,798.20,799.11,801.11,804.14,808.07,812.83,817.65,821.82,826.43,830.04,828.38,824.79,822.57,823.99,830.68,838.29,846.60,852.42,855.03,857.44,858.63,859.39,860.54,862.98,866.06,869.09,871.75,873.46,872.89,870.54,866.69,862.87,862.72,865.26,868.33,870.01,868.40,863.84,860.59,858.53,857.71,858.92,861.09,862.90,864.18,865.19,866.00,866.74,867.96,870.12,872.89,875.43,877.62,880.85,888.11
733.40,734.34,735.17,735.88,736.50,737.11,737.63,737.92,737.89,737.46,736.89,736.86,737.36,738.08,738.58,739.14,739.70,740.10,739.94,739.71,739.83,740.31,740.88,741.50,741.90,742.10,742.12,742.05,741.98,741.90,741.82,741.75,741.67,741.59,741.51,741.43,741.36,741.28,741.22,741.17,741.09,741.02,741.00,741.01,740.94,740.62,740.33,740.20,740.30,740.32,740.27,740.17,740.07,740.01,739.91,739.74,739.54,739.39,739.21,739.08,738.98,738.95,739.14,739.23,739.13,738.60,737.04,735.40,734.08,732.72,730.95,729.59,728.45,727.60,727.36,728.24,729.18,730.00,730.69,731.42,733.13,734.85,735.11,733.07,730.75,729.15,727.92,727.12,727.29,727.26,726.50,725.31,724.10,722.86,722.33,722.51,723.29,724.38,727.09,729.57,730.83,730.06,728.77,727.49,726.28,725.14,723.98,722.74,721.57,720.54,719.68,718.91,718.11,717.29,716.60,716.36,716.78,717.45,718.15,718.83,719.30,719.42,719.15,718.51,717.63,716.81,716.06,715.37,714.74,714.21,713.61,712.93,712.38,711.84,711.33,710.83,710.31,709.73,709.39,709.42,709.86,710.57,711.35,712.21,713.13,714.11,714.97,715.49,715.87,716.31,716.82,717.50,718.26,719.03,719.86,720.84,721.81,722.68,723.37,724.04,724.81,725.56,726.19,726.81,727.53,728.30,729.20,730.53,732.78,735.23,737.59,739.88,742.95,746.56,749.87,752.48,754.42,756.89,758.78,759.72,759.56,759.13,757.62,755.79,754.32,753.53,754.03,755.00,755.97,756.75,758.61,761.46,764.93,768.82,772.82,776.88,780.52,783.26,784.81,787.74,790.58,792.95,795.17,798.31,802.36,806.76,810.97,814.20,817.00,819.77,821.82,821.17,819.09,818.50,819.99,824.07,830.94,839.26,846.39,851.13,853.90,855.95,857.95,860.19,862.91,866.34,869.22,871.29,872.05,870.45,866.73,862.58,859.54,859.93,862.63,865.70,866.81,863.71,858.63,855.29,853.26,852.51,853.59,855.59,857.44,859.01,860.62,862.50,865.36,868.37,871.04,874.18,876.93,879.54,883.33,890.83
733.19,734.10,734.84,735.47,736.10,736.72,737.12,737.28,737.19,736.72,736.21,736.20,736.65,737.30,737.82,738.45,739.06,739.39,739.11,738.74,739.03,739.89,740.52,741.10,741.39,741.48,741.45,741.38,741.31,741.23,741.15,741.08,741.00,740.92,740.84,740.77,740.69,740.62,740.55,740.48,740.40,740.32,740.28,740.25,740.13,739.86,739.54,739.35,739.45,739.56,739.53,739.45,739.34,739.08,738.80,738.60,738.48,738.38,738.24,738.13,738.06,738.07,738.41,738.62,738.64,738.23,736.73,735.18,733.78,732.45,731.07,729.70,728.45,727.37,726.80,727.52,728.26,728.81,729.22,729.83,731.63,733.84,734.68,733.03,730.73,729.01,727.53,726.34,725.98,725.66,724.87,723.78,722.70,721.65,721.05,720.96,721.43,722.44,725.06,727.77,729.68,729.85,728.86,727.67,726.55,725.52,724.37,723.19,722.09,721.07,720.08,719.24,718.40,717.49,716.51,715.82,715.89,716.39,717.06,717.71,718.15,718.41,718.48,718.22,717.66,716.94,716.19,715.49,714.78,714.06,713.40,712.80,712.24,711.68,711.17,710.67,710.13,709.44,709.08,709.21,709.82,710.51,711.21,711.95,712.73,713.57,714.28,714.84,715.38,716.00,716.63,717.38,718.15,718.91,719.70,720.72,721.62,722.31,722.77,723.23,723.86,724.58,725.32,726.04,726.88,727.80,728.77,730.00,732.38,734.97,737.51,740.19,743.52,746.73,749.31,750.86,751.28,752.90,754.55,755.55,755.50,755.44,754.38,752.82,751.33,750.48,750.76,751.80,753.25,754.87,757.89,761.10,764.26,767.47,770.90,774.21,776.93,778.73,779.54,781.87,784.87,788.23,792.03,796.10,800.71,805.20,808.82,810.79,812.54,813.92,814.82,815.23,814.97,815.98,817.61,819.62,825.59,833.57,841.42,847.74,851.14,854.28,857.63,860.88,863.50,866.67,869.01,870.36,870.24,867.71,863.12,858.84,856.43,857.45,859.92,862.84,863.74,860.07,854.31,850.50,848.16,847.23,848.31,850.45,852.79,855.15,857.75,860.91,865.70,870.26,873.36,876.69,880.12,883.23,886.99,893.75
733.01,733.67,734.35,735.03,735.71,736.33,736.57,736.63,736.53,736.02,735.54,735.52,735.91,736.48,737.07,737.74,738.37,738.72,738.34,737.80,738.10,739.17,740.06,740.56,740.77,740.82,740.75,740.67,740.60,740.52,740.44,740.37,740.29,740.21,740.13,740.06,739.97,739.95,739.91,739.83,739.75,739.67,739.61,739.52,739.37,739.08,738.73,738.53,738.68,738.89,738.88,738.80,738.66,738.31,737.89,737.66,737.55,737.42,737.32,737.20,737.10,737.16,737.51,737.87,738.09,737.85,736.48,735.11,733.78,732.47,731.14,729.81,728.47,727.22,726.43,726.80,727.35,727.87,728.36,729.08,730.73,732.84,733.88,732.77,730.75,729.12,727.71,726.42,725.30,724.27,723.34,722.44,721.54,720.65,720.12,719.93,720.03,720.37,722.37,725.02,727.60,729.15,728.86,727.96,726.93,725.90,724.76,723.70,722.64,721.59,720.60,719.67,718.76,717.79,716.73,715.73,715.13,715.15,715.75,716.30,716.73,716.99,717.13,717.21,717.28,716.92,716.31,715.61,714.86,714.09,713.40,712.79,712.18,711.57,711.01,710.50,709.98,709.25,708.92,709.14,709.87,710.57,711.32,712.05,712.75,713.41,714.04,714.64,715.25,715.88,716.56,717.31,718.08,718.84,719.55,720.36,720.78,721.02,721.51,722.14,722.83,723.63,724.59,725.54,726.51,727.50,728.51,729.72,731.89,734.53,737.31,740.04,742.79,744.95,746.42,747.01,746.52,747.06,748.16,749.51,750.85,751.63,751.07,749.75,748.42,748.41,748.82,749.79,751.46,754.06,757.63,760.97,763.86,766.26,768.33,769.58,770.60,772.03,774.88,777.88,781.05,784.82,789.70,793.98,798.16,801.85,804.61,806.59,808.10,809.36,810.47,811.47,812.64,814.36,816.24,818.48,823.52,831.32,838.84,844.77,849.57,853.48,857.69,861.77,864.45,866.83,868.10,868.54,867.86,864.70,860.75,856.45,853.47,855.24,857.29,859.89,861.31,858.75,851.10,845.78,842.47,841.09,842.59,845.75,849.49,853.49,857.81,862.67,868.19,873.05,876.55,880.48,885.91,889.77,892.43,897.42
732.61,733.22,733.89,734.58,735.25,735.77,735.92,735.94,735.83,735.36,734.92,734.87,735.20,735.79,736.40,737.08,737.69,738.01,737.57,736.92,737.14,738.19,739.07,739.61,739.98,740.16,740.09,740.01,739.96,739.90,739.83,739.75,739.67,739.59,739.51,739.44,739.37,739.34,739.31,739.23,739.11,739.03,738.95,738.85,738.68,738.33,737.94,737.75,737.97,738.26,738.28,738.17,737.96,737.54,737.09,736.77,736.60,736.49,736.37,736.23,736.16,736.30,736.65,737.01,737.36,737.40,736.36,735.10,733.78,732.47,731.15,729.80,728.57,727.38,726.41,726.12,726.46,727.05,727.79,728.80,730.36,732.25,733.34,732.70,730.91,729.34,727.95,726.63,725.33,724.08,722.91,721.82,720.85,720.05,719.50,719.22,719.23,719.47,720.60,722.71,725.29,727.35,728.16,727.88,727.08,726.05,724.94,723.91,722.93,721.97,721.04,720.05,719.04,718.03,716.98,715.94,715.09,714.60,714.57,714.96,715.35,715.61,715.76,715.92,716.15,716.13,715.94,715.61,714.91,714.15,713.45,712.83,712.21,711.56,710.95,710.37,709.75,708.89,708.70,709.11,709.93,710.64,711.30,711.95,712.60,713.22,713.84,714.46,715.07,715.70,716.43,717.19,717.91,718.55,719.13,719.70,719.96,720.11,720.59,721.35,722.25,723.26,724.37,725.41,726.37,727.31,728.30,729.43,731.32,733.89,736.58,738.90,740.89,742.29,743.05,743.08,742.51,742.48,742.95,743.93,745.54,747.11,747.23,746.66,746.27,747.03,747.88,748.92,750.26,752.25,755.92,759.57,762.52,764.40,765.70,766.35,767.29,769.08,771.98,774.92,777.73,780.60,783.69,786.15,790.16,794.79,798.93,801.60,803.34,804.75,806.17,808.04,810.94,813.94,816.57,819.08,823.65,830.67,837.55,843.21,848.31,853.43,858.27,862.19,864.14,865.03,865.16,864.91,864.01,861.10,856.95,852.68,849.89,851.31,853.22,854.75,854.95,852.26,845.28,840.01,837.00,836.66,839.63,844.14,849.19,854.40,859.76,865.74,871.16,875.75,879.81,885.17,890.21,894.42,898.00,901.53
732.15,732.80,733.47,734.15,734.78,735.14,735.22,735.23,735.14,734.70,734.29,734.21,734.50,735.12,735.74,736.41,737.01,737.29,736.78,736.05,736.17,737.09,737.90,738.52,739.08,739.44,739.44,739.38,739.36,739.32,739.25,739.16,739.09,739.01,738.93,738.86,738.78,738.75,738.71,738.62,738.49,738.39,738.32,738.21,738.00,737.59,737.17,736.99,737.25,737.63,737.67,737.53,737.22,736.77,736.31,735.92,735.65,735.55,735.41,735.26,735.24,735.43,735.80,736.14,736.59,736.89,736.26,735.11,733.81,732.50,731.19,729.87,728.78,727.69,726.56,725.65,725.71,726.33,727.29,728.55,730.09,731.76,732.85,732.63,731.07,729.60,728.24,726.93,725.62,724.29,722.92,721.59,720.45,719.66,719.06,718.69,718.63,718.93,719.39,720.81,723.01,725.22,727.00,727.49,727.07,726.10,725.03,723.98,723.00,722.10,721.24,720.26,719.26,718.27,717.26,716.26,715.31,714.41,713.74,713.81,714.04,714.26,714.42,714.60,714.82,715.06,715.28,715.34,714.86,714.18,713.51,712.89,712.27,711.59,710.95,710.30,709.51,708.48,708.49,709.14,710.01,710.69,711.25,711.83,712.43,713.04,713.64,714.25,714.88,715.54,716.25,716.97,717.59,718.10,718.55,718.95,719.22,719.46,719.95,720.81,721.90,723.10,724.31,725.40,726.31,727.19,728.12,729.16,730.75,733.13,735.60,737.42,738.71,739.60,739.93,739.69,739.32,739.00,738.99,739.53,741.01,743.03,743.82,744.14,744.79,746.12,747.36,748.42,749.29,750.32,753.66,757.55,760.69,762.19,763.03,763.67,765.00,767.24,769.72,772.21,774.35,776.00,777.02,777.88,781.65,787.15,792.82,796.38,798.63,800.56,802.74,805.82,810.30,814.45,817.82,820.67,824.90,830.93,837.05,842.54,847.69,853.77,858.86,862.18,863.05,862.38,861.49,860.69,859.68,857.17,852.66,848.46,846.02,846.73,848.20,848.48,847.23,844.13,838.62,834.46,832.75,834.13,838.58,844.29,850.26,856.19,862.10,868.64,873.92,878.41,883.02,889.22,893.14,897.13,901.45,903.95
731.77,732.45,733.14,733.80,734.30,734.48,734.51,734.54,734.49,734.05,733.60,733.50,733.79,734.41,735.02,735.70,736.29,736.55,735.90,735.14,735.13,735.84,736.62,737.36,738.01,738.53,738.82,738.79,738.77,738.74,738.66,738.59,738.50,738.42,738.35,738.28,738.19,738.13,738.06,737.98,737.89,737.81,737.74,737.59,737.25,736.86,736.43,736.23,736.53,736.91,737.00,736.83,736.45,735.99,735.53,735.08,734.73,734.59,734.44,734.32,734.33,734.52,734.89,735.31,735.87,736.33,736.08,735.16,733.94,732.63,731.36,730.31,729.26,728.12,726.92,725.85,725.35,725.74,726.75,727.94,729.63,731.21,732.26,732.33,731.08,729.86,728.63,727.32,726.00,724.63,723.25,721.85,720.52,719.57,718.90,718.36,718.07,718.41,718.95,719.75,721.01,723.07,725.14,726.48,726.84,726.08,725.03,723.86,722.68,721.59,720.75,720.02,719.35,718.59,717.59,716.58,715.63,714.71,713.85,713.23,712.91,712.92,713.14,713.35,713.58,713.86,714.15,714.39,714.46,714.12,713.55,712.90,712.33,711.66,711.05,710.37,709.37,708.04,708.37,709.33,710.18,710.72,711.25,711.80,712.36,712.91,713.47,714.07,714.73,715.43,715.98,716.45,716.92,717.38,717.78,718.17,718.67,719.25,719.86,720.69,721.81,723.03,724.25,725.39,726.31,727.16,728.03,728.95,730.22,732.22,734.32,735.84,736.79,737.63,738.05,738.00,737.90,737.68,737.75,738.26,739.42,740.97,742.24,743.39,744.61,745.98,747.15,747.97,748.48,748.96,751.05,754.82,758.27,759.55,760.27,761.34,762.99,765.25,767.75,769.33,770.31,771.00,771.76,773.56,776.71,781.21,786.73,791.19,794.37,797.72,801.85,806.95,812.28,816.65,820.26,823.63,827.50,832.42,837.76,843.22,848.75,854.64,859.03,861.25,860.72,858.99,857.51,856.38,855.19,852.84,848.26,844.16,841.84,841.81,841.68,840.87,839.07,835.90,831.78,830.53,832.00,835.80,840.68,846.86,852.74,858.21,863.88,869.87,875.65,881.08,886.05,890.50,893.27,895.76,898.41,900.85
731.43,732.16,732.87,733.42,733.68,733.78,733.79,733.85,733.83,733.36,732.89,732.81,733.10,733.66,734.30,734.96,735.55,735.81,735.02,734.23,734.11,734.65,735.42,736.23,736.89,737.45,737.89,738.10,738.17,738.15,738.08,738.00,737.92,737.84,737.76,737.69,737.61,737.53,737.46,737.38,737.30,737.23,737.13,736.94,736.53,736.11,735.66,735.46,735.78,736.19,736.29,736.09,735.63,735.17,734.74,734.29,733.88,733.64,733.49,733.38,733.40,733.65,734.03,734.56,735.20,735.76,735.81,735.03,733.94,732.76,731.61,730.60,729.48,728.25,726.92,725.67,724.67,724.73,725.74,727.29,729.16,730.63,731.63,731.96,731.06,730.07,728.92,727.62,726.34,724.96,723.57,722.16,720.75,719.67,718.89,718.20,717.69,717.84,718.40,719.09,720.06,721.76,723.52,724.99,725.92,725.99,724.99,723.81,722.58,721.35,720.28,719.61,719.07,718.49,717.71,716.83,715.91,715.00,714.11,713.24,712.58,712.16,712.01,712.17,712.40,712.66,712.94,713.24,713.51,713.52,713.19,712.57,711.99,711.34,710.82,710.17,709.04,707.70,708.33,709.52,710.33,710.86,711.36,711.87,712.38,712.91,713.42,713.98,714.58,715.19,715.70,716.14,716.60,717.10,717.60,718.11,718.76,719.48,720.19,721.06,722.12,723.24,724.36,725.37,726.23,727.06,727.90,728.74,729.73,731.22,732.81,734.02,734.85,735.68,736.21,736.34,736.34,736.66,737.24,738.04,739.12,740.41,741.78,743.18,744.56,745.70,746.44,746.92,747.35,748.13,750.01,753.30,756.25,757.33,758.31,759.68,761.52,763.72,765.72,766.89,767.66,768.26,768.94,770.75,774.18,779.07,785.15,790.94,795.87,800.36,804.75,809.53,814.88,819.63,823.67,827.17,830.95,835.02,839.56,844.62,849.91,854.60,857.52,858.26,856.38,854.16,852.47,851.04,849.15,845.30,841.14,838.27,837.06,837.06,836.72,835.72,833.63,830.50,829.52,830.74,833.51,837.57,842.39,848.11,853.63,858.88,864.29,870.03,876.17,881.72,885.91,889.24,891.97,894.82,897.79,900.36
731.12,731.88,732.56,732.97,732.99,733.05,733.08,733.15,733.16,732.66,732.19,732.13,732.41,732.90,733.56,734.21,734.81,735.07,734.18,733.33,733.10,733.50,734.29,735.12,735.76,736.29,736.82,737.28,737.49,737.54,737.48,737.39,737.31,737.23,737.14,737.07,736.99,736.90,736.82,736.74,736.65,736.58,736.47,736.26,735.79,735.33,734.87,734.68,735.02,735.46,735.62,735.39,734.84,734.35,733.93,733.50,733.06,732.70,732.57,732.44,732.48,732.80,733.23,733.85,734.54,735.16,735.47,734.80,733.84,732.84,731.83,730.74,729.42,728.00,726.56,725.19,723.83,723.55,724.47,726.42,728.45,729.96,731.00,731.48,730.97,730.18,729.10,727.79,726.52,725.11,723.69,722.28,720.95,719.80,718.91,718.09,717.38,717.25,717.81,718.61,719.58,720.88,722.20,723.50,724.79,725.71,724.87,723.74,722.52,721.22,719.93,719.15,718.58,718.08,717.58,716.89,716.10,715.27,714.41,713.50,712.64,711.81,711.19,711.16,711.25,711.46,711.75,712.07,712.40,712.74,712.65,712.08,711.45,710.75,710.26,709.63,708.48,707.54,708.47,709.77,710.54,711.07,711.54,712.00,712.47,712.98,713.45,713.96,714.48,714.97,715.50,716.00,716.53,717.09,717.70,718.37,719.09,719.84,720.64,721.51,722.47,723.45,724.41,725.26,726.05,726.86,727.68,728.46,729.22,730.21,731.26,732.18,732.96,733.79,734.45,734.85,735.07,736.04,737.20,738.34,739.43,740.55,741.85,743.20,744.42,745.15,745.40,745.63,746.22,747.61,749.68,752.31,754.52,755.54,756.89,758.43,760.28,762.27,763.63,764.64,765.57,766.46,767.35,768.92,773.18,779.08,785.84,793.01,799.87,805.21,809.14,812.91,818.02,823.15,827.39,830.34,834.06,837.63,841.46,845.78,850.38,853.46,854.72,854.01,851.03,848.65,846.31,843.99,841.16,835.89,832.32,830.87,831.03,831.60,831.77,831.03,829.12,826.78,829.20,832.31,835.49,839.02,843.47,848.39,853.54,858.73,863.88,869.58,875.75,880.97,884.34,887.41,890.80,894.65,898.50,901.15
730.85,731.62,732.08,732.27,732.27,732.29,732.34,732.44,732.46,732.01,731.54,731.45,731.68,732.13,732.78,733.51,734.14,734.36,733.46,732.49,732.11,732.41,733.23,734.03,734.62,735.13,735.66,736.18,736.60,736.81,736.82,736.69,736.60,736.49,736.38,736.29,736.21,736.10,735.99,735.90,735.77,735.68,735.62,735.47,734.96,734.49,734.06,733.92,734.29,734.69,735.05,734.92,734.22,733.59,733.11,732.65,732.21,731.85,731.63,731.50,731.56,731.93,732.52,733.20,733.87,734.49,734.95,734.51,733.68,732.74,731.76,730.59,728.71,726.89,725.45,724.11,722.83,722.35,722.93,724.76,726.94,728.99,730.38,730.75,730.62,730.01,728.96,727.60,726.22,724.64,723.06,721.69,720.74,719.76,718.81,717.88,717.06,716.67,717.28,718.21,719.20,720.30,721.53,722.75,723.93,724.82,724.48,723.53,722.39,721.18,719.97,718.73,717.82,717.21,716.81,716.39,716.02,715.49,714.67,713.76,712.89,712.04,711.25,710.64,710.20,710.30,710.67,711.10,711.52,712.09,712.11,711.49,710.78,709.77,708.98,708.24,707.41,707.89,709.18,710.34,710.97,711.40,711.81,712.22,712.63,713.05,713.52,713.99,714.49,715.01,715.55,716.16,716.79,717.39,718.01,718.64,719.29,720.00,720.82,721.58,722.39,723.22,724.04,724.83,725.61,726.39,727.18,727.94,728.62,729.29,729.95,730.58,731.33,732.12,732.96,733.91,735.02,736.36,737.71,738.97,740.03,740.98,742.15,743.19,743.78,743.86,743.98,744.46,745.53,747.43,749.51,751.53,753.29,754.69,756.18,757.64,759.08,760.43,761.43,762.37,763.39,764.70,766.54,768.44,774.14,781.17,788.00,795.99,804.17,809.86,813.25,816.93,822.27,827.49,830.77,831.31,834.57,838.54,842.06,845.00,848.18,849.73,849.78,848.31,845.09,842.88,837.70,832.20,828.40,824.60,821.51,820.40,821.35,823.33,824.45,824.25,823.84,824.89,828.99,832.55,835.78,839.13,842.90,847.22,852.29,857.62,862.58,868.57,873.77,878.23,882.41,887.38,892.21,896.63,900.33,902.60
730.62,731.23,731.50,731.56,731.56,731.56,731.64,731.77,731.79,731.35,730.89,730.75,730.93,731.39,732.08,732.84,733.47,733.64,732.74,731.71,731.17,731.32,732.18,732.91,733.49,733.99,734.49,734.94,735.44,735.89,736.13,735.91,735.73,735.56,735.43,735.35,735.24,735.13,735.02,734.93,734.79,734.79,734.85,734.75,734.13,733.65,733.23,733.11,733.53,733.95,734.38,734.35,733.75,733.06,732.45,731.90,731.40,731.00,730.75,730.64,730.75,731.14,731.78,732.47,733.13,733.75,734.32,734.19,733.50,732.57,731.62,730.53,728.38,726.05,724.11,722.75,721.74,721.28,721.53,722.83,724.83,727.08,728.88,729.73,730.02,729.59,728.60,727.25,725.88,724.22,722.52,721.03,719.99,719.18,718.26,717.32,716.53,716.22,716.88,717.85,718.87,719.91,721.01,722.11,723.19,724.06,724.12,723.29,722.18,721.06,719.91,718.55,717.40,716.49,715.82,715.46,715.24,714.95,714.50,713.94,713.14,712.30,711.40,710.38,709.55,709.39,709.72,710.32,710.83,711.43,711.56,711.11,710.43,709.20,707.98,707.14,707.21,708.60,709.90,710.86,711.46,711.86,712.25,712.63,713.01,713.41,713.84,714.25,714.68,715.15,715.63,716.18,716.78,717.39,717.98,718.59,719.19,719.81,720.54,721.27,722.05,722.84,723.61,724.38,725.16,725.93,726.68,727.35,727.95,728.50,729.04,729.63,730.49,731.43,732.49,733.72,735.15,736.62,738.06,739.36,740.35,741.17,741.96,742.51,742.62,742.46,742.59,743.35,744.81,746.91,748.98,750.78,752.35,753.76,755.15,756.50,757.69,758.69,759.56,760.62,762.07,763.96,766.32,768.47,774.42,781.85,789.38,798.59,806.88,812.57,816.20,820.14,824.86,827.56,828.19,827.88,830.86,834.85,838.30,840.71,842.27,841.62,840.10,837.78,834.05,831.16,826.49,821.60,818.00,815.57,814.00,814.09,816.34,820.76,822.96,823.83,824.74,827.03,830.89,834.28,837.34,840.30,843.44,847.13,851.58,856.36,860.95,867.07,872.15,876.38,880.82,887.80,893.22,897.58,901.03,903.01
730.33,730.71,730.82,730.83,730.84,730.83,730.95,731.10,731.13,730.72,730.25,730.03,730.16,730.67,731.41,732.19,732.81,732.96,732.11,731.07,730.39,730.34,731.14,731.78,732.33,732.83,733.26,733.62,734.17,734.84,735.37,735.16,734.86,734.61,734.42,734.31,734.17,734.06,733.98,733.89,733.76,733.94,734.15,734.08,733.36,732.82,732.39,732.29,732.75,733.21,733.63,733.72,733.34,732.65,731.91,731.24,730.67,730.27,730.03,729.96,730.09,730.48,731.04,731.70,732.37,733.01,733.66,733.85,733.32,732.41,731.49,730.58,728.52,725.74,722.87,721.34,720.68,720.34,720.30,720.93,722.49,724.65,726.80,728.41,729.11,728.96,728.12,726.84,725.56,723.92,722.18,720.52,719.13,718.41,717.54,716.62,715.90,715.80,716.53,717.51,718.54,719.61,720.58,721.56,722.55,723.42,723.75,723.00,721.93,720.86,719.77,718.50,717.22,715.97,714.88,714.35,714.05,713.91,713.92,713.85,713.27,712.46,711.47,710.23,709.09,708.60,708.81,709.61,710.22,710.79,711.04,710.84,710.17,708.75,707.21,706.52,707.71,709.48,710.57,711.33,711.98,712.38,712.76,713.15,713.54,713.92,714.30,714.65,715.00,715.39,715.78,716.18,716.67,717.25,717.79,718.37,718.92,719.46,720.07,720.80,721.61,722.41,723.18,723.93,724.69,725.46,726.19,726.75,727.33,727.89,728.47,729.16,730.17,731.36,732.63,733.96,735.35,736.80,738.21,739.45,740.31,741.01,741.35,741.39,741.20,741.06,741.28,742.26,743.98,746.11,748.14,749.95,751.49,752.72,753.89,755.11,756.23,757.20,758.17,759.46,761.44,763.94,766.55,768.93,774.29,781.57,790.15,800.49,808.17,813.86,818.38,822.59,825.75,824.70,822.10,821.62,824.30,828.10,831.57,833.84,833.96,831.28,828.38,825.36,821.18,817.38,815.08,812.92,810.42,809.61,810.46,812.50,816.25,822.82,825.98,827.99,829.79,831.80,834.32,837.12,839.83,842.32,844.87,847.93,851.49,855.33,859.47,865.47,870.72,875.01,879.53,888.00,893.51,897.65,900.97,902.74
729.80,730.00,730.06,730.08,730.11,730.07,730.22,730.38,730.40,730.15,729.64,729.27,729.30,729.94,730.75,731.54,732.16,732.37,731.85,730.97,730.20,729.83,730.17,730.65,731.11,731.50,731.83,732.34,732.97,733.66,734.32,734.71,734.45,734.00,733.57,733.30,733.13,733.02,732.92,732.81,732.77,733.20,733.55,733.48,732.74,732.09,731.62,731.50,731.92,732.43,732.88,733.11,732.93,732.22,731.49,730.80,730.24,730.01,729.87,729.83,729.90,730.09,730.38,730.99,731.67,732.37,733.13,733.56,733.18,732.35,731.49,730.76,729.71,726.91,722.64,720.46,719.88,719.64,719.48,719.75,720.53,722.36,724.56,726.44,727.41,728.04,727.74,726.56,725.31,723.90,722.38,720.79,719.25,718.29,717.22,716.16,715.36,715.25,716.05,717.10,718.16,719.23,720.22,721.15,722.02,722.80,723.22,722.57,721.60,720.63,719.64,718.42,717.20,715.99,714.75,713.52,712.93,712.72,712.71,712.76,712.79,712.17,711.05,709.87,708.45,707.68,707.76,708.71,709.57,710.23,710.61,710.50,709.48,707.63,706.67,707.07,708.88,710.21,711.07,711.81,712.49,712.89,713.29,713.67,714.04,714.38,714.76,715.13,715.48,715.82,716.20,716.59,717.01,717.46,717.89,718.35,718.79,719.28,719.94,720.65,721.39,722.12,722.83,723.50,724.20,724.95,725.69,726.34,727.05,727.71,728.39,729.15,730.11,731.40,732.79,734.14,735.49,736.93,738.08,738.91,739.50,739.99,740.21,740.17,739.96,739.81,740.11,741.16,742.88,744.93,746.95,748.75,750.28,751.44,752.50,753.65,755.03,756.61,758.06,759.46,761.60,764.37,767.31,770.21,774.49,781.12,790.50,800.40,807.38,813.90,820.17,823.90,823.56,820.27,816.34,814.22,816.01,819.83,823.08,824.66,824.56,822.50,820.09,817.40,813.80,810.46,809.46,808.96,808.40,811.03,815.62,820.38,824.97,829.84,833.08,835.26,836.76,837.74,838.90,840.72,842.88,845.12,847.12,849.59,852.44,855.62,859.39,864.68,868.87,873.02,878.60,886.27,892.05,896.84,900.63,902.29
729.08,729.22,729.24,729.25,729.25,729.17,729.25,729.38,729.43,729.26,728.79,728.45,728.53,729.29,730.15,730.96,731.52,731.66,731.34,730.74,730.08,729.53,729.40,729.55,729.88,730.23,730.56,731.15,731.79,732.47,733.19,733.89,734.01,733.64,733.07,732.62,732.30,732.07,731.88,731.78,731.96,732.52,732.94,732.89,732.12,731.38,730.87,730.74,731.12,731.64,732.04,732.28,732.27,731.81,731.16,730.50,730.00,729.87,729.76,729.75,729.78,729.85,730.01,730.48,731.12,731.87,732.67,733.09,732.90,732.34,731.66,731.03,730.46,727.86,723.15,720.15,719.38,719.04,718.74,718.90,719.38,720.76,722.60,724.41,725.62,726.78,727.07,726.32,725.07,723.79,722.44,720.99,719.47,718.35,717.17,716.01,715.06,714.60,715.36,716.44,717.52,718.61,719.74,720.71,721.52,722.20,722.66,722.23,721.45,720.58,719.64,718.48,717.29,716.07,714.76,713.18,712.16,711.63,711.53,711.75,712.15,711.76,710.67,709.49,707.94,706.78,706.57,707.58,708.57,709.30,709.81,709.73,708.14,706.74,706.92,708.26,709.83,710.77,711.55,712.29,712.98,713.38,713.77,714.15,714.53,714.87,715.22,715.60,715.96,716.28,716.66,717.04,717.43,717.81,718.17,718.53,718.90,719.35,719.95,720.60,721.32,722.02,722.71,723.39,724.08,724.82,725.57,726.27,727.01,727.74,728.47,729.24,730.13,731.46,732.89,734.23,735.38,736.46,737.24,737.79,738.25,738.67,738.85,738.84,738.72,738.65,739.14,740.22,741.78,743.69,745.70,747.47,748.95,750.15,751.30,752.97,754.96,757.03,758.73,760.55,762.94,765.84,769.10,772.77,776.97,783.22,792.25,801.15,807.64,814.47,821.11,823.54,821.14,816.35,811.48,808.78,809.74,812.50,814.76,815.73,815.77,814.58,812.71,810.27,807.29,805.27,805.87,807.09,808.26,812.41,818.14,824.50,830.62,835.13,838.40,840.83,842.53,843.41,843.92,844.93,846.47,848.46,850.55,852.86,854.98,857.14,860.20,864.75,868.21,871.95,877.47,884.39,890.75,896.28,900.46,902.11
728.26,728.37,728.39,728.36,728.28,728.14,728.11,728.18,728.26,728.11,727.77,727.63,727.90,728.74,729.64,730.43,730.90,730.86,730.54,730.31,729.90,729.31,728.77,728.53,728.71,729.10,729.51,730.11,730.68,731.33,732.07,732.76,733.42,733.39,732.83,732.25,731.73,731.26,730.91,730.85,731.31,731.91,732.32,732.30,731.52,730.77,730.24,730.08,730.40,730.87,731.12,731.28,731.40,731.39,730.86,730.28,729.88,729.78,729.65,729.66,729.71,729.74,729.88,730.16,730.71,731.49,732.25,732.48,732.47,732.29,731.86,731.30,730.71,728.54,724.37,720.35,719.15,718.56,718.09,718.27,718.86,719.78,721.01,722.54,723.90,725.31,726.16,726.09,724.83,723.57,722.32,721.02,719.64,718.47,717.26,716.07,714.93,713.95,714.53,715.58,716.66,717.79,719.11,720.19,721.02,721.61,722.05,721.89,721.40,720.69,719.77,718.65,717.44,716.18,714.83,713.25,711.75,710.73,710.47,710.94,711.47,711.28,710.37,709.10,707.54,705.99,705.34,706.22,707.18,707.93,708.54,708.46,706.51,706.38,707.91,709.75,710.49,711.19,711.99,712.78,713.44,713.84,714.21,714.59,714.96,715.33,715.65,716.01,716.37,716.71,717.09,717.47,717.85,718.22,718.54,718.86,719.21,719.60,720.05,720.66,721.38,722.12,722.82,723.57,724.27,725.01,725.76,726.46,727.16,727.90,728.64,729.37,730.23,731.54,732.92,734.12,734.94,735.42,735.83,736.25,736.70,737.15,737.35,737.43,737.52,737.64,738.44,739.54,740.86,742.59,744.54,746.24,747.68,749.01,750.42,752.99,755.80,758.24,760.08,762.53,765.26,768.28,771.94,776.51,781.54,787.79,795.63,803.19,809.29,815.69,821.30,821.77,818.65,812.91,807.44,805.04,805.24,806.13,806.96,807.54,807.84,807.39,805.96,803.82,801.65,801.55,803.94,806.92,809.64,813.62,818.21,824.77,832.47,838.00,841.48,844.39,846.90,848.57,849.10,849.58,850.62,852.52,855.28,857.78,859.25,860.35,862.60,866.52,869.64,872.78,877.18,883.45,890.32,896.30,900.52,902.17
727.47,727.55,727.49,727.38,727.26,727.15,727.05,727.05,727.10,726.95,726.77,726.98,727.59,728.43,729.21,729.88,730.25,730.14,729.59,729.46,729.24,728.76,728.13,727.79,727.93,728.35,728.86,729.41,729.99,730.63,731.28,731.88,732.54,732.82,732.65,732.08,731.49,730.92,730.39,730.14,730.75,731.38,731.75,731.74,731.23,730.63,730.13,729.87,729.99,730.18,730.26,730.34,730.47,730.65,730.34,729.98,729.73,729.62,729.55,729.59,729.66,729.71,729.82,729.96,730.40,731.11,731.72,731.88,731.89,731.77,731.53,731.22,730.79,729.56,726.60,720.94,719.19,718.42,717.76,717.71,718.24,719.08,720.14,721.44,722.73,724.08,725.29,725.82,724.56,723.32,722.08,720.81,719.50,718.32,717.14,715.97,714.80,713.72,713.79,714.56,715.69,716.98,718.31,719.51,720.43,720.95,721.23,721.20,721.03,720.68,719.93,718.80,717.58,716.30,714.90,713.31,711.75,710.39,709.66,710.29,710.87,710.78,709.97,708.62,707.12,705.57,704.52,704.53,705.24,705.93,706.32,706.34,706.20,707.80,709.38,710.44,710.97,711.55,712.34,713.18,713.93,714.30,714.59,714.90,715.23,715.51,715.82,716.15,716.53,716.98,717.37,717.72,718.08,718.45,718.76,719.07,719.39,719.77,720.29,720.93,721.64,722.35,723.05,723.77,724.47,725.18,725.90,726.65,727.35,728.07,728.77,729.52,730.49,731.73,732.73,733.32,733.72,734.09,734.44,734.78,735.15,735.55,735.80,736.04,736.47,737.30,738.42,739.63,740.92,742.46,743.95,745.56,747.15,748.67,750.43,753.35,756.54,759.52,762.13,764.89,767.88,771.40,776.00,781.24,787.25,794.10,801.48,807.55,812.61,817.44,820.93,819.59,814.92,809.02,803.86,801.08,800.05,800.02,800.44,801.03,801.38,801.13,800.42,799.70,799.88,801.70,804.91,808.99,813.63,818.20,821.99,826.57,832.24,838.00,842.45,846.40,849.96,852.63,853.54,854.22,855.74,858.55,862.36,864.80,866.47,868.16,870.85,874.62,877.37,879.90,883.24,887.74,893.21,897.87,900.95,902.33
726.60,726.63,726.52,726.37,726.23,726.14,726.01,725.94,725.94,725.88,726.01,726.53,727.31,728.09,728.70,729.19,729.39,729.13,728.54,728.55,728.48,728.09,727.48,727.10,727.22,727.67,728.23,728.79,729.40,730.02,730.62,731.13,731.68,732.03,732.05,731.64,731.24,730.72,730.05,729.50,730.14,730.65,730.89,730.89,730.70,730.34,729.97,729.74,729.74,729.69,729.70,729.74,729.83,730.03,729.88,729.71,729.58,729.46,729.46,729.52,729.59,729.64,729.70,729.76,730.09,730.67,731.15,731.28,731.26,731.16,731.02,730.88,730.58,729.76,727.35,721.51,719.34,718.30,717.45,717.06,717.58,718.49,719.57,720.73,721.94,723.19,724.51,725.31,724.27,723.10,721.89,720.66,719.41,718.24,717.06,715.89,714.73,713.62,713.09,713.53,714.69,716.01,717.29,718.39,719.29,719.89,720.13,720.36,720.47,720.36,719.82,718.77,717.61,716.41,715.07,713.56,712.07,710.64,709.56,709.51,709.75,709.77,709.28,707.90,706.47,705.00,703.76,703.15,703.61,704.49,705.01,705.42,707.00,709.17,710.40,710.92,711.39,711.90,712.64,713.38,713.94,714.20,714.46,714.73,715.01,715.26,715.54,715.93,716.44,717.02,717.45,717.82,718.18,718.55,718.87,719.19,719.51,719.88,720.39,721.02,721.69,722.37,723.06,723.73,724.41,725.11,725.84,726.60,727.33,728.05,728.76,729.52,730.41,731.37,731.96,732.15,732.37,732.72,733.05,733.36,733.68,734.04,734.50,735.10,735.95,737.23,738.55,739.84,741.09,742.39,743.67,745.27,746.99,748.69,750.81,753.75,756.93,760.15,763.48,766.65,770.13,774.29,779.63,785.82,792.66,799.83,806.55,810.82,813.61,815.91,817.12,814.88,809.50,803.73,798.93,796.06,795.15,795.83,796.82,797.61,798.12,798.21,798.41,799.24,801.43,804.48,807.63,811.93,817.98,823.64,827.10,830.34,834.28,839.16,843.59,847.96,852.19,855.84,858.15,860.06,862.44,865.65,869.41,871.81,873.72,875.76,878.54,881.97,884.66,887.16,890.09,893.53,897.22,900.02,901.72,902.82
725.64,725.60,725.47,725.32,725.18,725.09,724.96,724.86,724.84,724.97,725.53,726.25,726.99,727.63,728.03,728.31,728.27,727.79,727.40,727.65,727.70,727.34,726.80,726.39,726.51,726.98,727.59,728.19,728.80,729.40,729.98,730.46,730.87,731.02,730.97,730.89,730.89,730.56,729.78,728.89,729.43,729.65,729.71,729.76,729.85,729.76,729.64,729.56,729.54,729.43,729.44,729.49,729.53,729.62,729.55,729.45,729.35,729.29,729.34,729.42,729.46,729.47,729.48,729.49,729.71,730.13,730.56,730.64,730.60,730.52,730.42,730.26,730.03,728.91,726.24,721.97,719.57,718.13,717.09,716.34,716.90,717.98,719.17,720.33,721.50,722.66,723.79,724.52,723.94,722.94,721.80,720.64,719.47,718.31,717.10,715.90,714.74,713.56,712.44,712.54,713.65,714.83,715.98,716.77,717.50,718.35,718.73,719.34,719.72,719.71,719.38,718.48,717.46,716.41,715.21,713.91,712.62,711.39,710.19,708.69,708.13,708.21,708.19,706.90,705.52,704.18,703.00,702.28,702.60,703.97,705.12,706.21,708.77,710.07,710.79,711.31,711.77,712.24,712.89,713.33,713.37,713.47,713.72,713.99,714.24,714.54,714.81,715.38,716.12,716.83,717.30,717.75,718.17,718.54,718.87,719.24,719.57,719.91,720.34,720.87,721.47,722.11,722.78,723.41,724.03,724.73,725.50,726.25,726.99,727.72,728.45,729.19,729.82,730.27,730.53,730.67,730.97,731.35,731.70,732.02,732.35,732.71,733.57,734.72,736.02,737.33,738.70,740.00,741.16,742.22,743.65,745.33,747.09,748.92,751.28,753.96,756.80,759.90,763.72,767.48,771.70,776.53,782.27,789.69,797.06,803.99,809.67,811.84,811.25,810.28,809.36,807.23,802.30,796.99,792.69,790.68,791.63,794.60,797.05,798.16,798.92,799.55,800.75,802.86,806.13,809.47,811.77,815.49,822.21,829.21,832.91,836.03,839.38,842.27,845.37,849.27,853.64,858.12,862.75,866.84,870.35,873.26,875.71,878.08,880.09,881.95,884.14,886.86,889.76,892.78,895.99,899.48,901.44,902.32,902.72,903.54
724.67,724.46,724.30,724.18,724.03,723.95,723.81,723.80,724.03,724.52,725.20,725.85,726.38,726.78,727.07,727.25,727.09,726.56,726.32,726.74,726.87,726.52,726.08,725.68,725.85,726.38,726.98,727.52,728.04,728.55,729.03,729.52,729.78,729.85,729.91,730.19,730.37,730.13,729.40,728.38,728.20,728.36,728.61,728.88,729.09,729.03,728.96,728.95,728.94,728.88,728.85,728.95,729.16,729.27,729.16,728.93,728.75,728.78,728.89,728.94,728.97,728.97,728.97,729.00,729.17,729.48,729.83,729.93,729.90,729.82,729.71,729.44,729.19,728.14,725.75,722.26,719.82,718.19,716.98,716.00,716.41,717.49,718.73,719.88,721.04,722.09,723.03,723.69,723.64,722.86,721.82,720.68,719.53,718.37,717.19,715.99,714.74,713.33,712.01,711.70,712.35,713.47,714.31,714.91,715.54,716.38,717.07,717.86,718.63,719.14,718.83,717.84,716.60,715.36,714.27,713.30,712.43,711.51,710.44,709.05,707.78,707.01,706.51,705.65,704.38,703.21,702.29,701.93,702.89,704.61,706.31,707.90,709.74,710.56,711.13,711.64,712.11,712.57,712.82,712.87,712.76,712.76,712.96,713.24,713.51,713.81,714.36,715.10,715.92,716.67,717.12,717.58,718.03,718.45,718.85,719.25,719.59,719.91,720.32,720.80,721.31,721.86,722.41,722.99,723.59,724.29,725.03,725.64,726.09,726.46,726.93,727.63,728.38,728.74,728.89,729.05,729.52,729.97,730.39,730.81,731.35,732.12,733.21,734.49,735.87,737.24,738.59,739.80,740.90,742.06,743.65,745.34,747.00,748.61,750.37,752.80,755.49,758.53,762.73,766.98,771.60,776.73,782.73,790.47,797.48,803.46,807.72,808.32,806.05,803.64,801.64,799.03,794.82,791.14,789.94,792.72,796.37,800.27,803.10,804.37,804.79,805.45,806.69,808.49,810.82,813.34,815.48,819.32,826.08,832.87,837.39,841.04,844.00,845.38,847.52,850.68,854.60,859.16,864.39,869.47,873.98,877.50,879.61,881.59,883.66,885.59,886.97,888.83,890.92,893.32,896.30,900.02,901.80,902.49,902.69,902.82
723.73,723.31,723.09,722.98,722.84,722.78,722.76,722.95,723.45,724.17,724.79,725.27,725.62,725.84,726.07,726.13,725.88,725.34,725.25,725.78,725.99,725.72,725.34,724.96,725.15,725.68,726.25,726.72,727.17,727.60,728.02,728.52,728.68,728.76,728.99,729.49,729.80,729.64,728.98,727.92,727.12,727.23,727.65,728.07,728.32,728.27,728.23,728.23,728.23,728.21,728.15,728.25,728.54,728.73,728.55,728.26,728.06,728.16,728.29,728.36,728.38,728.38,728.40,728.45,728.60,728.85,729.11,729.21,729.18,729.09,728.94,728.59,728.28,727.34,725.31,722.38,720.06,718.36,716.98,715.79,715.79,716.77,718.07,719.30,720.54,721.48,722.25,722.86,723.18,722.69,721.77,720.71,719.63,718.46,717.21,715.90,714.50,712.90,711.59,711.00,711.16,711.98,712.46,712.96,713.62,714.48,715.36,716.25,717.32,718.25,718.07,716.91,715.43,714.03,712.96,712.22,711.70,711.08,710.20,709.10,707.52,706.14,705.14,704.44,703.35,702.39,701.78,701.89,703.42,705.35,707.36,709.19,710.23,710.79,711.30,711.82,712.26,712.57,712.49,712.28,712.13,712.04,712.22,712.51,712.85,713.26,714.04,714.88,715.73,716.51,716.96,717.41,717.86,718.31,718.77,719.18,719.56,719.91,720.32,720.76,721.26,721.76,722.27,722.83,723.42,724.12,724.87,725.48,725.85,726.13,726.53,727.21,728.05,728.42,728.55,728.68,729.13,729.51,729.87,730.29,730.91,731.97,733.12,734.33,735.64,737.00,738.33,739.48,740.55,741.84,743.47,745.11,746.66,748.07,749.26,751.21,753.63,756.66,760.98,765.52,770.32,775.43,781.21,788.51,794.57,799.10,801.66,801.40,798.87,796.21,793.78,790.85,788.09,787.59,790.39,796.88,802.24,806.52,809.73,811.58,811.85,811.68,812.50,814.13,815.74,817.29,819.58,823.77,830.50,837.71,842.67,846.26,848.50,848.66,849.98,852.50,855.91,860.14,865.25,870.95,876.20,880.10,881.84,883.09,884.50,885.77,886.18,887.13,888.43,890.59,894.07,898.04,900.37,901.49,901.75,901.34
722.87,722.20,721.86,721.75,721.63,721.62,721.91,722.45,723.15,723.82,724.19,724.46,724.69,724.87,725.10,725.02,724.62,724.08,724.17,724.74,725.06,724.94,724.56,724.23,724.38,724.81,725.28,725.75,726.16,726.58,727.04,727.49,727.64,727.87,728.27,728.79,729.18,729.12,728.56,727.53,726.49,726.48,726.87,727.27,727.50,727.52,727.52,727.52,727.50,727.44,727.37,727.38,727.55,727.84,727.62,727.40,727.36,727.50,727.59,727.71,727.79,727.80,727.87,727.89,728.01,728.25,728.46,728.51,728.47,728.35,728.11,727.74,727.37,726.47,724.73,722.32,720.29,718.60,717.08,715.66,714.92,715.68,717.09,718.48,719.93,720.78,721.43,722.03,722.44,722.31,721.60,720.65,719.78,718.58,717.06,715.45,713.86,712.21,711.10,710.48,710.28,710.42,710.50,711.00,711.86,712.89,713.64,714.62,715.78,716.84,717.08,715.67,714.05,712.63,711.43,710.73,710.37,709.95,709.27,708.22,706.95,705.69,704.49,703.40,702.58,701.88,701.57,702.12,703.86,705.79,707.71,709.40,710.19,710.72,711.23,711.74,712.12,712.05,711.85,711.61,711.41,711.28,711.49,711.83,712.30,713.01,713.84,714.69,715.54,716.33,716.81,717.28,717.71,718.12,718.58,719.03,719.49,719.92,720.32,720.78,721.35,721.94,722.55,723.15,723.72,724.42,725.26,726.11,726.88,727.62,728.34,729.02,729.74,730.19,730.38,730.38,730.50,730.63,730.71,730.87,731.36,732.30,733.28,734.28,735.37,736.67,737.98,739.12,740.19,741.50,742.96,744.49,745.99,747.32,748.33,749.45,751.32,754.33,758.44,762.95,767.62,772.31,777.07,782.95,787.43,790.05,790.74,790.58,789.47,787.81,785.69,783.19,783.02,787.68,794.86,801.78,806.91,811.18,815.10,818.20,818.84,816.69,816.77,819.00,821.01,821.84,824.55,829.22,835.99,845.01,849.59,851.96,852.96,852.30,852.91,855.00,858.00,861.57,866.04,872.12,877.61,881.08,881.98,882.06,881.70,881.08,880.37,880.44,881.43,884.43,889.77,893.95,897.38,899.27,899.58,898.99
722.06,721.31,720.76,720.54,720.63,720.90,721.44,722.07,722.63,723.07,723.31,723.52,723.75,723.94,724.17,723.82,723.22,722.82,723.09,723.81,724.22,724.15,723.79,723.50,723.65,724.03,724.41,724.79,725.18,725.60,726.06,726.51,726.72,727.07,727.56,728.09,728.57,728.55,728.05,727.10,726.07,725.88,726.10,726.44,726.66,726.77,726.81,726.79,726.74,726.67,726.62,726.60,726.65,726.87,726.71,726.60,726.65,726.79,726.88,727.01,727.12,727.18,727.29,727.32,727.41,727.59,727.73,727.75,727.73,727.60,727.28,726.89,726.48,725.82,724.64,722.68,720.73,718.99,717.38,715.75,714.38,714.75,716.03,717.44,718.73,719.73,720.56,721.26,721.75,721.68,721.19,720.53,719.75,718.25,716.54,714.83,713.16,711.51,710.60,710.08,709.82,709.78,709.74,710.04,710.63,711.38,711.98,713.00,714.44,715.94,716.58,714.98,713.01,711.30,710.10,709.51,709.21,708.85,708.26,707.46,706.32,705.08,703.87,702.77,702.08,701.43,701.21,701.95,703.75,705.50,707.15,708.68,709.81,710.46,711.01,711.49,711.74,711.50,711.25,711.01,710.79,710.61,710.85,711.36,712.04,712.85,713.70,714.55,715.39,716.14,716.63,717.09,717.54,717.98,718.44,718.90,719.41,719.97,720.52,721.11,721.75,722.40,723.07,723.73,724.29,724.93,725.65,726.37,727.09,727.79,728.45,729.06,729.67,730.27,730.88,731.50,732.07,732.30,732.22,732.16,732.62,733.50,734.33,735.12,736.01,737.13,738.22,739.22,740.20,741.24,742.46,743.88,745.26,746.42,747.41,748.41,749.79,752.05,755.86,759.87,763.99,767.82,770.89,774.60,777.75,779.98,781.06,781.14,780.52,779.29,778.30,779.68,783.53,790.76,799.00,805.74,811.17,815.55,819.15,821.66,822.21,820.80,821.16,823.27,825.60,827.74,831.29,835.87,841.46,848.70,853.02,855.63,856.96,856.67,857.04,858.56,861.05,864.49,868.69,874.17,878.08,879.10,878.38,877.37,876.06,874.74,874.08,874.26,876.36,880.45,886.25,891.25,894.21,895.39,895.21,894.43
721.20,720.51,719.82,719.51,719.81,720.37,721.02,721.59,721.96,722.18,722.36,722.57,722.80,723.01,723.23,722.60,721.83,721.58,722.06,722.91,723.40,723.38,723.01,722.78,722.95,723.29,723.61,723.91,724.27,724.68,725.12,725.55,725.87,726.30,726.85,727.39,727.93,727.96,727.51,726.63,725.68,725.29,725.32,725.60,725.83,726.01,726.04,725.98,725.91,725.85,725.84,725.81,725.78,725.88,725.82,725.82,725.93,726.08,726.17,726.30,726.42,726.51,726.65,726.70,726.79,726.92,726.98,726.99,726.96,726.80,726.40,726.00,725.55,725.11,724.45,722.95,721.10,719.37,717.71,715.89,714.08,713.96,714.91,716.28,717.46,718.66,719.75,720.60,721.07,720.96,720.66,720.27,719.59,717.82,715.99,714.21,712.49,710.86,710.13,709.74,709.50,709.41,709.34,709.47,709.76,710.16,710.58,711.61,713.29,715.22,716.14,714.37,712.07,710.14,708.99,708.42,708.13,707.76,707.22,706.63,705.62,704.43,703.24,702.23,701.62,701.00,700.80,701.61,703.36,704.93,706.38,707.82,709.31,710.17,710.78,711.21,711.30,710.98,710.68,710.43,710.20,710.11,710.42,711.06,711.87,712.70,713.55,714.40,715.23,715.96,716.45,716.91,717.37,717.85,718.34,718.84,719.40,720.02,720.68,721.35,722.02,722.69,723.36,724.03,724.61,725.19,725.79,726.34,726.93,727.50,728.03,728.57,729.13,729.87,730.88,732.10,733.17,733.73,733.74,733.65,734.08,734.89,735.56,736.18,736.93,737.90,738.79,739.67,740.52,741.30,742.26,743.46,744.65,745.59,746.57,747.63,748.64,750.04,753.12,756.20,759.58,762.65,764.40,766.32,768.30,770.24,771.83,772.32,772.25,771.91,772.83,778.33,785.35,793.82,802.06,808.47,814.34,819.11,822.56,824.52,825.09,825.06,826.10,828.18,830.78,833.93,837.77,841.95,846.36,851.20,855.13,858.07,859.91,860.38,860.94,862.17,864.30,867.52,871.15,875.12,876.95,875.81,873.81,871.99,870.20,868.76,868.48,869.27,872.80,877.95,883.63,888.49,890.50,890.83,890.25,889.36
720.20,719.75,719.20,718.95,719.31,720.00,720.47,720.80,721.05,721.22,721.43,721.66,721.87,722.04,722.21,721.38,720.53,720.45,721.17,722.07,722.58,722.59,722.24,722.10,722.26,722.58,722.89,723.20,723.52,723.88,724.26,724.61,725.07,725.59,726.13,726.67,727.21,727.35,726.99,726.12,725.21,724.63,724.51,724.76,724.99,725.21,725.13,724.95,724.94,724.93,724.92,724.92,724.91,724.94,724.97,725.07,725.22,725.36,725.45,725.58,725.71,725.80,725.94,726.03,726.14,726.26,726.28,726.28,726.16,725.88,725.43,724.97,724.51,724.11,723.64,722.66,721.16,719.61,718.00,716.03,714.12,713.38,713.74,714.97,716.37,717.78,719.14,720.19,720.34,720.18,719.97,719.75,719.25,717.50,715.58,713.71,711.92,710.34,709.74,709.44,709.23,709.10,709.07,709.17,709.36,709.56,709.78,710.73,712.48,714.57,715.53,713.56,711.16,709.29,708.28,707.47,707.09,706.73,706.17,705.56,704.81,703.78,702.61,701.64,701.09,700.51,700.34,701.12,702.64,704.19,705.71,707.24,708.75,709.91,710.65,711.00,710.87,710.52,710.15,709.82,709.63,709.90,710.42,711.04,711.73,712.52,713.36,714.21,715.05,715.83,716.32,716.74,717.20,717.74,718.33,718.92,719.50,720.06,720.62,721.18,721.75,722.34,722.96,723.53,724.13,724.74,725.34,725.88,726.43,726.98,727.50,728.00,728.66,729.45,730.51,731.79,733.00,734.15,734.81,735.12,735.49,736.12,736.65,737.20,737.90,738.88,739.81,740.63,741.36,742.06,742.76,743.53,744.30,745.02,745.93,746.98,747.88,748.70,750.05,751.40,753.89,756.77,758.50,760.04,761.12,761.97,762.86,764.08,765.29,767.39,771.53,779.37,786.56,794.79,802.74,808.85,815.17,820.90,825.33,828.02,829.15,830.27,832.29,835.03,837.83,839.91,842.44,845.81,849.89,853.24,856.40,858.89,860.64,861.99,863.50,865.24,867.33,869.80,871.89,872.83,872.65,871.35,869.38,867.41,865.76,864.70,864.88,866.81,871.62,877.52,882.57,884.64,885.55,885.74,885.33,884.51
719.25,718.87,718.37,718.18,718.69,719.42,719.79,720.00,720.19,720.35,720.54,720.73,720.92,721.11,721.23,720.59,719.84,719.65,720.41,721.25,721.76,721.82,721.47,721.38,721.56,721.87,722.18,722.49,722.83,723.15,723.46,723.75,724.20,724.75,725.32,725.86,726.44,726.72,726.46,725.57,724.69,723.95,723.74,723.97,724.20,724.43,724.37,724.07,723.70,723.56,723.53,723.53,723.59,723.87,723.99,724.06,724.16,724.31,724.40,724.53,724.65,724.74,724.89,725.05,725.21,725.36,725.37,725.37,725.32,725.05,724.42,723.94,723.48,723.08,722.73,722.20,721.13,719.73,718.06,716.01,714.00,712.68,712.44,713.48,714.80,716.13,717.39,718.38,718.66,718.89,719.13,719.26,718.89,717.35,715.49,713.64,711.94,710.48,709.84,709.50,709.23,708.97,708.77,708.81,708.96,709.14,709.41,710.25,712.05,714.23,714.70,712.57,710.39,708.78,707.75,706.74,706.13,705.64,705.09,704.47,703.85,702.99,701.98,701.10,700.56,700.15,700.17,701.02,702.43,703.90,705.37,706.84,708.29,709.63,710.41,710.65,710.41,709.96,709.62,709.53,709.77,710.22,710.81,711.43,712.06,712.76,713.49,714.23,714.97,715.66,716.15,716.61,717.09,717.60,718.14,718.69,719.20,719.70,720.18,720.78,721.34,721.91,722.52,723.07,723.67,724.33,725.00,725.62,726.23,726.85,727.47,728.10,728.78,729.53,730.55,731.81,733.05,734.29,735.30,736.06,736.63,737.25,737.76,738.27,738.90,739.78,740.69,741.50,742.19,742.90,743.66,744.43,745.06,745.50,746.14,747.14,748.16,749.18,750.54,751.79,753.45,755.13,756.10,757.01,757.75,758.43,759.28,760.66,763.02,766.53,771.68,779.34,786.05,792.24,798.38,804.96,812.69,820.25,826.13,829.58,831.01,832.35,834.23,836.82,840.06,841.89,843.91,846.53,849.48,851.09,852.61,854.25,856.04,857.97,860.09,862.22,864.42,866.68,868.45,869.03,868.62,867.30,865.26,863.21,861.64,860.94,861.99,865.74,871.03,875.87,878.78,879.62,880.03,880.18,879.98,879.23
718.30,717.93,717.50,717.41,718.05,718.77,719.07,719.22,719.38,719.53,719.69,719.84,720.00,720.19,720.28,719.90,719.30,718.92,719.64,720.45,720.96,721.04,720.70,720.65,720.85,721.15,721.47,721.76,722.11,722.41,722.65,722.90,723.31,723.86,724.46,725.01,725.61,726.07,725.95,725.02,724.16,723.31,722.99,723.19,723.42,723.64,723.64,723.28,722.57,722.18,722.04,722.02,722.18,722.77,722.95,722.98,723.02,723.14,723.23,723.36,723.48,723.58,723.76,724.05,724.29,724.42,724.40,724.41,724.49,724.30,723.49,722.92,722.43,722.05,721.75,721.50,720.78,719.53,717.84,715.80,713.74,711.99,711.24,711.94,712.98,714.16,715.25,716.09,716.62,717.28,718.00,718.54,718.47,717.36,715.67,713.92,712.36,711.02,710.22,709.72,709.32,708.91,708.51,708.45,708.59,708.82,709.22,710.00,711.85,714.02,713.80,711.60,709.70,708.38,707.29,706.13,705.25,704.58,704.01,703.40,702.83,702.13,701.32,700.56,700.09,699.87,700.11,701.03,702.37,703.75,705.13,706.51,707.89,709.31,710.09,710.23,709.90,709.32,709.15,709.44,710.10,710.65,711.23,711.83,712.42,713.03,713.64,714.25,714.84,715.43,715.91,716.42,716.91,717.37,717.83,718.30,718.78,719.24,719.69,720.35,720.95,721.54,722.16,722.74,723.37,724.08,724.83,725.53,726.23,726.92,727.64,728.39,729.10,729.84,730.81,732.05,733.25,734.43,735.61,736.70,737.51,738.19,738.73,739.25,739.89,740.67,741.55,742.35,743.06,743.81,744.71,745.59,746.21,746.40,746.74,747.61,748.74,750.17,752.26,754.13,755.29,755.83,756.02,756.28,756.75,757.40,758.44,760.56,763.99,768.30,773.48,779.74,785.28,789.12,793.43,800.70,809.80,818.55,825.20,828.96,830.47,831.72,833.18,835.37,838.80,840.92,842.84,844.68,846.11,846.26,846.39,847.35,849.20,851.46,854.08,856.53,858.91,861.38,863.52,864.70,864.71,863.40,861.24,859.13,857.69,857.53,859.92,865.29,870.27,873.23,873.63,873.87,874.25,874.57,874.60,873.93
717.33,716.96,716.75,716.88,717.50,718.09,718.35,718.51,718.66,718.82,718.97,719.09,719.19,719.30,719.38,719.14,718.62,718.13,718.71,719.60,720.17,720.26,719.92,719.91,720.13,720.44,720.74,721.00,721.25,721.51,721.75,722.04,722.43,722.96,723.55,724.09,724.65,725.41,725.53,724.56,723.65,722.78,722.37,722.41,722.63,722.82,722.86,722.65,722.06,721.25,720.77,720.65,720.97,721.75,721.93,721.94,721.95,721.99,722.06,722.19,722.32,722.44,722.76,723.40,723.68,723.55,723.45,723.48,723.74,723.69,722.79,721.96,721.40,721.01,720.66,720.20,719.53,718.44,716.95,715.14,713.15,711.43,710.47,710.51,710.83,712.03,713.12,713.80,714.46,715.19,716.10,717.09,717.86,717.63,716.43,714.89,713.41,712.18,711.02,710.10,709.43,708.92,708.41,708.18,708.25,708.63,709.19,710.11,711.99,713.89,712.93,710.83,709.17,707.99,706.89,705.69,704.54,703.64,703.04,702.42,701.81,701.18,700.54,700.03,699.76,699.75,700.09,700.97,702.25,703.58,704.91,706.24,707.56,708.86,709.63,709.76,709.22,708.61,708.93,709.63,710.30,710.84,711.35,711.85,712.36,712.91,713.47,713.99,714.51,715.05,715.52,716.00,716.45,716.86,717.32,717.78,718.32,718.88,719.41,720.09,720.75,721.43,722.11,722.83,723.57,724.33,725.08,725.78,726.53,727.25,727.95,728.66,729.42,730.31,731.39,732.60,733.72,734.87,735.97,736.97,737.81,738.61,739.26,739.96,740.79,741.63,742.44,743.22,744.01,744.89,745.86,746.76,747.39,747.60,747.75,748.20,749.10,750.85,754.21,757.21,758.92,759.58,759.68,759.46,759.35,759.43,760.68,766.03,770.36,774.63,779.06,782.76,785.52,787.95,792.03,799.80,809.12,816.07,820.76,823.37,824.50,825.65,827.08,828.91,831.39,834.62,836.96,837.85,837.33,837.25,837.70,838.97,840.85,842.87,846.02,848.70,851.37,854.83,858.25,860.37,860.85,859.58,857.15,855.03,853.92,854.89,859.71,865.24,868.25,868.62,867.08,867.02,868.28,869.30,869.57,869.12
716.41,716.03,716.02,716.37,716.96,717.42,717.64,717.79,717.94,718.06,718.18,718.26,718.32,718.39,718.47,718.35,717.91,717.41,718.06,718.93,719.47,719.53,719.19,719.25,719.49,719.77,720.06,720.23,720.43,720.64,720.89,721.20,721.54,722.05,722.64,723.19,723.82,724.69,724.96,724.13,723.18,722.28,721.78,721.71,721.87,722.02,722.08,721.99,721.63,720.80,720.10,719.80,720.01,720.64,720.80,720.85,720.90,720.90,720.92,721.02,721.20,721.47,722.04,722.81,723.02,722.69,722.50,722.58,722.92,722.97,722.12,721.21,720.45,719.88,719.43,718.86,718.20,717.13,715.71,714.06,712.31,710.82,709.90,709.69,709.80,710.73,711.73,712.57,713.47,714.49,715.63,716.64,717.13,717.18,716.63,715.57,714.16,712.89,711.56,710.42,709.54,708.97,708.39,707.94,707.87,708.35,708.96,709.83,711.64,713.45,712.23,710.29,708.76,707.58,706.42,705.19,703.96,702.91,702.16,701.54,700.91,700.37,699.92,699.63,699.63,699.79,700.18,700.90,701.89,703.13,704.44,705.75,707.01,708.12,708.93,709.23,708.76,708.22,708.64,709.40,710.11,710.72,711.21,711.68,712.15,712.66,713.19,713.68,714.18,714.71,715.25,715.78,716.29,716.78,717.32,717.84,718.41,718.98,719.54,720.18,720.87,721.58,722.31,723.05,723.81,724.59,725.35,726.08,726.81,727.53,728.23,728.97,729.74,730.74,731.85,733.01,734.13,735.28,736.31,737.21,738.03,738.88,739.83,740.82,741.78,742.64,743.46,744.21,744.98,745.98,746.98,747.90,748.56,748.80,749.04,749.80,751.25,753.73,757.70,761.11,762.87,763.36,763.35,763.32,763.72,764.98,767.88,773.30,777.55,781.80,786.06,789.06,791.00,791.39,793.27,799.74,807.02,811.80,815.35,818.04,819.16,820.24,821.50,823.12,825.47,828.85,831.24,831.92,830.96,830.73,831.11,832.38,834.44,836.91,839.83,842.74,845.92,849.74,853.33,855.58,856.39,855.60,853.29,850.86,850.49,853.00,858.75,862.77,863.37,861.99,860.27,860.67,862.59,864.12,864.68,864.42
715.51,715.15,715.33,715.84,716.40,716.73,716.90,717.05,717.18,717.26,717.34,717.38,717.40,717.48,717.56,717.54,717.20,716.76,717.55,718.33,718.76,718.81,718.50,718.64,718.88,719.14,719.42,719.53,719.67,719.86,720.09,720.39,720.68,721.15,721.73,722.30,723.06,723.94,724.31,723.72,722.75,721.80,721.21,721.04,721.11,721.23,721.25,721.21,721.08,720.45,719.68,719.18,719.16,719.51,719.66,719.78,719.88,719.84,719.75,719.88,720.19,720.70,721.47,722.22,722.31,721.81,721.55,721.71,722.08,722.15,721.46,720.61,719.70,718.91,718.28,717.57,716.85,715.75,714.34,712.85,711.40,710.23,709.45,709.20,709.37,709.98,710.91,712.05,713.23,714.56,715.84,716.56,716.28,716.34,716.42,715.95,714.74,713.36,711.97,710.69,709.64,709.00,708.37,707.71,707.47,708.00,708.63,709.38,711.07,712.82,711.64,709.89,708.40,707.16,705.91,704.66,703.42,702.29,701.36,700.72,700.12,699.71,699.50,699.44,699.68,699.99,700.38,700.94,701.57,702.65,703.88,705.13,706.29,707.22,708.07,708.59,708.37,707.98,708.33,709.03,709.78,710.46,710.97,711.45,711.91,712.39,712.92,713.41,713.90,714.46,715.06,715.67,716.28,716.91,717.52,718.14,718.72,719.27,719.84,720.47,721.16,721.89,722.63,723.33,724.08,724.85,725.62,726.38,727.09,727.78,728.51,729.28,730.07,731.13,732.25,733.36,734.51,735.64,736.61,737.45,738.26,739.11,740.40,741.75,742.85,743.75,744.61,745.34,746.05,747.03,748.03,749.12,750.07,750.68,751.52,753.05,755.38,758.61,762.53,765.75,767.29,767.55,767.49,768.34,769.80,772.73,777.46,781.92,785.81,789.89,793.95,796.78,798.45,796.84,795.93,799.80,804.06,806.93,809.91,813.07,814.42,815.46,816.52,818.00,820.51,823.54,825.83,826.72,826.11,825.81,825.91,827.03,829.29,832.30,834.75,837.80,841.40,845.15,848.29,850.21,851.18,850.95,848.89,846.62,847.41,851.40,857.02,858.86,857.14,854.61,853.38,854.38,856.71,858.61,859.50,859.58
714.62,714.42,714.74,715.31,715.81,715.99,716.09,716.20,716.28,716.37,716.44,716.48,716.50,716.57,716.65,716.70,716.50,716.22,717.03,717.62,717.96,718.05,717.83,718.04,718.32,718.60,718.84,718.98,719.13,719.30,719.49,719.73,719.94,720.28,720.77,721.40,722.25,723.20,723.71,723.36,722.37,721.37,720.68,720.38,720.39,720.38,720.23,720.05,719.91,719.66,719.09,718.52,718.25,718.49,718.69,718.86,718.91,718.68,718.44,718.82,719.52,720.29,720.98,721.55,721.49,720.90,720.60,720.87,721.20,721.27,720.82,720.20,719.54,718.73,717.70,716.54,715.57,714.41,713.12,711.91,710.73,709.80,709.10,708.74,709.15,709.81,710.89,712.34,713.67,715.05,715.85,715.88,715.21,715.33,715.70,715.76,715.15,713.76,712.36,710.94,709.68,708.95,708.22,707.48,707.15,707.58,708.28,709.08,710.56,712.04,711.23,709.56,708.05,706.74,705.39,704.10,702.84,701.68,700.70,700.01,699.52,699.36,699.49,699.75,700.09,700.46,700.87,701.35,701.86,702.55,703.40,704.38,705.32,706.19,707.04,707.68,707.79,707.66,708.13,708.88,709.63,710.27,710.81,711.34,711.84,712.31,712.84,713.33,713.82,714.38,714.99,715.60,716.25,716.91,717.54,718.20,718.83,719.43,720.05,720.81,721.57,722.31,723.01,723.66,724.40,725.15,725.88,726.64,727.35,728.05,728.76,729.56,730.43,731.48,732.60,733.75,734.89,735.91,736.82,737.68,738.57,739.47,740.97,742.63,744.08,745.12,746.01,746.77,747.40,747.96,748.84,750.64,752.90,755.23,758.11,760.83,763.85,767.13,769.70,771.81,773.03,773.46,773.73,776.79,779.47,782.50,786.92,792.66,796.95,800.30,802.79,803.82,803.48,801.36,799.17,798.90,800.54,803.14,806.04,808.75,810.54,811.65,812.67,814.00,816.07,818.69,821.09,822.41,822.30,822.11,822.03,823.03,825.20,827.84,830.35,833.12,836.28,839.69,842.10,843.46,844.21,844.00,841.85,842.21,845.10,849.56,853.88,853.93,851.17,848.09,846.53,847.25,849.51,851.60,853.00,853.92
713.77,713.77,714.19,714.74,715.11,715.23,715.28,715.34,715.41,715.46,715.53,715.58,715.62,715.67,715.74,715.82,715.76,715.68,716.36,716.84,717.18,717.34,717.22,717.44,717.75,718.05,718.29,718.46,718.61,718.76,718.93,719.13,719.29,719.56,719.98,720.57,721.40,722.34,723.02,723.06,722.15,721.17,720.41,719.92,719.63,719.37,719.14,718.96,718.87,718.85,718.49,717.96,717.50,717.53,717.75,717.96,717.97,717.65,717.44,717.90,718.72,719.55,720.08,720.50,720.54,720.18,719.74,719.77,719.89,719.89,719.63,719.30,718.97,718.46,717.63,716.37,715.26,713.99,712.60,711.37,710.29,709.46,708.76,708.34,708.91,709.67,710.90,712.56,714.12,715.25,715.44,714.89,714.08,714.29,714.76,715.17,715.16,714.02,712.60,711.05,709.65,708.81,707.98,707.15,706.78,707.26,708.08,708.95,710.34,711.65,710.90,709.29,707.77,706.40,704.99,703.64,702.36,701.16,700.13,699.47,699.28,699.46,699.85,700.26,700.65,701.04,701.44,701.88,702.34,702.84,703.45,704.15,704.88,705.59,706.31,706.93,707.28,707.51,708.13,708.88,709.57,710.19,710.73,711.25,711.78,712.25,712.77,713.27,713.76,714.31,714.92,715.54,716.19,716.87,717.46,718.06,718.64,719.22,719.87,720.72,721.52,722.27,722.99,723.71,724.54,725.34,726.09,726.83,727.53,728.23,728.95,729.77,730.78,731.86,732.98,734.13,735.24,736.15,737.05,737.96,738.91,739.99,741.63,743.45,745.14,746.39,747.40,748.25,748.98,749.59,750.49,752.09,754.48,757.88,762.25,766.24,770.04,773.57,776.04,778.00,779.27,780.00,780.88,784.91,789.02,792.94,797.19,802.68,806.67,809.39,810.75,810.07,807.85,805.54,803.56,802.30,802.75,803.85,804.91,805.87,807.17,808.37,809.48,810.69,812.31,814.16,816.06,817.18,817.13,817.10,817.90,819.40,821.41,823.71,826.17,828.44,830.69,833.02,834.60,835.75,836.44,836.35,835.25,837.06,841.18,846.08,849.29,848.49,845.16,841.75,840.00,840.16,842.29,844.55,846.23,847.25
712.95,713.17,713.67,714.14,714.35,714.44,714.47,714.51,714.57,714.59,714.65,714.72,714.77,714.78,714.85,714.92,714.99,715.12,715.58,716.04,716.42,716.65,716.61,716.87,717.18,717.49,717.76,717.93,718.09,718.25,718.40,718.56,718.71,718.96,719.32,719.83,720.55,721.42,722.25,722.69,722.03,721.18,720.40,719.72,719.02,718.45,718.14,718.02,717.97,718.03,717.88,717.45,716.87,716.66,716.84,717.04,717.05,716.73,716.66,717.09,717.79,718.52,718.88,719.23,719.53,719.60,719.03,718.61,718.37,718.21,718.07,718.02,717.97,717.91,717.63,716.64,715.61,714.28,712.71,711.24,710.06,709.17,708.42,707.99,708.66,709.54,710.87,712.64,714.42,715.10,714.69,713.72,712.92,713.19,713.66,714.30,714.81,714.12,712.66,711.00,709.51,708.58,707.66,706.75,706.38,707.01,707.96,708.90,710.26,711.49,710.67,709.13,707.61,706.20,704.75,703.37,702.01,700.74,699.67,699.10,699.33,699.85,700.41,700.87,701.28,701.68,702.07,702.47,702.92,703.38,703.87,704.37,704.92,705.43,705.96,706.49,706.96,707.56,708.27,708.96,709.59,710.19,710.69,711.20,711.71,712.19,712.71,713.20,713.69,714.24,714.85,715.45,716.09,716.74,717.28,717.77,718.25,718.77,719.41,720.32,721.14,721.92,722.72,723.59,724.57,725.48,726.26,726.97,727.65,728.35,729.07,729.90,731.08,732.23,733.37,734.50,735.56,736.40,737.32,738.29,739.28,740.62,742.34,744.23,746.05,747.53,748.76,749.85,750.87,751.90,752.91,753.68,755.22,758.74,763.82,768.90,773.59,777.74,781.22,783.92,785.79,787.15,788.74,792.70,798.00,803.11,807.35,811.60,815.01,817.36,818.11,816.06,812.53,810.24,809.19,808.88,808.87,807.70,806.07,804.76,804.93,806.05,807.15,808.15,809.31,810.26,811.33,811.91,811.72,811.90,813.92,816.10,817.95,820.02,822.26,823.93,825.12,826.06,826.94,828.25,829.09,829.22,829.76,831.85,836.13,841.09,843.54,842.55,839.14,835.81,834.16,833.82,835.71,838.02,839.75,840.48
712.17,712.57,713.09,713.44,713.53,713.65,713.73,713.76,713.80,713.85,713.87,713.93,713.98,713.99,714.01,714.07,714.19,714.42,714.81,715.22,715.63,715.95,716.02,716.33,716.66,716.94,717.18,717.35,717.54,717.73,717.87,717.98,718.17,718.44,718.78,719.27,719.86,720.63,721.36,721.85,721.78,721.35,720.75,720.05,719.32,718.53,717.89,717.40,717.10,717.13,717.13,716.85,716.33,716.04,715.98,716.07,716.12,715.92,715.89,716.27,716.85,717.38,717.72,718.15,718.62,718.93,718.73,718.07,717.32,716.75,716.62,716.61,716.56,716.49,716.37,716.15,715.90,714.96,713.46,711.84,710.07,708.90,708.12,707.74,708.54,709.47,710.74,712.43,714.19,714.38,713.63,712.56,711.73,711.89,712.43,713.24,714.06,713.90,712.37,710.64,709.18,708.12,707.16,706.27,705.99,706.74,707.72,708.70,709.95,711.08,710.73,709.32,707.79,706.36,704.95,703.61,702.10,700.61,699.45,699.13,699.56,700.17,700.77,701.29,701.83,702.30,702.70,703.05,703.46,703.90,704.39,704.91,705.39,705.90,706.40,706.90,707.41,707.90,708.44,709.03,709.64,710.20,710.68,711.16,711.66,712.17,712.66,713.14,713.63,714.17,714.74,715.26,715.81,716.38,716.87,717.34,717.83,718.35,718.93,719.95,720.85,721.67,722.55,723.64,724.79,725.71,726.40,727.09,727.75,728.42,729.12,729.93,731.16,732.50,733.75,734.87,735.85,736.75,737.70,738.68,739.69,741.26,743.09,744.99,746.81,748.46,750.20,751.91,753.53,755.02,756.15,756.43,756.64,758.11,762.14,767.37,773.03,778.76,784.06,788.31,792.34,795.70,797.61,801.03,805.57,810.09,814.10,818.31,822.17,824.95,825.79,823.27,820.29,818.37,817.20,816.09,814.24,811.79,809.50,807.80,806.90,806.96,807.13,807.36,807.97,808.56,809.27,809.85,810.20,810.80,811.96,813.55,815.44,817.45,819.09,820.31,821.12,821.64,822.86,824.86,826.16,826.47,827.41,828.90,831.28,834.23,836.67,835.63,833.32,831.39,830.74,830.91,832.12,833.79,835.46,836.65
711.51,712.01,712.47,712.70,712.73,712.85,712.95,713.02,713.05,713.10,713.13,713.17,713.21,713.24,713.26,713.32,713.47,713.73,714.10,714.47,714.87,715.24,715.44,715.78,716.10,716.39,716.63,716.80,717.00,717.18,717.32,717.40,717.61,717.91,718.31,718.80,719.31,719.92,720.49,720.91,721.13,721.03,720.69,720.16,719.50,718.68,717.88,717.17,716.64,716.44,716.37,716.16,715.79,715.46,715.25,715.20,715.22,715.15,715.14,715.44,715.89,716.34,716.74,717.24,717.78,718.22,718.26,717.72,716.81,715.94,715.48,715.13,714.99,714.88,714.79,714.96,715.22,714.92,713.90,712.10,709.97,708.61,707.77,707.44,708.43,709.42,710.66,712.24,713.86,713.83,712.86,711.63,710.71,710.71,711.29,712.28,713.36,713.42,711.88,710.21,708.84,707.70,706.70,705.82,705.61,706.47,707.45,708.48,709.63,710.68,710.76,709.66,708.25,706.79,705.27,703.81,702.15,700.54,699.35,699.14,699.72,700.39,700.98,701.55,702.13,702.66,703.12,703.54,703.99,704.46,704.95,705.45,705.94,706.46,706.96,707.45,707.95,708.38,708.81,709.29,709.83,710.35,710.82,711.28,711.75,712.27,712.76,713.24,713.72,714.24,714.78,715.26,715.75,716.28,716.75,717.23,717.74,718.24,718.79,719.69,720.63,721.57,722.60,723.82,725.01,725.91,726.56,727.23,727.87,728.52,729.18,729.97,731.23,732.67,734.08,735.30,736.20,737.13,738.11,739.11,740.26,742.01,743.92,745.83,747.74,749.79,751.99,754.10,756.11,758.09,759.87,759.92,758.96,758.49,761.19,765.96,771.77,778.20,784.68,790.00,795.23,799.59,801.60,804.68,808.72,812.77,816.61,821.61,826.23,829.59,830.94,829.21,827.09,825.20,823.44,821.39,818.36,815.35,813.25,812.12,810.77,809.42,808.35,807.72,807.81,808.38,809.70,811.12,812.17,812.75,813.08,813.79,814.98,816.30,817.36,818.21,818.85,819.40,820.71,822.54,823.84,824.45,825.51,826.71,827.99,829.51,831.23,830.55,829.55,829.03,829.48,831.21,832.61,833.78,834.78,835.51
710.95,711.49,711.81,711.93,711.93,712.01,712.14,712.26,712.33,712.34,712.39,712.43,712.46,712.54,712.61,712.68,712.83,713.08,713.45,713.79,714.14,714.53,714.88,715.21,715.52,715.83,716.10,716.27,716.43,716.59,716.73,716.82,717.03,717.39,717.87,718.38,718.85,719.28,719.66,719.97,720.14,720.21,720.16,719.94,719.40,718.74,718.00,717.26,716.60,716.03,715.66,715.43,715.23,714.88,714.63,714.46,714.38,714.41,714.42,714.59,714.92,715.40,715.93,716.46,717.01,717.46,717.58,717.43,716.74,715.75,714.70,713.76,713.41,713.23,713.08,713.16,713.56,714.00,713.81,711.89,709.73,708.27,707.37,707.09,708.28,709.38,710.63,712.13,713.56,713.50,712.38,710.93,709.90,709.71,710.30,711.45,712.73,712.79,711.29,709.75,708.52,707.38,706.29,705.40,705.25,706.18,707.18,708.24,709.33,710.30,710.71,710.07,708.87,707.35,705.61,703.88,702.12,700.50,699.33,699.11,699.78,700.50,701.05,701.66,702.21,702.75,703.31,703.89,704.48,704.99,705.46,705.95,706.49,706.98,707.49,708.00,708.49,708.95,709.36,709.75,710.17,710.63,711.10,711.56,712.02,712.50,713.02,713.50,713.97,714.45,714.98,715.46,715.96,716.49,716.96,717.48,717.98,718.47,719.02,719.61,720.53,721.64,722.85,724.08,725.19,726.06,726.73,727.37,728.05,728.65,729.26,730.06,731.33,732.82,734.38,735.80,736.65,737.60,738.56,739.64,741.12,743.07,745.07,747.09,749.24,751.89,754.36,756.59,758.78,761.32,764.07,764.07,762.25,760.58,762.06,765.81,770.77,776.64,783.28,788.88,794.05,798.22,800.30,803.30,807.38,811.44,815.46,821.87,827.35,831.27,833.44,833.59,832.42,830.21,827.48,824.57,821.26,818.31,816.94,816.99,815.88,813.08,810.63,809.09,808.65,809.51,812.24,815.13,816.84,817.06,816.87,816.69,816.62,816.74,817.33,817.85,818.39,819.25,820.32,821.23,822.07,822.94,823.94,825.15,826.35,827.32,827.78,827.84,828.15,828.87,830.51,834.46,836.86,837.78,837.63,836.96
