684.83,684.75,684.67,684.60,684.53,684.47,684.56,684.67,684.77,684.92,685.07,685.17,685.28,685.42,685.58,685.69,685.79,685.92,686.01,686.10,686.14,686.18,686.33,686.48,686.55,686.73,687.20,687.72,688.20,688.59,688.86,689.02,689.10,688.82,688.42,688.36,688.41,688.49,688.50,688.42,688.35,688.28,688.30,688.50,689.01,689.48,689.80,689.96,689.96,689.95,689.95,689.95,689.97,690.03,690.06,690.04,689.99,689.84,689.59,689.31,688.86,688.26,688.25,689.38,690.36,690.86,691.28,691.19,690.98,690.75,690.52,690.28,689.98,689.63,689.13,688.37,687.58,686.78,686.12,685.88,685.77,685.64,685.52,685.46,685.46,685.69,686.02,686.39,686.77,687.09,687.45,687.79,688.05,688.34,688.60,688.83,689.07,689.27,689.57,690.06,690.67,691.19,691.77,692.36,692.85,693.20,693.58,694.02,694.49,694.97,695.50,696.04,696.49,696.88,697.29,697.75,698.10,698.50,699.01,699.54,700.41,701.78,703.49,705.27,707.11,709.18,711.96,715.65,718.96,720.00,719.77,719.14,719.29,720.02,720.79,721.72,723.17,724.83,726.57,728.13,729.58,731.89,735.98,739.30,741.86,745.40,749.07,752.67,755.68,757.23,756.50,754.36,751.74,749.26,747.70,746.34,744.98,743.78,743.23,743.99,744.88,745.35,745.34,745.62,746.22,746.50,746.69,747.77,750.01,754.76,760.85,767.24,774.26,780.83,786.68,791.64,795.64,799.93,803.63,806.65,809.35,812.98,818.68,824.92,830.09,832.44,832.74,830.17,826.27,824.81,823.95,821.50,818.32,816.14,817.07,822.32,830.41,840.05,848.50,853.26,853.74,851.44,848.38,845.92,844.48,843.95,844.50,846.34,849.11,852.50,856.54,861.61,867.64,874.84,882.46,889.22,892.89,895.93,899.00,902.31,905.98,909.34,912.10,914.42,916.69,919.12,921.02,922.87,924.88,926.26,926.11,925.46,924.74,923.93,922.79,921.20,919.27,917.25,915.88,912.64,910.34,910.03,909.83,909.77,909.77,909.83,910.00,910.12,910.95,913.22,916.61,917.21,917.70,918.26,918.80,919.19
684.20,684.11,684.03,683.96,683.90,683.92,683.96,684.04,684.17,684.27,684.42,684.53,684.61,684.72,684.86,685.00,685.12,685.22,685.36,685.44,685.54,685.65,685.75,685.90,686.06,686.35,686.86,687.35,687.78,688.11,688.33,688.44,688.47,688.24,687.89,687.78,687.83,687.87,687.85,687.78,687.70,687.66,687.81,688.16,688.69,689.12,689.35,689.43,689.43,689.43,689.43,689.43,689.44,689.51,689.53,689.43,689.20,688.78,688.28,687.81,687.48,687.49,688.09,689.38,690.26,690.53,690.61,690.42,690.23,690.05,689.87,689.64,689.35,688.98,688.54,688.06,687.35,686.56,685.87,685.45,685.33,685.19,685.07,685.08,685.46,685.83,686.18,686.52,686.90,687.22,687.58,687.95,688.28,688.55,688.78,689.04,689.28,689.38,689.63,690.27,691.13,691.84,692.33,692.82,693.31,693.76,694.11,694.53,695.00,695.49,696.02,696.56,697.04,697.49,697.93,698.33,698.63,698.93,699.38,700.15,701.68,703.56,705.42,706.83,708.21,710.54,713.57,716.92,719.94,721.42,721.53,720.81,720.61,720.97,721.58,722.52,724.06,725.78,727.55,729.43,731.63,734.57,738.51,742.08,744.75,746.50,749.04,752.52,756.25,759.22,759.95,758.29,755.39,752.00,749.21,747.56,746.13,745.03,744.90,745.75,746.60,747.06,747.09,747.36,748.25,748.82,748.79,748.33,749.06,752.16,757.01,762.83,768.14,774.04,781.58,790.06,796.33,804.26,810.67,814.88,816.69,816.14,818.43,823.12,829.14,834.46,837.94,838.03,835.95,835.20,833.95,829.76,824.03,819.06,817.54,822.36,830.92,840.95,848.59,853.24,854.86,854.00,851.20,849.13,848.21,848.06,848.63,850.18,852.79,856.04,859.86,864.60,870.36,878.21,885.79,890.44,893.53,896.30,899.14,902.21,905.60,908.56,911.02,913.20,915.44,917.99,920.16,922.59,925.47,927.02,926.39,925.00,923.66,922.87,921.28,919.07,916.65,914.37,912.47,910.58,909.35,908.95,908.64,908.49,908.57,908.83,909.20,909.56,910.76,912.74,914.94,915.59,916.15,916.73,917.23,917.54
683.58,683.50,683.42,683.35,683.32,683.39,683.43,683.49,683.59,683.69,683.82,683.91,684.00,684.11,684.23,684.38,684.50,684.59,684.74,684.84,684.95,685.09,685.17,685.32,685.59,685.99,686.50,686.97,687.33,687.59,687.74,687.82,687.86,687.67,687.36,687.20,687.22,687.24,687.20,687.13,687.06,687.12,687.39,687.83,688.33,688.71,688.87,688.91,688.91,688.94,688.94,688.94,688.95,689.00,689.01,688.83,688.45,687.90,687.32,686.77,686.58,687.08,688.07,689.29,689.99,690.08,689.97,689.78,689.61,689.44,689.26,689.03,688.74,688.38,687.95,687.57,686.99,686.30,685.59,685.05,684.88,684.76,684.75,685.00,685.58,686.09,686.47,686.79,687.15,687.49,687.84,688.20,688.54,688.78,689.01,689.27,689.50,689.56,689.74,690.39,691.41,692.40,692.97,693.45,693.93,694.41,694.71,695.09,695.51,695.97,696.51,697.07,697.59,698.08,698.53,698.92,699.16,699.46,700.10,701.39,703.32,705.43,707.37,708.68,709.72,711.75,714.45,717.40,720.28,722.63,723.35,722.57,722.05,722.09,722.46,723.28,724.88,726.55,728.26,730.23,732.68,735.67,739.08,743.11,746.97,748.95,750.87,753.81,757.37,760.78,762.80,761.46,758.45,754.69,750.94,748.73,747.21,746.32,746.51,747.47,748.56,749.23,749.49,750.50,752.47,753.64,753.37,751.55,750.22,751.51,755.12,760.32,764.88,770.44,778.48,788.40,796.55,806.39,814.41,819.89,822.37,820.54,820.97,824.18,829.79,836.15,841.32,843.51,843.15,842.09,840.36,836.08,829.85,823.00,819.12,822.90,830.78,840.04,846.96,851.78,854.89,856.23,855.25,853.67,852.77,852.52,852.92,854.23,856.68,859.78,863.41,867.74,873.25,881.32,888.57,891.52,894.00,896.51,899.06,901.68,904.50,907.04,909.32,911.54,914.05,916.94,919.49,922.37,925.39,925.63,924.08,922.24,920.84,920.24,918.75,916.58,914.18,911.98,910.40,909.50,908.89,908.44,908.05,907.96,908.16,908.55,909.01,909.48,910.61,912.09,913.46,914.05,914.65,915.16,915.51,915.68
682.99,682.90,682.83,682.79,682.80,682.87,682.94,682.99,683.03,683.16,683.26,683.34,683.43,683.57,683.67,683.80,683.92,684.02,684.16,684.25,684.37,684.50,684.60,684.76,685.15,685.64,686.11,686.56,686.85,687.01,687.10,687.18,687.25,687.10,686.81,686.61,686.58,686.59,686.55,686.48,686.44,686.65,687.03,687.49,687.94,688.27,688.38,688.39,688.40,688.47,688.48,688.48,688.48,688.49,688.48,688.21,687.74,687.20,686.66,686.13,686.11,686.95,688.09,689.09,689.57,689.55,689.40,689.25,689.09,688.91,688.68,688.44,688.15,687.81,687.42,686.97,686.54,685.98,685.29,684.68,684.44,684.38,684.58,685.16,685.78,686.39,686.85,687.17,687.49,687.85,688.20,688.51,688.81,689.05,689.27,689.55,689.83,689.94,690.06,690.66,691.71,692.93,693.69,694.22,694.69,695.12,695.37,695.66,696.02,696.44,696.97,697.54,698.11,698.63,699.12,699.63,699.88,700.29,701.29,703.18,705.23,707.27,709.17,710.59,711.46,712.87,714.87,717.40,720.27,723.73,725.20,724.39,723.62,723.39,723.48,724.07,725.55,727.06,728.63,730.46,732.70,735.36,738.09,742.56,748.05,751.88,753.97,756.30,759.14,762.27,765.22,764.28,761.51,757.82,753.33,750.26,748.43,747.64,748.03,749.16,750.69,751.83,752.60,754.88,758.26,760.16,759.79,757.04,753.61,752.97,755.11,759.49,764.19,769.93,777.72,787.38,796.76,806.93,815.50,822.10,826.23,825.75,825.88,827.97,832.38,838.07,843.49,847.04,848.04,846.01,843.59,840.20,834.86,827.22,821.69,824.05,830.29,837.79,844.02,849.28,853.97,857.83,859.78,859.12,858.09,857.40,857.42,858.56,860.84,863.78,867.18,871.11,876.38,884.19,890.79,892.60,894.57,896.74,898.89,900.99,903.26,905.48,907.68,910.10,913.10,916.40,919.31,922.33,924.77,922.88,920.27,918.25,917.12,916.69,915.60,913.92,911.95,910.12,909.38,908.87,908.39,907.92,907.51,907.60,907.94,908.38,908.85,909.31,910.05,911.04,912.06,912.58,913.12,913.49,913.65,913.75
682.34,682.26,682.22,682.22,682.27,682.35,682.43,682.49,682.54,682.60,682.71,682.81,682.90,683.00,683.13,683.24,683.36,683.48,683.59,683.71,683.82,683.93,684.07,684.36,684.78,685.26,685.71,686.08,686.26,686.37,686.46,686.58,686.62,686.49,686.22,685.97,685.94,685.94,685.90,685.87,685.98,686.29,686.68,687.11,687.54,687.79,687.87,687.88,687.93,687.96,687.97,687.97,687.98,688.02,687.90,687.55,687.04,686.54,686.00,685.57,685.75,686.82,687.80,688.62,689.03,689.03,688.88,688.73,688.57,688.38,688.09,687.81,687.55,687.25,686.89,686.44,685.99,685.50,684.93,684.33,684.02,684.19,684.69,685.36,686.03,686.66,687.17,687.55,687.82,688.19,688.52,688.82,689.07,689.30,689.53,690.06,690.83,691.10,691.46,692.04,692.82,693.68,694.40,694.97,695.47,695.88,696.04,696.27,696.61,697.04,697.43,697.88,698.43,699.03,699.74,701.02,701.75,702.44,703.59,705.37,707.29,709.05,710.60,711.90,712.96,714.37,716.12,718.20,720.89,724.88,726.86,726.24,725.39,724.87,724.82,725.13,725.77,726.92,728.21,729.76,731.78,734.51,737.25,741.23,746.45,752.00,756.20,759.23,761.80,764.46,767.35,768.11,766.81,763.40,758.05,753.84,750.77,749.08,749.40,750.73,752.79,754.84,756.84,759.97,763.30,765.73,766.48,764.44,760.80,758.01,757.35,759.86,764.65,771.05,779.00,788.07,796.72,806.47,815.50,823.17,828.74,831.23,832.03,833.78,837.59,841.33,845.90,849.34,850.49,848.19,844.47,840.26,835.31,829.62,826.17,827.18,830.98,836.35,841.47,846.65,851.95,857.22,861.89,864.10,864.07,863.13,862.43,863.61,865.93,868.46,871.25,875.19,880.34,887.26,892.93,894.55,896.44,897.72,899.14,901.21,904.04,906.38,908.52,911.00,914.49,917.90,920.54,922.66,923.75,921.50,918.72,916.39,914.77,913.88,912.73,911.53,910.38,909.38,908.85,908.39,907.93,907.48,907.10,907.24,907.60,908.03,908.48,908.90,909.44,910.05,910.66,911.08,911.38,911.58,911.72,911.81
681.73,681.67,681.65,681.68,681.75,681.83,681.91,681.99,682.04,682.06,682.16,682.26,682.35,682.45,682.58,682.69,682.80,682.93,683.03,683.16,683.27,683.39,683.59,683.97,684.41,684.86,685.26,685.48,685.60,685.70,685.81,685.96,686.01,685.87,685.61,685.35,685.30,685.28,685.27,685.30,685.56,685.94,686.34,686.74,687.15,687.31,687.35,687.38,687.44,687.45,687.47,687.48,687.49,687.52,687.29,686.86,686.36,685.89,685.36,685.12,685.50,686.56,687.36,688.07,688.47,688.51,688.36,688.21,688.02,687.79,687.50,687.20,686.93,686.66,686.34,685.91,685.43,684.96,684.47,683.95,683.79,684.21,684.89,685.58,686.25,686.88,687.45,687.91,688.20,688.53,688.85,689.12,689.33,689.54,690.03,690.99,692.22,692.71,693.19,693.70,694.21,694.72,695.28,695.80,696.27,696.65,696.79,696.92,697.20,697.62,697.98,698.34,698.83,699.60,700.95,702.95,704.15,705.12,706.33,707.97,710.03,711.52,712.50,713.59,714.65,715.83,717.19,719.01,721.96,726.27,728.58,728.15,727.05,726.34,726.23,726.40,726.50,727.10,728.15,729.64,731.68,734.38,737.08,740.56,745.27,751.56,757.29,761.12,763.90,766.61,769.77,772.22,772.41,769.71,764.63,759.94,755.77,752.84,752.27,752.61,754.52,757.10,760.10,764.13,768.23,771.86,773.88,771.99,768.17,764.00,761.33,761.99,765.65,771.47,779.35,788.51,796.38,805.63,815.03,823.56,829.99,834.28,836.43,838.59,841.73,844.37,847.94,851.01,852.22,849.51,844.22,839.75,836.17,833.11,831.57,831.87,833.58,836.58,840.64,845.28,850.66,856.89,863.76,868.48,869.78,869.22,868.19,868.70,870.69,872.97,875.68,880.13,885.20,891.28,896.22,897.89,899.22,899.63,900.40,902.30,905.37,907.84,910.14,912.83,916.36,919.37,921.49,922.69,922.59,920.65,917.84,915.09,912.90,911.68,910.73,910.01,909.45,908.99,908.50,908.03,907.57,907.12,906.76,906.79,907.09,907.50,907.94,908.36,908.79,909.19,909.54,909.83,909.96,910.06,910.18,910.24
681.14,681.13,681.13,681.16,681.23,681.31,681.39,681.47,681.52,681.54,681.61,681.68,681.78,681.91,682.01,682.14,682.26,682.36,682.50,682.60,682.72,682.89,683.14,683.57,684.02,684.45,684.76,684.76,684.86,685.00,685.15,685.30,685.39,685.25,684.97,684.76,684.66,684.64,684.67,684.80,685.16,685.59,686.01,686.40,686.75,686.83,686.83,686.86,686.92,686.93,686.98,687.02,687.02,686.99,686.64,686.18,685.71,685.24,684.71,684.76,685.31,686.15,686.81,687.49,687.91,687.99,687.84,687.68,687.44,687.16,686.91,686.61,686.31,686.04,685.76,685.37,684.87,684.38,683.92,683.55,683.79,684.42,685.16,685.83,686.47,687.10,687.70,688.24,688.62,688.89,689.19,689.48,689.70,689.92,690.92,692.42,693.95,694.58,695.02,695.38,695.70,695.99,696.32,696.71,697.11,697.46,697.62,697.62,697.78,698.16,698.61,698.98,699.48,700.57,702.82,705.31,706.91,708.15,709.45,711.06,713.52,714.78,715.03,715.80,716.61,717.21,718.02,719.78,723.38,727.84,730.36,730.19,728.66,727.79,727.65,727.83,727.87,727.77,728.63,730.29,732.59,735.15,737.69,740.86,745.11,751.04,757.21,761.71,765.16,768.52,772.42,776.25,777.76,776.18,772.55,768.15,763.29,759.04,756.75,754.93,755.89,758.46,762.08,767.11,772.89,778.37,781.67,779.34,775.24,770.71,767.29,766.38,767.58,771.26,778.50,788.25,795.72,804.62,814.20,823.17,829.82,834.35,838.01,841.17,843.91,846.72,849.46,852.20,853.57,850.24,843.51,839.72,838.44,838.00,837.52,837.82,838.13,838.80,841.86,845.53,850.62,857.39,865.71,872.09,874.93,875.48,874.68,873.91,875.21,877.47,880.71,885.97,890.91,896.28,900.75,902.58,902.85,902.55,902.77,904.16,907.00,909.53,912.24,915.25,918.31,920.43,921.88,922.31,921.44,920.19,917.30,914.06,911.39,910.14,909.69,909.41,909.12,908.76,908.26,907.77,907.31,906.86,906.48,906.25,906.42,906.84,907.25,907.69,908.10,908.47,908.74,908.86,908.94,909.02,909.10,909.12
680.56,680.55,680.58,680.62,680.67,680.78,680.87,680.95,681.02,681.07,681.10,681.16,681.25,681.35,681.48,681.58,681.70,681.82,681.93,682.05,682.19,682.40,682.78,683.23,683.66,683.99,684.10,684.05,684.11,684.24,684.38,684.50,684.69,684.61,684.34,684.17,684.08,684.05,684.14,684.39,684.81,685.23,685.63,686.00,686.26,686.31,686.31,686.34,686.40,686.41,686.47,686.51,686.49,686.38,685.99,685.50,685.00,684.53,684.00,684.25,684.91,685.60,686.23,686.91,687.35,687.47,687.32,687.12,686.86,686.56,686.28,686.02,685.72,685.42,685.14,684.79,684.33,683.86,683.45,683.33,683.91,684.70,685.45,686.11,686.77,687.44,688.00,688.49,689.00,689.32,689.70,690.24,690.96,691.63,692.94,694.51,695.80,695.85,696.11,696.40,696.67,696.94,697.21,697.65,698.09,698.36,698.52,698.46,698.49,698.75,699.23,699.96,701.14,702.84,705.07,707.43,709.47,711.38,713.26,715.07,717.18,718.13,718.13,718.35,718.66,718.87,719.48,721.19,724.32,728.81,732.10,732.90,730.98,729.41,729.02,729.23,729.12,728.79,729.25,730.82,733.45,736.13,738.76,741.97,745.97,750.92,756.50,761.24,765.43,769.62,774.25,778.74,781.28,781.04,778.29,774.46,769.71,764.86,760.96,757.88,757.49,759.47,763.72,769.60,775.49,781.84,786.87,786.23,783.24,779.78,776.86,775.05,773.81,774.19,778.57,786.79,794.83,804.02,813.05,821.11,827.25,831.52,833.85,837.35,843.12,847.21,850.42,853.45,854.95,851.35,845.85,843.10,842.48,842.55,842.55,843.19,843.51,843.64,845.30,848.05,852.65,859.12,867.16,874.21,878.66,880.91,881.20,880.63,881.74,884.30,887.99,892.42,896.79,901.30,905.18,907.28,907.40,906.73,905.99,906.08,908.73,911.62,914.64,917.55,919.82,921.25,921.88,921.79,920.97,919.88,916.79,913.22,910.39,909.57,909.23,908.99,908.76,908.50,908.04,907.54,907.05,906.59,906.22,905.91,905.90,906.15,906.58,907.00,907.42,907.77,907.96,908.05,908.09,908.14,908.23,908.32
679.95,679.88,679.92,680.00,680.06,680.20,680.32,680.41,680.50,680.58,680.61,680.65,680.71,680.80,680.92,681.03,681.14,681.27,681.37,681.52,681.69,681.95,682.41,682.88,683.24,683.43,683.40,683.31,683.35,683.45,683.58,683.73,684.01,683.97,683.73,683.58,683.51,683.51,683.65,684.00,684.45,684.86,685.24,685.57,685.71,685.76,685.76,685.78,685.84,685.86,685.91,685.94,685.91,685.76,685.35,684.85,684.34,683.88,683.40,683.75,684.44,685.05,685.67,686.33,686.81,686.96,686.78,686.53,686.26,685.96,685.66,685.40,685.12,684.83,684.52,684.20,683.79,683.34,683.03,683.24,684.07,684.96,685.75,686.42,687.11,687.79,688.35,688.84,689.46,690.37,691.26,692.14,693.11,694.11,695.43,696.73,697.52,697.07,697.09,697.29,697.54,697.82,698.06,698.58,699.13,699.46,699.57,699.42,699.35,699.51,700.11,701.13,702.84,704.92,707.02,709.13,711.25,713.53,715.98,718.26,720.34,721.61,722.13,722.29,722.19,721.80,721.88,723.18,725.58,729.97,733.96,735.92,734.51,732.69,731.85,731.67,731.42,730.97,731.17,732.22,734.24,736.91,739.66,742.87,746.52,750.50,755.51,760.42,765.30,770.37,775.31,780.05,783.73,785.45,784.07,781.00,776.23,770.76,765.88,761.97,760.28,761.55,766.16,772.20,778.05,784.84,791.14,792.84,791.57,789.33,786.91,784.46,781.56,779.01,780.16,785.96,794.12,803.45,811.66,818.30,823.27,826.83,828.92,833.49,841.71,846.92,850.91,854.48,856.47,853.82,850.00,848.12,847.56,847.32,847.50,848.53,849.31,849.59,850.25,852.12,855.85,861.35,868.51,875.89,881.84,885.58,886.71,886.75,887.94,890.57,894.16,897.52,901.01,904.86,908.34,910.43,911.06,910.37,909.00,908.17,910.65,913.79,916.88,919.47,920.95,921.57,921.48,920.95,920.03,918.68,915.52,912.18,909.77,909.29,908.92,908.63,908.39,908.20,907.80,907.31,906.81,906.35,905.98,905.65,905.48,905.52,905.90,906.31,906.73,907.04,907.16,907.25,907.29,907.36,907.47,907.63
679.34,679.12,679.13,679.27,679.41,679.56,679.71,679.86,679.99,680.07,680.13,680.16,680.20,680.27,680.36,680.48,680.60,680.70,680.84,681.00,681.23,681.57,682.03,682.48,682.72,682.76,682.69,682.55,682.57,682.64,682.78,683.06,683.36,683.35,683.14,683.00,682.97,683.02,683.22,683.62,684.06,684.47,684.85,685.13,685.10,685.15,685.18,685.18,685.20,685.26,685.29,685.29,685.28,685.17,684.73,684.23,683.76,683.30,682.96,683.29,683.92,684.53,685.15,685.78,686.27,686.48,686.20,685.91,685.64,685.38,685.07,684.77,684.51,684.24,683.93,683.63,683.25,682.82,682.66,683.31,684.25,685.19,686.05,686.80,687.50,688.14,688.76,689.38,690.22,692.45,694.37,695.65,696.38,697.34,698.34,699.02,699.09,698.48,698.18,698.21,698.43,698.68,698.93,699.54,700.29,700.86,700.86,700.57,700.39,700.58,701.38,702.53,704.26,706.34,708.38,710.24,711.94,714.03,716.78,719.79,722.53,725.02,727.06,728.05,727.79,726.51,725.49,725.85,727.56,731.65,736.00,739.12,739.50,738.27,736.79,735.70,735.31,734.82,735.00,735.04,735.08,737.38,740.16,743.15,746.25,749.53,754.33,759.42,764.91,770.83,775.47,780.14,785.19,789.62,790.44,788.37,783.28,777.05,771.99,767.61,764.85,765.39,769.88,775.11,781.10,787.91,794.61,798.86,799.82,798.70,796.46,793.52,790.19,785.68,783.79,786.50,793.72,802.74,809.97,814.98,818.21,820.72,824.99,831.80,840.41,846.07,850.90,855.16,858.18,858.17,855.87,854.46,853.61,852.58,852.68,854.03,855.44,856.34,856.72,857.79,860.13,864.01,869.95,877.49,884.59,889.24,890.58,891.33,892.79,894.99,897.61,900.02,902.35,905.88,909.25,910.98,912.83,912.66,911.44,910.63,912.90,915.99,918.77,920.80,921.58,921.15,920.52,919.61,918.10,916.05,913.12,910.81,909.56,909.14,908.70,908.31,908.01,907.82,907.52,907.08,906.59,906.10,905.77,905.46,905.17,905.02,905.23,905.65,906.01,906.25,906.33,906.41,906.53,906.67,906.82,906.98
679.00,678.68,678.61,678.71,678.87,679.06,679.23,679.38,679.52,679.60,679.64,679.68,679.72,679.75,679.79,679.88,679.99,680.13,680.32,680.52,680.82,681.23,681.67,682.03,682.12,682.06,681.97,681.83,681.78,681.83,682.01,682.43,682.73,682.73,682.56,682.41,682.39,682.54,682.83,683.26,683.69,684.11,684.43,684.57,684.46,684.48,684.51,684.54,684.55,684.58,684.62,684.70,684.78,684.65,684.19,683.69,683.21,682.74,682.48,682.83,683.45,684.07,684.69,685.30,685.76,685.92,685.62,685.32,685.03,684.75,684.48,684.18,683.89,683.62,683.35,683.04,682.70,682.46,682.57,683.45,684.40,685.34,686.26,687.13,687.88,688.56,689.31,690.58,693.33,696.17,698.29,699.70,700.55,701.32,702.07,702.16,701.37,700.44,699.61,699.27,699.36,699.71,700.21,701.22,702.22,702.68,702.50,702.11,701.89,702.07,702.85,704.00,705.59,707.49,709.48,711.17,712.75,714.50,716.69,719.38,722.33,725.52,728.79,731.46,731.74,730.60,729.33,729.03,730.29,734.02,738.17,741.43,742.58,741.85,740.65,739.59,738.99,738.85,738.97,738.57,737.73,738.46,740.47,743.06,745.84,748.81,753.30,758.86,764.97,771.02,775.58,781.17,787.31,792.82,795.20,794.57,790.91,785.26,778.95,773.82,770.49,769.98,772.94,777.43,782.78,788.99,795.43,800.61,804.13,805.30,804.15,800.78,797.60,792.32,788.21,787.81,793.22,801.18,807.73,812.58,816.78,821.28,826.70,833.49,841.08,846.14,850.93,855.65,859.75,861.74,861.13,860.12,859.17,858.36,858.48,859.48,860.75,861.79,862.06,862.73,864.22,867.15,872.76,880.46,887.03,891.31,892.90,893.59,894.40,895.18,895.98,897.19,898.90,901.90,905.21,907.90,911.04,912.96,913.85,914.36,916.18,918.32,920.21,921.33,920.90,919.82,918.52,916.99,915.12,913.00,911.16,909.94,909.30,908.90,908.49,908.07,907.70,907.45,907.19,906.81,906.36,905.88,905.53,905.21,904.90,904.65,904.61,904.99,905.29,905.46,905.54,905.67,905.81,905.96,906.12,906.27
678.72,678.33,678.17,678.21,678.39,678.60,678.79,678.94,679.07,679.14,679.15,679.19,679.23,679.24,679.25,679.30,679.39,679.54,679.74,680.01,680.40,680.87,681.28,681.49,681.47,681.34,681.24,681.11,681.02,681.06,681.32,681.82,682.10,682.12,681.97,681.86,681.85,682.08,682.46,682.91,683.32,683.75,683.97,683.96,683.84,683.80,683.83,683.88,683.89,683.89,683.95,684.11,684.29,684.13,683.66,683.16,682.67,682.19,682.00,682.38,683.00,683.62,684.23,684.84,685.25,685.36,685.04,684.73,684.42,684.13,683.88,683.59,683.28,683.00,682.75,682.46,682.16,682.18,682.63,683.61,684.54,685.48,686.44,687.40,688.22,688.95,690.17,692.54,696.86,699.90,702.19,703.93,704.99,705.49,705.90,705.53,704.20,703.05,701.88,701.24,701.16,701.53,702.05,703.25,704.33,704.54,704.20,703.76,703.54,703.69,704.39,705.46,706.87,708.56,710.45,712.04,713.58,715.08,716.70,718.85,721.79,725.33,729.43,733.83,735.33,734.71,733.38,732.55,733.41,736.61,740.31,743.46,745.21,745.06,744.21,743.19,742.32,742.42,742.38,741.74,740.54,739.98,741.12,743.21,745.72,748.42,752.76,758.79,765.30,771.13,775.71,782.19,789.26,795.55,799.12,799.95,797.85,793.12,786.13,780.41,776.23,774.47,775.96,779.97,784.74,790.21,796.03,801.39,806.84,810.69,811.50,808.25,804.51,799.04,793.72,790.71,793.47,800.15,806.17,811.15,816.49,823.38,829.72,836.11,842.55,847.02,851.48,856.39,861.39,865.13,865.82,865.17,864.33,864.04,864.36,864.97,865.84,866.75,867.04,867.55,868.59,871.01,876.36,883.85,889.22,892.40,893.69,893.89,893.80,893.29,892.67,892.98,894.44,897.14,900.37,903.61,907.35,911.29,914.54,916.83,918.77,920.19,921.14,921.20,919.64,918.07,916.22,914.24,912.29,910.58,909.77,909.34,909.02,908.63,908.26,907.84,907.43,907.11,906.84,906.51,906.11,905.66,905.27,904.95,904.64,904.34,904.10,904.35,904.56,904.69,904.80,904.96,905.12,905.27,905.42,905.58
678.39,678.01,677.79,677.78,677.99,678.16,678.37,678.53,678.62,678.69,678.70,678.71,678.72,678.73,678.78,678.81,678.85,678.94,679.05,679.46,679.97,680.45,680.75,680.79,680.72,680.61,680.47,680.38,680.30,680.39,680.73,681.24,681.48,681.49,681.40,681.33,681.38,681.66,682.07,682.53,682.98,683.34,683.44,683.33,683.24,683.17,683.15,683.18,683.24,683.25,683.30,683.51,683.76,683.62,683.14,682.61,682.10,681.67,681.53,681.92,682.54,683.16,683.77,684.35,684.73,684.83,684.47,684.15,683.84,683.53,683.24,682.99,682.70,682.40,682.11,681.87,681.63,681.97,682.80,683.74,684.67,685.64,686.61,687.55,688.45,689.25,691.64,695.75,699.99,702.69,705.59,708.25,709.46,709.65,709.49,708.90,707.82,706.74,705.75,705.09,704.83,704.99,704.88,705.65,706.38,706.25,705.84,705.43,705.23,705.37,706.00,706.86,708.08,709.60,711.33,712.89,714.39,715.89,717.44,719.11,721.92,725.31,729.53,735.28,739.03,739.21,737.73,736.54,736.96,739.32,742.35,745.41,747.92,748.57,747.73,746.26,745.06,744.93,744.52,743.71,742.67,742.09,742.60,744.13,746.25,748.59,753.15,759.49,765.93,771.22,775.92,782.65,790.41,797.75,802.09,804.18,803.00,799.13,793.31,787.46,781.63,778.33,779.31,783.36,788.05,792.87,797.67,802.52,808.38,815.00,819.09,817.11,811.02,805.97,801.09,796.61,795.41,800.70,806.40,811.26,816.56,824.97,832.31,838.76,844.60,849.11,853.10,857.77,863.26,868.54,869.63,869.26,868.88,869.17,870.05,870.58,870.96,871.38,871.87,872.50,873.71,876.13,880.91,887.38,891.00,892.28,892.02,891.26,890.28,889.31,888.62,888.81,890.46,893.47,896.59,898.81,901.64,906.53,911.59,915.87,919.30,920.98,921.19,920.15,917.89,915.91,913.89,911.96,910.41,909.75,909.35,909.01,908.68,908.31,907.98,907.61,907.22,906.84,906.49,906.20,905.85,905.40,905.01,904.69,904.38,904.07,903.79,903.70,903.78,903.93,904.09,904.30,904.47,904.62,904.78,904.92
678.12,677.74,677.45,677.38,677.60,677.76,677.94,678.09,678.15,678.19,678.23,678.25,678.25,678.25,678.28,678.33,678.36,678.41,678.54,678.99,679.49,679.88,680.06,680.02,679.92,679.79,679.64,679.52,679.52,679.74,680.18,680.66,680.91,680.93,680.83,680.78,680.94,681.29,681.73,682.20,682.69,682.89,682.86,682.72,682.61,682.53,682.50,682.51,682.55,682.58,682.74,683.02,683.29,683.11,682.63,682.09,681.56,681.12,681.04,681.47,682.09,682.70,683.28,683.86,684.25,684.31,683.93,683.58,683.25,682.94,682.64,682.37,682.10,681.81,681.52,681.33,681.27,681.81,682.82,683.82,684.83,685.83,686.81,687.73,688.66,689.74,692.66,697.24,701.25,704.04,706.96,709.56,710.88,711.59,711.96,711.75,710.91,710.15,709.54,709.02,708.73,708.83,708.33,708.25,708.25,707.92,707.50,707.11,706.91,707.04,707.62,708.39,709.46,710.82,712.41,713.86,715.29,716.75,718.37,720.48,724.13,727.98,732.10,737.41,741.84,742.91,742.14,741.16,741.22,742.64,744.94,747.82,750.79,752.14,751.13,749.02,747.59,747.22,746.70,745.89,744.94,744.24,744.54,745.48,746.82,748.84,753.26,759.33,765.38,770.35,775.45,781.75,789.20,797.00,802.89,807.15,808.00,805.57,800.25,794.52,788.73,785.08,785.23,788.67,792.83,797.30,801.91,806.41,810.78,817.30,823.02,823.89,818.59,813.04,807.26,801.54,798.12,800.99,806.22,811.64,816.38,823.20,830.38,837.62,844.78,851.21,855.70,860.76,866.40,870.41,871.85,872.09,872.36,873.43,874.98,875.64,875.97,876.33,876.84,877.60,879.12,881.69,885.51,889.08,890.71,890.78,889.70,888.29,886.74,885.47,884.69,884.72,886.66,890.08,893.32,895.19,897.76,902.04,907.56,913.74,919.07,921.19,921.09,919.34,916.19,913.68,911.85,910.50,909.62,909.26,908.95,908.64,908.32,907.98,907.66,907.31,906.93,906.59,906.24,905.92,905.56,905.15,904.80,904.48,904.15,903.82,903.52,903.27,903.20,903.26,903.42,903.61,903.77,903.92,904.08,904.23
677.83,677.46,677.12,676.99,677.20,677.37,677.51,677.63,677.69,677.70,677.75,677.78,677.78,677.78,677.79,677.84,677.88,677.92,678.08,678.53,678.98,679.26,679.32,679.27,679.15,679.00,678.84,678.69,678.79,679.12,679.63,680.07,680.31,680.32,680.22,680.24,680.52,680.94,681.41,681.89,682.35,682.40,682.28,682.13,681.98,681.88,681.84,681.84,681.86,681.94,682.21,682.57,682.82,682.61,682.12,681.57,681.02,680.56,680.56,681.01,681.63,682.24,682.79,683.39,683.76,683.78,683.41,683.03,682.68,682.36,682.05,681.74,681.48,681.23,680.99,680.88,681.00,681.69,682.77,683.86,684.94,685.97,686.96,687.92,688.88,690.30,693.41,697.83,701.41,704.30,707.06,709.40,710.87,712.15,713.21,713.64,713.41,713.34,713.19,712.96,712.85,713.19,712.69,711.80,710.87,710.05,709.52,709.05,708.80,708.90,709.49,710.31,711.28,712.39,713.68,714.98,716.35,717.82,719.60,722.33,726.84,731.21,735.26,739.83,744.44,746.54,746.86,746.37,746.24,746.81,748.38,750.96,754.09,755.86,754.73,752.24,750.68,749.97,749.16,748.20,747.22,746.40,746.61,747.04,747.71,749.58,753.73,759.19,764.62,769.30,774.71,780.73,787.76,795.55,802.63,808.94,812.42,812.11,807.08,801.43,795.97,792.19,791.46,794.27,797.94,802.56,807.71,811.98,814.20,819.40,825.66,829.03,825.19,819.35,812.82,806.28,801.53,801.90,806.10,811.66,816.23,821.17,827.85,835.69,844.22,852.79,858.20,863.61,868.93,871.28,872.90,873.76,874.68,876.46,878.60,879.55,880.07,880.57,881.10,881.79,883.31,885.58,888.06,888.86,888.92,888.28,886.82,885.04,883.15,881.75,881.00,880.95,883.07,886.70,890.10,891.96,894.41,897.86,903.32,910.81,918.01,920.97,920.73,918.28,914.40,911.67,910.22,909.51,909.19,908.88,908.58,908.26,907.96,907.64,907.33,906.97,906.62,906.31,905.99,905.63,905.25,904.89,904.58,904.26,903.91,903.55,903.25,902.94,902.73,902.67,902.78,902.92,903.07,903.23,903.38,903.53
677.49,677.13,676.76,676.58,676.75,676.97,677.09,677.17,677.24,677.24,677.25,677.26,677.26,677.27,677.32,677.35,677.38,677.46,677.62,678.08,678.44,678.60,678.62,678.61,678.50,678.35,678.19,678.04,678.21,678.58,679.04,679.43,679.54,679.54,679.57,679.77,680.16,680.62,681.11,681.58,681.82,681.82,681.70,681.55,681.39,681.25,681.20,681.20,681.22,681.34,681.70,682.11,682.38,682.15,681.62,681.05,680.51,680.05,680.10,680.56,681.18,681.78,682.33,682.93,683.29,683.27,682.89,682.50,682.13,681.78,681.47,681.16,680.86,680.64,680.55,680.59,680.87,681.63,682.71,683.79,684.87,685.94,687.00,688.05,689.13,690.88,693.76,697.31,699.96,702.61,705.23,707.62,709.43,710.55,711.76,713.11,714.57,716.13,716.57,716.82,717.44,718.74,719.26,718.12,715.98,713.67,712.60,711.79,711.31,711.34,712.08,713.25,714.26,714.90,715.28,716.42,717.77,719.41,721.58,724.60,729.05,733.55,737.86,742.45,747.27,750.68,752.50,752.80,752.86,753.00,753.94,755.93,758.61,759.97,759.11,757.16,755.72,754.39,752.50,750.71,749.44,748.55,748.54,748.82,749.55,751.73,755.56,759.95,764.34,768.64,773.76,780.65,787.90,794.80,801.19,808.30,815.21,818.52,813.79,807.79,801.96,797.62,796.19,798.90,802.63,808.68,815.83,820.02,819.90,822.89,827.85,831.12,827.77,823.19,817.62,811.35,806.35,805.05,806.51,810.29,816.35,821.62,827.86,835.03,843.23,852.75,859.45,864.49,868.32,870.57,871.97,873.06,874.45,876.59,878.86,880.37,881.45,882.31,883.04,883.13,883.39,883.85,884.24,884.50,884.50,884.01,882.82,881.24,879.43,878.26,877.89,878.11,879.87,883.14,886.51,888.74,890.88,894.33,899.44,906.50,915.13,919.99,919.77,916.23,912.28,910.38,909.58,909.18,908.87,908.56,908.25,907.94,907.63,907.32,906.96,906.62,906.29,905.98,905.62,905.28,904.95,904.63,904.32,903.96,903.62,903.29,902.99,902.68,902.43,902.26,902.20,902.28,902.42,902.58,902.73,902.88
677.08,676.82,676.47,676.25,676.35,676.54,676.64,676.71,676.75,676.78,676.78,676.78,676.78,676.79,676.83,676.84,676.87,676.97,677.19,677.59,677.84,677.90,677.91,677.94,677.85,677.70,677.55,677.46,677.67,678.05,678.48,678.75,678.83,678.91,679.08,679.44,679.91,680.34,680.75,681.12,681.23,681.19,681.09,680.96,680.81,680.65,680.55,680.51,680.59,680.82,681.21,681.58,681.79,681.60,681.15,680.64,680.11,679.61,679.84,680.33,680.88,681.42,681.97,682.54,682.84,682.75,682.37,681.99,681.60,681.24,680.93,680.58,680.34,680.22,680.24,680.33,680.74,681.56,682.64,683.72,684.78,685.82,686.85,687.88,688.97,690.58,692.58,694.86,697.30,700.01,702.66,705.02,706.81,708.12,709.60,711.41,713.65,716.22,718.00,719.50,721.01,722.70,724.02,723.40,721.35,718.62,716.72,715.60,714.90,714.67,715.33,716.53,717.41,717.76,717.70,718.28,719.42,721.26,723.90,727.01,731.59,736.22,740.58,745.08,750.65,755.12,757.98,759.08,759.55,760.15,760.82,761.75,763.43,763.94,763.04,761.54,760.28,758.59,756.27,754.12,752.58,751.35,751.32,752.19,753.79,756.21,759.06,762.19,765.49,769.37,775.26,783.17,790.90,797.65,803.82,810.42,817.80,822.55,819.64,814.02,808.45,804.08,802.10,804.24,807.96,814.98,823.26,826.86,825.52,826.68,830.06,833.07,831.45,828.54,824.27,818.87,814.11,811.45,809.38,809.43,814.67,820.87,826.95,833.62,841.50,850.11,857.04,861.88,864.74,865.98,867.61,869.68,871.85,873.83,875.71,877.59,879.13,880.17,880.71,880.27,879.89,879.73,879.59,879.82,879.88,879.52,878.53,876.88,875.42,874.72,874.91,875.97,877.98,880.88,883.86,886.16,888.36,891.65,896.41,903.58,914.23,919.57,918.12,913.38,910.72,909.60,909.12,908.81,908.50,908.19,907.88,907.57,907.26,906.95,906.60,906.28,905.96,905.62,905.27,904.95,904.63,904.34,904.05,903.69,903.35,903.03,902.72,902.42,902.13,901.90,901.75,901.74,901.78,901.88,902.05,902.22
676.66,676.48,676.18,675.94,675.95,676.09,676.19,676.23,676.25,676.31,676.32,676.32,676.32,676.32,676.33,676.34,676.36,676.47,676.77,677.05,677.18,677.19,677.21,677.26,677.19,677.05,676.92,676.91,677.15,677.52,677.92,678.08,678.18,678.38,678.69,679.15,679.68,680.05,680.33,680.56,680.58,680.52,680.44,680.35,680.21,680.05,679.90,679.83,679.96,680.31,680.68,680.98,681.11,680.95,680.61,680.17,679.66,679.19,679.62,680.15,680.63,681.11,681.62,682.14,682.37,682.22,681.86,681.48,681.09,680.73,680.41,680.07,679.90,679.87,679.95,680.07,680.57,681.43,682.49,683.56,684.56,685.57,686.55,687.50,688.56,689.79,690.77,691.84,694.24,697.09,699.84,702.18,703.88,705.52,707.27,709.34,711.96,715.20,718.38,721.12,723.40,725.35,727.39,727.62,726.30,723.85,721.28,719.88,718.94,718.38,718.85,719.90,720.62,720.83,720.54,720.39,721.25,723.22,726.21,729.51,734.33,739.04,743.24,747.55,753.95,759.10,762.60,764.58,765.97,767.52,768.18,768.04,768.53,768.09,766.98,765.63,764.35,762.49,760.11,757.84,755.98,754.47,754.51,756.21,758.92,761.46,763.34,765.51,768.14,771.79,778.54,787.03,795.18,802.22,808.43,814.07,820.59,825.63,824.95,820.36,815.43,811.33,809.02,810.12,813.27,820.48,829.25,832.63,831.06,830.78,832.48,835.11,835.47,834.24,831.25,826.75,822.25,818.44,813.22,809.48,812.53,819.18,824.91,830.93,838.25,845.34,852.05,856.96,859.56,859.91,861.94,864.98,867.79,869.43,870.86,872.94,874.75,875.79,876.11,875.39,874.82,874.59,874.56,874.98,875.17,874.99,874.21,872.53,871.56,871.42,872.16,874.10,876.55,879.23,881.84,884.21,886.70,889.95,894.59,902.13,914.62,919.44,916.37,910.67,909.60,909.08,908.73,908.42,908.12,907.81,907.50,907.19,906.88,906.58,906.26,905.94,905.61,905.25,904.93,904.62,904.31,904.00,903.76,903.42,903.09,902.77,902.47,902.15,901.84,901.58,901.37,901.27,901.18,901.21,901.35,901.55
676.26,676.05,675.80,675.59,675.51,675.64,675.74,675.77,675.78,675.80,675.80,675.80,675.80,675.81,675.86,675.88,675.88,675.97,676.30,676.44,676.47,676.49,676.54,676.57,676.51,676.40,676.28,676.37,676.59,676.94,677.32,677.45,677.62,677.97,678.41,678.83,679.36,679.66,679.81,679.87,679.87,679.81,679.74,679.65,679.56,679.41,679.25,679.20,679.37,679.73,680.03,680.20,680.22,680.06,679.72,679.29,678.87,678.68,679.18,679.77,680.31,680.76,681.19,681.62,681.78,681.67,681.39,681.02,680.64,680.27,679.98,679.76,679.56,679.48,679.59,679.79,680.28,681.07,682.05,683.06,684.02,685.00,685.98,686.91,687.87,688.58,689.12,689.86,691.67,694.45,697.26,699.75,701.80,703.63,705.49,707.78,710.75,714.41,718.01,720.79,723.06,725.73,728.61,729.60,729.26,728.04,725.72,724.24,722.98,722.01,722.35,723.10,723.79,724.10,723.66,722.80,723.40,725.10,727.85,732.03,737.34,741.87,745.48,749.39,756.10,760.98,764.36,767.41,771.24,774.18,775.26,774.73,774.23,773.17,771.62,769.68,767.44,765.59,763.54,761.17,758.82,757.67,757.85,760.10,763.49,765.81,767.78,770.54,773.97,778.20,784.39,791.70,799.56,807.33,813.70,818.89,824.50,829.08,829.61,827.25,823.35,819.86,817.84,816.91,817.43,822.69,831.05,836.46,836.52,835.50,835.61,837.61,838.89,838.72,836.42,832.03,827.00,822.32,816.76,812.01,811.65,815.95,820.11,824.67,830.51,836.93,843.44,849.16,853.24,854.67,857.04,859.73,862.06,863.60,865.20,867.14,868.66,869.48,869.93,869.88,869.66,869.44,869.41,870.00,870.45,870.60,870.24,869.07,868.80,869.09,870.01,872.09,874.71,877.67,880.66,883.52,886.58,890.49,895.80,903.88,916.53,919.50,915.37,909.78,909.16,908.75,908.37,908.05,907.79,907.49,907.18,906.87,906.56,906.25,905.89,905.56,905.24,904.92,904.61,904.29,903.96,903.62,903.38,903.12,902.82,902.51,902.20,901.84,901.55,901.31,901.09,900.89,900.74,900.66,900.69,900.85
675.83,675.63,675.41,675.21,675.10,675.19,675.26,675.28,675.29,675.32,675.33,675.33,675.33,675.33,675.37,675.38,675.38,675.43,675.70,675.76,675.78,675.81,675.85,675.86,675.83,675.77,675.72,675.84,676.05,676.37,676.72,676.88,677.16,677.59,678.09,678.53,679.01,679.27,679.36,679.35,679.29,679.19,679.09,678.98,678.90,678.76,678.61,678.58,678.81,679.15,679.44,679.57,679.51,679.35,679.01,678.58,678.24,678.27,678.81,679.38,679.88,680.28,680.66,681.00,681.14,681.05,680.82,680.53,680.20,679.87,679.61,679.44,679.25,679.18,679.30,679.59,680.00,680.68,681.57,682.51,683.44,684.42,685.36,686.20,687.03,687.65,688.23,688.95,690.29,692.62,695.12,697.52,699.78,701.80,703.99,706.59,709.71,713.21,716.68,719.42,721.81,724.87,728.45,730.14,730.55,730.22,728.77,727.68,726.57,725.62,725.86,726.47,727.04,727.17,726.45,725.20,725.40,726.80,729.52,734.32,739.43,743.52,746.67,750.19,756.89,762.10,766.06,770.06,775.55,778.93,780.21,780.04,779.74,778.81,776.98,774.39,771.47,769.81,768.49,767.27,766.26,765.88,766.15,767.84,770.42,772.56,775.10,778.28,781.81,785.80,791.44,798.09,805.46,813.00,819.23,824.00,828.15,831.36,832.47,831.40,828.95,826.67,825.27,823.92,823.23,826.25,832.60,839.00,840.48,839.75,839.25,840.43,841.96,842.29,840.54,836.46,830.83,825.31,819.74,815.11,813.52,815.52,818.36,821.37,824.84,829.80,835.42,840.97,845.81,849.08,852.04,854.62,856.76,858.40,860.12,861.98,863.30,863.90,864.31,864.51,864.52,864.48,864.71,865.40,866.04,866.50,866.63,866.17,866.58,867.54,868.96,871.04,873.98,877.25,880.85,884.80,888.42,892.92,898.36,905.91,917.52,917.09,912.86,909.30,908.82,908.39,908.02,907.70,907.43,907.12,906.81,906.50,906.19,905.88,905.53,905.21,904.90,904.59,904.25,903.93,903.60,903.26,903.00,902.76,902.52,902.25,901.91,901.55,901.28,901.05,900.81,900.55,900.38,900.23,900.14,900.19
675.40,675.23,675.02,674.82,674.70,674.75,674.77,674.77,674.78,674.85,674.86,674.86,674.86,674.87,674.87,674.87,674.87,674.90,675.03,675.06,675.10,675.15,675.16,675.16,675.15,675.15,675.19,675.33,675.54,675.81,676.11,676.37,676.78,677.25,677.74,678.25,678.66,678.88,678.96,678.93,678.79,678.63,678.48,678.34,678.25,678.12,677.97,677.97,678.26,678.58,678.89,679.02,678.93,678.76,678.42,678.00,677.71,677.92,678.48,678.99,679.39,679.72,680.07,680.34,680.45,680.41,680.21,680.03,679.77,679.50,679.28,679.11,678.96,678.92,679.08,679.44,679.78,680.37,681.18,682.05,682.96,683.93,684.81,685.53,686.26,687.06,687.88,688.72,689.75,691.50,693.52,695.68,697.96,700.09,702.62,705.49,708.59,711.62,714.70,717.42,720.04,723.28,727.38,729.75,730.80,731.07,730.73,730.30,729.65,729.00,729.18,729.76,730.10,729.89,728.89,727.54,727.33,728.49,731.40,736.45,740.86,744.30,747.12,750.32,756.86,762.75,767.83,772.88,778.97,782.07,783.50,784.19,784.82,784.53,782.72,779.79,776.58,775.22,774.83,775.28,776.36,776.85,777.25,777.98,779.19,781.20,784.28,787.53,790.63,793.88,798.98,805.46,812.29,818.89,824.58,828.71,831.15,832.69,833.99,833.74,832.96,832.16,831.48,830.68,829.82,830.74,834.27,840.53,843.29,843.59,843.22,843.52,844.86,845.40,844.04,840.23,834.07,828.01,822.70,818.81,817.46,817.76,819.73,821.44,822.39,825.15,828.94,833.29,838.06,843.14,846.90,849.66,851.85,853.71,855.47,857.28,858.53,859.06,859.41,859.63,859.76,859.97,860.51,861.24,862.03,862.80,863.45,863.83,864.91,866.62,868.69,870.81,874.10,877.65,881.85,887.12,891.23,896.11,901.29,907.77,917.88,913.76,909.88,909.04,908.51,908.03,907.66,907.35,907.05,906.74,906.43,906.12,905.82,905.50,905.19,904.88,904.56,904.25,903.88,903.55,903.24,902.93,902.63,902.38,902.19,901.96,901.60,901.28,901.02,900.78,900.53,900.24,900.03,899.83,899.63,899.56
675.00,674.84,674.63,674.43,674.30,674.31,674.32,674.32,674.32,674.34,674.34,674.34,674.36,674.41,674.41,674.41,674.41,674.41,674.40,674.40,674.44,674.50,674.50,674.50,674.50,674.54,674.67,674.86,675.05,675.28,675.61,676.01,676.45,676.95,677.46,677.93,678.33,678.49,678.49,678.42,678.27,678.07,677.87,677.69,677.61,677.51,677.38,677.38,677.69,678.00,678.31,678.44,678.34,678.13,677.82,677.44,677.23,677.58,678.10,678.56,678.93,679.23,679.46,679.65,679.79,679.84,679.72,679.57,679.36,679.13,678.94,678.74,678.61,678.68,678.99,679.37,679.74,680.36,681.20,682.05,682.97,683.88,684.72,685.48,686.27,687.11,687.94,688.75,689.70,691.34,693.18,695.07,696.97,698.82,701.11,703.79,706.70,709.46,712.30,715.15,718.10,721.52,725.75,728.87,730.73,731.45,731.75,731.83,731.65,731.38,731.55,732.02,732.09,731.69,730.85,729.75,729.41,730.70,734.06,738.60,741.84,744.53,747.11,750.27,756.70,763.00,769.52,776.52,780.86,783.33,785.28,787.12,788.55,789.11,788.32,786.37,783.75,782.78,783.09,784.01,785.16,786.03,786.83,787.97,789.51,791.37,793.70,796.22,798.74,801.49,805.78,812.53,819.03,824.23,828.42,830.90,832.20,833.11,834.42,835.84,836.62,836.78,836.38,835.73,834.98,834.95,836.50,840.85,845.12,846.98,847.19,846.96,847.88,848.78,847.42,843.01,836.71,831.37,827.09,824.11,823.14,823.89,826.09,827.77,827.91,827.64,827.22,828.53,831.92,836.89,841.56,844.84,847.25,849.33,850.95,852.62,854.06,855.15,855.97,856.46,856.81,857.07,857.32,857.92,858.92,860.04,861.18,862.58,864.40,866.54,868.93,871.60,874.84,878.35,882.81,888.63,893.09,897.66,902.47,908.67,918.35,913.47,909.42,908.84,908.29,907.73,907.30,906.98,906.72,906.41,906.11,905.79,905.49,905.17,904.87,904.53,904.18,903.87,903.54,903.22,902.91,902.61,902.30,902.05,901.83,901.61,901.33,901.02,900.73,900.46,900.22,899.91,899.60,899.30,899.05,898.93
674.60,674.42,674.23,674.04,673.91,673.89,673.88,673.86,673.86,673.86,673.86,673.86,673.88,673.95,673.96,673.96,673.95,673.91,673.84,673.82,673.85,673.89,673.89,673.89,673.89,673.95,674.14,674.37,674.56,674.83,675.21,675.66,676.13,676.64,677.15,677.61,677.98,678.08,678.00,677.87,677.71,677.50,677.28,677.10,676.97,676.88,676.77,676.80,677.13,677.45,677.74,677.84,677.72,677.51,677.22,676.90,676.78,677.23,677.70,678.11,678.41,678.63,678.79,678.94,679.10,679.21,679.18,679.07,678.88,678.67,678.52,678.34,678.35,678.59,679.00,679.41,679.84,680.51,681.37,682.22,683.11,683.98,684.80,685.58,686.40,687.24,688.07,688.87,689.77,691.34,693.05,694.72,696.37,698.02,699.90,702.23,704.99,707.71,710.54,713.59,716.83,720.30,724.50,727.95,730.26,731.24,731.72,731.98,732.19,732.43,732.79,733.34,733.60,733.43,732.75,731.91,731.88,733.45,736.77,740.34,742.80,745.08,747.50,750.54,757.01,764.11,771.62,778.95,782.06,784.07,786.09,788.27,790.17,791.25,791.80,791.53,790.11,789.87,790.77,791.97,793.00,793.96,794.89,796.14,797.79,799.72,801.45,803.44,805.68,808.38,812.44,818.03,822.88,826.24,828.82,830.61,831.44,831.92,833.05,835.57,838.04,839.66,840.16,840.27,839.87,839.76,840.61,843.46,847.81,850.65,851.75,851.59,851.92,852.64,851.04,846.28,840.03,835.26,831.95,829.96,829.46,830.21,832.19,833.70,833.52,831.74,829.50,828.77,829.92,832.55,836.02,839.84,843.13,845.15,846.73,848.41,850.09,851.62,852.74,853.53,854.12,854.69,855.47,856.59,857.88,859.25,860.76,862.63,864.46,866.46,868.77,871.51,874.66,878.08,882.70,889.06,893.51,898.18,903.06,909.22,918.64,913.51,909.36,908.79,908.25,907.78,907.32,906.89,906.51,906.08,905.74,905.45,905.16,904.85,904.52,904.17,903.83,903.51,903.21,902.90,902.59,902.28,901.98,901.71,901.46,901.24,901.02,900.75,900.45,900.15,899.86,899.52,899.15,898.79,898.49,898.29
674.21,673.99,673.81,673.65,673.52,673.50,673.45,673.41,673.40,673.40,673.40,673.40,673.42,673.50,673.50,673.50,673.48,673.40,673.32,673.30,673.30,673.31,673.31,673.31,673.31,673.39,673.62,673.85,674.10,674.44,674.89,675.35,675.82,676.32,676.83,677.28,677.60,677.63,677.50,677.30,677.13,676.92,676.72,676.55,676.35,676.24,676.16,676.24,676.61,676.93,677.18,677.24,677.09,676.92,676.64,676.38,676.36,676.86,677.27,677.60,677.82,677.93,678.08,678.23,678.39,678.52,678.58,678.53,678.37,678.17,678.03,677.97,678.22,678.62,679.08,679.54,680.06,680.78,681.62,682.47,683.32,684.17,684.99,685.77,686.55,687.38,688.22,689.05,689.91,691.40,693.00,694.55,696.10,697.63,699.05,700.95,703.57,706.43,709.40,712.67,716.14,719.58,723.58,726.96,729.31,730.40,730.78,730.96,731.44,732.25,732.95,733.76,734.56,734.95,734.50,733.97,734.58,736.40,739.17,741.60,743.72,745.92,748.31,751.34,757.97,765.99,773.77,779.81,782.47,784.22,785.87,787.67,789.73,790.99,792.85,794.54,794.76,795.56,797.01,798.39,799.38,800.23,801.07,802.09,803.56,805.74,807.14,808.81,810.93,813.77,817.86,821.14,823.43,824.86,825.93,827.81,828.81,829.27,830.50,833.48,837.30,840.44,842.25,843.71,843.99,844.60,845.96,848.02,851.27,854.42,856.48,856.79,856.56,856.64,854.78,850.12,844.05,839.58,837.07,836.03,835.97,836.14,837.34,838.39,838.22,836.43,834.65,833.06,831.68,830.76,831.45,835.48,839.78,841.47,843.11,844.94,846.82,848.55,849.78,850.81,851.74,852.93,854.94,857.04,858.88,860.57,862.25,864.00,865.31,866.77,868.56,870.75,873.73,876.99,881.64,888.38,892.74,897.94,903.29,909.51,918.72,913.53,909.39,908.87,908.38,908.15,907.68,907.08,906.49,905.83,905.43,905.13,904.85,904.52,904.15,903.82,903.50,903.19,902.88,902.58,902.26,901.96,901.64,901.34,901.08,900.87,900.69,900.46,900.17,899.84,899.46,899.08,898.69,898.31,897.94,897.67
673.82,673.60,673.41,673.28,673.18,673.13,673.06,672.99,672.95,672.95,672.95,672.95,672.98,673.04,673.05,673.05,673.00,672.88,672.80,672.75,672.73,672.74,672.78,672.79,672.79,672.87,673.10,673.33,673.71,674.18,674.67,675.09,675.55,676.02,676.51,676.94,677.14,677.10,676.93,676.71,676.55,676.34,676.14,675.97,675.75,675.60,675.57,675.72,676.10,676.41,676.62,676.65,676.50,676.34,676.06,675.90,676.00,676.42,676.73,676.97,677.12,677.22,677.36,677.52,677.67,677.82,677.93,677.93,677.87,677.75,677.62,677.88,678.29,678.74,679.20,679.67,680.28,681.03,681.87,682.67,683.52,684.37,685.19,685.96,686.74,687.53,688.35,689.21,690.14,691.63,693.21,694.72,696.15,697.51,698.72,700.20,702.34,705.41,708.46,711.74,715.26,718.82,722.31,725.20,727.35,728.65,729.29,729.43,729.91,730.89,731.89,732.93,734.01,734.87,735.21,735.54,736.44,737.90,739.91,742.13,744.26,746.51,749.26,753.54,760.45,767.68,773.83,778.02,780.78,782.25,783.64,785.33,787.03,788.36,790.41,792.74,794.50,796.68,798.60,800.10,801.11,801.76,802.82,804.15,805.89,808.23,809.32,810.42,811.72,813.29,815.70,817.70,819.32,820.40,820.53,821.37,822.93,825.58,829.72,832.88,835.31,837.20,838.94,841.97,843.95,846.20,848.89,851.37,854.12,856.97,858.98,859.34,859.32,859.23,857.81,854.16,848.13,844.14,842.12,841.39,841.31,841.10,841.28,841.74,841.94,840.52,838.75,836.93,835.20,833.96,834.08,836.17,838.61,839.98,841.71,843.52,845.31,846.93,848.14,849.38,851.02,853.16,855.85,858.24,861.85,864.82,865.99,867.12,868.65,869.83,870.54,871.35,873.47,876.36,880.47,886.30,891.82,897.72,903.32,909.53,918.65,913.53,909.49,909.03,908.71,908.53,908.06,907.44,906.81,906.13,905.58,905.09,904.61,904.16,903.80,903.49,903.17,902.87,902.56,902.25,901.94,901.63,901.32,901.01,900.75,900.52,900.32,900.09,899.77,899.40,899.01,898.63,898.20,897.79,897.41,897.08
673.43,673.21,673.02,672.90,672.83,672.76,672.70,672.62,672.55,672.53,672.51,672.50,672.52,672.59,672.60,672.60,672.54,672.39,672.28,672.20,672.17,672.18,672.23,672.24,672.25,672.34,672.59,672.90,673.39,673.92,674.42,674.83,675.29,675.75,676.21,676.62,676.67,676.53,676.33,676.13,675.94,675.74,675.55,675.36,675.16,674.97,674.99,675.20,675.58,675.89,676.07,676.06,675.88,675.73,675.48,675.42,675.59,675.89,676.11,676.27,676.39,676.50,676.65,676.79,676.93,677.09,677.25,677.32,677.34,677.33,677.38,677.86,678.39,678.89,679.36,679.83,680.50,681.30,682.12,682.90,683.74,684.59,685.41,686.18,686.93,687.70,688.50,689.36,690.38,691.87,693.37,694.77,696.10,697.36,698.44,699.58,701.21,704.25,707.36,710.66,714.12,717.55,720.62,723.13,725.08,726.40,727.32,727.66,728.30,729.50,730.88,732.11,733.26,734.32,735.15,735.90,736.89,738.17,739.76,741.57,743.82,746.36,749.66,754.98,761.75,767.41,771.44,773.83,776.05,777.40,779.18,781.55,783.41,784.96,787.08,789.62,792.16,794.82,796.79,798.20,799.10,799.63,800.73,802.30,804.21,806.27,807.15,807.93,808.72,809.49,810.65,811.69,812.71,813.44,813.14,813.85,817.09,822.25,827.83,830.44,831.58,832.31,833.55,836.77,839.96,843.72,847.88,851.49,854.46,857.00,858.97,860.05,860.59,860.56,859.64,857.09,851.79,848.38,846.77,846.21,845.86,845.01,844.50,844.62,845.12,844.43,842.90,840.90,838.91,837.77,837.80,838.54,839.53,840.63,842.36,844.14,845.78,847.18,848.29,849.58,851.54,854.13,857.19,860.64,865.69,869.43,870.19,870.82,872.65,873.70,873.59,873.28,874.25,876.47,880.08,885.46,891.60,897.61,903.22,909.54,918.63,914.10,910.08,909.31,909.09,908.92,908.47,907.85,907.21,906.53,905.89,905.26,904.64,904.02,903.57,903.19,902.85,902.54,902.24,901.92,901.60,901.28,900.97,900.68,900.41,900.16,899.90,899.65,899.30,898.92,898.53,898.14,897.71,897.30,896.91,896.52
673.04,672.82,672.64,672.51,672.44,672.43,672.37,672.29,672.22,672.15,672.08,672.05,672.07,672.13,672.14,672.14,672.08,671.92,671.78,671.69,671.65,671.65,671.65,671.65,671.70,671.83,672.12,672.60,673.13,673.64,674.11,674.57,675.03,675.49,675.95,676.33,676.21,675.95,675.70,675.52,675.30,675.13,674.93,674.73,674.56,674.35,674.40,674.67,675.05,675.37,675.50,675.45,675.25,675.09,674.92,674.93,675.08,675.25,675.42,675.53,675.64,675.79,675.94,676.04,676.16,676.34,676.56,676.72,676.78,676.93,677.33,677.85,678.49,679.07,679.55,680.05,680.76,681.56,682.39,683.17,684.00,684.85,685.66,686.43,687.14,687.89,688.67,689.51,690.61,692.06,693.38,694.60,695.85,697.09,698.11,699.01,700.23,702.85,706.01,709.34,712.61,715.57,718.40,720.81,722.63,723.79,724.90,725.69,726.76,728.33,730.20,731.55,732.61,733.53,734.32,734.87,735.79,737.24,738.97,739.99,742.41,745.50,749.42,755.18,761.08,764.64,766.46,767.32,768.18,769.61,772.43,776.26,778.99,781.02,783.33,785.87,788.24,790.18,791.59,792.59,793.26,793.84,794.83,796.44,798.32,799.67,800.47,801.24,802.05,802.84,803.65,803.96,804.19,804.37,804.27,806.27,812.16,819.39,823.83,825.14,825.76,826.21,826.81,828.75,832.33,837.12,842.56,847.70,851.54,854.00,856.23,858.88,860.30,860.58,860.07,858.38,854.62,851.91,850.71,850.30,849.53,847.81,847.06,847.19,847.82,848.14,847.13,844.92,842.36,841.16,841.28,841.87,842.58,843.44,845.04,846.80,848.32,849.49,850.43,851.63,853.36,855.63,858.82,864.30,870.05,873.81,874.55,874.98,877.00,877.99,877.43,876.51,876.22,877.47,880.70,886.28,892.11,897.52,902.94,909.54,918.73,915.42,911.44,909.84,909.53,909.33,908.89,908.29,907.62,906.98,906.29,905.63,904.95,904.19,903.51,902.96,902.54,902.23,901.91,901.60,901.26,900.90,900.59,900.33,900.05,899.75,899.45,899.14,898.79,898.40,898.02,897.63,897.24,896.84,896.44,896.01
672.65,672.43,672.25,672.12,672.05,672.05,672.02,671.97,671.89,671.82,671.74,671.65,671.61,671.67,671.69,671.69,671.61,671.41,671.26,671.17,671.10,671.07,671.07,671.07,671.15,671.37,671.81,672.33,672.84,673.34,673.85,674.35,674.79,675.23,675.65,675.92,675.76,675.41,675.09,674.88,674.66,674.49,674.29,674.08,673.91,673.70,673.79,674.10,674.48,674.84,674.92,674.83,674.64,674.49,674.34,674.36,674.50,674.61,674.76,674.87,674.97,675.13,675.28,675.37,675.49,675.69,676.05,676.31,676.55,676.86,677.32,677.81,678.45,679.11,679.73,680.42,681.17,681.96,682.76,683.53,684.29,685.08,685.87,686.63,687.34,688.09,688.84,689.64,690.69,691.96,693.18,694.37,695.59,696.78,697.75,698.60,699.62,701.47,704.35,707.41,710.28,712.81,715.40,717.95,720.10,721.57,722.72,723.71,725.16,727.21,729.44,730.83,731.83,732.66,733.34,733.83,734.74,736.48,738.75,739.80,742.57,746.03,750.01,754.91,758.78,760.57,761.17,761.42,761.89,763.20,765.98,769.89,773.24,776.22,779.13,781.78,783.65,784.45,784.33,784.45,785.41,786.85,788.49,790.34,792.21,793.65,794.54,795.11,795.55,796.00,796.49,796.68,797.15,798.14,799.63,803.33,809.30,814.86,816.49,817.22,818.17,819.34,820.95,824.05,828.01,832.49,837.23,841.85,845.75,848.98,852.21,855.84,858.87,860.12,859.65,857.58,854.51,852.98,852.56,852.48,851.81,850.15,849.36,849.62,850.58,850.68,849.59,847.30,844.72,843.87,844.23,845.02,845.75,846.34,847.79,849.41,850.98,852.39,853.59,854.96,856.24,857.86,861.09,867.36,873.34,877.57,879.45,880.25,881.98,882.14,880.66,879.49,878.78,879.20,881.40,886.02,891.06,896.47,902.22,909.21,918.76,917.43,914.05,911.70,910.54,909.85,909.31,908.77,908.15,907.44,906.61,905.74,905.00,904.56,903.80,903.03,902.39,901.96,901.60,901.27,900.95,900.61,900.26,899.93,899.59,899.25,898.94,898.63,898.30,897.94,897.54,897.12,896.72,896.33,895.94,895.53
672.26,672.04,671.86,671.74,671.69,671.66,671.65,671.63,671.57,671.49,671.41,671.29,671.19,671.23,671.24,671.24,671.13,670.90,670.74,670.65,670.57,670.51,670.51,670.51,670.66,670.99,671.53,672.05,672.54,673.05,673.59,674.11,674.55,674.99,675.35,675.48,675.31,674.91,674.53,674.26,674.01,673.84,673.65,673.45,673.27,673.06,673.18,673.52,673.91,674.33,674.35,674.21,674.06,673.91,673.78,673.82,673.96,674.06,674.19,674.30,674.42,674.57,674.71,674.85,675.07,675.41,675.91,676.27,676.63,677.03,677.48,677.93,678.46,679.09,679.78,680.49,681.23,681.99,682.78,683.58,684.32,685.10,685.90,686.71,687.47,688.22,688.96,689.75,690.83,691.94,693.06,694.20,695.37,696.46,697.36,698.20,699.08,700.25,702.55,705.14,707.55,709.60,711.97,714.72,717.29,719.15,720.51,721.80,723.58,725.89,728.25,729.83,730.92,731.71,732.23,732.71,733.74,735.76,738.51,740.09,743.20,746.77,750.39,753.90,755.90,756.54,756.60,756.64,757.07,758.36,760.85,764.38,767.95,771.50,774.71,777.26,778.55,778.44,777.32,776.85,777.89,779.90,782.11,783.99,785.53,786.90,788.14,789.07,789.63,789.82,790.05,790.46,791.72,794.03,797.13,801.89,806.78,809.79,809.00,809.05,810.10,811.98,814.95,819.56,824.09,828.32,832.36,836.35,840.14,843.96,847.88,851.92,856.04,857.94,857.50,855.13,852.63,852.05,852.40,852.87,852.75,851.91,851.36,851.64,852.60,852.47,851.20,849.00,846.71,846.20,846.86,847.96,848.88,849.36,850.58,852.00,853.55,855.18,856.73,858.59,859.97,861.26,863.87,869.94,875.96,880.85,884.10,885.69,886.91,886.36,884.36,882.90,881.69,881.43,882.62,885.78,889.73,895.17,901.41,908.90,918.79,918.95,916.32,913.76,911.95,910.79,909.93,909.22,908.55,907.71,906.75,905.80,905.12,904.98,904.19,903.26,902.43,901.82,901.34,900.98,900.66,900.31,899.91,899.51,899.12,898.75,898.44,898.13,897.81,897.46,897.06,896.63,896.21,895.82,895.43,895.04
671.86,671.65,671.47,671.36,671.35,671.29,671.27,671.27,671.24,671.17,671.09,670.97,670.85,670.79,670.78,670.78,670.66,670.39,670.23,670.14,670.06,670.00,670.00,670.00,670.28,670.73,671.26,671.75,672.26,672.79,673.32,673.80,674.31,674.76,675.05,675.05,674.85,674.46,674.03,673.68,673.38,673.19,673.03,672.85,672.63,672.46,672.60,672.93,673.34,673.84,673.82,673.63,673.48,673.33,673.29,673.37,673.52,673.65,673.75,673.88,674.02,674.17,674.29,674.58,675.07,675.70,676.34,676.76,677.15,677.54,677.94,678.33,678.60,679.03,679.64,679.99,680.62,681.36,682.16,683.06,683.90,684.74,685.62,686.59,687.49,688.24,688.98,689.86,691.10,692.16,693.17,694.19,695.20,696.11,696.92,697.70,698.48,699.29,700.67,702.54,704.47,705.93,708.13,711.07,713.98,716.25,718.19,720.02,722.02,724.19,726.33,728.37,729.79,730.59,730.91,731.43,732.76,735.00,737.95,740.62,743.96,747.22,749.96,751.70,752.53,753.00,753.27,753.45,754.14,755.65,757.90,760.80,764.02,767.30,770.12,772.13,772.78,772.30,771.49,771.11,771.70,773.55,775.86,777.33,777.97,778.71,780.63,782.96,784.61,784.83,784.91,785.95,788.53,792.47,796.58,801.14,803.99,804.52,802.69,801.56,801.99,804.15,808.33,814.07,819.47,824.08,828.12,832.12,835.90,839.70,843.45,847.10,851.04,852.77,852.38,850.42,848.60,848.44,849.38,850.72,851.76,852.62,852.77,852.85,853.21,853.35,852.02,850.14,848.49,848.16,849.13,850.61,851.87,852.52,853.44,854.56,855.92,857.54,859.48,862.22,864.74,866.42,867.39,871.93,877.76,883.40,887.94,890.80,891.47,890.73,889.12,887.13,884.98,884.25,884.71,886.10,888.63,893.97,900.70,908.76,918.80,919.37,917.47,915.57,913.77,912.37,910.86,909.55,908.65,907.63,906.62,905.86,905.46,905.36,904.58,903.64,902.74,901.90,901.21,900.76,900.38,899.98,899.53,899.08,898.66,898.29,897.98,897.67,897.32,896.94,896.55,896.16,895.72,895.30,894.91,894.52
671.42,671.25,671.08,670.98,670.97,670.94,670.93,670.93,670.92,670.84,670.76,670.67,670.55,670.44,670.39,670.32,670.18,669.98,669.90,669.83,669.77,669.74,669.75,669.82,670.14,670.62,671.10,671.54,672.02,672.52,673.02,673.52,674.06,674.49,674.71,674.61,674.40,674.03,673.61,673.19,672.84,672.58,672.38,672.21,671.99,671.86,672.01,672.36,672.79,673.25,673.22,673.05,672.90,672.79,672.81,672.91,673.07,673.22,673.34,673.46,673.59,673.78,674.17,674.69,675.32,676.02,676.74,677.25,677.67,678.06,678.43,678.79,678.96,679.16,679.48,679.77,680.28,680.97,681.77,682.65,683.50,684.33,685.23,686.26,687.23,688.12,688.95,689.88,691.13,691.99,692.79,693.63,694.47,695.28,696.06,696.83,697.60,698.36,699.36,700.48,701.55,702.45,704.55,707.54,710.71,713.57,716.11,718.16,720.13,722.15,724.21,726.16,727.47,728.17,728.51,729.46,731.21,733.74,736.91,740.05,743.13,745.82,747.65,747.73,747.41,747.31,747.53,748.37,750.59,752.76,755.25,758.15,761.19,764.16,766.08,766.79,766.21,765.03,764.41,764.38,765.17,767.50,769.65,770.83,771.29,772.04,773.91,776.46,778.59,779.43,779.67,782.01,786.06,790.98,795.01,798.55,800.28,799.97,797.68,795.66,795.72,797.66,801.53,807.14,812.95,817.35,820.79,825.24,830.52,834.59,837.57,839.83,841.65,842.31,841.99,840.97,840.04,840.21,842.02,844.78,847.39,849.61,850.25,850.72,851.85,852.82,852.59,851.45,850.21,850.33,851.30,852.91,854.58,855.85,857.11,857.70,858.52,860.11,862.61,865.69,869.15,871.93,872.68,873.97,878.17,883.68,888.88,892.24,894.70,895.35,893.95,890.84,887.98,886.92,887.04,887.73,889.71,894.56,900.98,908.91,918.78,919.44,917.65,915.81,913.96,912.43,910.84,909.47,908.52,907.45,906.47,905.99,905.94,905.72,904.91,903.99,903.06,902.15,901.32,900.67,900.13,899.65,899.15,898.68,898.24,897.83,897.48,897.17,896.81,896.42,896.03,895.65,895.24,894.81,894.39,894.00
671.00,670.85,670.70,670.60,670.59,670.59,670.59,670.59,670.58,670.52,670.44,670.36,670.27,670.13,670.03,669.91,669.77,669.65,669.63,669.58,669.55,669.55,669.58,669.73,670.09,670.55,671.03,671.42,671.87,672.33,672.79,673.31,673.83,674.19,674.33,674.16,673.94,673.60,673.19,672.74,672.35,672.00,671.75,671.56,671.35,671.25,671.42,671.80,672.27,672.65,672.62,672.47,672.35,672.29,672.35,672.48,672.63,672.77,672.92,673.06,673.25,673.60,674.27,674.97,675.66,676.37,677.11,677.71,678.18,678.58,678.95,679.28,679.43,679.48,679.52,679.78,680.19,680.79,681.50,682.29,683.11,683.90,684.80,685.86,686.87,687.87,688.81,689.76,690.91,691.53,692.14,692.83,693.55,694.32,695.10,695.88,696.65,697.42,698.23,698.79,699.15,699.65,701.47,704.36,707.81,711.37,714.19,716.30,718.13,719.94,721.95,723.68,724.68,725.17,725.62,727.07,729.31,732.16,735.50,738.81,741.53,743.61,744.56,743.40,742.21,741.63,741.82,743.23,746.62,749.51,752.43,755.58,758.56,761.15,762.10,761.59,760.09,758.46,757.98,758.29,759.41,761.94,763.77,764.71,765.16,765.96,767.65,770.08,772.35,773.66,774.35,778.38,783.78,789.06,792.70,795.24,796.26,795.61,793.03,790.16,789.95,791.77,795.25,800.34,806.36,810.69,813.86,818.71,824.47,828.17,830.23,831.31,831.36,831.22,831.03,830.80,830.58,831.03,833.51,837.42,841.55,844.84,846.30,847.70,849.96,851.81,852.84,852.71,852.08,852.58,853.43,855.01,857.04,859.24,861.46,861.81,861.87,862.83,865.71,869.01,873.15,876.97,878.12,876.80,878.92,883.47,888.76,892.52,896.89,899.21,898.46,894.70,891.34,889.96,889.88,890.42,892.15,896.27,901.90,909.24,918.75,919.31,917.42,915.43,913.51,911.92,910.46,909.23,908.31,907.26,906.45,906.28,906.49,906.08,905.24,904.31,903.38,902.46,901.53,900.68,899.95,899.36,898.79,898.30,897.82,897.37,896.99,896.67,896.30,895.90,895.51,895.13,894.73,894.31,893.87,893.46
670.60,670.46,670.34,670.26,670.21,670.20,670.20,670.20,670.20,670.18,670.12,670.04,669.96,669.86,669.73,669.62,669.53,669.44,669.38,669.36,669.35,669.37,669.45,669.70,670.06,670.52,671.08,671.49,671.93,672.37,672.78,673.25,673.67,673.88,673.88,673.71,673.49,673.15,672.73,672.28,671.89,671.46,671.14,670.92,670.70,670.60,670.80,671.25,671.79,672.08,672.03,671.91,671.83,671.83,671.94,672.09,672.22,672.32,672.47,672.75,673.21,673.89,674.65,675.36,676.05,676.75,677.46,678.13,678.66,679.10,679.48,679.85,680.05,680.10,680.08,680.20,680.54,680.97,681.44,681.99,682.68,683.48,684.39,685.40,686.41,687.41,688.40,689.36,690.18,690.62,691.14,691.81,692.57,693.34,694.16,694.97,695.74,696.51,697.19,697.66,697.98,698.39,699.48,702.02,705.83,710.20,712.58,714.47,716.07,717.59,719.43,721.01,721.56,721.65,722.29,724.15,726.96,730.17,733.51,736.63,739.16,740.62,740.80,739.40,738.04,737.51,737.87,739.32,742.02,745.45,749.04,752.51,755.67,757.73,757.88,756.86,755.64,754.44,754.05,754.52,755.80,757.36,758.67,759.42,759.77,760.31,761.99,764.30,766.22,767.21,768.91,775.12,781.45,786.01,789.25,791.43,792.13,791.20,788.32,784.55,784.16,786.41,790.44,794.87,800.93,805.99,810.12,814.97,817.56,819.09,820.27,821.35,821.89,822.25,822.36,822.18,822.08,822.80,825.19,829.19,834.39,838.27,841.53,844.82,848.17,850.62,852.48,853.70,854.41,854.89,855.54,856.87,859.15,862.70,866.97,867.96,866.92,865.81,868.44,872.06,876.40,880.52,882.66,881.57,881.52,883.67,888.04,892.53,897.41,901.02,902.12,899.30,895.87,894.06,893.82,894.81,896.46,899.54,903.77,909.81,918.67,918.90,916.78,914.61,912.56,911.00,909.82,908.88,908.05,907.07,906.78,906.93,907.08,906.44,905.56,904.64,903.71,902.78,901.85,900.85,899.93,899.15,898.49,897.93,897.40,896.91,896.53,896.21,895.81,895.38,895.00,894.61,894.17,893.75,893.34,892.89
670.21,670.10,670.01,669.93,669.87,669.86,669.86,669.86,669.86,669.86,669.79,669.71,669.64,669.56,669.44,669.36,669.28,669.20,669.13,669.11,669.16,669.29,669.45,669.70,670.02,670.46,671.06,671.53,671.97,672.39,672.79,673.11,673.30,673.37,673.35,673.24,673.04,672.70,672.28,671.83,671.43,670.99,670.61,670.34,670.23,670.17,670.36,670.76,671.28,671.52,671.51,671.42,671.37,671.37,671.50,671.65,671.80,671.98,672.33,672.76,673.32,674.02,674.75,675.52,676.29,677.05,677.78,678.51,679.13,679.65,680.13,680.57,680.74,680.75,680.70,680.74,680.97,681.33,681.75,682.19,682.75,683.37,684.07,684.91,685.87,686.83,687.80,688.71,689.38,689.79,690.26,690.86,691.61,692.41,693.22,694.03,694.84,695.60,696.22,696.77,697.31,697.92,698.76,700.56,703.63,707.74,710.25,711.96,713.30,714.61,716.35,717.94,718.42,718.56,719.60,721.58,724.57,727.91,731.17,734.03,736.13,736.97,736.67,735.63,734.48,734.28,735.04,736.82,739.73,743.43,747.09,750.44,753.39,754.42,753.87,752.51,751.15,750.28,750.09,750.62,751.81,752.97,754.13,754.96,755.51,756.20,757.56,758.52,759.15,760.11,763.09,770.08,776.66,781.03,783.73,785.41,785.92,785.12,782.58,779.24,778.92,781.32,785.69,790.04,795.57,800.67,804.81,807.78,808.63,810.22,812.22,813.68,814.65,815.03,815.07,815.07,815.72,817.34,820.17,824.67,831.27,836.01,839.76,843.28,846.68,849.38,851.68,853.70,855.48,856.88,857.76,859.12,861.92,866.63,870.62,872.08,871.38,869.92,871.54,874.43,878.21,882.60,886.77,887.09,886.12,886.32,888.95,892.83,897.41,902.02,905.03,903.30,900.54,898.90,898.57,899.44,900.71,903.02,907.79,914.53,918.89,917.86,915.64,913.59,911.67,910.20,909.16,908.34,907.68,907.16,907.22,907.51,907.59,906.79,905.89,904.96,904.01,903.00,901.97,900.84,899.84,899.05,898.36,897.72,897.11,896.53,896.09,895.72,895.32,894.90,894.48,894.09,893.64,893.20,892.78,892.35
669.84,669.76,669.68,669.61,669.54,669.54,669.54,669.53,669.52,669.52,669.46,669.39,669.31,669.24,669.16,669.08,669.00,668.93,668.88,668.89,669.02,669.25,669.47,669.70,669.99,670.40,670.99,671.50,671.93,672.35,672.72,672.87,672.84,672.81,672.81,672.77,672.60,672.27,671.86,671.42,671.02,670.57,670.18,669.92,669.91,669.91,670.03,670.33,670.77,670.96,671.00,670.97,670.91,670.91,671.05,671.23,671.46,671.78,672.34,672.90,673.48,674.10,674.78,675.57,676.39,677.23,678.01,678.79,679.49,680.12,680.73,681.25,681.41,681.40,681.34,681.34,681.45,681.76,682.19,682.59,683.04,683.46,683.93,684.57,685.40,686.26,687.14,687.97,688.57,689.02,689.48,690.04,690.76,691.59,692.39,693.20,694.03,694.80,695.43,696.12,696.90,697.74,698.52,699.58,701.68,705.13,707.91,709.49,710.59,711.68,713.19,714.70,715.32,715.78,717.25,719.25,722.13,725.32,728.37,730.79,732.39,732.78,732.33,731.81,731.12,731.43,732.69,734.91,738.32,742.10,745.57,748.57,751.05,751.02,749.88,748.29,746.69,746.05,746.08,746.66,747.74,748.77,749.82,750.75,751.56,752.39,753.20,752.71,752.13,753.18,757.13,764.26,770.91,775.43,777.68,778.85,779.14,778.45,776.40,773.94,773.76,776.05,780.48,785.17,790.12,794.81,798.44,799.55,799.84,802.18,805.16,806.96,808.10,808.35,808.54,809.24,811.09,813.94,817.61,822.91,830.79,836.28,840.04,843.14,846.04,848.60,851.05,853.56,856.17,858.71,860.28,861.75,864.70,869.96,873.32,875.54,875.95,875.00,875.53,877.33,880.39,884.86,890.56,892.55,891.43,890.22,890.92,893.70,897.65,902.92,907.68,907.58,906.10,904.42,903.48,903.94,904.78,907.23,912.72,919.31,918.87,916.61,914.32,912.38,910.74,909.43,908.46,907.76,907.38,907.42,907.74,908.07,908.05,907.15,906.19,905.25,904.27,903.16,902.00,900.79,899.77,899.01,898.31,897.61,896.91,896.25,895.69,895.24,894.82,894.41,893.96,893.56,893.12,892.66,892.22,891.83
669.51,669.44,669.36,669.28,669.22,669.21,669.21,669.18,669.13,669.13,669.12,669.07,668.99,668.91,668.83,668.76,668.68,668.62,668.66,668.82,669.02,669.24,669.42,669.64,669.95,670.37,670.85,671.22,671.69,672.10,672.34,672.43,672.38,672.36,672.34,672.28,672.23,671.94,671.55,671.15,670.76,670.31,670.01,669.90,669.90,669.90,669.93,670.04,670.27,670.44,670.48,670.47,670.46,670.47,670.64,670.96,671.39,671.93,672.48,673.07,673.65,674.22,674.85,675.51,676.27,677.12,677.95,678.79,679.56,680.28,680.96,681.66,681.98,682.05,681.99,681.98,682.01,682.25,682.65,683.04,683.44,683.87,684.31,684.77,685.32,685.85,686.50,687.25,687.81,688.33,688.92,689.58,690.30,691.13,691.96,692.78,693.58,694.40,695.19,695.97,696.76,697.61,698.39,699.23,700.77,703.46,706.35,707.93,708.90,709.66,710.42,711.44,712.39,713.54,715.31,717.31,719.54,721.97,724.37,725.94,727.05,727.62,727.74,727.59,727.70,728.78,730.67,733.42,737.19,740.75,743.83,746.29,747.79,747.20,745.74,744.01,742.39,741.72,741.95,742.72,743.85,744.90,745.62,746.44,747.33,747.77,747.67,746.87,746.40,747.59,751.15,757.90,764.80,770.00,772.19,773.07,772.84,771.76,770.00,768.31,768.21,769.89,773.65,779.45,784.27,787.89,790.38,791.80,793.87,796.65,799.26,800.76,801.22,801.52,802.96,805.93,809.79,814.20,819.41,826.03,834.42,840.05,843.65,846.10,847.79,849.35,851.43,854.02,857.03,860.35,863.64,865.10,866.74,870.68,874.99,879.12,881.59,882.05,882.00,882.82,885.48,889.49,893.76,896.94,896.86,895.41,894.54,896.15,899.23,904.40,910.36,913.48,914.40,911.40,907.99,907.83,908.36,913.56,918.22,919.55,917.67,915.38,912.96,910.81,909.56,908.56,907.72,907.28,907.46,907.91,908.36,908.62,908.45,907.52,906.45,905.45,904.43,903.23,902.01,900.83,899.83,899.07,898.37,897.63,896.90,896.20,895.49,894.79,894.27,893.84,893.43,892.99,892.58,892.14,891.70,891.30
669.22,669.16,669.08,669.00,668.93,668.89,668.88,668.85,668.79,668.79,668.79,668.74,668.66,668.59,668.51,668.45,668.44,668.47,668.55,668.72,668.92,669.11,669.30,669.53,669.82,670.16,670.55,670.87,671.30,671.69,671.93,671.95,671.92,671.88,671.85,671.81,671.80,671.65,671.35,670.93,670.51,670.13,669.92,669.86,669.86,669.86,669.88,669.93,670.02,670.11,670.13,670.13,670.13,670.19,670.51,670.97,671.49,672.11,672.66,673.25,673.84,674.39,675.00,675.60,676.27,677.03,677.85,678.66,679.43,680.17,680.92,681.77,682.44,682.74,682.67,682.63,682.63,682.77,683.07,683.48,683.88,684.31,684.76,685.19,685.64,686.08,686.60,687.22,687.77,688.39,688.93,689.46,690.13,690.91,691.74,692.55,693.34,694.19,695.04,695.86,696.68,697.52,698.30,699.10,700.37,702.52,705.09,706.63,707.59,708.26,708.79,709.50,710.40,711.67,713.54,715.50,717.28,719.06,720.72,721.58,722.35,722.95,723.39,723.73,724.67,726.29,728.64,731.86,735.57,738.72,741.30,743.19,743.93,743.10,741.74,740.32,739.06,738.48,738.38,738.76,739.62,740.57,741.22,741.96,742.69,742.90,742.82,742.41,742.34,743.59,747.13,752.28,757.48,761.91,764.92,765.76,765.54,764.73,763.54,762.84,763.03,764.47,767.71,772.95,777.46,781.43,784.64,786.47,789.30,791.91,794.08,795.70,796.55,798.02,801.02,805.65,810.95,816.41,822.40,829.17,836.60,842.09,846.15,848.97,850.56,851.68,853.09,855.17,858.07,861.94,866.58,868.80,870.38,873.75,878.34,883.14,886.23,887.10,887.31,888.48,891.22,894.71,897.69,900.63,900.60,899.10,897.87,898.85,901.65,906.63,912.76,917.19,918.50,916.49,914.07,913.87,914.06,917.11,918.85,917.59,915.26,913.07,911.11,909.51,908.53,907.66,907.21,907.28,907.91,908.61,909.10,909.21,908.84,907.87,906.72,905.61,904.48,903.21,901.98,900.75,899.74,899.00,898.27,897.51,896.76,896.01,895.21,894.46,893.87,893.38,892.95,892.50,892.07,891.63,891.18,890.79
668.93,668.88,668.81,668.73,668.65,668.59,668.57,668.53,668.48,668.46,668.46,668.42,668.34,668.26,668.20,668.19,668.26,668.39,668.48,668.62,668.78,668.95,669.17,669.39,669.62,669.88,670.19,670.48,670.85,671.24,671.52,671.48,671.45,671.39,671.34,671.34,671.34,671.33,671.14,670.68,670.27,670.00,669.86,669.79,669.79,669.80,669.85,669.89,669.90,669.91,669.91,669.92,669.95,670.11,670.62,671.19,671.75,672.36,672.91,673.52,674.12,674.67,675.27,675.82,676.40,677.05,677.79,678.53,679.23,679.94,680.76,681.74,682.78,683.37,683.37,683.32,683.30,683.33,683.50,683.94,684.33,684.76,685.23,685.73,686.21,686.67,687.15,687.64,688.20,688.90,689.32,689.64,690.23,690.88,691.64,692.44,693.22,694.06,694.91,695.75,696.60,697.44,698.23,699.06,700.25,702.05,704.09,705.47,706.46,707.18,707.74,708.32,709.02,710.10,711.84,713.68,715.17,716.47,717.51,717.88,718.51,719.17,719.76,720.51,722.02,723.97,726.59,730.10,733.44,736.03,738.08,739.50,739.77,739.02,738.02,737.06,736.27,735.82,735.24,734.97,735.33,736.11,736.92,737.67,738.24,738.44,738.82,739.08,739.50,740.80,744.24,747.51,750.44,753.45,757.24,758.28,758.39,758.10,757.44,757.73,758.45,760.00,762.84,766.82,770.90,775.52,779.90,782.16,785.11,787.48,789.57,791.82,793.72,796.75,801.08,806.64,812.86,819.16,825.46,831.74,837.86,843.04,847.70,851.41,853.68,854.79,855.57,856.92,859.34,863.42,868.77,872.22,874.76,878.10,882.59,887.08,889.87,890.75,891.69,893.86,896.94,900.03,902.02,903.94,903.48,902.07,901.17,901.93,904.96,909.74,915.23,919.25,919.76,919.48,919.25,919.16,918.98,918.12,916.58,914.48,912.38,910.48,909.20,908.37,907.59,906.90,906.98,907.63,908.57,909.37,909.83,909.80,909.23,908.17,906.92,905.65,904.39,903.09,901.85,900.59,899.56,898.84,898.06,897.29,896.51,895.72,894.89,894.18,893.53,892.97,892.50,892.04,891.58,891.12,890.67,890.31
668.60,668.56,668.49,668.41,668.34,668.31,668.27,668.23,668.20,668.15,668.14,668.09,668.01,667.95,667.97,668.06,668.19,668.33,668.42,668.55,668.71,668.87,669.04,669.22,669.43,669.67,669.91,670.12,670.46,670.84,671.14,671.13,670.99,670.87,670.82,670.82,670.82,670.86,670.71,670.28,670.03,669.88,669.78,669.73,669.73,669.78,669.81,669.83,669.84,669.89,669.90,669.92,670.05,670.46,671.04,671.65,672.25,672.86,673.41,674.08,674.74,675.28,675.84,676.34,676.87,677.42,677.97,678.52,679.09,679.77,680.68,681.72,682.84,683.69,684.07,684.07,684.02,683.98,684.05,684.40,684.78,685.18,685.70,686.37,686.95,687.44,687.90,688.40,689.00,689.60,690.02,690.37,690.77,691.18,691.71,692.37,693.14,693.94,694.78,695.63,696.47,697.32,698.15,699.04,700.26,701.97,703.47,704.51,705.37,706.15,706.76,707.45,708.16,708.99,710.11,711.54,712.95,714.25,715.30,715.73,716.79,717.80,718.54,719.13,720.12,721.93,724.53,727.70,730.28,732.08,733.68,735.08,735.58,735.60,735.06,734.30,733.75,733.29,732.63,731.93,731.53,732.07,733.36,734.55,735.42,736.03,736.82,737.51,738.33,739.72,741.85,744.66,747.08,749.08,751.64,753.27,753.99,753.81,752.91,753.79,755.53,757.71,760.38,763.74,767.27,770.85,774.21,776.88,779.63,782.82,786.46,790.38,793.75,797.49,801.69,806.62,812.92,820.30,826.60,832.37,838.81,843.35,847.93,852.49,856.27,857.88,858.81,859.69,861.21,864.60,868.86,873.91,878.77,882.68,886.94,889.73,891.57,893.01,894.90,897.96,901.48,904.62,906.35,907.14,906.41,905.39,905.11,906.07,910.12,914.88,918.58,919.22,918.50,917.93,917.50,916.90,916.30,914.68,912.78,911.08,909.92,908.94,908.09,907.33,906.66,906.75,907.43,908.36,909.31,909.95,910.25,910.22,909.67,908.33,906.80,905.37,904.03,902.73,901.48,900.32,899.34,898.58,897.76,896.97,896.17,895.35,894.57,893.86,893.18,892.56,892.05,891.59,891.12,890.66,890.24,889.97
668.21,668.25,668.20,668.13,668.05,668.02,667.98,667.94,667.89,667.83,667.81,667.77,667.71,667.73,667.83,667.97,668.13,668.26,668.35,668.49,668.65,668.79,668.95,669.11,669.27,669.48,669.72,669.89,670.17,670.49,670.72,670.72,670.56,670.43,670.37,670.34,670.34,670.37,670.27,669.99,669.88,669.80,669.74,669.71,669.74,669.78,669.82,669.84,669.85,669.91,670.04,670.24,670.55,671.08,671.68,672.29,672.89,673.54,674.19,674.91,675.58,676.12,676.65,677.15,677.66,678.15,678.55,678.96,679.41,680.03,680.94,681.93,682.96,683.90,684.58,684.77,684.75,684.65,684.63,684.88,685.24,685.62,686.10,686.74,687.41,688.03,688.63,689.21,689.83,690.38,690.85,691.22,691.53,691.84,692.20,692.67,693.27,693.88,694.68,695.55,696.42,697.27,698.15,699.06,700.19,701.62,702.74,703.60,704.40,705.14,705.71,706.38,707.07,707.78,708.59,709.73,710.92,712.11,713.21,714.05,715.38,716.62,717.53,718.09,718.84,720.27,722.49,725.33,727.32,728.66,729.89,731.02,731.63,731.97,731.86,731.52,731.21,730.76,730.27,729.96,730.12,730.97,732.56,733.97,735.03,735.92,736.78,737.43,738.21,739.50,741.13,743.22,744.95,746.20,747.76,749.58,750.80,751.38,751.75,753.41,755.79,758.45,761.37,764.86,767.77,770.76,774.09,777.66,780.01,783.22,787.17,791.32,795.18,799.15,803.20,807.67,813.64,821.10,827.99,834.26,840.25,844.37,849.22,854.84,860.37,863.44,864.72,864.46,864.15,866.76,869.66,874.99,881.01,885.77,890.28,892.79,894.04,894.88,896.92,900.22,904.06,907.74,910.26,910.94,910.80,910.74,911.26,912.33,915.25,918.09,919.48,918.12,916.79,915.83,914.95,913.85,912.99,911.62,910.17,908.97,908.23,907.65,907.21,906.85,906.61,907.17,908.12,909.10,909.91,910.39,910.59,910.52,910.03,908.77,907.14,905.59,904.13,902.70,901.25,900.04,899.06,898.28,897.43,896.62,895.81,895.00,894.24,893.54,892.84,892.19,891.64,891.17,890.70,890.28,889.95,889.75
667.78,667.93,667.93,667.86,667.78,667.72,667.69,667.65,667.58,667.51,667.50,667.47,667.46,667.61,667.75,667.90,668.06,668.20,668.28,668.42,668.58,668.73,668.88,669.04,669.15,669.31,669.58,669.75,669.97,670.17,670.30,670.30,670.17,670.06,669.99,669.93,669.92,669.93,669.89,669.81,669.79,669.74,669.71,669.73,669.79,669.81,669.86,669.92,669.97,670.07,670.36,670.78,671.30,671.86,672.45,673.04,673.64,674.36,675.17,675.91,676.55,677.09,677.63,678.17,678.67,679.10,679.42,679.75,680.11,680.64,681.49,682.35,683.22,684.13,684.99,685.43,685.45,685.33,685.24,685.35,685.71,686.10,686.50,686.95,687.64,688.44,689.22,689.96,690.62,691.20,691.71,692.13,692.44,692.75,693.01,693.30,693.65,694.02,694.74,695.57,696.40,697.22,698.12,699.05,700.01,701.03,701.90,702.74,703.51,704.16,704.65,705.19,705.82,706.49,707.22,708.20,709.13,710.13,711.32,712.69,714.13,715.46,716.52,717.16,717.99,718.95,720.57,723.03,724.64,725.78,726.66,727.37,727.97,728.29,728.53,728.72,728.76,728.54,728.53,729.21,730.68,732.17,733.87,735.32,736.49,737.53,738.17,738.48,738.96,740.12,741.87,743.10,744.01,744.80,745.75,747.62,749.38,751.20,753.67,756.15,758.80,761.77,765.20,769.12,771.54,774.51,778.57,782.96,784.77,787.28,790.49,793.87,797.58,801.67,805.77,810.03,815.38,822.26,829.99,837.19,842.11,846.02,851.59,858.39,865.43,870.49,872.19,870.56,868.19,870.31,871.77,876.10,882.03,887.70,892.87,896.12,897.05,896.53,898.05,901.12,905.20,909.72,913.77,915.03,915.84,916.82,917.99,918.97,919.53,919.56,918.77,916.72,915.16,913.79,912.40,910.97,910.04,909.33,908.67,907.99,907.26,906.65,906.55,906.81,907.16,907.91,908.87,909.76,910.39,910.73,910.85,910.74,910.32,909.41,907.86,906.19,904.54,902.87,901.12,899.75,898.74,897.95,897.11,896.26,895.45,894.67,893.91,893.21,892.52,891.85,891.26,890.78,890.34,890.00,889.78,889.62
667.38,667.59,667.61,667.54,667.47,667.44,667.39,667.35,667.32,667.25,667.28,667.32,667.38,667.53,667.69,667.84,668.00,668.13,668.22,668.36,668.51,668.67,668.82,668.93,669.05,669.20,669.40,669.56,669.77,669.92,669.96,669.95,669.88,669.82,669.78,669.71,669.70,669.73,669.74,669.67,669.67,669.69,669.73,669.78,669.86,669.87,669.95,670.12,670.38,670.61,670.96,671.42,671.98,672.61,673.20,673.81,674.50,675.31,676.19,676.92,677.52,678.06,678.60,679.14,679.64,680.07,680.38,680.69,681.02,681.49,682.25,683.09,683.94,684.79,685.58,686.12,686.13,685.99,685.85,685.84,686.25,686.70,687.08,687.39,687.85,688.57,689.35,690.17,691.13,691.92,692.53,692.99,693.34,693.61,693.88,694.18,694.51,694.92,695.43,695.87,696.27,696.85,697.72,698.62,699.50,700.37,701.13,701.88,702.60,703.25,703.77,704.26,704.78,705.32,705.92,706.82,707.78,708.92,710.32,711.73,713.15,714.44,715.50,716.25,717.17,718.10,719.28,720.85,722.36,723.15,723.70,724.25,724.85,725.24,725.56,726.02,726.89,727.91,729.26,730.89,732.68,734.29,735.91,737.45,738.88,740.04,740.27,740.25,740.76,742.32,744.13,745.11,745.87,746.69,747.71,750.39,753.45,756.49,759.40,762.05,764.63,767.78,771.63,774.96,777.63,781.29,785.56,788.41,789.71,791.19,793.37,796.52,800.75,805.80,810.59,814.87,819.44,826.06,833.47,840.03,844.11,847.95,855.06,862.87,869.61,875.84,877.91,876.19,874.03,877.36,877.18,879.07,883.39,889.38,895.42,898.81,899.36,898.08,898.61,901.58,905.86,911.11,916.77,918.24,918.71,919.11,919.57,919.92,920.06,919.94,919.22,917.13,914.82,912.55,910.64,909.44,908.80,908.25,907.95,907.83,907.32,906.49,906.39,906.94,907.58,908.36,909.33,910.18,910.68,910.94,911.02,910.93,910.65,910.02,908.56,906.73,904.78,902.79,900.81,899.41,898.39,897.58,896.77,895.93,895.10,894.30,893.58,892.88,892.19,891.52,890.92,890.41,890.05,889.83,889.70,889.55
666.96,667.19,667.27,667.25,667.17,667.15,667.10,667.06,667.04,667.04,667.13,667.21,667.31,667.46,667.62,667.77,667.93,668.07,668.15,668.29,668.45,668.61,668.75,668.84,668.96,669.11,669.25,669.42,669.61,669.71,669.74,669.73,669.67,669.63,669.63,669.60,669.60,669.65,669.68,669.64,669.66,669.73,669.79,669.87,670.04,670.13,670.29,670.55,670.92,671.24,671.61,672.07,672.64,673.33,673.98,674.67,675.45,676.31,677.20,677.91,678.50,679.08,679.66,680.17,680.65,681.08,681.39,681.70,682.01,682.42,683.07,683.90,684.69,685.43,686.11,686.68,686.79,686.67,686.48,686.39,686.75,687.24,687.67,687.98,688.27,688.82,689.49,690.30,691.38,692.32,693.14,693.80,694.23,694.52,694.81,695.13,695.49,695.95,696.38,696.65,696.83,697.17,697.73,698.38,699.12,699.94,700.63,701.30,702.00,702.73,703.40,704.06,704.68,705.27,705.88,706.61,707.22,708.23,709.78,711.17,712.45,713.57,714.53,715.27,716.15,717.02,717.91,718.93,720.23,720.99,721.79,722.82,723.79,724.51,725.15,725.96,727.25,729.01,731.02,733.01,734.83,736.53,738.39,740.38,742.23,743.36,743.62,743.65,744.12,745.43,746.80,747.56,748.33,749.33,750.47,753.35,756.89,760.34,763.23,765.98,769.04,772.97,777.72,781.70,785.38,789.39,792.98,794.05,794.42,795.08,796.69,799.92,804.90,810.81,816.22,820.74,825.19,831.41,837.66,842.93,846.80,852.38,859.89,867.38,874.04,881.22,883.50,882.38,881.19,884.74,883.47,883.59,886.08,890.79,896.99,900.73,901.28,899.57,899.62,902.57,907.09,912.65,918.52,919.75,919.72,919.53,919.48,919.75,919.97,920.04,919.58,917.73,915.08,912.37,910.13,908.85,908.54,908.27,908.24,908.37,907.88,906.89,906.40,906.54,907.13,907.86,909.04,910.14,910.74,911.07,911.11,911.03,910.84,910.33,908.93,907.01,904.87,902.70,900.58,899.15,898.10,897.22,896.42,895.58,894.74,893.95,893.25,892.56,891.88,891.21,890.59,890.13,889.87,889.72,889.61,889.48
666.51,666.74,666.91,666.97,666.90,666.84,666.82,666.79,666.77,666.90,667.04,667.14,667.25,667.40,667.55,667.71,667.86,668.00,668.09,668.23,668.38,668.54,668.68,668.77,668.90,669.03,669.14,669.34,669.46,669.55,669.60,669.60,669.55,669.53,669.55,669.61,669.62,669.67,669.72,669.72,669.79,669.88,669.94,670.06,670.41,670.65,670.92,671.24,671.61,671.92,672.28,672.72,673.28,673.97,674.76,675.58,676.43,677.31,678.19,678.91,679.54,680.14,680.80,681.26,681.69,682.12,682.43,682.74,683.05,683.41,683.93,684.71,685.40,686.00,686.56,687.10,687.43,687.39,687.15,687.03,687.21,687.69,688.23,688.66,688.94,689.28,689.77,690.49,691.50,692.49,693.59,694.56,695.12,695.47,695.78,696.12,696.52,696.99,697.50,697.86,698.08,698.22,698.25,698.47,698.98,699.77,700.43,701.09,701.84,702.69,703.59,704.58,705.49,706.33,707.11,707.61,707.53,708.04,709.54,710.91,711.96,712.83,713.60,714.26,715.06,715.87,716.71,717.65,718.65,719.72,721.29,723.28,724.93,726.22,727.46,728.69,729.96,731.72,733.54,735.34,737.15,739.03,741.47,744.15,746.45,747.40,748.11,748.51,748.84,749.32,749.89,750.47,751.41,752.69,753.90,756.25,759.14,762.05,764.63,767.45,771.45,776.57,782.60,788.61,793.81,797.80,800.09,799.71,799.05,799.43,801.17,804.74,810.48,816.89,822.62,827.43,832.25,837.74,842.34,846.21,850.75,859.29,865.86,871.83,878.79,886.55,888.93,888.98,889.24,891.82,890.22,889.54,890.27,892.40,897.90,902.07,902.93,901.12,901.24,904.20,908.82,914.16,918.85,919.52,919.06,918.52,918.37,919.11,919.63,919.85,919.56,918.18,915.75,913.19,910.85,909.19,909.10,909.24,909.42,909.45,908.76,907.66,906.43,905.56,905.72,906.29,907.81,909.40,910.40,910.95,911.06,911.01,910.84,910.29,908.93,907.02,904.86,902.65,900.50,899.03,897.90,896.94,896.07,895.21,894.39,893.63,892.92,892.22,891.57,890.89,890.25,889.97,889.78,889.63,889.50,889.41
666.11,666.30,666.50,666.62,666.59,666.56,666.56,666.58,666.67,666.82,666.98,667.09,667.18,667.33,667.49,667.65,667.78,667.89,668.01,668.17,668.32,668.48,668.62,668.71,668.83,668.96,669.06,669.23,669.34,669.41,669.47,669.48,669.49,669.55,669.66,669.77,669.78,669.84,669.88,669.91,670.02,670.19,670.44,670.81,671.28,671.63,671.92,672.21,672.53,672.80,673.09,673.42,673.88,674.57,675.31,676.09,677.00,678.16,679.18,680.11,680.87,681.39,681.89,682.34,682.76,683.16,683.46,683.78,684.09,684.41,684.80,685.30,685.89,686.48,687.02,687.55,688.02,688.13,687.94,687.72,687.67,688.09,688.69,689.23,689.71,690.13,690.61,691.28,692.28,693.28,694.34,695.30,695.93,696.41,696.76,697.10,697.51,698.01,698.51,698.96,699.28,699.27,699.08,698.99,699.20,699.85,700.64,701.52,702.45,703.38,704.27,705.28,706.37,707.47,708.40,708.98,708.78,708.57,708.97,710.22,711.15,711.93,712.66,713.51,715.00,716.54,717.98,719.27,720.41,721.63,723.44,725.70,727.53,729.27,730.94,732.50,733.82,735.01,736.58,738.58,740.99,743.58,746.33,748.82,750.74,751.73,752.41,752.83,753.16,753.61,754.47,755.77,757.42,759.19,760.61,762.30,763.28,764.17,766.18,768.70,772.56,777.57,783.81,791.49,797.36,801.70,804.31,804.33,804.86,807.06,810.36,814.44,820.09,825.87,830.97,835.14,838.66,842.55,846.73,851.84,858.93,866.20,871.45,876.64,883.07,889.61,892.29,893.85,895.66,897.88,897.30,896.27,895.92,897.17,901.10,904.09,904.64,903.25,903.42,906.01,909.66,913.71,917.50,918.37,917.84,917.04,916.73,917.54,918.18,918.55,918.62,918.16,916.41,914.30,912.22,910.59,910.31,910.31,910.37,910.23,909.21,907.69,905.97,904.42,903.57,903.62,905.00,906.85,908.52,909.81,910.45,910.63,910.45,909.87,908.62,906.88,904.88,902.75,900.68,899.19,898.01,896.97,895.98,894.98,894.09,893.29,892.55,891.80,891.08,890.45,890.03,889.87,889.71,889.58,889.47,889.36
665.74,665.91,666.10,666.25,666.29,666.31,666.35,666.44,666.60,666.75,666.91,667.02,667.12,667.27,667.42,667.58,667.71,667.79,667.94,668.10,668.25,668.40,668.53,668.64,668.77,668.90,668.99,669.13,669.23,669.31,669.38,669.42,669.51,669.64,669.83,670.10,670.28,670.37,670.41,670.45,670.60,670.83,671.23,671.75,672.28,672.73,673.02,673.26,673.56,673.80,674.03,674.24,674.53,675.20,675.89,676.61,677.47,678.66,679.76,680.85,681.78,682.41,682.95,683.43,683.84,684.19,684.51,684.83,685.16,685.49,685.78,685.98,686.42,686.95,687.47,688.01,688.55,688.80,688.75,688.47,688.24,688.50,689.04,689.69,690.46,691.06,691.59,692.22,693.21,694.20,695.17,696.05,696.72,697.28,697.69,698.07,698.49,699.01,699.48,699.97,700.34,700.25,699.98,699.78,699.84,700.32,701.16,702.20,703.24,704.19,705.05,705.99,707.14,708.38,709.50,710.38,710.20,709.52,709.04,709.76,710.49,711.20,711.96,712.94,714.68,716.73,718.77,720.62,722.37,724.14,726.19,728.46,730.51,732.65,734.68,736.45,737.70,738.51,740.16,742.52,745.42,748.43,751.42,753.70,755.19,756.11,756.70,757.18,757.60,758.11,759.16,760.86,762.93,765.23,767.49,768.74,767.87,766.70,767.97,770.29,773.77,778.26,784.17,792.24,798.16,803.03,806.92,808.90,811.13,815.42,820.31,824.55,829.80,834.46,838.47,841.78,844.38,848.39,852.95,858.57,866.14,871.91,877.04,882.39,888.13,893.11,895.57,897.70,900.17,902.41,903.19,902.74,902.25,902.95,905.05,906.42,906.35,905.24,905.38,907.59,910.32,913.19,916.09,917.19,916.60,915.54,914.99,915.74,916.37,916.81,917.16,917.44,916.57,915.25,913.71,912.21,911.75,911.39,911.05,910.54,909.26,907.36,905.28,903.27,901.66,901.30,902.23,903.88,905.87,907.81,909.07,909.50,909.29,908.91,907.95,906.49,904.71,902.79,900.96,899.53,898.39,897.48,896.61,895.66,894.69,893.72,892.68,891.65,890.73,890.10,889.88,889.78,889.67,889.55,889.45,889.37
665.42,665.59,665.75,665.90,666.02,666.09,666.21,666.36,666.51,666.66,666.82,666.93,667.03,667.19,667.37,667.52,667.65,667.74,667.89,668.04,668.20,668.34,668.43,668.57,668.72,668.85,668.94,669.08,669.18,669.25,669.34,669.48,669.62,669.77,670.05,670.61,671.17,671.37,671.40,671.49,671.64,671.91,672.30,672.78,673.33,673.85,674.15,674.36,674.66,674.90,675.12,675.19,675.25,675.91,676.61,677.28,677.95,678.76,679.79,680.91,682.02,683.06,683.93,684.51,684.91,685.24,685.56,685.92,686.30,686.65,686.90,686.85,687.07,687.47,687.94,688.48,689.02,689.41,689.55,689.29,688.94,688.97,689.34,690.04,691.14,691.97,692.59,693.20,694.17,695.12,696.01,696.82,697.50,698.06,698.57,699.05,699.48,699.99,700.41,700.84,701.19,701.16,700.90,700.85,700.99,701.33,702.07,703.05,704.05,704.96,705.82,706.69,707.73,708.96,710.32,711.68,711.63,710.93,710.20,709.90,710.29,710.96,711.74,712.65,713.83,715.79,718.16,720.67,723.51,726.44,728.93,731.06,733.50,736.00,738.31,740.14,741.16,742.09,744.23,747.04,750.06,752.98,756.16,758.45,759.74,760.45,761.00,761.72,762.37,762.81,763.60,765.01,766.99,769.80,773.74,774.98,772.87,770.07,770.27,772.56,775.59,779.38,784.47,791.23,796.60,802.09,808.00,813.45,817.55,823.71,829.82,833.67,838.29,841.53,844.26,846.89,849.62,856.15,861.77,866.15,870.81,876.00,882.72,889.25,894.29,897.75,899.30,900.65,902.49,904.98,907.07,908.24,908.73,908.89,909.21,908.92,908.00,906.87,906.90,908.78,910.98,913.12,915.15,916.19,915.47,914.13,913.25,913.88,914.38,914.79,915.25,915.84,916.00,915.79,915.02,913.66,913.19,912.34,911.33,910.25,908.82,906.67,904.36,902.16,900.37,899.85,900.07,900.95,902.67,904.95,906.78,907.38,907.12,907.27,906.95,905.85,904.34,902.78,901.38,900.09,899.13,898.59,898.21,897.56,896.55,895.19,893.48,891.85,890.60,889.91,889.81,889.73,889.64,889.53,889.43,889.48
665.16,665.32,665.47,665.58,665.61,665.68,665.82,665.98,666.13,666.29,666.44,666.57,666.71,666.90,667.36,667.59,667.70,667.84,667.98,668.10,668.24,668.38,668.51,668.66,668.81,668.94,669.03,669.17,669.27,669.33,669.39,669.53,669.69,669.87,670.22,670.99,671.86,672.27,672.42,672.48,672.67,672.99,673.38,673.83,674.37,674.90,675.23,675.45,675.72,676.00,676.01,675.92,675.97,676.63,677.36,678.06,678.70,679.34,680.21,681.20,682.26,683.36,684.38,685.27,685.94,686.39,686.75,687.13,687.49,687.81,688.00,687.86,687.97,688.24,688.61,689.10,689.63,690.14,690.44,690.22,689.75,689.69,690.02,690.70,691.68,692.61,693.43,694.20,695.11,695.96,696.77,697.56,698.27,698.79,699.38,700.04,700.65,700.95,701.28,701.70,702.06,702.13,702.06,702.26,702.58,702.90,703.43,704.05,704.82,705.70,706.59,707.45,708.41,709.54,710.95,712.41,713.16,713.11,712.41,711.99,712.39,712.96,713.42,713.75,714.19,715.23,716.97,719.58,722.86,726.75,729.99,732.36,734.78,737.70,740.07,741.87,743.33,744.59,746.75,749.47,752.48,755.51,758.60,761.07,762.85,764.24,765.43,766.63,767.47,767.75,768.36,769.55,771.68,775.19,780.31,782.55,781.33,778.25,775.72,776.52,778.79,781.96,786.21,791.84,796.91,802.27,808.30,815.01,822.05,829.89,836.49,840.05,843.50,846.41,850.49,855.50,858.79,864.43,869.38,873.05,876.11,880.83,887.79,894.43,898.87,901.27,902.84,904.14,905.36,906.53,907.99,909.26,910.03,910.12,910.29,910.09,909.52,908.83,908.77,910.00,911.65,913.40,914.94,914.87,913.77,912.42,911.52,911.99,912.59,913.20,913.82,914.47,914.73,914.73,914.31,913.31,912.46,911.41,910.44,909.44,907.71,905.47,903.12,901.02,899.75,899.23,899.32,899.88,901.03,903.08,904.46,904.79,904.55,905.13,906.37,906.21,905.08,903.86,902.75,901.56,900.67,900.24,899.91,899.46,898.24,896.20,893.59,891.27,890.21,889.87,889.79,889.71,889.61,889.53,889.52,889.56
664.90,665.06,665.19,665.24,665.16,665.19,665.33,665.48,665.63,665.78,665.94,666.10,666.28,666.62,667.39,667.71,667.82,667.96,668.11,668.22,668.34,668.48,668.63,668.79,668.94,669.07,669.16,669.30,669.40,669.44,669.47,669.58,669.74,669.96,670.41,671.32,672.36,673.06,673.39,673.47,673.71,674.08,674.47,674.88,675.40,675.93,676.30,676.56,676.78,677.02,676.82,676.59,676.66,677.35,678.09,678.82,679.50,680.09,680.80,681.64,682.59,683.65,684.74,685.88,686.80,687.44,687.85,688.25,688.62,688.93,689.11,688.91,688.93,689.11,689.40,689.84,690.35,690.94,691.40,691.35,690.84,690.72,691.04,691.70,692.53,693.47,694.38,695.20,695.97,696.75,697.53,698.31,699.04,699.55,700.29,701.18,701.97,702.15,702.38,702.71,703.03,703.19,703.38,703.81,704.28,704.62,705.00,705.27,705.74,706.48,707.35,708.19,709.07,710.11,711.43,712.88,714.30,715.01,714.82,714.84,715.40,715.85,715.97,715.77,715.43,715.29,716.06,718.40,721.60,725.91,729.62,732.19,734.33,737.46,740.00,741.91,743.59,745.04,747.17,749.78,752.68,755.79,758.93,761.69,764.04,766.20,768.36,770.42,771.90,772.45,773.07,774.07,776.67,781.22,786.70,790.15,790.43,787.86,783.41,782.35,783.47,785.82,789.24,793.87,798.49,803.34,808.78,815.60,824.58,833.48,840.67,845.07,848.64,852.04,857.22,863.69,867.54,872.28,876.40,879.46,881.79,886.50,892.82,898.56,902.16,903.51,904.73,905.59,905.95,905.86,906.36,907.20,907.92,908.34,909.35,910.17,910.51,910.40,910.42,911.07,912.24,913.57,914.43,913.43,912.02,910.68,909.78,910.23,911.01,911.82,912.57,913.13,913.28,913.23,912.91,912.18,911.14,910.16,909.37,908.49,906.51,904.27,901.99,900.12,899.34,898.81,898.92,899.34,900.02,901.51,902.24,902.26,902.14,903.22,906.28,907.12,906.32,905.35,904.42,903.38,902.46,901.74,901.13,900.62,899.04,896.32,892.98,890.60,889.89,889.85,889.77,889.71,889.61,889.58,889.63,889.65
664.64,664.80,664.87,664.83,664.70,664.64,664.74,664.89,665.05,665.20,665.36,665.51,665.80,666.48,667.46,667.87,668.00,668.10,668.25,668.39,668.51,668.61,668.76,668.92,669.07,669.20,669.29,669.43,669.53,669.58,669.58,669.61,669.74,670.05,670.64,671.62,672.63,673.62,674.27,674.45,674.80,675.18,675.57,675.97,676.45,676.92,677.37,677.71,677.86,677.91,677.60,677.29,677.32,678.04,678.76,679.50,680.23,680.90,681.55,682.25,683.09,684.11,685.19,686.34,687.38,688.22,688.69,689.14,689.59,689.98,690.19,689.96,689.90,690.04,690.36,690.76,691.22,691.81,692.45,692.84,692.44,692.28,692.55,693.25,694.03,694.88,695.61,696.19,696.73,697.51,698.31,699.08,699.83,700.38,701.42,702.58,703.48,703.79,703.94,704.06,704.20,704.39,704.88,705.46,705.98,706.37,706.75,706.87,707.01,707.37,708.09,708.86,709.69,710.61,711.73,713.14,714.60,715.92,717.07,718.17,719.02,719.37,719.29,718.91,717.85,716.44,716.02,717.62,720.00,723.76,727.25,729.72,731.28,734.21,737.23,739.55,740.67,741.93,744.24,746.91,749.59,752.55,756.16,759.37,762.06,764.76,768.16,771.72,774.73,776.52,777.52,778.35,781.90,787.99,792.44,796.94,798.86,797.74,793.91,791.09,790.51,791.61,794.16,797.92,801.69,805.65,810.12,815.84,824.21,833.01,841.35,848.75,855.28,860.16,864.69,869.26,873.50,878.93,882.79,885.24,887.93,893.42,897.97,901.40,903.59,903.73,903.41,902.64,901.69,901.24,901.16,901.24,901.65,902.93,905.84,908.65,910.40,910.98,911.39,911.84,912.62,913.28,912.95,911.93,910.49,908.99,908.04,908.74,909.74,910.67,911.39,911.74,911.81,911.64,911.18,910.40,909.74,909.16,908.52,907.51,905.48,903.33,901.29,899.70,899.00,898.38,898.46,898.90,899.45,900.10,900.28,900.16,900.30,902.05,906.91,908.63,907.96,907.08,906.14,905.45,904.29,902.58,901.31,900.24,898.11,894.88,891.30,890.13,889.86,889.78,889.72,889.70,889.68,889.68,889.70,889.77
664.41,664.48,664.44,664.35,664.24,664.12,664.21,664.36,664.51,664.67,664.82,665.00,665.41,666.36,667.42,667.94,668.15,668.27,668.42,668.55,668.66,668.79,668.94,669.06,669.20,669.34,669.46,669.57,669.69,669.74,669.70,669.71,669.80,670.21,670.94,671.94,672.95,674.01,674.89,675.45,675.85,676.26,676.67,677.07,677.50,677.99,678.46,678.82,678.91,678.68,678.27,677.96,678.03,678.75,679.47,680.18,680.90,681.60,682.25,682.94,683.69,684.58,685.64,686.79,687.89,688.86,689.58,690.06,690.48,690.88,691.14,690.90,690.85,691.02,691.39,691.81,692.24,692.75,693.37,694.00,693.94,693.88,694.13,694.81,695.57,696.28,696.82,697.19,697.57,698.23,699.01,699.84,700.66,701.35,702.57,703.90,704.95,705.40,705.55,705.51,705.43,705.54,706.14,706.87,707.56,708.15,708.59,708.56,708.42,708.47,709.07,709.71,710.41,711.18,712.10,713.42,714.87,716.34,717.78,719.14,720.40,721.29,721.65,721.18,719.85,718.14,716.93,717.18,719.29,722.18,725.16,727.71,729.13,731.54,734.19,736.48,737.99,739.68,742.22,744.96,747.53,750.08,753.41,756.64,759.61,762.61,766.36,770.47,774.67,778.53,780.84,782.75,785.99,790.31,793.16,796.82,799.45,800.48,799.78,799.00,798.58,798.83,800.08,802.44,805.49,809.29,813.87,819.51,827.62,835.74,843.95,852.62,860.34,865.63,869.97,874.39,879.93,884.94,888.18,890.75,894.47,898.05,900.41,901.81,902.31,901.84,901.05,899.75,898.14,896.95,896.62,896.74,897.45,899.18,902.00,905.11,907.82,909.77,910.94,911.54,911.95,912.08,911.48,910.31,908.73,907.22,906.38,907.23,908.27,909.14,909.84,910.33,910.42,910.25,909.86,909.27,908.80,908.34,907.64,906.44,904.41,902.42,900.73,899.46,898.76,898.06,898.00,898.32,898.77,899.14,899.20,899.27,899.87,902.19,907.49,909.54,909.11,908.23,906.75,905.24,903.45,901.38,899.71,898.29,896.02,893.08,890.51,889.96,889.85,889.78,889.75,889.75,889.75,889.75,889.77,889.86
664.14,664.12,663.98,663.85,663.75,663.62,663.69,663.83,663.98,664.13,664.29,664.55,665.11,666.25,667.35,667.99,668.31,668.47,668.61,668.70,668.83,668.98,669.11,669.22,669.34,669.48,669.63,669.77,670.00,670.03,669.87,669.86,670.00,670.55,671.40,672.40,673.40,674.46,675.50,676.38,676.82,677.27,677.70,678.12,678.52,679.08,679.59,679.96,679.99,679.46,678.96,678.70,678.83,679.51,680.21,680.90,681.60,682.29,682.99,683.69,684.38,685.12,686.10,687.23,688.35,689.43,690.41,690.96,691.37,691.75,692.03,691.80,691.79,692.02,692.42,692.87,693.28,693.70,694.25,695.02,695.37,695.48,695.73,696.35,697.07,697.61,697.97,698.19,698.45,699.00,699.74,700.60,701.52,702.36,703.71,705.17,706.37,707.00,707.13,706.90,706.59,706.66,707.30,708.11,708.98,709.81,710.30,710.14,709.80,709.66,710.17,710.71,711.29,711.91,712.64,713.73,715.10,716.54,717.97,719.31,720.94,722.45,723.42,723.14,721.71,719.96,718.24,717.23,718.98,721.03,723.50,726.14,727.80,729.80,731.97,734.13,736.15,738.21,740.79,743.47,745.93,748.09,750.88,753.95,757.10,760.32,764.09,768.32,773.28,778.81,782.47,785.26,787.58,789.45,790.84,793.28,796.23,799.18,801.71,803.61,804.28,804.71,805.55,806.93,809.51,813.45,818.56,824.75,832.63,839.83,847.25,856.02,864.40,869.78,874.07,878.86,885.64,889.96,892.58,895.28,899.52,900.89,901.39,901.06,899.80,898.66,897.84,896.61,894.86,893.04,892.57,892.95,894.09,896.14,898.42,901.28,904.52,907.72,909.78,910.76,910.93,910.59,909.85,908.41,906.69,905.28,904.76,905.68,906.74,907.62,908.33,908.98,909.10,908.97,908.70,908.32,907.93,907.51,906.77,905.49,903.55,901.76,900.34,899.28,898.53,897.76,897.53,897.69,898.04,898.34,898.50,898.87,900.03,903.19,908.14,910.13,909.88,908.95,906.88,904.44,902.02,899.77,897.82,896.29,894.29,892.10,890.66,890.19,889.95,889.81,889.81,889.80,889.80,889.81,889.84,889.99
663.76,663.68,663.53,663.38,663.25,663.16,663.15,663.24,663.39,663.55,663.70,664.20,665.04,666.14,667.28,668.06,668.51,668.65,668.75,668.88,669.02,669.16,669.26,669.39,669.50,669.59,669.74,670.16,670.71,670.72,670.14,670.09,670.54,671.35,672.30,673.25,674.25,675.30,676.31,677.10,677.59,678.05,678.54,679.03,679.50,680.19,680.79,681.17,681.13,680.37,679.81,679.63,679.88,680.39,681.06,681.75,682.44,683.14,683.84,684.53,685.20,685.85,686.56,687.62,688.77,689.90,691.00,691.77,692.28,692.64,692.88,692.70,692.74,692.99,693.39,693.85,694.30,694.68,695.14,695.93,696.65,697.01,697.32,697.82,698.39,698.75,698.98,699.17,699.42,699.92,700.58,701.39,702.38,703.41,704.81,706.34,707.72,708.61,708.55,707.98,707.43,707.72,708.30,709.09,710.03,711.03,711.52,711.30,710.99,710.95,711.47,712.01,712.56,713.10,713.61,714.11,715.22,716.59,717.97,719.31,720.98,722.73,724.28,724.98,723.58,721.71,719.85,718.47,719.02,720.65,722.88,725.48,728.12,730.32,732.46,734.59,736.55,738.31,740.32,742.50,744.72,746.82,749.01,751.72,754.88,758.25,761.89,765.85,770.47,775.79,780.12,782.03,782.79,783.17,784.01,785.87,788.78,792.36,796.11,799.04,801.92,805.27,808.81,810.86,813.70,818.00,823.89,831.49,839.00,845.12,850.92,857.89,866.95,872.38,876.66,881.72,888.78,892.59,894.95,897.13,899.69,900.44,900.46,899.12,896.14,893.56,893.05,892.73,891.76,890.03,889.45,889.96,891.39,893.65,895.95,898.39,901.37,904.80,907.76,909.49,909.81,909.10,907.69,905.86,903.99,902.91,903.12,904.02,905.21,906.40,907.36,907.79,907.92,907.83,907.61,907.28,906.90,906.55,905.98,904.97,903.36,901.76,900.35,899.15,898.23,897.43,897.03,897.02,897.33,897.59,898.08,898.83,900.72,905.59,909.08,910.23,909.93,908.91,906.56,903.98,901.35,898.79,896.77,895.58,894.74,893.92,892.79,891.35,890.35,889.88,889.87,889.81,889.80,889.83,889.95,890.32
