879.08,878.97,879.11,879.36,879.62,879.96,880.63,881.33,881.84,881.92,881.82,881.54,881.38,881.80,882.49,883.56,884.45,884.84,884.89,882.83,879.95,876.78,873.45,870.63,868.60,867.08,865.71,863.83,862.38,861.04,859.66,858.50,857.45,856.45,855.53,854.76,853.60,853.10,852.91,852.73,852.77,853.22,853.73,854.21,854.72,855.17,854.95,854.17,853.22,853.11,854.23,855.33,855.68,855.00,852.73,849.96,847.40,845.73,844.81,845.74,847.66,849.80,851.49,852.59,853.37,853.78,853.29,851.17,850.18,851.37,854.95,857.66,856.41,853.85,851.52,849.77,847.94,846.81,846.82,848.54,851.00,854.54,858.07,860.57,861.71,861.22,859.07,855.48,851.48,849.57,850.08,851.36,851.56,850.94,849.28,846.72,843.43,840.07,835.82,832.07,829.71,829.73,830.50,832.12,834.16,836.27,838.12,839.63,841.19,842.80,843.81,841.17,836.82,832.32,828.89,826.41,824.32,822.22,820.00,817.99,817.37,817.55,818.06,818.44,818.73,819.44,820.93,823.41,826.18,828.77,829.71,828.64,826.34,823.79,821.11,818.48,816.15,814.00,812.55,811.22,809.43,806.48,802.98,800.92,800.01,798.46,796.10,794.69,794.39,794.99,795.61,796.23,796.82,797.39,798.14,799.21,800.29,801.17,801.75,802.68,804.96,807.81,810.71,813.59,816.55,819.06,821.03,822.51,823.41,823.00,821.82,820.37,818.94,817.09,815.18,813.44,811.88,810.59,809.96,809.98,810.53,811.13,811.53,811.19,809.86,808.33,806.56,805.23,804.38,803.66,803.02,802.34,801.70,801.12,800.14,797.60,794.28,790.55,786.46,782.12,779.34,777.84,776.83,777.52,778.47,779.10,779.13,778.55,777.79,776.95,776.10,775.37,774.80,774.46,775.10,777.54,780.42,784.03,787.39,789.84,790.99,792.60,794.94,797.67,800.16,801.59,802.61,803.44,804.24,805.40,806.76,808.21,809.50,810.07,810.24,810.40,810.59,810.73,810.56,809.76,808.85,808.14,807.72,807.27,806.28,804.76,802.88,800.75,798.32,795.70,792.95,790.07,787.31,784.81,782.77,781.81
878.30,877.88,877.66,877.58,877.56,877.59,878.05,878.55,878.85,878.85,878.79,878.56,878.37,878.66,879.32,880.33,881.64,883.22,884.86,884.22,882.22,879.43,876.18,873.26,871.33,870.20,869.45,867.77,866.00,864.29,862.66,861.16,859.74,858.33,857.00,855.80,853.67,852.29,851.41,850.84,850.87,850.85,850.86,850.90,850.80,850.80,850.63,850.30,849.96,849.85,850.40,850.97,851.14,850.57,849.17,847.54,845.89,844.26,842.85,843.24,844.75,846.74,848.44,849.66,850.55,850.94,850.13,848.02,847.94,849.98,853.33,855.92,854.14,851.11,848.61,846.98,845.46,845.19,846.40,849.08,852.05,855.73,858.94,860.59,860.82,859.90,857.32,853.28,849.21,846.77,847.03,848.63,849.81,850.24,849.32,847.47,844.84,841.43,836.55,832.01,828.85,828.12,828.31,829.59,831.41,833.31,834.92,836.24,837.53,839.18,841.62,841.62,838.23,833.55,830.14,827.78,825.89,823.90,821.69,819.81,819.63,820.17,820.79,821.10,821.20,821.76,823.06,825.30,827.95,830.36,830.97,829.31,826.21,823.24,820.30,817.41,814.66,812.05,810.64,809.57,808.11,805.75,803.47,802.07,801.40,800.48,798.16,795.93,794.46,794.11,794.48,794.95,795.46,796.04,796.75,797.62,798.48,799.26,800.04,801.59,804.72,808.23,811.50,814.86,817.91,820.05,821.40,822.52,823.13,823.08,822.55,821.69,820.89,819.57,818.09,816.66,815.34,814.29,813.73,813.60,813.74,813.48,812.84,811.39,809.05,807.19,805.25,803.84,803.09,802.77,802.48,801.97,801.37,800.69,799.45,796.84,793.66,790.16,786.08,781.81,779.07,777.56,776.50,776.95,777.64,778.02,777.83,777.33,776.67,775.92,775.11,774.36,774.17,774.63,776.33,779.76,782.84,786.53,789.89,792.25,793.42,795.11,797.04,799.02,800.88,802.23,803.44,804.44,805.18,806.04,806.95,807.91,808.76,809.13,809.45,809.93,810.39,810.56,810.33,808.95,807.19,805.63,804.90,804.45,803.74,802.55,800.76,798.75,796.44,793.94,791.24,788.01,785.13,782.79,781.13,780.51
877.78,877.28,876.72,876.22,875.92,875.81,876.31,876.87,877.15,877.11,877.08,876.55,875.92,876.01,876.50,877.30,878.45,880.02,881.72,883.40,883.69,882.26,879.42,877.09,875.60,874.60,873.63,872.07,870.37,868.64,866.83,864.83,862.65,860.73,859.20,858.06,856.20,853.83,851.50,849.79,849.39,849.16,848.99,848.85,848.62,848.32,847.92,847.56,847.36,847.26,847.48,847.77,847.90,847.55,846.69,845.53,844.15,842.61,841.11,840.70,841.32,842.82,844.47,845.96,847.04,847.37,846.27,844.48,845.97,849.46,852.58,854.46,852.71,849.82,847.09,844.66,843.04,843.84,846.66,850.29,853.59,856.83,859.23,859.98,859.47,858.01,855.83,852.80,848.70,845.29,843.88,844.30,846.13,847.66,847.15,846.35,845.55,842.49,838.15,833.19,828.82,827.11,826.67,827.44,828.74,830.15,831.45,832.71,834.25,836.26,838.92,842.56,840.67,835.74,832.43,830.15,828.26,826.32,824.29,822.68,822.69,823.34,823.96,823.90,823.57,824.16,825.48,827.33,829.75,831.96,831.97,829.27,825.06,821.84,818.89,815.95,813.05,810.51,808.95,807.84,806.62,804.67,804.16,803.83,803.21,802.34,801.06,799.00,796.30,793.62,793.35,793.64,794.12,794.75,795.45,796.28,797.11,797.96,799.08,801.13,804.41,808.01,811.58,815.63,818.73,820.51,821.38,822.13,822.44,822.59,822.70,822.68,822.13,821.39,820.60,819.72,818.61,817.64,817.05,816.71,816.22,814.22,811.92,809.64,807.41,805.12,802.95,801.43,800.65,800.55,800.64,800.54,800.29,799.80,798.07,795.58,792.75,789.52,785.50,781.45,778.85,777.39,776.30,776.22,776.60,776.80,776.54,776.09,775.44,774.74,774.03,773.49,774.20,776.17,778.93,782.09,785.20,788.40,791.47,794.14,795.97,797.73,799.16,800.38,801.66,802.61,803.33,803.79,803.92,803.84,803.92,804.45,805.35,806.24,807.36,808.86,810.11,810.37,810.19,808.26,805.45,802.73,801.75,801.39,800.90,799.94,798.19,796.27,794.20,791.92,789.11,785.11,781.97,780.30,779.83,779.78
878.24,877.92,877.51,876.95,876.24,875.35,875.12,875.22,875.42,875.38,875.14,874.46,873.65,873.33,873.56,874.19,875.21,876.66,878.47,880.58,882.10,882.70,882.25,880.38,879.09,878.34,877.54,876.17,874.50,872.72,870.76,868.29,865.95,863.92,862.25,860.87,858.99,856.35,853.27,850.38,849.21,848.55,848.08,847.70,847.25,846.72,846.14,845.59,845.12,844.77,844.89,845.15,845.29,845.05,844.35,843.40,842.26,840.95,839.83,839.33,839.43,840.14,841.18,842.20,842.98,843.16,842.20,841.87,844.59,848.67,851.67,853.18,851.81,849.14,846.00,842.85,841.06,842.58,846.56,850.82,853.87,855.97,857.24,857.54,856.82,855.68,853.93,851.36,847.76,844.05,841.31,840.12,840.97,842.16,842.57,842.99,843.48,842.61,839.54,834.72,829.72,827.09,825.32,825.28,826.21,827.41,828.50,829.89,831.78,834.18,836.98,840.67,841.43,839.46,836.09,833.58,831.37,829.17,827.06,825.58,825.87,826.70,827.26,826.81,826.03,826.40,827.66,829.45,831.66,833.56,832.94,829.41,824.78,820.97,817.85,815.03,812.24,809.84,808.17,807.18,806.65,805.74,805.77,805.71,805.28,804.63,803.55,801.83,799.29,796.14,794.64,793.26,792.79,793.41,794.14,795.01,796.08,797.30,798.76,801.13,804.52,808.23,811.97,816.00,819.03,820.65,821.19,821.35,821.30,821.39,821.59,821.75,821.59,821.20,820.79,820.49,820.37,819.84,819.20,818.50,817.37,814.53,811.34,808.46,806.02,803.52,801.32,799.85,799.12,798.91,799.00,798.97,798.69,797.86,795.95,793.65,791.13,788.24,784.62,781.07,778.79,777.45,776.25,775.58,775.55,775.54,775.21,774.79,774.19,773.58,773.11,773.14,774.75,777.22,780.18,783.54,786.95,790.10,793.03,795.73,797.96,799.36,800.35,801.13,801.73,802.05,802.36,802.51,802.30,801.74,801.14,800.97,801.26,801.92,803.67,806.51,809.15,810.14,810.09,807.63,804.14,800.84,799.35,798.47,797.71,796.64,794.81,792.93,791.22,788.96,785.65,782.23,780.17,779.22,779.08,779.43
879.07,879.04,878.84,878.25,877.04,875.44,874.41,873.95,873.87,873.67,873.19,872.48,871.68,871.10,871.11,871.53,872.29,873.45,875.16,877.14,879.38,881.75,883.63,882.69,881.82,881.37,880.83,879.70,878.19,876.54,874.63,871.92,869.56,867.47,865.60,863.91,861.92,859.28,855.90,852.13,849.82,848.62,847.93,847.46,846.89,846.24,845.57,844.91,844.24,843.61,843.38,843.24,843.02,842.77,842.16,841.38,840.49,839.47,838.73,838.27,838.04,838.08,838.55,839.03,839.40,839.41,838.71,839.78,843.15,847.26,850.27,851.80,850.83,848.26,844.65,841.07,839.31,841.39,846.18,850.76,853.23,854.21,854.52,854.47,853.74,852.99,851.74,849.66,846.52,842.84,839.18,836.51,835.95,836.44,837.57,838.90,840.27,841.51,839.98,835.88,830.87,827.51,824.37,823.31,823.71,824.84,825.90,827.53,829.74,832.42,835.25,838.16,840.94,842.01,839.55,836.92,834.36,831.97,829.91,828.59,828.91,829.76,830.32,829.74,828.68,828.90,830.09,831.80,833.81,834.94,833.58,829.58,824.75,820.45,817.18,814.52,811.92,809.63,808.04,807.36,807.53,807.58,807.69,807.64,807.41,807.04,806.15,804.65,802.21,798.76,796.25,793.52,792.07,792.27,792.93,793.74,794.99,796.54,798.35,801.31,805.04,808.87,812.54,816.29,819.10,820.54,820.76,820.23,819.66,819.43,819.47,819.65,819.74,819.49,819.45,819.96,821.04,821.13,820.59,819.70,818.27,815.04,811.24,807.81,805.11,802.43,800.23,798.82,798.08,797.59,797.42,797.35,796.92,795.67,793.71,791.67,789.44,786.83,783.69,780.74,778.80,777.56,776.40,775.40,775.01,774.78,774.39,774.01,773.40,772.79,772.40,772.76,774.97,777.62,780.58,784.11,787.73,790.90,793.80,796.55,799.22,800.31,800.93,801.36,801.35,800.94,801.01,801.04,800.53,799.59,798.57,797.87,797.71,798.48,800.76,804.55,808.21,809.92,809.99,807.11,803.22,799.67,797.72,796.29,794.99,793.53,791.60,789.83,788.32,786.00,782.47,780.01,779.02,778.62,778.60,779.28
880.15,880.46,880.37,879.51,877.74,875.92,874.57,873.54,872.73,871.96,871.38,870.84,870.34,870.00,869.92,869.99,870.18,870.66,871.78,873.51,875.99,879.00,881.78,882.93,883.24,883.17,882.81,882.01,881.00,879.93,878.55,876.09,873.69,871.36,869.14,867.12,865.00,862.57,859.50,855.59,851.49,849.65,849.00,848.80,848.42,847.89,847.33,846.84,846.43,845.57,844.26,842.67,841.17,840.68,840.19,839.70,839.14,838.39,837.74,837.20,836.79,836.66,837.07,837.29,837.37,837.21,836.77,838.34,841.17,844.52,847.77,850.03,849.27,846.43,842.39,839.04,837.81,840.36,845.36,849.68,851.18,851.60,851.56,851.15,850.52,849.74,849.08,847.98,844.82,841.54,837.70,834.15,832.23,832.14,833.16,834.55,836.17,838.11,838.31,835.93,831.98,828.33,824.22,821.78,821.22,822.38,823.80,825.79,828.21,830.89,833.54,836.02,838.55,840.74,841.56,839.27,836.59,834.37,832.86,831.80,831.55,832.01,832.69,832.70,831.74,832.12,833.31,834.62,836.46,835.77,833.41,829.72,824.72,820.38,817.21,814.70,812.22,809.95,808.91,808.83,809.39,809.82,809.74,809.58,809.50,809.48,809.31,807.59,804.18,799.60,796.97,794.70,792.80,791.67,791.94,792.44,793.53,795.11,797.29,801.64,806.25,810.22,813.39,816.68,818.96,820.01,819.86,818.57,817.13,816.12,815.76,816.03,815.90,815.48,816.00,817.83,820.09,821.01,820.91,820.33,819.44,816.38,812.07,808.10,805.15,802.23,800.01,798.58,797.64,796.64,795.89,795.63,795.12,793.58,791.68,790.00,788.04,785.56,782.87,780.53,778.83,777.69,776.98,776.33,775.74,775.23,774.86,774.51,773.76,772.89,772.15,772.00,774.03,776.77,779.82,783.18,786.56,789.67,792.63,795.68,799.12,800.33,800.70,800.75,800.32,799.13,799.31,799.54,798.65,797.29,796.34,795.70,795.87,798.11,800.82,804.33,807.74,809.75,809.81,806.84,802.96,799.51,797.46,795.76,793.66,791.31,789.38,787.90,786.12,783.71,780.85,779.38,778.51,778.18,778.45,779.31
882.97,883.09,881.98,880.07,878.11,876.78,875.65,874.62,873.64,872.65,871.72,870.73,869.94,869.72,869.59,869.42,869.33,869.47,870.07,871.07,872.93,875.76,879.26,881.24,881.96,882.03,881.81,881.46,881.13,880.86,880.39,878.98,877.31,875.11,872.59,870.13,867.70,865.24,862.28,858.43,854.11,852.42,851.90,851.62,850.89,850.00,849.37,848.96,848.55,847.66,845.97,843.82,841.59,840.17,839.66,839.39,839.06,838.55,838.01,837.42,836.71,835.94,835.48,835.30,835.22,835.10,834.84,835.70,837.62,840.06,842.42,844.08,843.79,841.88,838.78,835.97,835.64,838.29,842.49,845.67,846.62,846.83,846.76,846.48,846.00,845.64,845.79,845.79,843.59,840.65,836.36,832.01,829.48,828.97,829.65,830.66,831.83,833.53,834.59,833.90,831.59,828.07,823.46,819.69,818.17,819.64,821.69,824.02,826.56,829.14,831.29,833.45,835.85,838.28,840.23,840.99,839.25,837.18,835.85,834.53,834.06,834.42,835.10,835.29,835.39,836.14,837.08,837.75,838.22,836.23,833.19,829.49,824.52,820.34,817.28,814.84,812.49,810.82,810.26,810.58,811.46,812.02,811.74,811.37,811.12,810.92,810.61,808.50,804.65,799.89,797.48,795.47,793.51,791.84,791.13,791.28,792.16,793.92,797.18,802.01,806.60,810.31,813.00,815.22,816.59,816.96,816.46,815.30,813.88,812.79,812.19,812.11,811.96,811.83,813.29,816.55,819.64,820.72,820.82,820.54,819.85,817.32,813.40,809.78,807.15,804.08,801.27,799.41,798.28,796.97,795.67,794.64,793.63,792.34,790.94,789.37,787.36,784.91,782.54,780.67,779.29,778.34,777.84,777.37,776.77,776.21,775.78,775.31,774.48,773.56,772.67,772.04,772.67,774.78,777.59,780.37,783.03,786.31,789.78,793.22,796.59,798.45,799.15,798.86,797.47,795.91,795.88,796.15,795.71,794.79,793.91,793.80,794.92,797.74,800.70,803.97,807.09,809.16,809.14,806.64,803.31,800.21,798.19,796.05,793.46,790.75,788.58,786.88,784.74,782.31,780.06,778.84,777.90,777.73,778.35,779.30
886.32,885.95,883.70,880.83,878.83,877.93,877.10,876.21,875.24,874.16,873.06,871.76,870.64,870.29,869.88,869.40,869.05,868.97,869.08,869.36,870.43,872.74,876.57,878.84,879.71,879.84,879.71,879.75,880.02,880.48,880.91,880.73,880.04,878.33,875.82,873.02,870.29,867.69,864.71,861.01,857.17,855.93,855.53,854.98,853.71,852.41,851.72,851.36,850.88,849.92,847.97,845.51,842.89,840.64,839.98,839.81,839.63,839.28,838.78,838.14,837.20,835.85,834.52,833.80,833.39,833.15,832.97,832.86,833.77,835.22,836.43,837.19,837.38,836.61,834.76,832.71,833.13,835.41,838.36,840.31,841.03,841.21,841.27,841.27,841.04,841.37,842.45,843.48,842.34,839.61,834.98,830.16,827.31,826.16,826.39,826.97,827.64,828.93,830.34,830.94,830.11,826.87,822.08,817.25,814.86,816.58,819.52,822.28,824.93,827.36,829.11,831.10,833.51,836.01,838.38,841.97,841.49,839.81,838.58,837.01,836.43,836.63,837.14,837.47,838.56,839.51,840.09,840.06,838.95,836.11,832.71,828.91,824.13,820.20,817.31,815.04,813.12,812.28,812.17,812.63,813.44,813.70,813.25,812.74,812.31,811.79,811.06,808.46,804.38,799.89,797.74,795.87,793.98,792.10,790.50,790.32,790.90,792.79,797.16,802.16,806.38,809.63,811.80,812.91,813.40,813.15,812.37,811.55,810.51,809.65,808.98,808.54,808.50,808.90,811.17,815.37,819.23,820.37,820.61,820.56,819.97,818.09,814.87,811.88,809.67,806.59,803.25,800.79,799.18,797.61,795.88,794.13,792.60,791.52,790.58,788.99,787.03,784.94,783.05,781.54,780.37,779.49,778.93,778.46,777.89,777.34,776.83,776.19,775.33,774.39,773.42,772.38,771.50,772.60,774.78,776.87,778.82,782.20,786.09,789.90,793.19,795.66,796.64,796.02,793.83,792.31,792.06,792.33,792.49,792.21,791.56,792.08,794.14,797.24,800.35,803.39,806.23,808.30,808.27,806.39,803.81,801.19,799.21,796.67,793.82,790.99,788.57,786.50,783.97,781.47,779.54,778.28,777.33,777.38,778.33,779.35
889.52,888.24,885.74,883.01,880.98,879.66,878.72,877.80,876.80,875.77,875.34,874.81,873.98,872.80,871.31,870.10,869.34,869.00,868.60,868.75,869.39,870.90,874.03,876.23,877.22,877.44,877.32,877.37,877.76,878.47,879.41,880.20,880.48,879.93,878.42,875.72,872.92,870.09,866.91,863.39,860.66,859.97,859.51,858.49,856.72,855.33,854.75,854.52,853.98,852.62,849.97,847.09,844.59,842.63,841.44,841.07,841.03,840.61,839.84,839.14,838.26,837.00,835.72,834.21,832.71,831.58,831.25,830.70,830.67,831.03,831.44,831.74,832.16,831.92,830.84,830.00,830.23,831.07,832.29,833.78,834.75,835.20,835.49,835.82,836.03,837.46,839.62,841.39,840.53,837.61,833.34,829.03,825.91,823.40,822.99,823.46,824.23,825.50,826.61,827.21,826.67,823.73,819.32,814.31,811.34,812.73,817.18,820.72,823.48,825.74,827.75,829.90,832.65,835.63,838.38,841.25,841.91,841.41,840.42,839.19,838.50,838.03,837.91,838.72,839.50,839.93,839.97,839.31,837.24,834.53,831.36,827.67,823.31,819.75,817.11,815.46,815.02,815.12,815.36,815.39,814.92,813.75,813.18,812.88,812.55,811.86,810.81,807.60,803.33,799.50,797.43,795.53,793.64,791.81,790.25,789.85,789.96,791.58,796.41,801.52,805.22,807.79,809.37,809.92,810.04,809.61,808.78,807.98,807.48,807.16,806.81,806.42,806.74,807.95,810.16,813.64,818.42,820.03,820.45,820.45,819.98,818.67,816.25,813.81,811.76,809.05,805.96,802.76,799.83,797.88,796.08,794.34,792.68,791.19,789.99,788.27,787.06,786.55,785.70,784.37,783.01,781.70,780.41,779.58,778.97,778.42,777.85,777.07,776.17,775.21,774.13,772.77,771.45,771.02,771.60,773.16,775.00,777.88,781.47,785.52,789.61,791.92,792.41,791.48,789.63,788.95,788.85,789.08,789.49,789.61,789.62,790.67,793.01,796.26,799.48,802.31,804.89,807.04,807.18,805.88,804.11,802.21,800.15,797.58,794.80,792.07,789.61,787.24,784.35,781.43,779.03,777.57,776.99,777.38,778.49,779.70
892.05,890.34,888.04,885.85,884.25,882.85,881.48,880.07,878.76,878.10,878.43,878.46,877.81,876.33,874.12,872.04,870.39,869.31,868.54,868.17,868.48,869.63,871.81,873.85,874.89,875.12,874.89,874.92,875.46,876.36,877.56,878.79,879.74,880.06,879.40,877.20,874.50,871.70,868.68,865.64,863.84,863.12,862.35,861.12,859.50,858.27,857.79,857.63,857.07,855.46,852.56,849.55,847.09,845.35,844.05,843.27,842.80,842.21,841.42,840.69,839.82,838.62,837.28,835.46,833.40,831.50,830.43,829.69,829.32,829.21,829.25,829.36,829.65,829.54,828.89,828.45,828.52,828.76,829.19,830.06,830.59,830.76,830.93,831.33,831.92,833.94,836.47,838.48,838.23,835.45,831.94,828.34,824.82,821.39,820.06,819.95,820.57,821.64,822.72,823.29,822.74,819.94,815.73,811.53,809.22,810.55,815.17,819.52,822.89,825.36,827.59,829.83,832.70,835.92,838.86,840.88,841.78,841.73,840.86,839.74,838.46,837.32,836.76,837.41,837.92,838.23,838.39,838.09,835.92,833.25,830.18,826.71,823.00,819.88,817.80,816.78,816.78,816.83,816.09,814.93,813.63,812.21,811.75,811.72,811.78,811.60,810.39,806.83,802.51,799.12,797.07,795.17,793.29,791.51,790.03,789.47,789.44,790.56,794.25,800.25,803.92,805.91,806.87,806.94,806.78,806.26,805.47,804.71,804.36,804.26,804.42,805.00,806.12,807.74,809.83,812.75,817.20,819.43,820.20,820.17,819.74,819.00,817.54,815.69,813.61,811.11,807.60,803.68,800.13,798.09,796.30,794.60,792.95,791.41,790.28,789.33,788.93,789.03,788.64,787.66,786.43,785.06,783.50,782.15,780.95,779.84,778.83,777.97,777.03,775.92,774.63,773.17,771.70,770.60,770.21,770.87,771.95,774.33,777.55,781.32,785.09,787.43,788.24,787.76,786.37,786.06,786.13,786.46,787.01,787.47,788.29,789.89,792.46,796.09,799.38,801.93,804.14,806.06,806.15,804.99,803.48,801.88,799.88,797.01,794.22,791.89,790.05,787.47,784.26,781.12,778.61,776.94,776.74,777.58,779.07,780.76
894.33,892.50,890.65,889.11,888.05,886.64,884.76,882.74,881.08,880.85,881.80,882.18,881.60,879.99,877.31,874.44,871.86,869.89,868.76,867.74,867.68,868.59,869.87,871.63,872.65,872.84,872.47,872.43,873.13,874.25,875.58,876.97,878.34,879.27,879.38,878.03,875.62,873.02,870.34,867.86,866.70,865.80,864.80,863.62,862.33,861.32,860.90,860.72,860.13,858.36,855.54,852.63,850.18,848.41,847.00,845.74,844.70,844.12,843.54,842.88,842.01,840.78,839.22,837.19,834.80,832.28,830.27,829.41,828.99,828.70,828.52,828.49,828.49,828.31,827.90,827.46,827.39,827.44,827.59,827.86,827.72,827.38,827.23,827.55,828.39,830.63,833.15,835.16,835.62,833.36,830.70,827.71,823.75,819.85,817.56,816.58,816.67,817.41,818.54,819.10,818.49,815.86,811.98,809.00,807.85,809.38,813.58,818.66,822.78,825.62,828.10,830.48,833.42,836.67,839.51,840.74,841.37,841.25,840.26,838.94,837.00,835.41,834.59,834.80,835.07,835.45,836.10,836.64,834.96,832.37,829.40,826.28,823.27,820.62,819.14,818.58,818.39,817.68,815.40,812.90,811.10,810.01,809.66,809.94,810.62,811.13,809.85,806.11,801.84,798.77,796.73,794.86,793.01,791.24,789.84,789.16,789.14,789.73,791.74,798.38,802.25,803.93,804.37,804.01,803.61,803.06,802.36,801.66,801.32,801.47,802.34,804.19,806.20,808.03,810.00,812.52,816.05,818.50,819.38,819.20,818.76,818.55,818.16,817.17,815.30,812.96,808.77,804.30,800.54,798.43,796.69,795.10,793.57,792.20,791.35,791.38,791.67,791.86,791.61,790.97,790.01,788.74,787.13,785.26,783.37,781.56,779.97,778.89,777.85,776.57,775.09,773.63,772.17,770.87,769.93,769.61,769.75,771.47,774.20,777.46,780.45,782.80,784.15,784.42,783.57,783.40,783.69,784.26,785.06,785.94,787.51,789.56,792.28,796.29,799.62,801.91,803.73,805.31,805.17,803.92,802.38,800.74,798.60,795.30,792.51,790.67,789.52,786.85,783.54,780.47,778.13,776.31,776.50,777.83,779.78,782.00
896.87,895.29,893.97,892.88,891.78,890.06,887.90,885.70,884.03,883.91,884.77,885.13,884.41,882.23,879.28,876.30,873.50,871.04,869.27,867.85,867.16,867.37,868.47,869.67,870.41,870.57,870.13,869.80,870.79,872.21,873.64,875.09,876.53,877.66,878.44,878.61,876.91,874.63,872.27,870.17,868.90,868.34,867.98,867.34,865.83,864.70,864.23,863.92,863.08,861.23,858.85,856.41,853.99,851.41,849.15,847.41,846.45,846.68,846.80,846.58,845.77,844.17,842.00,839.29,836.41,833.54,830.98,829.80,829.20,828.74,828.20,827.70,827.49,827.28,826.93,826.48,826.13,826.00,826.06,826.19,825.82,825.08,824.57,824.72,825.30,827.35,829.75,831.80,832.67,831.77,829.62,826.43,822.25,818.61,815.80,813.69,812.45,812.58,813.60,814.22,813.80,811.79,809.20,807.08,806.63,808.89,813.02,818.44,822.90,825.98,828.94,831.91,835.07,838.01,840.03,840.77,840.84,840.07,838.31,836.00,834.08,832.75,832.01,831.92,831.98,832.49,833.60,834.99,834.54,832.47,829.89,827.30,824.80,822.61,821.32,820.60,819.72,817.34,813.98,810.95,809.04,808.16,807.58,808.25,809.79,810.51,809.14,805.40,801.29,798.48,796.51,794.69,792.87,791.12,789.79,788.88,788.81,789.30,790.54,795.27,799.35,801.64,801.91,801.22,800.62,800.04,799.46,798.91,798.79,799.94,802.00,804.55,807.01,808.92,810.92,813.34,815.88,816.72,816.48,815.80,815.34,815.55,816.40,817.09,816.83,814.74,810.31,805.76,801.99,799.35,797.68,796.36,795.20,794.26,793.80,793.96,794.27,794.48,794.24,793.62,792.73,791.50,789.80,787.81,785.80,783.80,781.78,779.92,778.50,777.17,775.79,774.38,772.97,771.67,770.55,769.74,769.34,769.93,771.67,774.45,777.17,779.03,780.23,780.84,780.75,780.86,781.41,782.52,784.22,785.94,787.72,789.75,792.43,796.38,799.69,801.88,803.50,804.80,804.24,802.88,801.21,799.06,795.60,791.99,789.43,787.82,786.38,783.85,781.30,779.09,777.27,775.50,776.14,777.93,780.18,782.64
897.70,896.02,894.86,894.10,893.47,892.64,890.74,888.63,887.07,887.02,887.62,887.56,886.32,883.50,880.31,877.36,874.58,871.95,869.72,868.02,866.82,866.34,867.11,867.97,868.52,868.59,868.05,867.45,868.37,870.01,871.83,873.30,874.65,875.79,876.80,877.63,877.33,876.22,874.62,872.81,871.56,871.08,870.84,870.34,868.95,867.98,867.48,866.97,865.86,864.10,862.06,859.91,857.51,854.40,851.33,849.21,848.38,849.10,849.94,850.01,849.19,847.33,844.51,841.02,837.78,834.94,832.23,830.75,829.81,829.11,828.49,827.83,827.41,827.07,826.67,826.17,825.39,824.82,824.55,824.44,823.97,823.18,822.44,822.10,822.39,823.99,826.11,828.11,829.11,829.01,827.41,824.54,820.69,817.43,814.43,811.66,809.43,808.44,808.88,809.35,809.20,807.94,806.23,805.68,806.58,809.23,813.66,819.32,824.15,827.60,830.45,833.40,836.50,839.09,840.18,840.36,839.50,837.80,835.32,832.60,830.88,829.84,829.28,829.16,829.16,830.24,831.89,833.32,833.49,832.30,830.60,828.71,826.65,824.75,823.16,821.77,820.09,816.64,812.70,809.49,807.59,806.49,805.70,806.34,808.00,808.94,807.92,804.65,800.94,798.28,796.35,794.53,792.68,790.92,789.59,788.53,788.42,788.91,789.67,792.20,794.90,796.76,797.31,797.00,796.92,796.84,796.67,796.62,797.52,799.58,802.28,805.15,807.83,809.78,811.69,813.60,814.73,814.37,813.23,812.12,811.95,812.51,813.85,815.08,815.57,815.14,812.00,807.91,803.96,801.10,799.34,798.13,797.22,796.60,796.41,796.58,796.86,797.03,796.82,796.17,795.31,794.12,792.29,790.25,788.17,786.06,783.83,781.44,779.50,777.94,776.59,775.20,773.86,772.57,771.35,770.26,769.48,769.19,769.94,771.91,774.36,775.90,777.09,777.99,778.40,779.01,780.22,781.95,784.06,786.17,788.12,790.26,792.94,796.49,799.51,801.49,802.90,803.96,803.41,802.16,800.48,798.07,794.12,790.56,787.92,785.82,783.58,781.25,779.31,777.67,776.21,774.72,775.80,777.86,780.18,782.70
896.94,894.94,893.70,893.15,893.26,893.88,892.76,891.14,889.91,889.86,890.03,889.31,887.35,884.01,880.63,877.74,875.07,872.46,870.01,868.17,866.61,865.54,865.77,866.42,866.85,866.81,866.16,865.36,865.88,867.55,869.83,871.37,872.67,873.74,874.65,875.52,876.74,877.20,876.66,875.26,874.33,873.84,873.38,872.73,871.69,871.05,870.55,869.81,868.50,866.92,865.09,863.05,860.62,857.35,853.73,851.38,850.64,851.61,853.00,853.15,852.16,850.02,846.58,842.42,838.95,836.34,833.88,832.24,830.92,829.90,829.27,828.62,828.03,827.51,827.03,826.41,825.17,824.02,823.21,822.75,822.19,821.57,820.74,819.83,819.87,820.89,822.53,824.28,825.17,825.35,824.32,822.14,818.98,816.16,813.20,810.14,807.17,804.93,804.56,804.76,804.86,804.40,803.55,804.96,807.52,810.50,815.40,821.12,826.19,829.96,832.32,834.73,837.42,839.49,839.71,839.19,837.35,834.74,831.78,829.16,827.65,826.83,826.45,826.47,826.68,828.57,830.67,831.57,831.78,831.58,831.01,829.99,828.37,826.56,824.44,822.15,819.69,815.75,811.66,808.51,806.65,805.03,804.01,804.25,805.45,806.52,806.17,803.72,800.58,798.05,796.10,794.23,792.36,790.59,789.25,788.15,788.01,788.49,788.96,789.58,790.16,790.93,791.88,792.29,793.02,793.63,794.10,794.92,797.29,800.05,802.93,805.89,808.52,810.44,812.07,813.23,812.92,811.84,810.08,808.65,808.94,809.76,811.00,811.92,812.43,814.08,813.26,810.29,806.35,803.48,801.52,800.28,799.51,799.10,799.05,799.23,799.47,799.63,799.43,798.68,797.79,796.62,794.69,792.55,790.38,788.20,785.88,783.20,780.73,778.83,777.42,776.06,774.78,773.49,772.21,771.01,769.93,769.09,768.93,769.83,771.90,773.29,774.57,775.71,776.41,777.62,779.63,781.87,783.99,786.13,788.27,790.68,793.39,796.31,798.90,800.70,801.98,802.85,802.64,801.68,800.14,797.76,794.04,790.81,787.88,784.91,781.66,779.48,777.86,776.45,775.15,774.05,775.49,777.68,779.92,782.42
894.21,892.12,890.92,890.46,890.62,891.18,891.60,891.77,891.64,891.20,890.60,889.12,886.78,883.73,880.38,877.34,874.54,871.94,869.75,868.07,866.53,865.16,864.47,864.73,865.07,865.05,864.39,863.52,863.32,864.35,866.46,868.28,870.26,871.49,872.19,873.11,874.29,875.25,875.71,875.65,875.85,875.95,875.63,874.88,874.06,873.60,873.03,872.19,871.00,869.62,867.72,865.49,862.97,860.10,856.89,854.67,853.99,855.24,856.36,856.08,854.47,851.53,847.57,843.50,840.05,837.48,835.94,834.70,833.29,831.79,830.45,829.52,828.94,828.46,827.88,827.00,825.66,824.20,822.85,821.81,820.97,820.29,819.55,818.80,818.81,819.36,820.12,820.90,821.39,821.46,820.76,819.19,816.69,814.22,811.56,808.24,804.43,801.94,801.33,801.32,801.41,801.68,803.23,806.00,809.56,813.77,818.71,823.98,828.39,831.57,833.78,835.33,836.72,837.66,837.35,835.92,833.85,831.40,828.76,826.40,824.87,823.96,823.55,823.74,824.88,827.20,829.10,829.35,829.17,829.25,829.51,829.57,828.60,826.59,824.19,821.63,818.74,814.86,811.17,808.28,806.23,804.08,802.51,802.08,802.53,803.15,803.46,801.96,799.58,797.33,795.25,793.30,791.51,789.98,788.89,787.89,787.63,787.89,788.26,788.64,788.94,789.31,789.81,790.10,790.57,791.17,792.28,794.79,798.01,800.90,803.74,806.73,808.86,810.29,811.35,811.93,811.56,810.10,808.04,806.52,807.02,807.89,808.75,809.31,809.60,810.45,811.98,811.66,809.25,806.19,804.10,802.83,802.10,801.79,801.76,801.98,802.28,802.49,802.20,801.21,800.10,798.86,797.00,794.32,791.96,789.77,787.38,784.44,781.81,779.76,778.23,776.94,775.61,774.28,773.00,771.77,770.63,769.71,768.95,768.72,769.95,771.26,772.53,773.65,774.59,776.20,778.22,780.28,782.20,784.22,786.77,789.58,792.31,794.57,797.00,799.19,800.84,801.59,801.76,801.37,800.32,798.36,795.30,792.40,789.44,786.12,782.30,779.70,777.85,776.20,774.64,773.75,775.28,777.49,779.73,782.26
891.47,889.79,888.72,888.27,888.33,888.30,889.22,890.35,891.06,890.66,889.74,887.96,885.52,882.69,879.42,876.28,873.39,870.89,869.10,867.66,866.25,864.85,863.67,863.47,863.49,863.30,862.64,861.79,861.21,861.55,862.88,864.33,866.39,867.82,868.76,869.98,871.23,872.42,873.38,874.07,874.99,875.76,876.00,875.66,874.97,874.63,874.34,873.89,873.09,871.75,869.84,867.56,865.03,862.38,859.56,857.72,857.27,858.41,859.29,858.53,856.15,852.28,848.01,844.18,841.11,839.00,838.09,837.24,835.91,834.13,832.21,831.11,830.43,829.70,828.73,827.60,826.14,824.50,822.85,821.49,820.45,819.71,819.02,818.28,817.92,818.10,818.35,818.51,818.65,818.38,817.75,816.49,814.20,811.80,809.23,805.87,802.06,800.21,799.61,799.49,799.60,800.31,803.25,806.84,811.09,816.19,820.86,825.21,828.87,831.63,833.41,834.31,834.82,834.95,834.30,832.50,830.49,828.34,826.01,823.77,822.11,821.08,820.71,821.26,823.27,825.75,827.26,826.92,826.45,826.66,827.31,828.02,828.03,826.38,824.03,821.36,818.27,814.47,810.96,808.09,805.80,803.34,801.36,800.37,800.24,800.51,800.95,800.08,798.37,796.39,794.32,792.33,790.66,789.43,788.56,787.71,787.26,787.23,787.54,787.88,788.13,788.38,788.62,788.81,789.09,789.62,790.98,794.39,798.59,801.65,803.96,806.12,807.82,808.92,809.72,810.12,809.60,807.83,805.73,804.41,805.13,805.96,806.56,806.94,807.21,807.72,810.26,812.36,812.42,809.20,806.74,805.39,804.77,804.57,804.55,804.76,804.68,804.07,803.05,802.05,801.11,800.01,798.25,795.47,792.99,790.69,788.25,785.41,782.83,780.67,778.96,777.68,776.35,775.04,773.77,772.52,771.38,770.44,769.40,768.42,768.48,769.61,770.86,771.89,772.75,774.20,776.05,777.92,779.64,781.48,783.82,786.73,789.85,792.23,794.60,796.95,798.86,799.82,800.46,800.61,799.90,798.14,795.69,793.25,790.55,787.35,783.49,780.57,778.41,776.46,774.55,773.47,775.02,777.29,779.60,782.13
889.11,888.20,887.32,886.77,886.66,885.81,886.10,887.09,888.18,888.33,887.66,886.06,883.76,881.00,877.82,874.67,871.81,869.51,868.17,867.01,865.85,864.65,863.53,862.90,862.39,861.85,861.17,860.35,859.73,859.45,859.58,860.06,861.51,863.05,864.54,866.15,867.72,869.03,870.04,870.85,872.04,873.47,874.57,874.96,874.29,874.03,874.31,874.67,874.52,873.27,871.47,869.36,866.99,864.43,861.88,860.54,860.41,861.04,861.66,860.37,857.17,852.43,848.14,844.60,842.22,840.95,840.30,839.71,838.52,836.69,834.50,833.43,832.52,831.25,829.60,828.14,826.49,824.81,823.21,821.89,820.77,819.93,819.11,818.14,817.14,817.00,817.05,817.02,816.89,816.17,815.38,814.13,811.78,809.29,806.69,803.68,800.72,799.89,799.33,799.09,799.23,800.09,803.17,807.00,811.58,816.91,821.11,824.36,827.37,829.99,831.14,831.71,831.88,831.69,830.90,829.25,827.49,825.58,823.40,821.03,819.18,818.12,818.00,819.26,821.88,824.21,825.19,824.38,823.75,824.00,824.66,825.60,826.80,826.17,824.23,821.56,818.48,814.72,811.06,807.94,805.42,802.90,800.66,799.27,798.73,798.79,798.83,798.23,797.00,795.27,793.34,791.42,789.95,789.04,788.35,787.65,787.00,786.63,786.84,787.07,787.30,787.56,787.85,788.09,788.40,788.90,790.11,793.36,798.60,801.89,803.37,804.05,805.48,806.50,807.38,807.90,806.99,804.96,803.05,802.17,803.12,803.86,804.35,804.75,805.26,806.33,808.64,812.45,815.38,812.27,809.37,807.92,807.45,807.35,807.31,807.39,806.45,804.26,802.00,801.12,800.63,799.86,798.19,795.73,793.28,790.86,788.40,786.02,783.65,781.44,779.55,778.26,777.01,775.78,774.52,773.25,772.15,771.17,770.11,768.84,767.56,768.34,769.51,770.42,770.95,771.75,773.28,775.01,776.59,778.28,779.92,782.72,786.44,789.55,791.89,794.10,796.08,797.52,798.69,799.34,798.81,796.98,794.98,793.04,790.79,788.03,784.64,781.69,779.26,776.97,774.71,773.14,774.66,777.07,779.45,781.93
887.66,886.93,886.03,885.27,884.82,883.69,883.06,883.19,884.03,884.96,884.91,883.84,881.93,879.26,876.18,872.93,870.31,868.71,867.36,866.57,865.94,865.29,864.68,864.02,863.31,862.52,861.55,860.29,859.48,858.81,858.26,858.35,859.11,860.01,860.97,862.12,863.59,865.10,866.39,867.55,869.46,871.52,872.83,873.02,872.01,871.82,872.38,873.28,874.02,874.17,872.86,871.15,869.55,867.97,865.89,864.41,863.79,863.83,863.21,860.97,857.27,852.57,848.63,845.52,843.73,843.09,842.64,842.08,840.62,838.65,836.96,836.19,835.09,833.42,831.17,828.61,826.57,825.20,824.36,823.74,822.65,821.16,819.67,818.43,817.36,816.44,815.80,815.43,815.06,814.23,813.24,812.11,810.66,808.78,807.12,805.45,803.56,801.32,799.78,798.93,798.76,799.64,802.22,805.57,809.34,813.43,817.36,820.83,823.87,826.31,827.63,828.30,828.52,828.39,827.79,826.34,824.63,822.72,820.36,817.23,815.41,814.90,815.82,818.72,821.47,822.86,822.93,821.93,821.12,821.27,821.99,823.22,825.08,825.99,824.85,822.40,819.57,815.85,811.93,808.56,805.97,803.41,800.90,799.18,798.17,797.42,797.13,796.51,795.48,794.03,792.20,790.74,789.67,788.98,788.55,788.07,787.48,786.83,786.27,786.31,786.51,786.77,787.08,787.37,787.87,788.48,789.37,791.32,796.37,799.77,801.28,801.72,802.97,804.25,805.20,805.43,804.21,802.14,800.45,799.90,801.07,801.70,802.17,802.66,803.55,805.72,808.32,812.09,815.38,814.04,811.87,810.49,809.85,809.63,809.43,808.64,806.75,803.81,801.00,799.23,798.37,797.66,796.06,793.77,791.69,789.64,787.45,785.32,783.33,781.47,779.85,778.72,777.58,776.44,775.26,774.02,772.92,771.88,770.81,769.47,767.57,767.66,768.46,769.24,769.61,770.08,770.92,772.13,773.71,775.69,777.90,780.91,784.40,787.08,789.21,791.24,793.16,794.80,796.44,797.79,797.54,795.47,793.42,791.63,789.37,786.70,784.11,781.94,779.52,776.89,774.39,772.75,774.18,776.52,778.84,781.11
886.98,886.11,885.11,884.11,883.18,881.93,880.83,880.42,880.90,881.94,882.24,881.61,880.13,877.72,874.73,871.71,869.48,868.37,867.26,866.87,866.65,866.41,866.14,865.50,864.71,863.82,862.71,861.22,859.92,858.77,857.84,857.48,857.48,857.75,858.24,858.96,860.11,861.52,862.85,864.24,866.87,869.62,871.15,871.08,869.72,869.29,869.94,871.24,872.73,873.94,873.51,872.63,871.83,870.89,869.31,867.82,866.68,865.81,864.01,861.14,857.34,852.93,849.26,846.68,845.49,845.32,844.94,844.01,842.22,840.35,839.31,838.85,837.81,835.87,832.87,829.18,826.91,826.13,826.25,826.32,825.35,823.22,820.85,818.99,817.86,816.54,815.51,814.89,814.36,813.63,812.74,811.85,811.05,809.77,808.92,808.31,807.27,804.43,801.58,799.54,798.56,799.02,800.84,803.53,806.49,809.45,812.77,816.14,819.20,821.70,823.34,824.26,824.71,824.83,824.49,823.26,821.32,819.04,816.45,813.37,811.90,811.99,813.80,817.82,820.56,821.23,820.61,819.44,818.43,818.48,819.55,821.38,823.37,824.85,824.55,823.03,820.96,817.57,813.62,810.03,807.19,804.60,801.94,799.85,798.32,797.01,796.26,795.49,794.57,793.44,791.85,790.65,789.76,789.17,788.94,788.65,788.18,787.43,786.42,785.86,785.79,786.02,786.37,786.78,787.41,788.10,788.78,789.79,793.68,796.77,798.54,799.37,800.68,802.13,803.02,802.91,801.55,799.65,798.12,797.65,798.88,799.57,800.10,800.88,802.40,805.40,808.37,811.74,814.75,815.20,814.04,812.84,811.97,811.41,810.81,809.31,806.85,803.62,800.57,798.09,796.52,795.32,793.61,791.57,789.83,788.10,786.19,784.46,782.92,781.47,780.14,779.08,778.03,776.97,775.90,774.85,773.87,772.65,771.42,770.07,768.01,767.21,767.47,768.15,768.48,768.83,769.29,770.08,771.45,773.44,776.12,779.27,782.40,784.67,786.68,788.64,790.56,792.42,794.57,796.33,796.16,793.83,791.53,789.51,787.09,784.48,782.43,780.88,778.72,776.12,773.63,772.26,773.63,775.81,777.96,779.94
887.14,885.91,884.79,883.53,881.99,880.66,879.78,879.41,879.53,879.76,879.90,879.51,878.45,876.49,873.62,871.26,869.56,868.54,868.08,868.10,868.12,867.99,867.71,867.02,866.24,865.42,864.47,863.13,861.05,859.26,858.15,857.19,856.37,856.18,856.50,857.02,857.74,858.69,859.70,861.06,864.19,867.67,869.57,869.45,867.82,866.77,867.26,868.83,870.81,872.28,873.10,873.50,873.39,872.51,871.41,870.21,868.76,866.71,864.11,861.17,857.72,853.73,850.11,848.10,847.50,847.65,847.09,845.36,843.37,841.88,841.47,841.24,840.54,838.50,834.70,830.07,827.76,827.72,828.84,829.45,828.62,826.02,822.72,819.83,818.50,817.43,816.53,815.81,815.24,814.78,814.39,813.92,813.16,812.27,811.85,811.58,810.97,809.18,804.99,801.21,798.83,798.30,799.12,801.11,803.52,805.87,808.18,810.70,813.53,816.35,818.23,819.44,820.22,820.65,820.57,819.60,817.20,814.29,811.59,809.80,809.04,809.66,811.91,816.05,818.66,819.12,818.27,816.82,815.61,815.67,817.41,820.22,821.77,822.38,822.82,823.04,822.37,819.78,816.21,812.51,809.18,806.48,803.83,801.34,799.23,797.82,796.48,795.48,794.67,793.86,792.65,791.34,790.29,789.68,789.49,789.36,788.99,788.39,787.53,785.92,785.26,785.30,785.75,786.32,786.99,787.69,788.39,789.21,791.06,793.30,795.40,797.06,798.70,800.12,800.78,800.39,799.02,797.54,796.08,795.39,796.54,797.46,798.21,799.52,801.98,805.36,808.64,811.56,814.03,815.77,815.70,814.81,813.68,812.58,811.33,809.53,807.02,803.91,800.85,798.17,795.71,793.42,791.38,789.69,788.20,786.65,785.06,783.91,782.89,781.79,780.61,779.43,778.37,777.36,776.49,775.82,775.09,773.59,772.04,770.63,768.84,767.00,766.57,767.13,767.53,767.97,768.52,769.17,770.03,771.53,774.22,777.25,780.11,782.32,784.37,786.42,788.49,790.64,793.32,795.08,794.70,792.10,789.43,786.77,784.13,781.65,779.72,778.32,776.61,774.52,772.40,771.64,772.99,774.95,776.85,778.47
887.81,886.96,885.95,884.52,882.52,880.57,879.58,879.03,878.73,878.66,878.59,878.21,877.25,875.37,873.13,871.37,870.03,869.12,868.91,869.48,869.86,869.79,869.43,868.65,867.82,867.01,866.17,865.20,863.10,860.89,859.12,857.91,856.73,855.83,855.25,855.07,855.90,857.08,858.19,859.41,861.90,865.19,867.34,867.60,865.89,864.35,864.34,865.72,868.08,870.06,871.37,872.28,872.80,872.75,872.40,871.47,869.99,868.00,865.31,862.51,859.42,855.82,852.17,850.29,849.94,850.11,848.79,846.74,844.96,843.88,843.68,843.33,842.56,840.90,837.74,832.57,829.44,829.08,830.57,831.95,830.65,827.71,824.22,821.04,819.42,818.55,817.84,817.18,816.75,816.50,816.31,816.04,815.61,815.00,814.72,814.31,813.43,811.80,808.40,803.96,799.91,798.44,797.97,799.00,800.70,802.45,804.46,806.56,808.73,810.78,812.22,813.07,813.56,813.76,813.59,812.83,811.32,809.69,808.29,807.23,807.23,808.40,810.66,813.88,816.01,816.44,815.66,814.10,812.75,813.27,815.52,818.50,819.63,819.88,820.28,821.02,821.76,821.01,818.54,815.31,811.95,808.95,806.07,803.28,800.80,799.13,797.74,796.78,796.11,795.48,794.34,792.92,791.63,790.71,790.40,790.14,789.82,789.46,788.95,787.42,785.77,784.87,785.07,785.62,786.29,787.03,787.81,788.63,789.75,791.31,793.12,794.93,796.56,798.02,798.52,797.79,796.26,794.77,793.56,793.16,794.23,795.29,796.85,799.06,802.13,806.10,809.42,811.84,813.67,815.46,816.14,815.50,814.19,812.77,811.33,809.43,806.89,803.80,800.74,797.99,795.32,792.72,790.41,788.87,787.88,787.19,786.63,785.99,785.23,783.99,782.30,780.55,779.09,778.19,777.72,777.45,776.92,775.45,773.76,772.05,770.03,767.60,766.33,766.23,766.71,767.25,767.85,768.47,769.16,770.19,772.45,775.12,777.80,780.26,782.53,784.75,786.99,789.34,792.18,793.92,793.40,790.56,787.55,784.55,781.86,779.57,777.72,776.05,774.29,772.48,771.00,770.83,772.16,773.96,775.75,777.36
888.85,888.41,887.59,886.20,884.15,881.75,880.10,879.04,878.43,878.08,877.75,877.32,876.47,874.86,873.53,872.32,871.15,870.21,870.28,871.45,872.19,872.10,871.57,870.64,869.66,868.80,868.16,867.47,865.50,863.00,860.60,859.09,857.65,856.16,854.67,853.62,854.48,855.83,857.12,858.33,860.17,863.06,865.25,865.80,864.07,862.21,861.63,862.57,865.01,867.35,869.01,870.32,871.40,872.21,872.61,872.15,870.99,869.41,867.21,864.88,862.27,859.03,855.07,853.13,852.73,852.55,850.21,847.97,846.60,845.99,845.84,845.33,844.29,842.79,840.18,835.03,831.62,831.07,832.53,833.91,831.83,828.72,825.37,822.24,820.49,819.87,819.44,818.95,818.60,818.47,818.41,818.35,818.23,817.77,817.51,816.94,815.69,813.86,811.21,806.70,801.64,798.97,797.51,797.55,798.34,799.45,801.18,802.89,804.45,805.81,806.87,807.40,807.61,807.57,807.26,806.65,806.03,805.60,805.33,804.87,805.53,807.09,809.20,811.48,813.18,813.63,812.99,811.45,810.02,811.02,813.50,816.22,817.11,817.38,817.83,818.90,820.73,821.55,820.21,817.63,814.43,811.26,808.17,805.26,802.69,800.82,799.55,798.62,797.95,797.41,796.23,794.70,793.21,792.08,791.73,791.40,791.14,790.95,790.59,789.26,786.92,785.00,784.40,784.83,785.50,786.28,787.11,787.96,788.81,789.87,791.20,792.80,794.37,795.90,796.30,795.27,793.63,792.10,791.17,791.11,792.22,793.70,796.24,799.34,802.83,807.13,810.15,812.07,813.44,815.03,816.14,815.68,814.27,812.69,811.19,809.14,806.51,803.42,800.43,797.78,795.15,792.52,790.15,788.83,788.47,788.72,789.20,788.95,788.09,786.48,784.28,782.00,780.17,779.38,779.25,779.25,778.84,777.53,775.81,773.82,771.38,768.52,766.44,765.53,765.99,766.59,767.21,767.84,768.48,769.22,770.95,773.25,775.86,778.51,780.94,783.32,785.72,788.25,791.10,792.94,792.41,789.35,786.08,782.84,780.18,778.06,776.24,774.34,772.47,770.84,769.84,770.12,771.51,773.42,775.41,777.05
890.42,890.13,889.50,888.52,887.09,884.79,881.67,879.57,878.84,878.00,877.38,876.87,876.29,875.52,875.31,874.61,873.38,872.17,872.71,874.52,875.50,875.27,874.45,873.27,871.98,871.02,870.68,870.00,868.07,865.46,862.71,860.62,858.97,857.17,855.08,853.12,853.54,854.72,856.11,857.61,859.29,861.82,863.75,864.19,862.44,860.53,859.39,859.65,861.71,863.98,866.07,867.88,869.41,870.83,871.87,872.24,871.90,870.84,869.85,868.52,866.64,863.73,859.06,856.89,856.05,854.92,851.36,848.98,848.15,848.08,847.91,847.28,845.80,843.75,840.89,836.63,834.40,834.37,835.34,835.16,832.02,828.92,826.00,823.21,821.72,821.46,821.49,821.34,820.82,820.67,820.79,821.01,821.06,820.53,820.20,819.55,818.14,815.75,812.83,808.89,804.21,799.83,798.09,797.22,796.87,797.26,798.37,799.54,800.79,802.07,803.17,803.80,804.01,803.92,803.59,803.07,802.65,802.41,802.35,802.49,803.55,805.18,807.04,808.81,810.34,810.82,810.31,808.94,807.55,808.86,811.12,813.19,814.13,814.93,815.96,817.54,819.83,821.18,820.70,818.86,816.01,813.04,809.88,807.14,804.89,803.01,801.96,800.90,800.00,799.39,798.14,796.43,794.88,793.87,793.72,793.55,793.41,793.17,792.48,791.07,788.76,786.07,783.86,784.02,784.70,785.47,786.27,787.11,787.96,788.76,789.60,790.63,792.17,793.82,794.18,792.96,791.38,789.99,789.26,789.41,790.79,793.24,796.82,800.62,804.28,808.29,810.55,812.00,813.27,814.73,815.87,815.46,814.11,812.55,811.02,808.67,805.80,802.70,799.90,797.61,795.22,792.76,790.71,789.87,790.25,791.29,792.39,792.36,790.85,788.66,786.20,783.70,781.77,781.07,781.07,781.06,780.66,779.57,777.99,775.86,772.91,769.69,766.91,765.21,765.38,765.93,766.60,767.26,767.90,768.67,769.91,771.95,774.61,777.23,779.61,782.05,784.62,787.30,790.08,792.27,791.94,788.71,785.28,781.89,779.30,777.34,775.43,773.56,771.71,770.11,769.23,769.70,771.32,773.81,776.50,778.10
893.34,893.26,892.86,892.04,890.58,888.25,884.55,881.33,879.44,878.61,878.12,877.69,877.30,877.02,877.12,876.91,876.43,876.08,876.95,878.18,878.69,878.27,877.28,875.98,874.68,873.52,872.43,870.69,868.59,866.24,863.80,861.72,859.74,857.51,854.98,852.64,852.68,853.64,855.02,856.69,858.41,860.48,862.12,862.62,861.01,858.37,857.07,857.41,859.14,860.89,862.68,864.69,867.03,869.52,870.90,871.61,871.80,871.36,871.18,870.52,869.38,867.67,865.09,862.60,860.22,857.64,854.33,852.05,850.94,850.51,850.11,848.81,846.59,843.88,840.77,837.46,837.26,837.96,838.24,836.76,832.38,828.91,826.18,823.97,823.72,824.20,824.66,824.72,824.16,824.32,824.69,824.83,824.35,823.25,822.59,821.50,819.44,816.72,813.60,810.09,805.76,800.34,798.53,797.50,796.77,796.60,796.76,796.99,797.67,798.78,799.71,800.36,800.59,800.50,800.22,799.85,799.72,799.76,799.95,800.40,801.50,802.98,804.53,805.77,806.90,807.27,806.89,805.85,804.84,806.40,808.96,811.31,812.23,812.88,814.12,816.02,818.42,820.23,820.40,819.46,817.65,815.05,812.05,809.38,807.28,805.92,805.29,804.48,803.54,802.48,800.30,798.24,796.49,795.42,795.87,795.88,795.72,795.18,793.84,792.21,790.21,787.66,784.87,783.53,783.86,784.61,785.35,786.12,786.89,787.59,788.30,789.19,790.48,791.94,792.20,791.04,789.72,788.50,787.85,788.07,789.75,792.85,797.31,801.59,804.85,807.87,809.92,811.53,812.99,814.46,815.64,815.40,814.21,812.63,811.08,808.72,805.75,802.46,799.52,797.33,795.48,794.01,793.34,793.36,794.18,795.32,796.15,795.59,793.11,790.12,787.29,784.95,783.30,782.78,782.84,782.83,782.38,781.42,780.04,778.01,774.68,770.86,767.65,765.51,764.90,765.34,765.98,766.62,767.30,768.21,769.32,771.08,773.48,776.04,778.47,780.99,783.60,786.27,788.97,791.24,791.41,788.88,785.27,781.62,778.97,777.08,775.20,773.34,771.48,769.79,768.73,769.44,772.28,775.53,778.21,779.63
896.52,896.72,896.51,895.67,893.85,891.39,887.49,883.46,880.43,879.67,879.36,879.03,878.72,878.72,879.01,879.36,879.77,880.34,881.27,881.76,881.72,881.14,879.94,878.59,877.27,875.73,873.54,870.64,868.16,865.93,863.82,861.87,859.75,857.25,854.50,852.07,851.79,852.55,853.89,855.65,857.36,858.96,860.24,860.60,858.80,855.69,854.63,855.33,856.84,858.27,859.81,861.96,864.93,868.31,869.80,870.50,870.87,870.98,871.50,871.46,871.04,870.54,870.12,867.75,864.35,860.71,857.79,855.70,854.19,853.12,852.19,849.95,846.92,843.61,840.48,838.48,839.92,841.03,840.64,838.28,832.84,828.96,826.39,824.86,825.78,826.95,827.93,828.40,827.88,828.23,828.72,828.65,827.41,825.68,824.42,822.66,819.90,816.80,813.53,810.35,806.42,800.66,798.90,797.97,797.19,796.62,796.02,795.45,795.60,796.38,796.85,797.21,797.32,797.24,797.06,796.92,797.06,797.32,797.66,798.23,799.25,800.40,801.49,802.37,803.12,803.38,803.13,802.45,801.94,803.67,806.48,809.19,810.19,810.71,812.17,814.42,816.83,818.71,818.94,818.45,817.66,816.14,814.14,811.97,810.09,809.22,808.85,808.22,807.29,805.78,802.64,800.00,797.96,796.94,797.96,798.23,797.87,796.83,794.88,793.03,791.34,789.20,786.40,783.68,783.21,783.66,784.36,785.03,785.70,786.34,787.04,787.96,788.95,790.08,790.23,789.21,788.12,787.10,786.74,787.26,789.13,792.45,797.52,802.08,804.86,807.07,809.18,811.06,812.69,814.08,815.21,815.23,814.40,813.06,811.64,809.32,806.29,802.82,799.71,797.56,796.30,795.92,796.65,797.38,798.40,799.35,799.63,798.36,794.84,791.10,788.01,785.98,784.80,784.51,784.61,784.60,784.13,783.21,781.98,780.13,776.74,772.39,768.77,766.19,764.70,764.77,765.30,765.89,766.56,767.67,768.82,770.35,772.41,774.93,777.39,779.92,782.52,785.12,787.71,790.00,790.76,789.19,785.50,781.68,778.81,776.77,774.95,773.14,771.31,769.48,768.19,769.24,773.42,777.46,780.07,781.32
899.32,899.90,899.80,898.61,896.04,893.32,889.52,885.56,882.41,881.46,881.11,880.71,880.30,880.26,881.14,882.22,883.22,883.96,884.33,884.55,884.44,883.77,882.22,880.80,879.19,876.91,873.52,869.99,866.78,863.97,861.63,859.75,858.09,855.90,853.36,851.22,850.82,851.45,852.70,854.37,855.84,857.04,857.76,857.28,854.27,851.98,851.88,853.11,854.67,856.67,858.72,861.07,863.97,867.32,868.52,868.61,868.45,868.84,870.09,870.80,871.08,871.06,870.64,869.77,867.69,864.48,861.15,859.27,857.64,855.94,853.88,850.36,846.54,842.94,840.40,840.65,841.96,842.38,841.59,839.30,833.41,829.32,827.06,826.30,827.39,828.81,830.57,832.05,831.70,831.62,831.87,831.50,829.46,827.28,824.93,822.20,818.95,815.19,811.82,808.82,805.43,800.75,799.16,798.49,797.93,797.29,796.72,796.13,796.00,796.13,795.48,794.77,794.37,794.25,794.30,794.49,794.76,795.01,795.23,795.61,796.51,796.98,797.25,798.24,798.89,799.13,799.00,798.63,798.68,800.44,802.95,805.41,806.82,807.80,809.92,812.76,815.11,816.03,814.91,813.46,813.02,814.50,815.58,815.23,813.91,813.01,812.25,811.37,810.34,808.77,805.25,801.57,799.13,798.57,799.73,800.47,799.60,797.63,795.52,793.48,791.87,790.19,788.05,785.39,783.13,782.49,783.17,783.80,784.38,784.93,785.68,786.72,787.47,788.10,788.10,787.30,786.20,785.42,786.03,787.59,789.35,791.98,796.94,801.48,804.03,806.49,808.90,810.93,812.44,813.34,814.14,814.58,814.66,814.32,813.41,811.05,807.94,804.50,801.35,799.28,798.49,798.85,800.18,800.88,801.60,802.13,801.89,799.96,795.52,791.32,788.38,786.81,786.26,786.26,786.43,786.42,786.00,784.98,783.69,782.05,779.41,774.94,770.74,767.41,765.13,764.24,764.41,764.92,765.52,766.84,768.24,769.70,771.44,773.95,776.27,778.69,781.19,783.68,786.13,788.45,789.81,789.23,785.74,782.07,778.67,775.90,774.24,772.57,770.82,768.87,767.37,769.04,774.15,778.89,781.82,783.11
901.71,902.09,901.29,899.42,896.61,893.63,890.19,886.91,884.55,884.11,883.85,883.52,883.31,883.75,885.43,886.48,887.04,887.33,887.40,887.44,887.10,886.13,884.35,882.38,880.12,877.28,873.57,869.90,866.38,863.07,860.18,858.18,856.38,854.32,852.08,850.20,849.73,850.30,851.43,852.84,854.09,855.12,855.26,854.07,851.28,849.70,850.30,852.17,854.41,856.91,859.14,861.39,863.81,866.08,866.32,865.76,865.25,865.59,867.32,869.31,870.62,870.78,870.64,870.35,869.24,867.09,864.16,862.10,860.17,857.81,854.44,849.99,846.30,843.46,841.88,842.61,843.68,843.63,842.39,839.93,834.07,829.98,827.91,827.58,828.83,831.41,834.05,835.83,835.69,835.17,834.20,832.61,830.07,826.68,823.47,820.38,817.18,813.53,810.36,807.57,804.66,801.14,799.68,799.11,798.71,798.15,797.55,797.24,797.26,797.30,796.61,795.74,795.19,794.81,794.38,793.97,793.68,793.40,793.09,792.97,793.19,793.15,793.00,793.41,793.75,793.96,794.02,794.07,794.79,796.71,798.96,801.17,803.30,805.46,808.44,811.63,813.66,813.55,811.92,810.37,810.11,812.05,813.79,813.84,812.67,812.01,811.97,811.95,811.48,810.05,807.19,803.74,801.53,801.31,802.56,801.62,799.71,797.62,795.85,794.46,793.43,792.08,790.02,787.51,784.70,782.77,782.06,782.50,782.99,783.61,784.36,785.15,785.57,785.89,785.81,785.19,784.39,784.66,786.22,788.38,790.42,793.02,797.04,800.84,803.52,806.16,808.48,810.16,811.18,811.71,812.19,812.59,812.92,813.25,813.67,812.40,810.00,806.96,803.99,802.21,801.84,802.44,803.33,803.77,804.03,803.51,801.71,799.11,794.95,791.30,788.98,788.08,787.92,788.06,788.23,788.20,787.82,786.92,785.59,783.75,781.24,777.21,772.99,769.29,766.68,764.88,764.01,763.84,764.38,765.73,767.16,768.61,770.25,772.44,774.46,776.32,778.60,781.74,784.19,786.50,788.37,788.84,785.94,782.54,779.00,775.69,773.23,771.48,769.80,767.94,766.60,768.69,774.06,778.92,781.92,783.35
903.97,903.53,901.75,899.25,896.48,893.32,890.41,888.12,886.85,887.08,886.97,886.75,886.84,887.92,890.15,890.83,890.62,890.25,890.13,889.97,889.29,887.93,885.80,883.14,880.21,876.97,873.33,869.81,866.20,862.53,859.16,857.03,854.97,852.92,850.95,849.25,848.56,849.02,850.01,851.13,852.18,853.09,852.78,851.18,849.07,848.12,849.27,851.75,854.73,857.62,859.92,861.98,863.75,864.69,863.91,862.80,862.00,862.13,864.10,867.28,869.65,870.07,870.34,870.31,869.87,868.76,866.50,864.25,862.08,859.28,854.96,849.71,846.46,844.61,843.92,844.47,845.30,844.79,843.01,840.32,834.87,830.89,828.91,828.98,830.68,834.38,837.57,839.19,839.16,838.27,835.98,833.01,829.89,825.06,821.23,818.08,815.14,811.91,809.10,806.66,804.42,802.33,801.12,800.49,799.94,799.19,798.46,798.50,798.83,799.06,798.79,798.28,797.78,797.14,796.13,795.00,794.07,793.14,792.19,791.46,790.92,790.38,789.85,789.50,789.46,789.54,789.64,789.90,791.05,792.98,794.98,797.04,799.84,803.25,806.98,810.29,811.94,811.06,809.39,808.09,807.93,809.41,810.80,810.74,809.71,809.47,810.44,811.43,811.64,810.54,808.64,805.94,804.26,804.38,805.61,802.76,799.82,797.76,796.49,795.93,795.44,794.24,792.06,789.73,786.90,783.93,781.63,781.44,781.65,782.25,782.92,783.35,783.48,783.59,783.48,783.07,782.72,784.23,786.64,789.29,791.90,794.78,797.69,800.56,803.33,805.94,807.76,808.82,809.34,809.66,809.93,810.17,810.52,811.31,813.22,813.35,811.94,809.46,806.96,805.63,805.57,806.09,806.29,806.40,806.15,804.52,801.12,798.10,794.67,791.87,790.19,789.89,789.97,790.22,790.44,790.42,790.08,789.20,787.66,785.43,782.72,779.21,775.28,771.55,768.76,766.24,764.30,763.28,763.48,764.49,765.81,767.28,768.87,770.63,772.22,773.40,775.39,779.21,782.03,784.41,786.70,788.09,786.01,782.95,779.48,775.81,772.34,770.30,768.61,766.91,765.91,768.29,773.34,777.93,780.99,782.74
906.34,903.76,900.96,898.44,896.02,893.04,890.90,889.72,889.50,890.08,890.11,889.92,890.22,891.84,893.51,893.64,892.86,891.90,891.67,891.12,890.02,888.14,885.05,881.89,878.66,875.36,872.01,868.99,865.47,861.85,858.63,856.59,854.58,852.53,850.54,848.78,847.30,847.37,848.22,849.17,850.02,850.65,850.44,849.27,847.53,847.07,848.62,851.39,854.51,857.56,859.97,861.82,862.97,863.00,862.01,860.74,859.65,859.44,861.09,864.51,867.56,868.88,869.77,870.03,869.69,868.72,867.03,865.06,863.03,860.58,856.86,850.77,847.77,846.40,845.86,846.35,846.97,845.76,843.17,840.45,836.10,832.29,830.26,831.00,834.12,837.70,840.10,840.92,840.65,839.62,836.94,833.21,828.91,822.83,818.93,816.02,813.24,810.57,808.24,806.58,805.76,805.83,805.42,804.38,802.69,800.57,799.49,799.71,800.34,800.94,801.33,801.75,801.59,800.90,799.85,798.89,797.89,796.65,795.18,793.91,793.00,791.84,790.52,789.68,789.26,788.90,788.46,788.08,788.70,789.88,791.62,793.95,796.87,800.77,804.57,807.57,808.91,808.25,807.01,806.11,806.07,807.12,807.91,807.90,807.51,807.94,809.42,810.53,810.96,810.54,809.31,807.42,806.53,807.13,808.01,805.29,801.98,799.50,798.61,798.34,797.64,796.21,794.02,791.75,789.03,786.19,783.47,781.32,780.56,780.67,781.01,781.18,781.27,781.27,781.26,781.27,781.43,783.71,786.69,789.98,793.66,796.99,799.41,801.57,803.81,805.76,806.22,806.37,806.74,807.40,807.76,808.01,808.41,809.48,812.24,813.44,812.89,811.09,809.70,809.11,809.02,809.11,809.07,808.90,808.21,806.06,802.33,799.77,797.09,794.73,793.18,792.94,793.08,793.57,794.08,794.23,793.90,792.41,790.16,787.33,784.07,780.60,777.33,774.26,771.28,768.53,766.35,764.67,763.55,763.19,764.20,765.64,767.12,768.50,769.36,770.08,771.71,775.29,779.53,782.44,784.89,786.66,785.63,783.07,779.88,776.25,772.22,769.53,767.56,765.98,765.38,767.93,771.49,775.24,778.70,781.17
906.97,903.35,900.22,897.80,895.79,894.07,892.89,892.28,892.34,893.00,893.13,893.17,893.27,893.41,893.43,893.17,892.67,892.07,891.77,891.08,889.64,887.29,883.85,880.29,876.80,873.42,870.28,867.57,864.56,861.31,858.21,856.10,854.08,851.99,850.00,848.39,846.67,846.01,846.17,846.86,847.58,848.03,847.88,847.04,845.74,845.90,847.90,850.83,853.78,856.66,859.00,860.73,861.57,861.16,860.00,858.62,857.58,857.75,859.32,862.32,865.25,867.17,868.66,868.67,868.02,867.03,865.68,864.38,862.96,861.06,857.91,852.62,849.65,848.23,847.79,848.22,848.50,846.74,843.49,840.28,836.55,833.84,832.76,834.00,837.45,840.30,841.82,842.00,841.18,839.52,836.20,831.68,826.48,820.79,817.81,815.78,813.64,811.35,809.14,807.88,807.83,808.93,808.90,807.34,804.77,801.93,800.76,800.96,801.82,802.99,804.19,805.49,806.23,806.16,805.16,804.32,802.90,800.76,798.24,796.70,795.63,794.29,792.75,791.55,790.40,789.45,788.60,787.89,787.70,787.97,789.14,791.27,793.97,797.83,801.48,804.28,805.54,805.18,804.33,803.76,803.85,804.57,805.15,805.25,805.24,806.06,807.55,808.77,809.42,809.33,808.67,807.83,807.89,808.89,809.40,807.85,805.68,803.82,802.85,801.95,800.38,798.30,795.88,793.50,790.96,788.66,786.45,783.68,780.86,779.83,779.83,779.90,779.95,779.95,780.00,780.14,780.54,783.02,786.24,789.91,794.24,798.22,800.59,802.26,803.69,804.42,804.05,803.78,804.05,804.86,805.45,806.24,807.44,809.27,811.87,813.39,813.45,812.33,811.44,811.04,810.86,810.73,810.54,810.25,809.61,807.81,804.68,802.30,799.89,797.75,796.29,796.18,796.52,797.04,797.49,797.60,797.36,795.49,792.52,788.81,785.03,781.34,778.35,775.81,773.13,770.61,768.69,766.97,765.20,763.77,763.28,763.87,765.22,766.43,767.26,768.05,769.38,772.02,776.03,779.98,783.22,785.22,785.29,783.17,780.22,776.63,772.17,769.03,766.72,765.22,765.17,767.71,770.65,773.90,777.24,779.95
906.63,902.76,899.74,897.53,895.99,895.78,895.52,895.27,895.26,895.84,895.98,896.06,895.52,893.28,891.30,890.76,890.91,891.07,890.78,890.20,888.65,886.06,882.65,878.82,875.04,871.57,868.62,866.08,863.66,860.89,857.89,855.60,853.45,851.30,849.38,848.00,846.38,844.96,844.25,844.48,845.01,845.32,845.19,844.60,843.75,844.50,846.89,849.89,852.60,855.16,857.31,858.83,859.45,858.88,857.66,856.38,855.73,856.67,858.32,860.66,863.15,865.38,867.11,866.57,865.47,864.44,863.35,862.78,862.09,860.72,858.07,854.30,851.51,849.97,849.67,850.03,849.85,847.62,843.86,840.01,836.77,835.54,835.83,837.43,840.48,842.39,843.02,842.48,840.93,838.45,834.48,829.37,823.77,819.53,818.06,817.31,816.06,814.10,811.86,810.66,810.68,811.49,811.18,809.13,806.11,803.16,802.15,802.26,803.28,805.00,807.00,809.23,811.10,811.89,810.91,809.97,807.94,804.78,801.20,799.72,798.66,797.38,795.89,794.42,792.51,790.92,789.69,788.70,787.69,787.09,787.45,788.88,791.05,794.49,797.85,800.49,801.81,801.82,801.37,801.12,801.35,801.83,802.39,802.66,802.89,803.86,805.06,806.32,807.18,807.27,807.12,807.25,808.20,809.65,810.06,809.95,809.45,808.68,807.56,805.93,803.29,800.34,797.55,795.07,792.82,791.26,789.93,787.32,782.33,779.82,779.21,779.19,779.18,779.23,779.31,779.47,779.93,782.19,785.39,789.28,793.94,798.58,801.15,802.50,803.06,802.48,801.62,801.19,801.42,802.31,803.17,804.71,806.95,809.64,811.69,813.15,813.68,813.25,812.53,812.03,811.71,811.45,811.13,810.80,810.42,809.37,807.32,805.10,802.89,800.95,799.59,799.49,799.86,800.23,800.41,800.32,800.11,798.14,794.65,790.10,785.89,781.87,778.89,776.67,774.58,772.77,771.48,770.06,768.05,765.78,763.24,762.43,763.41,764.57,765.70,766.79,767.92,769.44,772.29,777.20,781.46,783.81,784.92,783.25,780.58,777.10,772.32,768.83,766.13,764.62,765.03,767.51,770.41,773.42,776.39,779.09
906.27,902.80,900.15,898.35,897.44,897.23,897.45,897.82,898.23,898.60,898.43,897.33,895.07,891.43,888.35,887.62,888.00,888.48,888.47,888.41,887.57,885.62,882.34,878.47,874.39,870.76,868.14,865.65,863.21,860.56,857.75,855.31,852.64,850.45,848.79,847.45,846.00,844.54,843.36,842.69,842.56,842.63,842.52,842.10,841.62,842.48,844.91,847.94,850.63,853.01,854.78,855.69,855.63,855.04,854.22,853.90,854.38,855.96,857.75,859.88,862.26,864.43,864.92,863.87,862.64,861.72,861.06,860.71,860.06,858.77,856.50,853.60,852.04,851.39,851.35,851.65,850.78,848.10,844.09,839.99,837.81,837.61,838.60,840.39,842.66,844.08,843.74,841.80,839.42,836.51,832.52,827.80,823.24,821.10,821.40,821.96,821.60,820.25,818.13,816.58,815.30,812.98,810.59,808.36,806.05,803.84,803.49,803.71,804.71,806.53,808.86,812.34,815.13,816.22,814.90,813.19,810.71,807.36,803.97,803.44,802.64,801.28,799.61,797.96,795.99,794.03,792.04,790.09,788.83,787.81,787.05,786.84,787.96,790.54,793.35,795.73,797.18,797.84,797.98,798.10,798.46,798.96,799.43,799.89,800.43,801.16,801.87,802.94,803.91,804.35,804.68,804.79,806.10,808.50,809.87,810.16,810.10,809.88,809.40,808.70,805.66,801.88,798.63,796.41,794.91,794.02,793.13,790.69,785.58,781.55,779.32,778.81,778.65,778.69,778.84,779.12,779.62,781.13,784.04,788.00,792.61,797.62,800.54,801.75,801.61,800.72,799.47,798.85,799.18,800.34,801.38,803.30,805.88,808.65,810.85,812.32,813.29,813.69,813.19,812.71,812.14,811.53,811.07,810.64,810.32,809.76,808.68,807.23,806.06,804.80,803.51,802.75,802.14,802.02,801.97,801.50,800.92,799.40,796.22,791.52,787.30,783.04,779.79,777.49,775.95,775.92,775.68,774.59,772.36,769.47,765.26,762.62,762.27,763.39,764.55,765.70,766.84,768.10,769.87,774.32,779.01,782.49,784.23,783.22,781.16,778.11,773.32,769.29,766.12,764.22,764.38,767.08,770.15,773.18,776.10,778.89
907.14,904.17,901.69,900.00,899.28,898.82,899.18,899.79,900.27,900.21,899.44,897.48,894.42,890.50,886.75,884.75,884.13,884.48,884.88,885.36,885.51,884.83,882.34,878.96,874.98,871.23,868.42,865.91,863.55,861.20,858.86,856.54,853.33,850.63,848.72,847.42,845.99,844.53,843.13,841.96,841.31,840.83,840.48,840.21,840.07,840.77,842.55,845.06,847.85,850.22,851.77,852.32,851.92,851.34,851.44,852.23,853.61,855.56,857.60,859.75,861.87,863.39,862.79,861.22,859.74,858.70,858.11,857.74,857.15,856.09,854.44,853.07,852.81,852.87,852.88,852.82,851.27,848.23,844.38,841.03,839.88,840.37,841.68,843.41,845.15,845.29,843.80,841.12,838.25,835.10,831.30,827.37,824.27,823.52,824.83,826.27,826.73,825.84,823.38,820.76,817.83,813.66,810.28,808.08,806.37,804.96,805.03,805.31,805.99,807.42,810.11,815.00,818.33,819.10,817.12,814.80,812.27,809.48,807.15,807.45,806.92,805.68,803.98,801.88,799.79,797.37,794.67,791.99,790.38,789.12,787.85,786.74,786.57,787.31,789.02,791.04,792.53,793.42,793.89,794.23,794.58,795.03,795.43,795.98,796.70,797.48,798.21,799.34,800.48,801.24,801.82,802.09,803.51,806.16,808.30,809.38,809.89,810.04,809.91,809.74,806.86,803.12,800.00,798.13,797.33,796.85,795.87,792.90,787.83,782.92,779.62,778.75,778.34,778.25,778.45,778.92,779.48,780.54,783.20,787.06,791.28,796.06,799.28,800.59,800.01,798.90,797.44,796.58,796.69,797.87,799.25,801.43,804.22,807.32,810.02,811.59,812.74,813.56,813.39,812.84,812.06,811.23,810.59,809.84,809.22,808.64,807.89,806.61,805.64,804.66,803.68,803.19,802.67,802.46,802.22,801.62,801.06,799.87,797.06,792.68,788.66,784.65,781.38,779.08,778.12,779.00,779.40,778.56,776.08,772.44,767.43,763.28,761.26,762.30,763.45,764.63,765.82,767.06,768.38,771.55,776.27,781.34,783.27,782.77,781.27,778.68,774.09,769.80,766.42,763.99,763.25,766.04,769.37,772.58,775.57,778.43
908.86,906.48,904.12,902.34,901.44,900.68,900.84,901.21,901.26,900.41,898.74,896.40,893.57,890.28,886.28,882.48,880.11,879.87,880.66,881.57,882.74,883.59,882.46,879.97,876.40,872.58,869.27,866.78,864.63,862.71,860.94,858.89,855.28,851.80,849.21,847.82,846.31,844.88,843.56,842.38,841.45,840.21,839.29,838.92,838.99,839.35,840.14,841.75,844.51,846.93,848.38,848.84,848.44,848.04,849.45,851.34,853.28,855.41,857.72,859.94,861.63,862.13,860.73,858.68,856.84,855.50,854.67,854.13,853.69,853.08,852.33,852.84,853.69,854.26,854.26,853.69,851.54,848.31,844.96,842.96,842.69,843.61,844.98,846.43,847.72,846.15,843.56,840.74,837.68,834.44,831.00,827.98,826.36,826.31,827.95,829.85,830.93,830.13,826.92,822.82,818.39,813.85,810.59,808.53,807.18,806.45,806.74,807.02,807.23,808.01,811.16,817.28,820.76,820.81,818.07,815.49,813.25,811.46,810.60,811.44,811.11,810.09,808.46,805.90,803.51,800.47,797.14,794.13,792.24,790.86,789.58,788.22,786.81,785.32,785.55,786.91,788.15,788.94,789.52,789.92,790.18,790.49,790.85,791.37,792.11,793.13,794.22,795.62,796.97,797.94,798.61,799.19,800.57,802.90,805.54,807.66,808.83,809.23,809.18,809.20,807.10,804.20,801.64,800.13,799.83,799.48,798.01,794.01,788.92,783.71,779.95,778.88,778.18,777.90,778.13,778.79,779.44,780.40,783.01,786.70,790.38,794.45,797.67,799.07,798.25,796.95,795.46,794.35,794.00,795.03,796.89,799.30,802.29,805.92,809.31,811.00,812.11,813.02,813.28,812.62,811.68,810.76,809.94,808.75,807.60,806.58,805.53,803.94,802.54,801.50,801.01,801.40,801.75,801.77,801.46,800.95,800.71,799.77,797.42,793.71,790.05,786.64,783.64,781.46,780.97,781.96,782.40,781.55,778.86,774.51,769.36,764.10,760.36,761.23,762.36,763.57,764.82,766.14,767.53,769.15,773.65,780.34,782.19,782.08,781.03,778.83,774.54,770.23,766.81,763.82,761.84,764.33,768.16,771.71,774.73,777.61
909.98,908.61,906.89,905.30,904.26,903.42,902.67,901.84,900.49,897.77,894.69,892.64,891.27,889.34,885.86,882.11,878.98,877.30,877.80,878.84,880.25,881.71,882.23,880.66,877.46,873.73,870.48,868.50,866.72,864.94,863.09,860.91,857.58,853.86,850.52,848.43,846.76,845.71,845.08,844.71,844.26,842.31,840.01,838.23,837.94,838.09,838.61,839.64,841.36,843.24,844.64,845.24,845.17,845.70,848.55,851.09,853.06,855.36,857.69,859.59,860.63,860.32,858.45,856.26,854.20,852.50,851.42,850.68,850.49,850.76,851.46,852.49,853.63,854.70,855.33,854.56,852.23,849.38,846.82,845.50,845.43,846.54,848.00,849.04,849.05,846.91,844.17,841.39,838.44,835.36,832.35,829.81,828.40,828.60,830.21,832.11,833.11,831.19,826.82,822.05,817.75,814.42,811.85,809.89,808.45,807.81,808.37,808.75,808.80,809.50,813.32,819.11,822.10,821.78,818.93,816.96,815.29,814.08,813.69,814.42,813.82,812.62,811.11,809.05,805.99,801.94,798.13,795.66,794.44,793.13,791.73,790.25,788.57,786.87,785.75,785.17,785.05,785.73,786.38,786.82,787.04,787.25,787.48,787.83,788.34,789.11,790.25,791.77,793.21,794.15,794.89,795.62,796.82,798.85,801.84,804.09,805.38,805.96,806.17,806.84,806.74,805.49,803.27,801.93,801.49,800.71,798.60,793.90,788.65,783.61,780.04,778.90,778.12,777.70,777.89,778.63,779.40,780.75,783.86,787.87,791.30,794.62,796.50,796.88,795.92,794.70,793.30,792.07,791.49,792.47,794.86,797.81,801.20,805.10,808.96,810.62,811.61,812.57,813.15,812.57,811.71,810.85,809.92,808.61,807.05,805.25,803.28,801.65,800.22,799.31,799.07,799.54,799.92,800.09,800.05,799.82,799.70,799.42,798.02,795.24,792.04,789.06,786.62,784.88,784.26,784.94,784.14,782.29,779.61,775.35,770.19,764.39,759.77,760.25,761.35,762.58,763.86,765.24,766.72,768.22,772.68,779.50,781.43,781.70,780.94,778.86,774.65,770.34,766.69,763.35,760.76,761.50,766.70,771.06,773.45,776.06
909.32,908.62,907.40,906.05,904.97,903.95,902.46,900.37,897.42,893.30,889.55,887.60,887.07,886.77,884.99,882.08,878.75,875.94,875.56,876.56,878.07,879.70,881.00,880.50,878.47,875.65,872.75,870.97,868.98,866.85,864.62,862.12,858.95,855.29,851.74,849.18,847.70,847.19,847.22,847.52,847.60,845.93,843.01,839.80,838.00,837.06,837.20,837.97,838.98,840.27,841.36,841.87,842.11,843.65,847.42,850.42,852.47,854.70,856.94,858.52,858.96,857.86,855.79,853.50,851.34,849.50,848.20,847.38,847.76,849.16,851.20,852.89,854.36,855.76,856.74,855.95,853.64,851.15,849.16,848.20,848.17,849.18,850.45,851.05,849.89,847.50,844.88,842.32,839.67,836.88,834.18,831.90,830.67,831.07,832.56,834.08,834.39,831.47,826.82,822.22,818.42,815.87,813.73,812.00,810.81,810.45,810.97,811.53,811.57,812.14,816.23,821.21,823.60,823.15,820.61,819.08,817.76,816.88,816.72,816.99,815.58,813.83,812.18,810.30,807.01,802.76,799.19,797.60,797.01,795.71,794.00,792.17,790.52,788.97,787.25,785.58,784.44,784.40,784.41,784.30,784.16,784.25,784.38,784.52,784.75,785.20,786.06,787.52,789.00,790.04,791.04,791.93,793.00,794.63,797.44,799.75,801.31,802.29,803.03,804.34,805.70,805.87,804.41,803.05,802.17,800.76,798.11,793.35,788.16,783.34,779.97,778.88,778.04,777.45,777.57,778.39,779.28,781.00,784.72,789.13,792.04,794.31,794.93,794.52,793.50,792.36,791.11,789.97,789.45,790.70,793.56,796.97,800.61,804.49,808.35,810.16,811.19,812.04,812.73,812.53,811.99,811.29,810.38,809.21,807.61,805.36,802.57,800.48,798.92,797.88,797.42,797.68,797.94,798.09,798.12,798.00,797.84,797.78,797.26,796.04,794.39,792.05,789.99,788.45,787.48,787.21,785.39,782.85,780.05,775.97,771.13,764.97,759.39,759.37,760.38,761.64,762.97,764.43,765.93,767.44,771.21,777.11,780.34,781.18,780.54,778.46,774.35,770.02,766.02,762.46,759.83,759.69,765.79,770.64,772.65,775.07
906.68,906.21,905.31,904.18,903.15,901.85,899.93,896.82,892.39,887.47,883.81,881.61,881.03,882.40,883.30,881.84,878.84,875.42,873.69,874.48,876.00,877.42,878.45,879.10,879.05,878.00,875.83,874.00,871.24,868.29,865.47,862.58,859.36,856.07,852.88,850.25,849.25,849.36,849.94,850.64,851.13,850.63,848.01,843.64,839.41,836.55,835.93,836.56,837.41,838.18,838.67,838.86,839.33,841.75,845.74,849.07,851.45,853.41,855.47,856.81,856.73,854.91,852.85,850.44,848.26,846.49,845.01,844.26,845.50,848.16,851.30,853.95,855.96,857.56,858.50,857.84,855.76,853.54,851.78,850.95,850.90,851.54,852.31,852.42,850.47,848.01,845.62,843.38,841.12,838.69,836.14,834.03,833.21,833.84,835.19,836.02,835.23,831.72,827.73,824.01,820.80,818.28,816.22,814.96,814.47,814.71,814.91,815.54,815.60,815.99,819.89,823.79,825.52,825.13,823.17,821.76,820.45,819.70,819.60,819.06,816.26,813.66,811.69,809.49,806.51,803.09,800.58,799.99,799.81,798.43,796.24,793.89,792.42,791.06,789.54,787.93,786.38,785.13,783.92,782.79,781.94,781.76,781.66,781.54,781.46,781.60,781.93,783.08,784.50,785.73,787.08,788.24,789.24,790.42,792.49,794.82,796.82,798.48,800.08,802.05,804.03,805.20,804.92,803.38,801.89,799.77,796.73,792.52,787.69,783.03,779.79,778.83,777.91,777.13,777.17,778.08,779.07,780.96,785.18,789.93,792.12,793.09,792.83,792.05,791.09,789.99,788.93,788.09,788.00,789.80,793.10,796.82,800.51,804.03,807.46,809.52,810.71,811.39,811.96,812.38,812.38,811.95,811.22,810.41,809.13,806.90,803.60,800.56,798.72,797.26,796.12,795.93,795.97,795.88,795.70,795.51,795.17,794.82,794.92,795.61,796.40,795.04,793.34,791.83,790.44,788.75,786.39,783.66,780.58,776.64,772.42,766.06,759.47,758.66,759.44,760.72,762.15,763.66,765.13,766.60,769.08,773.25,778.73,780.30,779.63,777.45,773.52,769.14,764.79,761.15,759.00,759.16,765.39,770.39,772.55,774.94
902.95,902.73,902.29,901.47,900.28,898.95,896.81,893.74,889.31,882.92,878.41,875.63,874.78,876.58,879.00,879.39,877.50,873.81,871.20,871.61,872.59,873.23,873.63,874.69,876.09,876.93,876.52,876.19,873.24,869.63,866.38,863.41,860.86,858.19,855.35,852.68,851.42,852.09,853.38,854.47,855.22,854.48,851.61,846.97,841.96,838.20,835.88,835.08,835.87,836.33,836.52,836.72,837.44,839.76,843.06,846.80,850.23,852.41,854.27,855.21,854.81,852.89,850.59,848.05,845.70,843.66,841.96,841.41,843.09,846.44,850.56,853.70,856.38,858.48,859.62,859.31,857.87,856.02,854.33,853.53,853.54,853.98,854.14,853.34,851.25,848.96,846.65,844.34,842.03,839.65,837.26,835.64,835.82,836.87,838.01,838.54,837.63,834.04,830.31,826.99,824.00,821.30,819.58,819.12,819.70,820.89,820.89,820.30,819.84,820.63,824.51,827.30,828.24,827.56,825.64,824.09,822.89,822.09,821.36,819.36,814.88,811.57,809.69,807.54,804.84,802.80,801.69,801.60,801.78,800.23,797.95,795.72,794.26,792.85,791.51,790.22,788.97,787.85,786.76,785.67,784.50,783.09,781.44,780.37,779.95,779.90,779.95,780.45,781.15,781.88,782.98,784.37,785.55,786.59,788.10,789.58,791.48,793.85,796.73,800.25,802.69,804.19,804.59,803.01,801.20,798.69,795.47,791.80,787.43,782.90,779.63,778.65,777.63,776.81,776.83,777.76,778.71,780.02,783.57,788.08,790.86,791.10,790.34,789.42,788.63,787.84,786.89,786.57,787.26,789.42,793.15,797.24,800.93,803.84,806.80,808.38,809.48,810.46,811.06,811.53,811.82,811.92,811.82,811.19,810.21,808.37,805.25,801.50,799.25,797.51,795.96,794.85,794.08,793.62,793.32,793.04,792.58,792.10,791.95,792.38,793.39,793.81,794.09,793.91,792.39,790.38,787.82,784.95,781.80,778.15,774.12,768.29,761.78,758.70,758.58,759.72,761.21,762.62,764.04,765.86,768.15,771.36,776.20,778.26,777.64,775.17,771.60,767.18,762.95,759.71,758.17,758.49,764.19,769.72,773.28,775.90
898.86,898.91,898.84,898.24,896.88,895.58,893.65,890.75,886.21,879.11,873.81,870.49,869.26,870.81,874.14,875.82,874.99,871.75,868.78,868.08,867.75,867.52,868.43,870.36,872.84,874.77,875.36,876.35,874.23,870.78,867.25,864.66,862.75,860.58,858.01,855.41,853.82,854.69,856.44,857.88,858.74,857.77,854.40,849.23,844.10,840.19,836.77,834.53,834.38,834.55,834.60,834.81,835.60,837.67,840.60,844.68,848.92,851.48,853.15,853.70,853.11,851.25,848.56,845.78,843.30,841.17,839.49,839.30,841.16,844.73,849.40,852.96,856.24,858.88,860.38,860.39,859.60,858.28,856.86,856.06,856.09,856.25,855.79,854.22,852.15,850.13,848.00,845.70,843.30,840.89,838.68,837.49,838.30,839.51,840.50,840.78,839.66,836.24,832.94,830.02,827.31,824.65,823.22,823.42,824.84,826.70,826.64,825.30,824.56,825.48,828.56,830.24,830.41,829.42,827.53,825.64,824.31,823.21,821.66,818.19,812.97,809.44,807.67,805.85,803.94,803.10,802.98,803.19,803.62,801.94,799.59,797.44,795.93,794.56,793.39,792.37,791.55,791.15,790.61,789.81,788.48,786.15,783.30,781.13,779.85,779.27,778.96,778.84,778.87,779.14,779.86,781.11,782.20,782.98,783.87,784.57,786.29,789.15,793.09,797.88,800.98,802.88,803.69,802.69,800.84,798.11,794.81,791.49,787.47,782.96,779.54,778.45,777.34,776.46,776.48,777.40,778.28,779.09,781.44,784.74,787.36,787.74,787.20,786.52,785.95,785.43,784.88,785.33,786.91,789.34,793.78,798.10,801.53,803.85,805.85,806.63,807.47,808.72,809.55,810.23,810.87,811.45,811.83,811.59,810.94,809.63,807.15,803.25,800.43,798.30,796.51,794.80,793.13,792.00,791.33,790.91,790.39,789.89,789.55,789.57,790.31,791.72,793.38,794.46,793.70,791.81,789.32,786.48,783.33,779.91,776.06,771.11,765.26,760.01,757.94,758.46,760.03,761.45,762.97,765.01,767.26,769.90,773.79,775.89,775.21,772.51,768.97,764.63,760.96,758.35,757.22,757.83,762.39,768.51,774.26,777.40
894.53,894.88,895.00,894.48,893.04,891.77,890.61,887.77,882.58,876.08,870.46,866.75,865.01,865.62,869.22,871.19,871.14,869.31,866.72,864.00,861.49,860.45,863.49,867.13,870.23,871.99,872.17,873.71,873.80,871.71,868.16,866.46,864.92,862.93,860.53,858.13,856.36,856.94,858.65,860.37,861.15,860.36,856.34,850.09,845.30,842.01,838.73,835.51,833.19,832.94,832.89,832.97,833.56,835.47,838.75,843.07,847.49,850.48,852.02,852.25,851.53,849.77,846.58,843.47,840.96,839.14,837.94,838.26,840.12,843.40,848.00,851.97,855.64,858.76,860.78,860.95,860.68,860.09,859.29,858.50,858.45,858.19,857.17,855.20,853.18,851.47,849.70,847.68,845.25,842.86,840.86,839.88,840.56,841.49,842.43,842.36,840.64,837.63,835.10,832.81,830.54,828.30,827.02,827.54,829.26,831.21,831.35,830.40,829.87,830.29,831.43,831.98,831.49,830.22,828.40,826.00,824.16,822.46,820.05,815.37,810.92,807.95,806.25,805.08,804.66,804.52,804.60,804.99,805.54,803.83,801.33,798.97,797.40,796.25,795.22,794.32,793.88,794.61,794.88,794.45,793.10,790.61,787.50,784.30,781.49,779.83,778.92,778.31,777.96,778.01,778.33,778.90,779.38,779.68,779.87,780.20,781.75,784.69,789.13,794.42,798.49,801.05,802.11,802.56,801.05,798.33,795.07,791.81,787.97,783.30,779.56,778.28,777.06,776.12,776.10,776.97,777.75,778.42,779.26,780.21,781.19,782.71,783.32,783.31,783.01,782.61,782.93,784.51,786.96,789.57,795.08,799.34,802.16,803.94,804.30,804.09,804.51,805.81,807.13,808.42,809.56,810.46,811.01,811.49,811.24,810.55,809.18,805.93,802.42,799.69,797.82,796.11,793.61,791.42,789.96,789.36,788.80,788.40,788.20,788.28,788.76,789.75,791.32,793.13,794.24,792.86,790.75,788.19,785.07,781.73,778.17,774.35,769.67,763.05,757.82,756.92,758.45,760.12,761.96,763.90,765.99,768.48,771.84,773.37,772.47,769.65,765.61,761.58,758.94,757.13,756.09,757.26,760.18,766.81,775.34,779.35
889.66,890.22,890.60,890.47,889.54,888.27,887.34,885.06,880.55,874.25,868.94,864.89,862.09,861.12,863.46,865.75,866.81,866.29,865.25,862.73,859.64,857.87,860.80,864.52,867.40,868.92,869.23,870.94,873.45,873.33,870.27,868.78,867.19,865.18,862.90,860.65,858.73,859.04,860.51,862.01,862.36,861.22,857.30,851.45,846.85,843.93,841.18,838.18,835.15,833.22,831.84,831.16,831.52,833.25,836.70,841.19,845.69,848.78,850.34,850.21,848.90,846.56,843.33,840.82,838.79,837.28,836.90,838.18,840.61,844.03,848.39,852.00,855.30,858.34,860.65,861.08,860.96,860.65,860.27,859.85,859.71,859.26,858.15,856.25,854.27,852.66,851.11,849.38,847.25,844.94,843.25,842.54,843.02,843.70,844.03,843.42,841.63,839.26,837.40,835.64,833.85,832.08,830.82,831.01,832.30,834.14,835.19,834.70,834.02,833.74,833.84,833.06,831.84,829.91,826.86,824.25,822.41,820.39,817.31,812.50,809.39,807.66,806.83,806.50,806.51,806.25,806.14,806.65,807.48,806.03,803.64,801.12,799.00,797.78,796.81,796.05,796.00,797.22,798.35,798.63,797.44,794.48,791.34,788.34,785.49,782.79,780.76,779.40,778.53,778.08,777.69,777.45,777.49,777.75,777.98,778.38,779.44,781.54,785.27,790.13,794.22,797.30,799.41,801.11,800.89,799.00,796.04,792.78,789.17,784.21,779.97,778.38,777.10,775.99,775.73,776.36,776.99,777.55,778.04,778.48,778.94,779.96,780.56,780.78,780.76,780.78,782.03,784.50,787.60,790.51,796.00,799.81,801.84,802.60,802.09,801.32,801.31,802.42,804.16,805.98,807.64,809.04,810.03,810.85,811.10,810.97,810.34,808.46,805.32,802.24,799.67,797.47,794.48,791.59,789.45,788.49,787.74,787.17,786.92,787.15,787.91,788.91,790.23,791.87,793.45,793.10,791.58,789.29,786.32,782.90,779.41,775.93,772.08,766.87,760.52,756.99,756.37,757.96,759.89,761.73,763.93,766.71,769.73,770.96,769.68,766.48,762.40,759.29,757.16,755.82,755.55,757.29,761.01,768.08,776.58,780.45
884.88,885.30,885.74,885.93,885.64,884.76,884.06,882.38,878.82,872.96,867.97,863.58,859.84,857.60,858.27,860.52,862.46,863.20,863.52,861.73,858.71,856.45,858.51,861.92,864.43,865.89,866.83,868.94,872.79,874.09,872.04,871.00,869.56,867.58,865.33,863.22,861.28,861.31,862.44,863.56,863.12,861.49,857.88,852.85,848.51,845.82,843.50,840.95,837.90,834.78,831.70,829.85,829.83,831.26,834.65,839.19,843.74,846.72,848.21,847.69,845.77,842.89,839.95,838.15,836.62,835.52,836.30,838.46,841.45,845.04,849.00,852.13,855.00,857.84,860.28,861.00,861.00,860.83,860.69,860.55,860.17,859.53,858.51,857.00,855.30,853.78,852.37,850.90,849.13,847.13,845.79,845.27,845.53,845.91,845.67,844.66,842.94,841.12,839.78,838.52,837.22,835.93,834.69,834.41,835.12,836.71,838.32,838.04,836.92,835.70,834.90,833.24,831.45,828.87,824.67,821.88,820.02,817.74,814.36,810.33,808.54,808.02,808.18,808.66,808.53,807.92,807.58,808.16,809.33,808.30,806.12,803.43,800.79,799.39,798.45,797.86,798.05,799.48,801.23,802.07,801.05,797.91,794.83,792.21,789.75,786.76,783.98,781.96,780.52,779.40,778.18,777.19,776.69,776.64,776.68,777.12,777.84,779.19,781.89,785.88,789.65,792.99,795.91,798.47,799.76,799.18,796.97,793.79,790.51,785.83,781.34,778.84,777.46,776.15,775.48,775.64,776.13,776.60,777.04,777.45,777.78,778.14,778.52,778.81,779.02,779.53,781.44,784.52,788.15,791.45,796.37,799.56,800.88,800.62,799.59,798.50,798.29,799.42,801.62,803.77,805.71,807.41,808.79,809.90,810.62,810.97,810.88,810.25,807.82,804.71,801.57,798.83,795.54,792.20,789.55,788.20,787.17,786.24,785.80,786.12,787.20,788.32,789.47,790.80,792.41,793.05,792.07,790.05,787.24,783.67,780.14,776.73,773.41,769.74,763.43,758.35,755.72,756.03,757.38,759.02,761.24,764.09,766.71,767.61,766.17,763.05,759.49,757.27,755.44,754.57,755.40,757.67,762.87,770.31,777.87,781.24
880.66,880.26,880.26,880.43,880.70,881.04,880.85,879.59,876.78,872.14,867.12,862.35,858.34,855.82,854.83,856.19,858.39,860.25,860.87,859.72,857.25,854.95,855.85,858.96,861.29,863.11,865.47,868.66,871.41,872.60,872.33,872.66,872.06,870.29,867.95,865.97,864.30,864.05,864.75,865.38,863.64,861.45,858.19,854.03,850.23,847.59,845.24,842.92,840.56,838.05,833.20,829.61,828.91,829.79,832.70,837.10,841.63,844.27,845.45,844.50,842.17,839.23,836.98,835.60,834.35,833.88,836.32,838.95,842.17,845.70,849.07,851.92,854.61,857.30,859.68,860.72,860.95,860.89,860.73,860.43,859.51,858.58,857.74,857.00,856.11,854.83,853.47,852.12,850.69,849.43,848.48,847.95,847.98,847.94,847.54,846.53,844.90,843.30,842.29,841.46,840.66,839.85,838.69,838.02,838.21,839.36,840.38,839.72,837.76,835.20,833.33,831.81,829.84,826.80,822.45,819.40,817.18,814.65,811.67,809.66,808.89,809.13,810.10,811.18,810.32,809.29,808.86,809.47,810.99,810.50,808.57,805.78,802.94,801.29,800.38,799.94,800.09,801.50,803.28,804.15,803.28,800.76,797.83,795.26,793.23,791.55,789.08,786.78,784.73,782.78,780.63,779.07,777.79,776.59,775.51,775.67,776.53,777.80,779.50,782.20,785.46,788.58,791.29,794.03,796.72,798.01,797.36,794.50,791.74,788.61,784.59,779.97,778.31,776.77,775.47,774.84,775.18,775.63,776.01,776.36,776.72,777.05,777.42,777.71,778.02,778.98,780.94,784.13,788.11,791.95,795.76,798.21,799.02,798.07,796.82,795.69,795.80,797.56,800.26,802.45,804.11,805.55,807.06,808.58,809.64,810.31,810.62,810.49,808.96,806.37,803.23,800.17,796.78,793.34,790.48,788.81,787.34,785.82,784.95,785.18,786.39,787.62,788.84,790.13,791.57,792.81,792.20,790.40,787.75,783.93,780.25,776.82,773.56,770.13,765.21,761.52,758.40,755.12,754.62,755.77,757.63,759.82,761.78,762.17,761.15,759.24,757.10,755.40,753.73,753.53,755.76,758.43,765.21,772.90,779.18,781.79
881.42,879.89,878.90,878.00,876.96,876.35,876.07,875.31,873.43,869.81,864.77,860.33,856.85,854.21,852.16,852.25,853.52,855.16,856.34,856.22,854.69,852.71,852.59,855.28,858.13,860.87,863.95,867.34,868.94,869.46,869.62,870.49,871.14,871.25,870.57,868.84,867.36,866.92,866.91,866.51,864.44,862.23,859.55,856.26,852.46,849.11,846.54,844.38,842.19,839.82,834.48,830.08,828.50,828.83,830.90,834.77,839.19,842.01,842.76,841.45,839.01,836.13,833.86,832.76,832.21,832.65,835.59,838.57,841.59,844.57,847.42,850.48,853.20,855.72,857.88,858.97,859.77,860.36,860.62,860.16,858.68,857.14,855.99,855.36,854.88,854.24,853.43,852.46,851.31,850.18,849.25,848.50,847.90,847.46,847.03,846.53,845.94,845.49,845.13,844.46,843.54,842.62,841.50,840.91,840.94,841.43,841.50,840.03,837.41,834.23,831.58,829.70,827.30,824.33,821.24,818.76,816.76,814.61,812.21,810.46,810.58,811.82,813.46,814.48,813.06,811.37,810.50,811.08,812.48,811.68,809.67,807.18,805.04,804.39,804.02,803.52,803.09,804.26,805.94,806.95,806.50,804.31,801.20,798.63,797.03,796.31,794.85,792.54,789.81,787.01,784.34,782.14,780.27,778.59,776.87,775.81,775.62,776.21,777.53,779.38,781.65,784.21,786.99,789.88,792.93,795.01,795.55,794.02,792.39,790.50,787.63,783.34,779.91,777.89,776.55,775.52,774.72,774.72,774.97,775.30,775.64,775.95,776.31,776.80,777.50,778.57,780.11,783.02,787.05,790.86,793.62,795.47,796.16,795.20,793.32,792.30,792.93,795.30,798.34,800.75,802.16,803.12,804.50,806.09,807.42,808.74,810.06,810.52,809.65,807.34,804.02,800.73,797.42,794.13,791.19,789.03,787.27,785.49,784.22,783.99,785.17,786.41,787.74,789.18,790.73,792.05,791.89,790.52,787.97,784.09,780.22,776.71,773.51,770.30,766.65,763.66,760.82,757.66,755.91,754.41,753.80,754.38,755.32,756.19,756.20,755.36,754.04,752.89,752.46,753.39,755.94,758.66,765.46,772.91,778.76,781.16
884.73,882.37,880.38,878.19,875.55,873.78,872.83,871.87,870.33,867.57,863.03,859.35,856.65,854.02,851.12,849.66,849.34,850.01,851.56,852.25,851.59,850.04,849.34,851.77,855.30,859.02,862.48,865.47,866.05,865.92,866.12,867.24,868.94,870.88,872.06,871.05,869.99,869.42,868.77,867.47,865.40,863.32,861.18,858.52,854.44,850.15,847.21,845.06,842.84,840.33,835.09,830.43,828.15,828.08,829.47,832.73,836.82,839.72,840.04,838.39,835.86,833.15,830.88,830.04,830.20,831.44,834.30,837.31,839.98,842.33,844.66,848.01,851.10,853.68,855.54,856.59,857.95,859.27,860.09,859.58,857.67,855.60,853.99,853.23,853.01,852.99,852.75,852.18,851.33,850.17,849.13,848.12,846.93,846.10,845.59,845.47,845.80,846.32,846.58,846.22,845.44,844.62,843.80,843.41,843.26,843.04,842.14,839.95,836.93,833.52,830.45,828.28,825.75,823.18,821.32,819.42,817.63,815.80,813.80,811.81,812.74,814.90,817.05,817.76,815.86,813.61,812.38,812.91,813.96,812.76,810.58,808.40,807.21,807.79,808.00,807.41,806.42,807.21,808.62,809.64,809.51,807.73,804.66,802.22,800.93,800.65,800.00,797.87,794.75,791.29,788.27,785.57,783.30,781.36,779.22,776.96,775.47,775.01,775.76,777.00,778.46,780.52,783.35,786.31,789.32,791.75,793.19,793.15,792.80,791.90,790.18,787.06,782.31,779.65,778.14,776.89,775.08,774.42,774.22,774.26,774.57,774.88,775.26,775.94,777.00,778.07,779.15,781.50,785.03,788.48,790.58,792.19,793.04,792.33,789.94,789.14,790.19,792.77,795.65,798.22,799.57,800.34,801.75,803.47,805.19,807.25,809.52,810.44,810.02,807.81,804.27,800.79,797.61,794.55,791.61,788.97,786.95,784.95,783.33,782.67,783.75,785.03,786.51,788.18,789.92,791.20,791.47,790.53,788.07,784.18,780.16,776.53,773.32,770.31,767.78,765.25,762.82,760.69,758.38,754.86,751.87,750.33,750.05,751.24,752.02,751.96,751.27,750.67,751.52,753.44,756.00,758.63,764.65,771.45,777.07,779.39
891.13,889.12,886.60,883.49,880.19,878.72,875.88,872.49,869.34,867.10,864.59,862.38,860.39,858.07,854.32,850.83,848.11,846.77,847.80,848.34,847.84,846.76,846.67,849.45,853.54,857.83,861.37,862.96,862.94,862.74,863.10,864.41,866.11,868.13,870.06,871.15,871.25,870.68,869.79,868.58,866.62,864.64,862.60,859.88,855.18,849.95,846.32,843.83,841.47,838.43,833.82,829.72,827.47,827.54,829.03,831.78,834.99,837.19,837.15,835.10,832.39,830.03,828.50,827.95,828.47,829.94,831.97,834.14,836.43,838.46,840.16,843.52,847.86,851.21,852.81,853.72,855.25,857.05,858.43,858.18,856.31,854.13,852.24,851.11,851.13,851.25,851.17,850.86,850.42,849.33,848.14,846.94,845.65,844.45,843.54,843.02,842.89,842.98,843.45,844.17,844.91,845.40,845.71,845.38,844.71,843.82,842.19,840.02,837.24,834.10,831.38,829.68,828.19,826.49,824.41,822.31,820.11,817.84,815.56,813.49,815.04,817.68,819.88,820.18,817.93,815.73,814.67,815.14,815.67,814.50,812.26,809.98,809.62,810.86,811.38,810.87,809.83,810.00,810.79,811.27,810.98,810.10,808.03,806.18,804.86,803.75,802.63,800.91,798.33,794.84,791.69,788.94,786.60,784.50,782.16,779.64,777.25,775.23,774.19,775.17,776.77,778.84,781.44,784.24,786.98,789.40,791.27,792.21,793.02,792.59,791.38,789.66,786.48,782.87,780.29,778.96,777.54,775.96,774.34,773.29,773.60,773.90,774.36,775.08,776.09,777.12,778.19,779.41,781.06,783.67,786.23,788.59,790.06,789.73,787.65,787.31,788.21,789.74,791.17,793.48,795.37,797.02,799.25,801.60,804.15,806.86,809.31,810.25,809.83,807.47,803.66,800.07,797.02,794.20,791.34,788.43,786.07,783.72,781.93,781.25,782.13,783.55,785.31,787.24,789.14,790.62,791.15,790.46,788.12,784.20,780.16,776.33,772.85,770.04,768.25,766.09,763.75,761.84,760.56,759.12,756.01,751.66,750.00,749.98,750.16,750.16,750.06,749.98,751.17,753.27,755.85,758.35,762.64,768.03,773.11,775.29
895.20,893.13,890.43,887.30,884.27,882.46,879.44,875.83,872.29,869.52,867.39,865.54,863.74,861.39,856.90,851.69,847.42,845.22,844.75,844.57,843.97,843.24,843.76,847.18,851.83,856.35,859.51,860.26,859.75,859.42,860.00,861.72,863.63,865.77,868.05,870.14,871.07,870.94,870.32,869.32,867.43,865.35,863.18,860.24,854.99,849.62,845.78,842.86,839.79,836.11,831.97,828.37,826.33,827.10,828.74,831.16,833.60,834.61,834.19,832.09,829.41,827.19,826.35,825.95,826.49,827.85,829.23,830.71,832.51,834.44,836.59,840.31,844.80,848.11,849.66,851.11,853.03,855.18,856.98,857.26,855.39,853.12,850.88,849.00,848.40,848.37,848.45,848.45,848.17,847.62,846.81,845.77,844.45,843.10,841.93,840.77,839.73,839.59,840.45,841.73,843.03,843.98,844.83,845.19,845.06,844.27,842.59,840.69,838.36,835.71,833.46,832.00,830.69,829.01,826.58,824.20,821.71,819.24,816.97,815.36,816.85,819.40,821.65,822.07,819.84,817.87,816.98,817.25,817.44,816.33,814.52,812.84,812.79,813.84,814.11,813.56,812.74,812.28,812.02,811.65,811.10,810.64,809.46,808.19,807.06,806.03,804.82,803.19,800.97,798.07,795.19,792.72,790.27,787.75,785.27,782.62,779.81,777.00,774.64,773.92,775.27,777.52,780.03,782.72,785.37,787.90,790.10,791.52,792.95,793.37,793.00,792.01,789.85,787.08,784.64,782.74,780.73,778.61,776.35,774.36,773.30,773.09,773.42,774.13,775.14,776.16,776.88,777.57,778.56,780.43,782.70,785.00,786.55,786.47,785.08,785.30,786.35,787.57,788.55,790.38,792.48,794.84,797.83,800.74,803.61,806.45,808.92,810.00,809.41,806.93,803.18,799.64,796.70,793.95,791.14,788.10,784.95,782.33,780.68,780.24,780.74,782.01,783.84,785.94,788.00,789.91,790.75,790.30,788.15,784.17,780.12,776.24,772.68,769.87,768.26,766.52,764.59,762.90,762.01,761.26,759.28,756.18,754.51,751.22,749.52,749.48,749.71,750.08,751.42,753.44,755.76,757.86,760.63,764.63,768.95,770.99
898.13,895.66,892.76,889.76,887.06,884.44,881.82,878.95,875.78,872.56,870.04,867.84,865.90,863.91,859.17,852.81,847.63,845.05,843.08,841.79,840.81,840.28,841.15,844.88,849.84,854.38,856.96,857.22,856.44,856.09,856.89,859.07,861.29,863.57,866.00,868.60,870.26,870.71,870.48,869.70,867.89,865.68,863.34,860.18,854.54,849.27,845.36,841.95,837.96,833.62,829.92,826.84,825.11,826.61,828.28,830.26,831.80,831.55,830.63,828.75,826.44,824.45,824.18,823.92,824.37,825.47,826.37,827.39,828.78,830.71,833.57,837.62,841.76,844.74,846.51,848.89,851.36,853.75,855.79,856.60,854.76,852.48,850.01,847.37,845.60,844.96,845.02,845.31,845.18,845.31,845.14,844.48,843.26,841.91,840.39,838.45,836.47,836.25,837.50,839.10,840.56,841.64,842.78,843.97,844.71,844.50,843.28,841.82,839.97,837.86,836.05,834.65,833.06,830.97,828.21,825.57,822.92,820.38,818.24,817.24,818.48,820.79,823.12,823.92,821.92,820.16,819.30,819.30,819.27,818.27,817.00,815.97,815.65,815.91,815.59,814.86,814.23,813.28,812.11,811.02,810.27,809.90,809.37,808.59,807.73,807.09,806.08,804.68,802.94,800.86,798.47,796.48,794.15,791.34,788.61,785.74,782.71,779.53,776.25,773.47,774.03,776.18,778.74,781.40,784.04,786.77,789.34,791.13,792.94,794.26,794.79,794.20,792.74,791.33,789.50,787.05,784.27,781.79,779.27,776.56,773.88,772.72,772.62,773.16,774.14,775.07,775.37,775.83,776.75,778.09,779.82,781.67,782.97,783.10,782.57,783.33,784.65,786.00,787.09,788.48,790.65,793.58,797.14,800.47,803.41,806.14,808.51,809.67,808.81,806.30,802.81,799.43,796.50,793.68,790.80,787.67,783.77,781.06,779.68,779.46,779.59,780.53,782.17,784.21,786.38,788.81,790.12,789.99,788.00,784.02,779.99,776.17,772.69,769.82,768.16,766.78,765.35,763.96,763.18,762.49,761.82,761.13,759.95,754.00,750.14,749.29,749.71,750.45,751.84,753.65,755.60,757.26,758.88,761.60,764.99,766.94
900.62,897.18,893.51,889.77,886.10,881.95,879.15,876.89,874.85,873.10,870.19,866.70,864.38,864.79,861.30,855.46,850.27,847.36,845.38,842.48,840.48,839.79,840.02,842.33,846.76,851.09,853.03,853.20,852.83,852.86,853.88,856.32,858.84,861.24,863.76,866.75,869.40,870.24,870.09,869.38,867.76,865.58,863.25,860.14,854.59,849.06,844.82,840.88,836.04,831.15,828.06,825.74,824.37,825.78,827.06,827.81,827.84,826.78,824.97,823.72,822.67,821.65,821.59,821.66,822.12,822.96,823.83,824.90,826.36,828.31,831.04,834.80,838.48,841.44,843.95,847.72,850.87,853.36,855.23,856.10,854.51,852.52,850.31,847.51,843.79,841.53,840.80,841.17,841.63,842.27,842.73,842.75,842.04,840.84,838.39,835.50,833.16,833.09,834.48,836.27,837.99,839.42,841.00,842.43,843.61,844.37,844.52,843.64,842.12,840.33,838.71,837.12,834.91,832.21,829.35,826.64,824.11,821.67,819.60,818.89,820.24,822.61,825.12,826.50,824.96,823.01,821.68,821.33,821.13,820.42,819.38,818.00,816.11,814.76,813.44,812.19,811.28,810.42,809.51,808.71,808.06,807.37,806.80,806.23,805.60,804.93,804.56,804.48,803.98,802.48,800.78,799.58,798.15,795.93,792.51,788.98,785.61,782.29,778.80,775.10,773.52,774.25,777.03,779.87,782.60,785.69,788.94,791.50,793.65,795.43,796.48,796.26,795.26,794.13,792.63,790.58,787.95,785.14,782.43,779.66,776.57,773.73,772.33,772.21,773.01,773.42,773.57,774.06,775.08,776.49,777.93,779.18,780.05,780.40,780.79,781.82,783.40,785.33,786.95,788.31,790.61,793.81,797.40,800.71,803.68,806.30,808.31,809.07,807.91,805.61,802.64,799.43,796.38,793.12,789.80,786.53,782.74,780.45,779.29,778.91,778.89,779.42,780.25,781.51,783.62,786.51,788.82,789.34,787.21,783.52,779.59,775.99,772.82,769.99,768.34,767.06,765.96,765.12,764.46,763.78,763.16,762.56,761.49,758.48,753.50,749.15,749.61,750.53,751.89,753.45,755.06,756.57,758.07,759.90,762.08,764.19
901.75,897.87,893.79,889.52,885.05,880.27,876.86,874.32,872.47,871.30,868.20,864.30,861.86,863.31,862.75,859.03,854.90,851.96,848.92,845.40,842.51,840.61,839.80,840.47,843.31,846.62,848.45,848.47,848.24,848.79,850.60,853.51,856.18,858.55,860.91,863.77,867.05,868.44,868.49,867.76,866.71,865.17,863.17,860.12,854.67,848.98,844.53,840.17,834.64,829.97,827.38,825.42,823.90,824.13,824.39,824.24,823.67,822.68,821.22,820.39,819.82,819.20,819.10,819.20,819.60,820.31,821.19,822.37,823.96,825.95,828.48,831.78,835.38,838.80,842.27,846.99,850.40,852.76,854.46,855.45,854.21,852.51,850.48,847.59,843.01,839.74,837.92,837.43,838.01,838.97,839.92,840.46,840.08,838.68,835.67,832.46,830.30,830.44,831.88,833.70,835.46,836.98,838.92,840.68,842.07,842.99,843.55,843.34,842.91,842.27,840.95,839.44,837.40,834.79,831.61,828.45,825.86,823.55,821.58,820.79,822.06,824.53,827.25,828.69,827.59,825.81,824.22,823.14,822.30,821.34,820.01,818.09,815.32,812.93,811.07,809.62,808.46,807.27,806.24,805.47,804.94,804.32,803.83,803.41,802.96,802.44,802.43,802.94,803.26,802.77,801.91,801.31,800.46,798.92,796.19,792.35,788.52,784.88,781.19,777.03,773.90,773.05,775.02,777.96,781.00,784.43,788.05,791.16,793.64,795.88,797.59,798.19,797.76,796.92,795.62,793.69,791.07,788.18,785.38,782.61,779.61,776.32,773.75,772.20,771.76,771.72,771.79,772.36,773.47,774.86,776.13,777.13,777.92,778.68,779.72,781.32,783.37,785.69,787.78,789.87,792.75,796.04,798.90,801.59,804.09,806.21,807.68,808.22,806.83,804.58,801.87,798.72,795.39,791.96,788.62,785.52,782.20,780.25,779.18,778.65,778.33,778.61,779.09,779.85,781.37,783.86,786.29,787.21,785.69,782.81,779.41,776.20,773.28,770.56,768.91,767.76,766.91,766.29,765.67,765.02,764.39,763.66,762.40,760.70,755.18,749.14,749.46,750.35,751.58,752.96,754.40,755.87,757.28,758.67,760.12,761.88
901.53,897.67,893.53,889.05,884.13,879.34,875.16,871.84,869.56,868.16,865.09,861.43,859.15,860.74,863.38,862.46,860.02,857.35,853.19,849.72,846.12,842.61,840.58,839.54,840.19,841.93,843.77,843.68,843.43,844.46,847.23,850.87,853.66,855.95,858.10,860.58,864.09,865.89,866.09,865.25,864.89,864.33,862.95,860.13,854.86,849.07,844.48,839.86,834.02,829.96,827.66,825.77,823.91,822.68,821.84,821.19,820.63,820.12,819.71,819.28,818.78,818.27,817.97,817.71,817.68,817.94,818.53,819.79,821.51,823.56,825.96,828.99,832.86,836.99,841.34,846.47,849.87,852.02,853.53,854.64,853.88,852.47,850.52,847.55,842.86,839.08,836.15,834.32,834.46,835.51,836.79,837.70,837.53,835.85,832.67,829.62,827.85,828.16,829.57,831.29,832.92,834.38,836.62,838.79,840.29,840.82,841.08,841.41,842.33,843.33,842.54,841.48,840.13,838.06,834.69,830.95,828.10,825.81,823.98,822.88,823.85,826.36,829.22,830.41,829.54,828.00,826.22,824.31,822.68,821.15,819.30,816.87,813.82,810.93,808.83,807.33,806.00,804.27,802.91,802.03,801.57,801.21,800.88,800.56,800.23,799.90,799.91,800.44,801.24,801.94,802.00,801.82,801.31,800.41,799.02,795.29,791.17,787.23,783.39,778.99,774.90,772.52,772.87,775.53,778.96,782.73,786.56,789.99,792.81,795.47,797.86,799.51,799.83,799.40,798.31,796.44,793.71,790.85,788.08,785.40,782.70,779.74,776.37,773.13,770.75,770.28,770.26,770.84,771.94,773.22,774.41,775.43,776.46,777.70,779.18,781.41,783.96,786.55,789.06,792.37,795.99,799.13,800.91,802.62,804.28,805.69,806.67,807.24,805.66,803.31,800.67,797.55,794.00,790.63,787.58,784.82,782.07,780.29,779.22,778.56,777.90,778.01,778.41,778.94,779.70,781.31,783.27,784.45,783.97,782.13,779.50,776.75,774.07,771.54,769.89,768.83,768.08,767.46,766.85,766.24,765.58,764.66,763.04,761.38,755.66,749.21,749.25,750.04,751.13,752.36,753.73,755.14,756.47,757.67,758.79,759.97
898.88,895.61,891.97,887.89,883.36,878.70,874.15,870.38,867.58,865.18,862.49,859.52,857.79,859.60,862.15,862.88,862.04,860.12,857.99,854.65,850.64,846.63,843.60,840.90,839.50,839.40,840.29,840.50,840.40,841.30,844.12,849.15,852.27,854.77,857.21,859.68,862.60,863.74,863.38,862.23,862.03,862.26,862.03,860.33,855.49,849.61,844.77,840.37,835.55,831.56,828.99,827.05,825.49,824.50,823.95,823.51,823.00,822.49,822.73,823.08,823.40,823.51,822.84,821.30,819.29,817.26,816.13,817.20,819.02,821.14,823.80,827.86,832.44,837.01,841.43,845.71,849.15,851.32,852.58,853.54,853.60,852.52,850.51,847.41,842.81,838.83,835.45,832.76,831.34,831.93,833.20,834.33,834.54,833.10,830.50,827.83,825.97,826.05,827.26,828.75,830.25,831.79,834.23,836.80,838.46,838.55,838.22,838.09,839.52,841.92,842.37,842.60,841.98,840.52,838.13,834.47,830.87,828.12,826.43,825.04,825.43,827.53,830.22,831.23,829.67,827.50,825.26,823.12,821.43,819.50,817.42,815.11,812.24,809.44,807.21,805.46,803.90,802.10,800.80,799.96,799.47,799.04,798.66,798.36,798.02,797.44,796.77,797.04,798.12,799.60,800.50,800.64,800.40,799.82,798.56,795.85,792.58,789.08,785.27,780.70,776.30,772.76,770.94,771.84,775.28,779.54,783.71,787.14,790.44,793.27,795.88,798.33,799.83,800.13,799.73,798.50,795.78,792.85,790.34,788.02,785.38,782.65,779.70,775.71,771.16,770.01,769.80,770.05,770.69,771.75,772.93,774.29,775.80,777.45,779.10,781.39,784.05,786.88,789.85,794.45,798.26,800.71,801.84,802.60,803.11,803.94,805.28,806.22,804.51,801.97,799.28,796.25,793.17,790.22,787.52,785.07,782.45,780.50,779.24,778.50,777.77,777.50,777.73,778.28,778.98,780.00,781.51,782.88,783.35,782.14,780.09,777.71,775.31,773.25,771.72,770.35,769.23,768.58,768.06,767.50,766.76,765.57,763.53,761.68,755.88,749.26,748.93,749.91,751.02,752.10,753.23,754.42,755.58,756.70,757.77,758.83
895.72,892.29,888.77,885.22,881.54,877.13,872.59,868.64,865.43,862.55,860.15,857.74,856.45,858.20,860.66,862.14,862.33,861.37,860.48,857.76,853.93,849.75,846.19,842.70,840.10,838.65,838.49,838.56,838.72,839.57,842.05,847.54,851.17,853.98,856.55,859.00,861.33,861.76,860.79,859.27,859.12,859.83,860.34,859.42,855.11,849.92,845.50,841.76,838.26,834.75,831.77,829.31,827.54,826.87,826.62,826.44,826.25,826.17,826.89,827.87,828.80,829.23,828.21,825.93,822.52,818.62,815.85,815.52,816.88,819.05,821.84,826.75,832.04,837.06,841.48,845.07,848.16,850.25,851.51,852.34,852.89,852.22,850.42,847.38,843.00,838.95,835.27,831.95,829.41,829.22,830.14,831.20,831.51,830.33,828.08,825.60,823.67,823.58,824.65,826.07,827.66,829.64,832.37,835.11,836.52,835.68,834.60,834.13,835.35,837.97,840.05,841.79,842.32,841.84,840.46,837.68,834.21,831.00,828.60,826.95,826.78,828.52,830.99,831.55,829.37,826.71,824.14,821.73,819.66,817.41,815.17,812.97,810.65,808.07,805.78,803.84,802.13,800.51,799.38,798.61,798.03,797.38,796.82,796.40,795.92,794.94,793.71,793.50,794.18,795.38,796.27,796.82,797.11,797.08,796.44,794.75,792.65,790.08,786.53,782.22,777.75,773.43,770.08,769.83,772.14,775.64,779.62,783.60,787.36,790.67,793.66,796.34,798.33,799.37,799.80,799.41,797.33,794.66,792.37,790.31,787.89,785.32,782.33,777.70,771.88,769.92,769.52,769.62,769.96,770.69,771.85,773.46,775.32,777.21,779.03,781.54,784.41,787.42,790.56,795.50,798.98,800.64,801.17,801.35,801.41,802.07,803.63,804.91,803.72,801.58,799.12,796.33,793.57,790.85,788.14,785.41,782.49,780.42,779.09,778.26,777.48,776.91,777.04,777.70,778.49,779.36,780.91,782.72,784.09,783.94,782.38,779.86,777.11,775.46,774.01,772.48,771.09,770.15,769.51,768.87,767.97,766.58,764.33,762.23,756.22,749.35,748.69,749.83,750.98,752.02,753.13,754.33,755.38,756.39,757.41,758.45
