868.94,868.53,867.59,866.43,865.20,863.92,862.66,861.61,860.47,858.78,855.70,852.76,850.36,848.67,848.04,848.88,850.14,852.21,855.38,858.67,860.69,862.56,864.39,865.46,866.26,866.81,867.22,867.56,867.90,868.49,868.53,867.51,865.35,862.79,861.40,861.88,864.81,867.48,869.30,869.83,868.74,866.73,864.28,862.56,862.34,864.44,866.48,868.42,869.92,870.44,869.81,867.27,864.36,861.59,858.40,854.54,850.37,846.25,842.74,840.36,839.61,839.52,839.47,839.43,839.48,839.63,840.52,843.81,849.17,853.39,856.03,857.42,858.90,860.63,862.25,863.52,864.40,865.07,865.49,865.66,865.53,865.24,864.04,861.80,858.13,852.60,852.38,854.47,857.20,859.93,861.70,863.25,864.50,865.04,865.06,864.84,864.47,863.95,863.33,862.85,862.42,861.98,861.43,860.88,860.11,859.14,857.96,856.24,854.88,853.91,853.28,852.95,853.07,853.47,853.90,854.16,854.36,854.71,854.73,854.15,853.23,852.05,851.21,850.92,851.25,851.76,852.10,852.13,851.56,849.84,847.77,846.52,846.22,846.08,846.95,848.44,850.01,851.19,852.19,852.94,853.21,853.00,853.05,853.19,852.76,851.78,850.47,848.12,847.30,848.18,850.10,850.43,850.01,849.64,849.40,848.73,847.87,847.03,846.19,845.27,844.45,843.01,841.31,839.35,836.45,835.37,836.02,837.47,838.32,839.87,841.49,843.06,844.55,845.82,846.64,847.09,847.26,847.36,847.19,846.93,846.63,846.19,845.55,844.42,843.14,842.00,841.01,839.99,838.63,837.64,838.79,840.65,842.63,844.31,845.59,847.35,848.94,849.98,850.42,850.66,850.76,850.80,850.75,850.54,849.99,848.80,847.32,845.83,844.54,843.08,842.90,844.10,845.85,847.57,847.95,847.15,845.47,843.58,843.12,844.36,846.89,848.85,849.88,850.21,850.05,849.43,847.85,846.22,844.59,843.33,843.98,845.47,846.66,846.93,845.80,844.76,844.47,844.38,843.81,842.91,841.95,840.72,839.03,836.79,834.56,832.36,830.12,827.88,826.52,826.98,827.98,828.30,827.12,826.42,827.77,830.50
869.69,868.96,867.88,866.58,865.09,863.42,861.81,860.50,859.06,857.13,854.34,851.72,849.81,848.74,848.69,849.43,850.39,851.93,854.29,856.86,859.49,861.83,863.72,865.02,865.83,866.49,867.19,868.00,868.63,869.16,869.20,868.36,866.33,864.19,862.43,862.05,864.49,867.44,869.45,870.33,869.96,868.42,866.13,864.12,863.35,865.12,867.04,868.86,870.19,870.42,869.07,866.22,863.17,860.11,856.03,851.57,846.83,842.55,840.22,839.86,840.19,840.64,840.97,841.08,841.00,840.78,841.11,843.86,849.20,853.80,857.23,859.68,861.45,862.92,864.14,864.97,865.20,865.44,865.66,865.75,865.56,865.27,863.98,861.59,857.99,853.80,853.32,855.02,857.71,860.28,862.36,864.02,865.12,865.35,865.22,864.86,864.35,863.65,862.85,862.19,861.58,860.97,860.40,859.78,858.81,857.63,856.32,854.83,853.90,853.19,852.56,852.07,851.89,852.03,852.28,852.46,852.69,852.86,852.65,851.88,850.73,849.64,849.08,849.06,849.47,849.89,850.16,850.17,849.62,848.01,846.38,845.87,846.52,847.26,848.36,849.58,850.77,851.79,852.81,853.76,854.23,854.13,854.24,854.28,853.33,851.69,850.38,848.18,847.87,848.98,850.54,851.26,851.17,850.94,850.72,850.20,849.47,848.62,847.53,846.03,844.38,842.69,840.96,839.05,836.63,835.98,837.12,838.73,838.57,839.91,841.51,843.06,844.60,846.13,847.48,848.33,848.65,848.74,848.55,848.24,847.77,846.94,845.56,844.09,842.65,841.36,840.43,839.41,838.26,837.70,839.27,841.66,843.83,845.48,846.62,848.21,849.64,850.66,851.20,851.38,851.47,851.50,851.45,851.22,850.54,849.34,847.99,846.79,845.90,844.39,843.42,843.65,845.58,847.61,848.35,847.72,845.97,844.43,844.36,845.55,847.65,849.61,850.36,850.48,850.24,849.56,847.79,846.02,844.64,844.08,845.08,846.47,847.37,847.43,846.54,845.92,845.67,845.42,844.65,843.16,841.71,840.20,838.42,836.18,834.04,832.11,830.14,827.93,827.21,828.29,829.76,830.24,828.72,826.85,827.53,830.34
870.20,869.33,867.95,866.52,865.00,863.17,860.93,857.63,854.41,852.02,850.91,849.80,849.25,849.23,849.76,851.79,854.00,855.44,855.56,854.88,857.07,859.89,862.28,863.89,865.01,865.68,866.31,867.33,868.62,869.43,869.78,869.51,868.13,865.99,863.78,862.63,864.16,866.92,869.17,870.47,870.57,869.51,867.34,865.34,864.50,866.00,867.87,869.35,870.20,870.00,867.97,864.80,861.32,857.61,853.06,847.92,843.43,840.43,840.09,841.68,843.60,845.34,846.65,847.21,846.79,845.45,844.05,844.85,849.11,853.64,857.64,860.92,863.00,864.24,865.00,865.38,865.55,865.72,865.83,865.79,865.46,865.15,863.48,860.90,857.90,854.87,854.10,855.44,858.15,860.70,862.97,864.57,865.42,865.48,865.15,864.40,863.50,862.62,861.83,861.17,860.53,859.76,858.72,857.71,856.61,855.47,854.39,853.36,852.75,852.25,851.74,851.26,850.92,850.65,850.45,850.34,850.30,850.27,850.01,849.40,848.66,847.79,847.33,847.40,847.92,848.15,848.25,848.02,847.31,846.51,846.59,847.08,847.75,848.53,849.45,850.34,851.25,852.31,853.38,854.43,855.12,855.32,855.35,855.14,853.90,851.94,850.25,848.39,848.12,849.10,850.71,851.92,852.05,851.87,851.61,850.99,850.29,849.25,847.76,845.75,843.87,842.11,840.43,838.68,836.68,837.33,839.14,840.55,839.72,840.53,841.75,843.11,844.60,846.14,847.60,848.84,849.71,849.95,849.66,849.17,848.39,846.96,845.21,843.64,842.18,840.81,839.76,838.78,838.14,838.21,839.73,842.57,844.82,846.40,847.66,849.00,850.21,851.19,851.86,852.09,852.14,852.15,852.10,851.83,850.86,849.55,848.71,848.63,848.32,846.08,844.03,843.38,845.11,847.68,849.13,849.06,847.54,846.25,845.63,846.18,847.92,849.75,850.61,850.66,850.19,849.31,847.62,845.95,845.12,845.50,846.36,847.57,848.14,847.91,847.33,846.82,846.19,845.23,843.80,842.15,840.56,838.72,836.56,834.46,832.28,830.54,828.99,827.38,828.14,829.71,831.07,831.43,829.98,827.30,827.25,829.94
870.67,869.78,868.23,866.64,864.88,862.62,859.77,855.69,852.10,850.03,849.90,849.93,850.39,851.13,852.14,854.82,857.47,858.75,857.98,856.30,856.54,858.14,860.35,862.19,863.52,864.40,865.34,866.77,868.37,869.48,870.12,870.17,869.28,867.18,864.81,863.23,863.91,866.31,868.81,870.58,871.05,870.18,868.28,866.56,865.84,866.99,868.49,869.50,869.80,869.02,866.76,863.44,859.46,854.94,850.06,844.76,841.27,840.44,842.81,845.52,847.66,849.36,850.64,851.20,850.95,849.88,848.33,847.51,849.83,853.74,857.97,861.56,863.93,865.02,865.49,865.68,865.87,865.93,865.87,865.68,865.31,864.81,863.18,860.86,858.31,855.81,854.85,855.93,858.54,860.95,863.24,864.85,865.60,865.36,864.65,863.61,862.50,861.50,860.77,860.07,859.22,858.17,856.84,855.91,855.20,854.65,854.24,853.70,853.09,852.44,851.82,851.45,851.47,851.43,851.17,850.63,850.02,849.46,848.78,848.03,847.75,847.39,847.00,846.67,846.52,846.50,846.61,846.65,846.51,846.42,846.51,847.12,848.22,849.38,850.19,850.88,851.67,852.75,853.84,854.96,855.88,856.39,856.41,856.00,854.50,852.23,850.25,848.71,848.56,849.47,851.02,852.41,852.81,852.64,852.13,851.34,850.59,849.38,847.62,845.40,843.33,841.53,839.86,838.33,837.31,838.64,840.77,842.28,841.59,842.29,843.34,844.40,845.47,846.50,847.91,849.34,850.46,850.86,850.54,849.86,848.76,846.93,844.97,843.28,841.85,840.65,839.70,838.77,838.27,838.50,840.02,843.29,845.53,846.94,848.18,849.39,850.43,851.42,852.31,852.88,853.04,853.05,852.92,852.45,851.27,850.12,849.68,850.06,849.72,847.15,844.67,843.55,844.84,847.55,849.44,849.92,848.98,848.22,847.43,847.43,848.50,850.00,850.92,850.94,850.32,849.45,848.43,847.52,847.18,847.61,847.97,848.59,848.68,848.16,847.49,846.82,845.80,844.26,842.09,839.82,837.67,835.65,833.79,832.11,830.47,829.15,828.20,827.87,829.42,831.15,832.38,832.52,830.88,828.02,827.26,829.02
871.13,870.23,868.62,866.84,864.75,862.00,858.65,854.74,851.74,850.43,850.83,851.61,852.74,854.01,855.33,857.97,860.36,861.47,860.86,859.63,857.58,857.12,858.47,860.32,861.80,863.16,864.68,866.52,868.17,869.49,870.31,870.49,869.89,867.86,865.53,863.79,863.77,865.76,868.47,870.67,871.43,870.58,869.05,867.75,867.19,867.86,868.76,869.26,869.03,867.72,865.51,862.16,857.69,852.35,847.28,842.27,840.31,842.00,846.96,850.08,851.68,852.63,853.30,853.59,853.81,853.86,853.29,851.51,851.62,854.25,858.10,861.70,864.36,865.40,865.77,865.97,866.13,866.04,865.81,865.51,865.13,864.32,862.94,861.11,858.90,856.61,855.54,856.43,858.81,861.01,863.18,864.91,865.71,865.05,863.89,862.63,861.42,860.40,859.71,858.91,857.89,856.64,855.32,854.80,854.75,854.93,855.16,854.95,854.17,853.25,852.52,852.34,852.90,853.32,853.21,852.28,851.07,849.87,848.58,847.51,847.80,848.10,847.77,846.82,845.66,845.34,845.56,846.07,846.68,846.95,846.26,846.63,848.38,849.96,850.71,851.30,852.06,853.16,854.25,855.44,856.57,857.38,857.44,856.95,855.26,852.75,850.56,849.23,849.18,850.04,851.43,852.81,853.46,853.25,852.33,851.33,850.48,849.11,847.23,845.02,842.82,840.98,839.35,838.12,838.22,839.74,841.95,843.82,843.88,844.78,845.78,846.56,847.02,847.28,848.48,849.88,851.03,851.59,851.20,850.30,848.91,846.82,844.82,843.21,841.97,841.07,840.26,839.26,838.56,838.59,840.13,843.69,845.88,847.08,848.24,849.41,850.40,851.45,852.63,853.71,854.04,854.06,853.82,853.08,851.84,851.00,850.81,851.06,850.28,847.64,845.20,843.95,844.70,847.21,849.34,850.39,850.19,850.04,849.42,849.04,849.34,850.39,851.27,851.28,850.63,849.92,849.76,849.82,849.86,849.77,849.55,849.40,848.98,848.20,847.23,846.25,844.78,842.67,839.78,836.62,833.89,831.97,830.84,829.76,828.98,828.25,828.00,829.12,830.89,832.63,833.71,833.47,831.46,828.82,827.42,827.82
871.58,870.44,868.81,866.92,864.71,861.98,858.59,855.27,852.91,852.10,853.17,854.19,855.68,857.31,858.48,860.01,861.73,862.88,862.89,861.71,860.06,858.69,858.18,859.22,861.01,863.45,865.73,867.24,868.89,869.97,870.60,870.73,870.04,868.07,865.86,864.16,863.93,865.69,868.41,870.73,871.65,870.90,869.71,868.70,868.07,867.91,868.05,868.10,867.74,866.52,864.34,861.01,856.27,850.43,845.41,841.38,841.31,844.72,849.62,852.47,854.06,855.06,855.66,855.89,856.36,857.18,857.83,857.08,855.94,855.78,857.36,861.03,864.12,865.43,866.00,866.29,866.26,865.95,865.65,865.38,864.95,863.76,862.25,860.65,858.98,857.02,855.99,856.67,858.72,860.61,862.68,864.70,865.73,864.67,863.18,861.63,860.36,859.48,858.65,857.85,857.12,856.48,855.99,855.94,856.20,856.29,855.85,855.06,854.18,853.55,853.32,853.55,853.98,854.01,853.69,853.10,851.83,850.48,848.89,847.64,848.97,849.74,849.45,848.33,846.96,846.19,846.40,846.82,846.73,846.15,846.37,847.68,849.61,850.56,851.17,851.72,852.47,853.61,854.79,856.01,857.22,858.20,858.45,858.24,856.72,854.24,851.96,850.37,849.97,850.54,851.89,853.26,853.86,853.40,852.09,850.84,849.75,848.31,846.49,844.45,842.38,840.57,839.13,838.34,838.78,840.12,842.33,844.78,846.12,847.25,848.26,849.00,849.20,848.92,849.50,850.53,851.63,852.25,851.51,850.27,848.61,846.33,844.76,844.23,843.84,843.05,841.93,840.21,838.85,838.48,839.94,843.14,845.29,846.55,847.63,848.88,850.15,851.52,852.99,854.33,854.73,854.74,854.50,853.82,852.85,852.26,851.88,851.39,850.23,847.31,845.06,844.23,844.65,846.46,848.81,850.57,850.91,850.88,850.54,850.29,850.37,850.98,851.70,851.69,851.15,850.72,850.58,850.61,850.55,850.31,850.00,849.56,848.84,847.85,846.80,845.74,843.37,840.23,836.98,833.10,831.00,829.98,829.51,829.07,828.89,828.85,829.26,830.75,832.39,834.22,835.05,833.94,831.59,829.08,827.32,826.88
871.79,870.49,868.79,866.76,864.48,861.90,858.90,856.23,854.26,853.58,855.12,856.50,858.27,860.01,860.88,861.75,863.06,864.30,864.84,863.93,862.81,860.99,859.09,859.05,860.64,863.36,865.92,867.40,869.21,870.27,870.86,870.97,870.20,868.34,866.20,864.50,864.21,865.84,868.55,870.95,871.96,871.15,870.05,869.16,868.49,867.88,867.51,867.18,866.68,865.64,863.48,859.94,854.98,849.09,844.39,841.04,842.08,846.43,851.18,854.15,856.08,857.33,857.92,858.11,858.65,859.69,860.77,860.71,859.41,858.05,858.01,860.48,863.42,865.02,865.93,866.46,866.41,865.88,865.45,865.05,864.18,862.65,861.23,860.00,858.80,857.23,856.52,856.96,858.32,859.87,861.80,864.23,865.72,864.58,862.97,861.34,860.07,859.26,858.52,857.86,857.42,857.26,857.47,857.68,857.69,857.17,855.97,854.98,854.40,854.28,854.44,854.44,854.46,854.10,853.58,853.06,851.88,850.65,849.17,848.13,850.08,851.46,851.49,850.50,849.32,848.46,848.64,848.79,847.88,846.22,846.86,848.78,850.89,851.77,852.34,852.88,853.38,853.92,855.14,856.45,857.77,858.93,859.33,859.30,858.28,856.43,854.36,852.63,851.80,851.93,852.97,854.10,854.45,853.73,852.12,850.60,849.02,847.30,845.46,843.60,841.65,840.12,839.07,838.64,839.14,840.34,842.57,845.41,847.69,848.99,849.98,850.71,850.95,850.49,850.78,851.58,852.50,852.85,851.74,850.10,848.28,846.55,846.07,846.38,846.34,845.32,843.59,841.23,839.36,838.59,839.61,842.03,844.15,845.72,846.88,848.31,849.90,851.57,853.25,854.66,855.09,855.14,854.96,854.43,853.68,852.98,852.21,851.14,849.56,846.72,844.88,844.44,844.71,846.18,848.59,850.71,851.41,851.61,851.51,851.39,851.44,851.73,851.97,851.80,851.37,851.05,850.86,850.72,850.54,850.22,849.83,849.18,848.31,847.30,846.22,844.71,841.78,838.24,834.93,831.16,829.95,829.83,829.92,829.96,830.20,830.72,831.66,833.23,834.80,836.22,836.32,834.31,831.67,829.07,827.23,826.67
871.75,870.39,868.55,866.37,864.04,861.65,859.32,857.24,855.48,854.70,856.42,858.26,860.23,861.86,862.50,863.32,864.54,865.84,866.72,866.38,865.64,863.68,861.06,859.84,860.67,862.84,865.19,866.97,869.03,870.31,871.05,871.24,870.46,868.78,866.69,864.93,864.65,866.27,868.94,871.33,872.34,871.29,870.07,869.16,868.51,867.83,867.24,866.63,865.98,865.08,862.87,858.92,853.81,848.26,844.05,840.99,842.38,847.04,851.88,855.38,857.84,859.40,860.02,860.20,860.72,861.53,862.32,862.43,861.82,860.86,860.12,860.41,862.57,864.31,865.63,866.51,866.53,865.74,865.08,864.37,862.79,861.08,860.01,859.28,858.50,857.38,857.24,857.46,857.91,859.05,860.70,863.56,865.73,864.87,863.34,861.84,860.62,859.80,859.32,858.87,858.63,858.75,859.36,859.57,858.92,857.53,855.75,855.04,855.14,855.63,855.94,855.16,854.61,853.97,853.22,852.38,851.33,850.36,849.35,848.91,851.01,853.06,853.72,853.18,852.39,851.80,851.85,851.54,849.89,847.15,847.66,849.73,852.07,853.47,854.17,854.70,854.82,854.27,855.29,856.70,858.20,859.54,860.03,860.07,859.74,858.94,857.41,855.77,854.61,854.21,854.67,855.25,855.14,854.13,852.40,850.63,848.41,846.24,844.27,842.50,840.69,839.66,839.13,839.02,839.45,840.59,842.83,845.85,848.61,850.03,850.96,851.73,852.22,851.90,852.27,853.00,853.63,853.36,851.89,849.85,848.05,847.52,848.47,849.17,848.96,847.48,845.04,842.26,840.08,838.94,839.26,840.68,842.78,844.79,846.21,847.90,849.74,851.63,853.43,854.76,855.20,855.29,855.21,854.88,854.15,853.05,851.79,850.37,848.38,846.03,844.82,844.78,845.09,846.57,848.85,850.88,851.78,852.35,852.39,852.34,852.37,852.43,851.98,851.55,851.20,850.82,850.57,850.29,849.98,849.63,849.12,848.33,847.46,846.53,845.35,843.11,840.09,836.82,833.73,830.87,830.61,831.21,831.75,832.12,832.65,833.63,834.93,836.34,837.82,838.45,837.49,834.66,831.76,828.85,827.24,827.26
871.48,870.13,868.05,865.76,863.44,861.14,859.07,857.22,855.88,855.53,856.96,858.73,860.57,862.22,863.44,864.78,866.02,867.19,868.19,868.59,868.47,866.77,863.94,861.83,861.58,862.96,864.89,866.62,868.60,870.00,871.05,871.61,870.95,869.73,867.81,865.90,865.48,867.62,870.02,871.86,872.52,871.15,869.92,869.00,868.29,867.61,867.02,866.40,865.76,864.80,862.09,858.00,853.01,847.71,843.71,840.93,842.56,847.40,852.42,856.22,858.91,860.67,861.47,861.94,862.59,863.36,864.10,864.48,864.27,863.61,862.81,862.32,863.03,864.20,865.62,866.73,866.13,864.91,863.70,862.49,861.00,859.90,859.17,858.72,858.49,858.17,858.46,858.83,859.09,859.33,860.12,862.90,865.71,865.89,864.50,863.17,862.10,861.27,860.63,860.03,859.84,860.08,860.59,860.59,859.71,858.22,856.64,856.35,857.26,858.05,858.03,856.88,856.02,855.06,853.69,851.87,850.91,849.88,849.27,849.74,851.93,854.22,855.67,856.08,855.45,855.14,854.52,853.16,850.72,847.56,848.27,850.47,852.84,854.74,855.95,856.63,856.61,855.68,855.43,856.62,858.34,859.84,860.36,860.55,860.45,860.06,859.33,858.46,857.65,857.03,856.62,856.01,855.14,853.89,852.29,850.54,848.00,845.58,843.43,841.44,840.03,839.48,839.39,839.64,840.27,841.48,843.64,846.53,849.35,850.75,851.80,852.73,853.39,853.41,853.90,854.56,854.82,853.65,851.86,849.71,848.25,848.90,849.88,850.39,850.02,848.48,846.02,843.29,840.90,839.29,839.16,840.40,842.40,844.59,846.54,848.24,850.04,851.92,853.69,854.86,855.31,855.40,855.29,854.92,853.69,852.32,850.88,849.21,847.10,845.61,845.42,846.23,847.06,848.43,849.94,851.27,852.21,853.05,853.09,852.78,852.38,851.97,851.29,850.77,850.39,849.96,849.58,849.18,848.75,848.30,847.85,847.22,846.42,845.27,843.25,840.92,838.43,835.76,833.08,831.46,831.89,832.96,833.88,834.35,835.33,836.79,838.21,838.89,839.54,839.66,838.40,835.30,831.89,828.65,827.74,828.92
871.11,869.63,867.37,864.98,862.64,860.43,858.53,856.88,856.08,856.43,857.60,858.98,860.49,862.08,863.74,865.43,866.83,868.09,869.25,870.08,870.34,869.17,866.69,863.85,862.83,863.74,865.39,866.81,868.32,869.73,871.00,871.83,871.41,870.46,868.65,866.83,866.71,869.02,871.10,872.39,872.55,870.95,869.74,868.84,868.09,867.38,866.77,866.16,865.39,864.02,860.82,856.70,852.05,847.27,843.52,841.31,843.27,848.13,852.99,856.87,859.65,861.53,862.62,863.46,864.33,865.18,865.94,866.47,866.40,865.84,865.04,864.34,864.33,865.13,866.08,866.49,865.23,863.71,862.20,860.81,859.70,859.24,858.89,858.74,858.90,859.14,859.66,860.20,860.48,860.13,860.27,862.61,865.51,866.59,865.81,864.71,863.69,862.83,862.02,861.24,861.06,861.39,861.75,861.43,860.40,858.96,857.66,857.86,859.05,859.83,859.65,858.51,857.26,855.71,853.70,851.33,850.43,849.52,849.42,850.74,853.03,855.43,857.37,858.41,858.02,857.88,856.55,854.23,851.17,847.83,848.63,850.88,853.27,855.54,857.34,858.30,858.33,857.36,856.16,856.86,858.45,859.99,860.57,860.92,860.92,860.64,860.36,859.99,859.28,858.32,857.19,855.87,854.58,853.24,851.70,849.68,846.82,844.22,842.11,840.50,839.64,839.63,840.07,840.76,841.69,843.04,844.91,847.27,849.87,851.23,852.38,853.50,854.40,854.84,855.40,855.91,855.77,853.85,851.72,849.72,848.78,850.05,850.97,851.15,850.57,849.10,846.72,844.14,841.64,839.66,839.21,840.49,842.59,844.98,847.31,849.08,850.78,852.53,854.16,855.04,855.45,855.50,855.33,854.87,853.15,851.42,849.73,848.09,846.91,846.63,847.28,848.49,849.54,850.59,851.35,852.02,852.82,853.50,853.27,852.65,851.91,851.19,850.40,849.75,849.23,848.71,848.20,847.73,847.27,846.79,846.39,845.87,844.92,843.34,840.99,838.90,836.94,834.81,832.59,832.37,833.34,834.64,835.83,836.58,837.78,839.20,840.35,840.57,840.51,840.26,838.85,835.59,831.86,828.61,828.32,830.30
870.63,868.87,866.47,863.99,861.64,859.53,857.79,856.44,856.34,857.50,858.57,859.34,860.36,861.73,863.37,865.04,866.73,868.37,869.80,870.63,870.96,870.53,868.94,865.63,864.28,865.22,866.85,867.74,868.36,869.63,870.97,871.87,871.76,870.76,868.95,867.52,868.31,870.25,872.03,872.93,872.42,870.72,869.57,868.70,867.91,867.16,866.47,865.76,864.63,862.44,858.86,854.78,850.69,846.82,843.55,842.29,844.71,849.37,853.57,857.34,860.04,861.99,863.46,864.76,865.93,866.95,867.76,868.23,868.08,867.38,866.54,866.06,866.35,867.06,866.94,865.55,863.82,862.20,860.82,859.76,859.25,859.25,859.34,859.53,859.88,860.31,860.77,861.38,861.82,861.39,861.25,862.77,865.06,866.68,867.08,866.26,865.20,864.28,863.37,862.47,862.28,862.68,862.97,862.25,861.05,859.67,858.58,859.25,860.03,860.48,860.45,859.71,857.93,855.53,852.93,850.69,849.85,849.39,849.95,851.92,854.33,856.79,858.73,859.86,859.84,859.71,857.79,854.76,851.34,848.01,848.69,850.89,853.36,855.81,858.18,859.52,859.79,859.06,857.64,857.58,858.57,860.02,860.68,861.22,861.25,860.86,860.47,860.05,858.94,857.44,855.89,854.61,853.41,852.14,850.48,847.77,844.59,841.92,840.20,839.76,839.55,840.15,841.21,842.47,843.76,845.30,846.68,848.11,850.21,851.52,852.73,854.00,855.24,856.12,856.70,856.96,856.44,854.07,851.59,850.00,849.67,850.83,851.88,851.71,850.86,849.51,847.21,844.76,842.23,840.04,839.41,840.83,843.28,845.98,848.39,850.34,851.95,853.49,854.82,855.32,855.64,855.61,855.30,854.72,852.67,850.47,848.50,847.31,848.24,849.45,850.54,851.47,852.23,852.75,852.94,853.15,853.61,853.60,852.83,851.90,851.07,850.27,849.39,848.54,847.77,847.10,846.45,845.96,845.54,845.14,844.75,844.20,842.84,840.78,838.89,837.26,835.71,833.94,832.30,833.51,834.86,836.15,837.45,838.74,839.79,840.53,841.01,841.17,840.79,840.24,838.64,835.33,831.59,828.78,828.85,831.01
870.02,867.80,865.34,862.89,860.56,858.51,857.06,856.94,857.71,858.96,859.98,860.68,861.41,862.27,863.35,864.73,866.37,868.10,869.69,870.80,871.54,871.39,870.09,867.53,865.73,866.63,868.45,869.18,869.09,869.97,871.21,872.15,871.92,870.80,869.05,867.97,869.45,871.46,873.10,873.57,872.44,870.67,869.40,868.35,867.41,866.65,866.02,864.99,863.19,860.14,855.85,851.85,848.35,845.53,843.73,843.60,846.06,850.05,853.71,857.23,859.85,861.91,863.71,865.67,867.32,868.49,869.15,869.36,869.24,868.75,868.17,867.82,867.47,866.94,865.83,864.07,862.26,860.95,860.06,859.63,859.83,860.18,860.64,861.30,862.13,862.69,862.50,862.70,863.25,863.06,862.52,863.02,864.46,866.32,867.51,867.29,866.47,865.49,864.49,863.61,863.53,863.98,864.07,863.16,861.83,860.41,859.37,859.85,860.51,860.92,860.90,860.17,858.31,855.51,852.50,850.22,849.50,849.74,850.86,852.87,855.23,857.72,859.48,860.35,860.38,860.11,857.89,854.47,850.78,848.03,848.64,850.75,853.35,855.95,858.56,860.07,860.45,859.85,858.63,858.09,858.63,860.04,860.76,861.50,861.49,860.86,860.25,859.35,857.91,856.21,854.54,853.26,852.09,850.64,848.46,844.93,842.18,840.55,839.80,839.67,839.67,840.62,842.17,844.04,845.81,847.60,848.81,849.67,851.07,852.37,853.69,854.99,856.20,857.19,857.81,858.11,857.62,855.20,852.73,851.19,850.83,851.77,852.76,852.41,851.45,850.20,848.04,845.44,842.68,840.34,839.73,841.42,844.15,846.94,849.17,850.99,852.73,854.18,855.17,855.57,855.78,855.65,855.14,854.02,851.46,849.43,848.39,848.66,850.28,851.89,853.02,853.68,854.04,854.24,854.25,854.21,854.14,853.45,852.37,851.26,850.23,849.20,848.22,847.26,846.38,845.59,844.45,843.57,842.95,842.54,842.23,841.75,840.74,839.23,837.61,836.08,834.51,833.37,833.42,834.89,836.40,837.77,838.99,840.01,840.85,841.41,841.59,841.20,840.57,839.37,837.35,834.34,831.00,828.84,829.10,831.09
869.15,866.58,864.05,861.63,859.39,857.60,856.97,857.95,859.30,860.49,861.48,862.28,862.87,863.37,863.97,864.93,866.18,867.68,869.35,870.70,871.95,872.05,870.88,869.00,866.96,867.75,869.69,870.52,870.10,870.63,871.69,872.58,872.04,870.77,869.25,868.68,870.70,872.76,874.10,874.13,872.59,870.77,869.31,867.97,866.77,865.92,865.04,863.51,860.96,857.03,852.37,849.07,846.77,845.30,844.83,845.38,847.41,850.40,853.60,856.82,859.51,861.79,863.93,866.38,868.38,869.60,870.03,869.99,869.77,869.31,868.82,868.42,867.48,865.93,864.17,862.44,860.90,860.07,859.69,859.80,860.66,861.59,862.59,863.71,864.85,865.43,864.74,864.45,864.82,864.75,863.89,863.49,864.06,865.87,867.51,867.95,867.53,866.51,865.47,864.77,864.79,865.18,865.03,864.04,862.65,861.22,860.20,860.51,861.10,861.34,861.03,860.11,857.99,854.84,851.71,849.91,849.54,850.38,851.90,853.83,856.04,858.45,860.00,860.60,860.57,860.14,857.59,853.82,850.06,847.94,848.61,850.64,853.26,855.96,858.65,860.30,860.85,860.38,859.38,858.58,858.79,860.09,860.91,861.78,861.71,860.84,859.97,858.50,856.74,854.92,853.21,851.91,850.49,848.67,846.11,842.45,840.70,840.31,840.39,840.18,839.91,840.85,842.61,844.81,847.01,849.15,850.53,851.29,852.17,853.42,854.76,856.05,857.18,858.20,858.84,859.17,858.79,856.64,854.24,852.65,852.16,852.91,853.55,852.89,851.76,850.53,848.48,845.75,842.85,840.47,840.00,841.97,844.93,847.80,849.97,851.65,853.43,854.76,855.45,855.84,855.90,855.65,854.88,853.11,850.38,848.90,848.97,850.50,852.37,853.82,854.71,855.10,855.18,855.19,855.12,854.93,854.44,853.25,851.95,850.67,849.42,848.16,847.04,845.91,844.81,843.75,842.28,841.16,840.42,840.00,839.76,839.41,838.79,837.83,836.49,835.06,833.87,833.60,834.91,836.33,837.87,839.24,840.28,840.98,841.67,842.04,841.88,840.97,839.93,838.08,835.67,832.94,830.19,828.78,829.27,831.03
867.90,865.23,862.55,860.15,858.13,857.00,858.07,859.46,860.78,861.97,862.98,863.90,864.58,865.12,865.64,866.10,866.45,867.29,868.86,870.26,872.03,872.55,871.53,869.62,867.78,868.37,870.17,871.42,871.32,871.71,872.54,873.18,872.20,870.76,869.75,869.99,872.35,874.24,874.91,874.44,872.90,871.09,869.35,867.61,866.02,864.86,863.10,860.82,857.53,852.81,848.57,847.20,847.13,847.45,847.59,848.00,848.86,850.43,853.17,856.13,859.11,861.88,864.37,866.89,868.94,869.99,870.13,869.95,869.30,868.44,867.59,866.84,865.80,864.16,862.37,860.82,860.04,859.80,859.77,860.13,861.48,863.44,865.31,866.83,867.84,868.28,867.60,866.92,866.61,866.33,865.35,864.33,864.12,865.49,867.08,868.21,868.29,867.30,866.34,866.00,866.08,866.20,865.79,864.80,863.49,862.12,861.14,861.63,862.09,861.77,860.70,859.36,856.51,852.91,850.15,849.86,850.25,851.41,853.03,854.94,856.87,859.01,860.37,860.82,860.65,860.10,857.00,852.84,849.35,847.73,848.70,850.70,853.09,855.76,858.41,860.25,861.12,860.87,859.90,859.10,859.16,860.22,861.25,862.09,861.91,860.90,859.71,857.73,855.65,853.67,851.90,850.52,848.41,846.02,843.54,841.15,841.11,841.79,842.17,841.50,840.28,840.71,842.14,844.12,846.63,849.27,851.32,852.66,853.49,854.57,855.79,857.02,858.15,859.16,859.76,860.02,859.71,858.23,855.84,854.19,853.70,854.29,854.19,852.89,851.40,850.07,848.02,845.37,842.58,840.35,840.13,842.37,845.46,848.50,850.89,852.61,854.16,855.22,855.72,856.13,856.01,855.60,854.51,852.06,849.90,849.39,850.31,852.32,854.18,854.94,855.23,855.37,855.43,855.44,855.31,855.02,854.42,853.08,851.59,850.09,848.63,847.26,845.91,844.46,842.89,841.31,839.98,839.08,838.46,838.05,837.85,837.65,837.14,836.32,835.32,834.21,834.27,835.20,836.45,837.78,839.17,840.32,841.12,841.76,842.44,842.38,841.65,840.51,838.77,836.39,833.75,831.18,829.17,828.62,829.40,830.97
866.66,863.92,861.25,858.91,857.52,857.81,859.34,860.71,861.96,863.21,864.47,865.47,866.24,866.88,867.43,867.85,867.99,868.24,868.93,870.13,872.30,873.23,872.38,870.36,868.70,869.19,870.81,872.16,872.58,872.99,873.37,873.39,872.44,871.01,870.70,871.76,873.88,875.09,875.22,874.46,872.94,871.22,869.33,867.29,865.17,863.01,860.25,857.09,853.63,850.26,848.98,849.30,850.22,851.17,851.67,852.62,852.78,852.47,853.01,855.65,858.71,861.75,864.69,867.53,869.32,870.11,870.11,869.65,868.57,867.37,866.25,865.25,863.89,862.24,860.89,860.19,860.23,860.63,860.82,860.93,861.69,863.83,866.32,868.39,869.54,869.86,869.42,868.89,868.42,867.76,866.72,865.48,864.81,865.61,867.13,868.50,868.82,868.01,867.50,867.39,867.44,867.28,866.46,865.46,864.24,863.02,862.22,862.64,862.41,861.46,859.89,857.92,854.98,852.06,850.39,851.17,852.23,853.34,854.56,856.02,857.84,859.59,860.75,861.18,860.72,859.60,855.78,851.45,848.85,848.37,849.40,851.12,853.23,855.62,858.17,860.11,861.27,861.48,860.57,859.71,859.63,860.51,861.57,862.41,862.17,861.07,859.75,857.30,854.69,852.34,850.38,848.49,846.07,844.08,842.91,842.44,843.11,843.93,844.07,842.71,840.99,840.87,841.83,843.55,846.23,849.07,851.26,852.76,853.91,855.21,856.55,857.86,858.99,859.83,860.38,860.54,860.22,859.23,857.04,855.57,855.19,855.63,854.77,853.03,851.13,849.29,847.14,844.75,842.30,840.49,840.82,843.56,846.69,849.42,851.48,853.29,854.62,855.45,855.88,856.30,856.13,855.69,854.57,852.11,850.13,850.26,851.72,853.71,854.91,855.35,855.52,855.63,855.68,855.56,855.35,854.99,854.21,852.69,851.00,849.38,847.89,846.45,844.89,843.17,841.40,839.84,838.62,838.09,837.82,837.50,837.11,836.52,835.94,835.40,834.86,834.57,835.29,836.58,837.89,839.13,840.21,841.11,841.82,842.47,843.00,842.57,841.41,840.06,837.71,835.00,832.43,830.40,829.46,828.92,829.53,831.07
865.42,862.64,860.06,858.04,857.46,859.00,860.56,861.84,863.06,864.37,865.87,866.98,867.85,868.59,869.18,869.66,869.81,869.66,869.51,870.39,872.76,874.00,873.36,871.24,869.76,870.14,871.54,872.90,873.71,874.12,874.07,873.53,872.71,871.59,871.96,873.55,875.15,875.61,875.27,874.34,872.89,871.31,869.35,867.09,864.49,861.28,857.55,853.68,850.51,849.28,850.85,852.43,853.88,855.15,855.91,857.26,856.99,855.19,853.49,855.41,858.39,861.63,864.97,868.14,869.64,870.16,870.07,869.43,868.03,866.57,865.18,863.80,862.10,860.64,859.97,860.29,861.17,862.12,862.45,862.25,862.19,863.87,866.60,869.11,870.46,870.81,870.73,870.48,870.01,869.08,868.05,866.78,865.80,865.96,867.38,868.81,869.27,868.72,868.68,868.75,868.71,868.29,867.13,866.05,864.87,863.83,863.29,863.57,862.55,860.93,858.95,856.48,853.70,851.94,851.68,853.19,854.71,855.65,856.36,857.24,858.84,860.17,861.13,861.50,860.74,858.89,854.47,850.15,848.51,849.16,850.19,851.63,853.53,855.63,858.01,859.95,861.36,862.07,861.36,860.53,860.34,861.05,862.06,862.74,862.38,861.23,859.87,857.06,853.94,851.14,848.85,846.41,844.19,843.15,843.52,844.67,845.62,846.21,845.89,843.90,841.85,841.40,842.03,843.42,845.61,848.50,850.81,852.40,853.88,855.46,857.01,858.45,859.64,860.32,860.85,860.95,860.56,859.91,858.05,856.86,856.65,856.94,855.54,853.53,851.33,849.05,846.79,844.54,842.34,840.87,841.86,845.01,848.09,850.48,852.15,853.92,855.00,855.63,856.03,856.42,856.33,855.91,854.88,852.71,850.84,851.36,853.07,854.75,855.29,855.57,855.75,855.87,855.85,855.60,855.34,854.88,853.85,852.13,850.30,848.63,847.15,845.64,843.86,841.96,840.17,838.86,838.02,837.95,838.04,837.83,837.20,836.18,835.38,834.95,834.80,835.32,836.44,837.84,839.19,840.37,841.20,841.90,842.58,843.22,843.55,842.75,841.21,839.70,837.13,834.36,831.98,830.55,830.27,829.38,829.63,831.18
864.18,861.39,859.05,858.01,858.39,860.11,861.52,862.82,864.12,865.47,866.99,868.39,869.41,870.14,870.74,871.22,871.40,871.28,871.06,871.57,873.62,874.88,874.48,872.47,871.12,871.31,872.45,873.78,874.45,874.60,874.40,873.83,872.96,872.90,873.75,874.99,875.78,875.69,875.07,874.08,872.78,871.40,869.52,867.21,864.36,860.59,856.10,852.06,850.02,851.32,853.28,855.08,856.87,858.55,859.51,860.30,859.90,858.18,855.62,855.72,858.24,861.71,865.25,868.61,869.91,870.24,870.12,869.65,868.24,866.69,864.95,862.77,860.79,860.06,860.38,861.59,863.34,864.54,864.91,864.62,864.04,864.07,866.21,868.78,870.32,871.00,871.38,871.35,870.91,870.21,869.35,868.26,867.14,866.56,867.79,869.12,869.68,869.46,869.67,869.83,869.67,869.06,867.82,866.52,865.25,864.41,864.25,864.32,862.68,860.42,858.07,855.66,853.18,853.02,854.46,856.08,857.52,858.28,858.62,858.89,859.81,860.81,861.50,861.62,860.57,858.05,853.44,849.44,848.47,849.62,850.73,852.13,853.99,856.05,858.06,859.82,861.36,862.49,862.36,861.84,861.66,862.15,863.02,863.08,862.40,861.29,859.93,857.07,853.68,850.38,847.50,844.75,843.92,844.53,846.04,847.41,848.26,848.29,847.33,845.19,842.88,842.73,843.61,844.45,844.41,847.21,849.96,851.82,853.32,855.07,856.82,858.48,859.88,860.58,861.23,861.33,860.81,860.15,858.82,858.10,858.08,858.21,856.87,854.93,852.82,850.64,848.29,845.78,843.25,841.71,843.41,846.55,849.42,851.68,853.35,854.64,855.35,855.83,856.20,856.53,856.70,856.40,855.53,854.00,852.30,852.81,854.16,855.18,855.63,855.90,856.06,856.07,855.83,855.53,855.27,854.66,853.22,851.32,849.54,847.90,846.35,844.73,842.74,840.87,839.35,838.45,838.74,839.25,839.59,839.47,838.72,837.55,836.32,835.35,835.23,836.17,837.48,838.87,840.22,841.35,842.29,843.02,843.60,844.13,844.24,843.04,841.11,839.57,837.85,835.56,833.56,832.44,831.47,829.86,829.63,831.21
863.01,860.30,858.25,858.14,859.27,860.87,862.25,863.65,865.03,866.39,867.81,869.29,870.51,871.43,872.10,872.63,872.90,872.95,872.83,873.00,874.37,875.51,875.59,874.04,873.17,873.20,873.86,874.81,875.33,875.18,874.75,874.23,873.74,874.15,875.07,875.92,876.04,875.52,874.68,873.67,872.53,871.27,869.49,867.20,864.41,861.00,856.48,852.41,850.79,853.16,855.57,857.42,858.98,860.31,861.21,861.88,861.44,859.81,857.35,856.18,858.28,861.82,865.44,868.95,870.11,870.35,870.28,869.95,869.12,867.66,865.59,862.91,860.51,860.14,861.23,863.30,865.50,866.90,867.35,867.04,866.22,865.31,866.02,867.77,869.72,870.69,871.41,871.87,871.89,871.24,870.49,869.51,868.39,867.51,868.30,869.43,870.08,870.11,870.29,870.36,870.13,869.51,868.42,867.11,866.00,865.33,865.18,865.00,863.04,860.41,857.72,855.35,854.05,854.86,856.77,858.36,859.34,859.84,860.05,860.19,860.77,861.60,861.86,861.42,860.16,856.83,852.44,849.26,849.12,850.86,851.95,852.94,854.18,855.68,857.53,859.38,861.08,862.44,863.20,863.15,863.08,863.38,863.71,863.23,862.32,861.23,859.86,856.69,853.05,849.55,846.53,844.28,844.76,846.45,848.34,849.40,849.95,849.70,848.52,846.28,843.82,843.84,845.13,846.36,845.96,846.76,848.79,851.26,852.86,854.61,856.41,858.18,859.73,860.58,861.37,861.69,861.38,860.72,859.82,859.36,859.34,859.37,858.39,856.65,854.54,852.20,849.66,846.92,844.13,842.45,844.30,847.33,850.14,852.49,854.23,855.07,855.43,855.64,855.81,855.98,856.17,856.31,856.14,855.22,853.88,854.08,854.90,855.57,856.03,856.25,856.24,856.02,855.69,855.40,854.98,854.03,852.26,850.41,848.77,847.19,845.51,843.61,841.59,840.00,839.07,839.00,839.55,840.08,840.42,840.38,839.68,838.55,837.19,836.07,836.12,837.24,838.63,840.08,841.47,842.53,843.44,844.27,844.98,845.41,845.24,843.94,841.90,839.89,838.34,836.33,834.47,833.20,831.89,830.15,829.77,831.38
861.88,859.38,857.79,858.44,860.09,861.52,862.93,864.44,865.92,867.30,868.56,869.98,871.34,872.50,873.32,873.95,874.36,874.62,874.71,874.62,875.26,876.17,876.62,875.61,875.26,875.20,875.40,875.91,876.26,875.86,875.30,874.91,874.86,875.44,876.10,876.41,875.97,875.15,874.21,873.22,872.18,871.03,869.35,867.12,864.51,861.71,857.56,853.63,852.21,855.03,857.69,859.42,860.56,861.36,862.13,862.85,862.41,860.90,858.83,856.89,858.55,861.99,865.66,869.19,870.24,870.44,870.45,870.24,870.02,868.68,866.29,863.20,860.56,860.56,862.32,865.07,867.51,869.01,869.52,869.25,868.41,867.13,866.42,866.97,868.90,870.12,871.12,872.08,872.70,872.18,871.50,870.59,869.51,868.53,868.83,869.72,870.42,870.66,870.75,870.66,870.34,869.77,868.88,867.68,866.79,866.24,865.93,865.48,863.37,860.57,857.68,855.41,855.28,856.67,858.58,860.04,860.58,860.88,861.11,861.33,861.72,862.34,862.09,861.03,859.45,855.33,851.48,849.50,850.36,852.63,853.75,854.34,854.83,855.54,857.09,858.94,860.72,862.24,863.86,864.30,864.38,864.49,864.21,863.31,862.24,861.13,859.70,856.16,852.31,848.72,845.82,844.54,846.13,848.43,850.24,850.91,851.07,850.60,849.33,846.98,844.60,844.66,846.24,848.18,848.44,847.07,847.87,850.58,852.31,854.01,855.80,857.63,859.34,860.39,861.34,861.97,862.05,861.46,860.89,860.56,860.45,860.41,859.82,858.38,856.28,853.64,850.88,847.93,844.97,843.16,844.88,847.72,850.54,852.98,854.73,855.23,855.21,855.02,854.84,854.86,855.11,855.83,856.51,856.28,855.36,855.21,855.53,855.99,856.44,856.53,856.30,855.88,855.49,855.14,854.40,853.07,851.08,849.42,847.99,846.50,844.74,842.50,840.59,839.43,839.16,839.84,840.36,840.73,840.94,840.87,840.29,839.23,837.89,836.85,837.22,838.43,839.88,841.37,842.83,843.84,844.80,845.79,846.69,847.03,846.61,845.25,843.10,840.50,838.71,836.80,834.93,833.34,831.82,830.28,830.18,832.13
860.82,858.82,858.20,859.14,860.74,862.29,863.81,865.34,866.87,868.32,869.56,870.66,871.84,873.10,874.29,875.17,875.80,876.32,876.68,876.54,876.80,877.23,877.36,876.65,876.57,876.59,876.74,877.11,877.17,876.84,876.53,876.42,876.43,876.92,876.81,876.13,875.30,874.49,873.66,872.76,871.75,870.69,869.11,867.00,864.53,861.88,858.51,855.17,854.15,857.28,859.48,860.63,861.44,862.21,862.98,863.74,863.38,861.97,860.02,858.22,859.29,862.27,866.08,869.29,870.25,870.47,870.53,870.36,870.10,868.71,865.99,862.31,860.34,861.29,863.60,866.42,868.99,870.38,870.76,870.56,870.14,869.47,868.57,867.88,867.94,869.28,870.51,871.76,872.84,872.97,872.32,871.35,870.27,869.32,869.26,869.90,870.61,871.06,871.18,870.87,870.38,869.81,869.04,868.07,867.26,866.61,866.02,865.36,863.25,860.59,857.99,856.02,855.89,857.35,859.25,860.45,861.18,861.65,862.01,862.30,862.65,862.62,861.90,860.45,857.92,853.29,850.61,850.49,852.76,855.24,856.66,857.33,857.46,857.31,857.76,858.93,860.50,862.18,864.07,864.84,865.06,864.98,864.36,863.42,862.33,861.12,859.41,855.69,851.72,848.08,845.49,845.71,847.86,849.86,851.07,851.78,851.47,850.68,849.17,846.53,845.01,844.76,845.96,848.45,850.28,848.90,848.31,849.42,851.27,852.99,854.72,856.62,858.65,859.96,861.05,862.03,862.67,862.37,861.91,861.52,861.28,861.17,860.72,859.67,857.73,854.79,851.69,848.65,845.74,843.91,845.27,847.92,850.62,852.89,854.36,854.85,854.32,853.41,852.61,852.63,853.42,854.78,856.19,856.86,856.33,856.15,856.33,856.64,856.76,856.44,856.04,855.67,855.19,854.44,853.15,851.45,849.60,848.35,847.10,845.82,844.25,841.74,840.20,839.64,839.82,840.46,841.00,841.37,841.41,840.99,840.38,839.24,838.04,837.41,838.45,839.78,841.26,842.79,844.26,845.36,846.70,848.04,849.08,849.34,848.85,847.11,844.45,841.52,839.03,836.82,834.76,832.84,831.09,830.10,831.35,834.76
859.95,858.36,858.65,859.91,861.50,863.12,864.70,866.25,867.81,869.30,870.48,871.50,872.56,873.73,875.00,876.13,877.04,877.80,878.37,878.36,878.35,878.34,878.21,877.77,877.88,877.97,878.08,878.25,878.18,877.95,877.67,877.33,876.95,876.83,876.23,875.27,874.39,873.71,873.00,872.20,871.30,870.31,868.62,866.51,864.16,861.76,858.93,856.34,855.88,858.94,860.66,861.58,862.32,863.09,863.87,864.67,864.42,863.12,861.16,859.39,860.02,862.57,866.29,869.36,870.29,870.54,870.62,870.38,870.07,868.20,864.95,861.36,860.60,862.08,864.38,866.91,869.46,870.84,871.51,871.73,871.50,871.25,870.50,869.39,868.48,869.08,870.13,871.51,872.97,873.72,873.24,872.24,871.14,870.23,869.91,870.28,870.88,871.37,871.37,870.88,870.30,869.66,868.79,867.82,866.94,866.13,865.32,864.42,862.50,860.18,857.90,856.25,856.37,857.50,858.99,860.35,861.25,862.04,862.62,862.94,863.27,862.70,861.64,859.74,855.95,851.71,850.63,852.10,855.04,857.64,859.10,859.68,859.53,858.84,858.63,859.41,860.96,862.91,864.63,865.33,865.50,865.36,864.64,863.52,862.30,860.93,858.88,855.01,851.06,847.56,845.37,846.74,849.01,850.81,851.85,852.43,851.68,850.47,848.82,846.74,846.60,846.43,846.62,847.83,850.25,850.38,849.59,849.10,850.27,851.91,853.82,855.89,857.94,859.47,860.72,861.90,862.90,863.19,862.94,862.56,862.23,861.96,861.32,860.34,858.45,855.37,852.18,849.15,846.34,844.54,845.54,847.90,850.21,851.95,852.79,852.95,852.29,851.48,851.03,851.57,852.83,854.45,856.05,857.08,857.08,857.01,856.95,856.83,856.60,856.15,855.69,855.17,854.27,853.08,851.54,849.81,848.11,847.11,846.24,845.41,844.30,842.08,840.78,840.47,840.78,841.30,841.78,841.88,841.59,840.95,840.28,839.12,838.28,838.34,839.76,841.31,842.87,844.38,845.76,846.96,848.33,849.57,850.40,850.59,850.04,848.29,845.64,842.67,839.69,837.05,834.63,832.52,831.47,832.05,834.41,837.91
859.28,858.10,859.11,860.68,862.32,863.94,865.56,867.14,868.71,870.19,871.31,872.39,873.41,874.43,875.63,876.94,878.09,879.04,879.71,879.88,879.71,879.41,879.10,878.91,879.11,879.26,879.30,879.26,879.08,878.88,878.41,877.60,876.63,875.77,874.94,874.12,873.35,872.81,872.20,871.52,870.75,869.74,867.88,865.71,863.50,861.38,858.88,857.15,857.35,860.06,861.40,862.37,863.21,863.99,864.79,865.62,865.55,864.44,862.44,860.68,860.97,863.10,866.55,869.46,870.38,870.65,870.72,870.33,869.89,867.47,863.86,860.89,861.44,863.17,865.15,867.22,869.49,870.86,871.96,872.73,872.64,872.70,872.21,871.22,870.01,869.52,870.15,871.51,873.19,874.40,874.14,873.22,872.14,871.29,870.79,870.88,871.28,871.67,871.44,870.83,870.16,869.39,868.30,867.21,866.15,865.10,864.03,862.90,861.31,859.41,857.52,856.41,856.96,857.62,858.46,859.98,861.01,862.16,863.01,863.38,863.61,862.65,861.33,858.96,853.94,850.69,851.32,854.02,857.15,859.72,861.07,861.51,861.20,860.24,859.76,860.41,861.99,864.06,865.36,865.76,865.81,865.66,864.97,863.63,862.20,860.63,858.20,854.19,850.35,847.19,845.61,847.76,849.90,851.58,852.68,852.92,851.79,850.15,848.48,847.45,848.73,848.88,848.00,847.22,849.20,851.22,851.16,849.74,849.72,851.13,853.25,855.44,857.34,859.08,860.47,861.72,862.90,863.85,863.90,863.63,863.23,862.67,861.65,860.53,858.63,855.59,852.45,849.48,846.79,845.02,845.65,847.60,849.38,850.47,850.65,850.39,849.95,849.82,850.29,851.58,853.11,854.66,856.07,857.12,857.62,857.63,857.26,856.64,856.12,855.64,855.10,854.30,852.88,851.30,849.79,848.34,846.99,846.23,845.81,845.47,844.82,843.17,842.02,841.71,841.93,842.25,842.52,842.18,841.52,840.78,840.07,838.94,838.59,839.37,841.09,842.91,844.56,846.00,847.27,848.53,849.71,850.61,851.10,851.14,850.50,848.92,846.58,843.74,840.51,837.40,834.63,832.74,833.08,835.42,838.38,841.12
859.08,858.50,859.64,861.28,862.99,864.66,866.29,867.93,869.47,870.82,871.97,873.10,874.21,875.32,876.48,877.65,878.84,879.74,880.17,880.43,880.33,880.08,879.86,879.81,879.92,880.02,880.00,879.75,879.34,878.65,877.75,876.67,875.47,874.58,873.84,873.11,872.31,871.66,871.17,870.61,869.76,868.42,866.65,864.58,862.44,860.55,858.12,857.31,858.19,860.33,861.73,862.97,864.02,864.86,865.73,866.59,866.87,866.26,864.49,862.99,863.09,864.75,867.58,869.71,870.55,870.84,870.82,870.28,869.22,867.00,864.37,862.64,863.59,865.45,867.32,868.91,870.11,871.15,872.24,873.24,873.80,874.18,873.91,873.07,871.88,871.11,871.38,872.41,873.79,874.78,874.71,874.17,873.44,872.67,872.17,872.00,872.03,872.09,871.66,870.92,870.08,869.09,867.85,866.65,865.34,863.77,862.05,860.88,859.68,858.18,856.92,857.39,858.41,858.84,858.98,859.58,860.69,862.04,863.15,863.72,863.55,862.43,860.91,858.18,852.76,850.88,852.53,855.72,858.91,861.04,862.39,863.00,862.84,861.97,861.77,862.52,863.81,865.07,865.75,866.01,866.03,865.82,865.12,863.79,862.22,860.30,857.39,853.34,849.64,847.18,846.94,849.22,851.16,852.75,853.75,853.22,851.83,850.01,848.53,848.51,850.14,850.64,850.02,848.81,848.47,850.36,852.02,852.35,851.04,851.89,853.57,855.42,857.27,859.22,860.61,861.80,862.97,864.05,864.52,864.51,864.02,862.84,861.51,860.16,858.28,855.54,852.52,849.64,847.03,845.19,845.27,846.57,847.84,848.71,849.04,848.88,849.18,850.04,851.42,853.11,854.33,855.33,856.27,857.20,857.73,857.40,856.69,855.98,855.41,854.61,853.66,852.52,851.04,849.35,848.15,847.54,847.47,847.40,847.24,846.82,846.01,844.73,843.74,843.31,843.23,843.12,842.60,841.88,841.12,840.41,839.76,838.89,838.83,839.97,842.29,844.32,845.98,847.41,848.67,849.79,850.73,851.51,851.94,851.57,850.65,849.06,846.88,844.17,841.19,837.67,835.03,834.75,837.18,839.43,841.52,843.43
859.05,858.93,860.20,861.92,863.68,865.35,867.00,868.64,870.11,871.35,872.50,873.64,874.81,875.99,877.17,878.32,879.39,880.13,880.44,880.74,880.81,880.71,880.54,880.51,880.49,880.40,880.23,879.88,879.22,878.25,877.18,876.07,874.96,874.03,873.22,872.36,871.32,870.30,869.63,868.98,868.03,866.58,864.91,863.04,861.13,859.64,858.39,858.29,859.12,860.56,861.99,863.40,864.66,865.70,866.66,867.53,868.09,868.00,866.77,865.47,865.23,866.33,868.56,870.04,870.82,871.04,870.80,870.17,868.87,867.06,865.27,864.38,865.51,867.32,868.98,870.13,870.75,871.59,872.61,873.65,874.49,874.92,874.83,874.32,873.54,872.99,873.06,873.63,874.43,874.95,874.92,874.60,874.10,873.51,873.06,872.75,872.52,872.26,871.70,870.93,870.00,868.92,867.61,866.32,864.69,862.72,860.69,859.74,858.81,857.60,856.80,858.31,859.56,860.01,859.96,859.99,860.92,862.25,863.45,864.06,863.42,862.03,860.11,857.16,852.56,852.04,853.87,856.80,860.02,862.17,863.64,864.38,864.35,863.77,863.74,864.33,865.16,865.77,866.10,866.30,866.31,865.97,865.16,863.70,861.98,859.79,856.40,852.36,848.84,847.20,848.44,850.50,852.25,853.81,854.68,853.42,851.83,850.03,848.75,849.14,850.85,851.92,851.86,850.60,849.03,849.81,851.74,853.53,853.70,854.78,855.91,857.01,858.25,859.78,860.93,862.01,863.15,864.24,864.86,864.98,864.43,862.95,861.37,859.74,857.75,855.19,852.37,849.64,847.11,845.34,845.49,846.45,847.36,848.02,848.35,848.36,849.07,850.58,852.69,854.55,855.45,856.08,856.75,857.47,857.76,857.14,856.20,855.28,854.21,853.09,851.89,850.62,849.40,848.66,848.29,848.32,848.72,848.85,848.77,848.39,847.59,846.38,845.26,844.49,843.94,843.28,842.30,841.36,840.56,839.94,839.43,838.96,839.10,840.31,843.13,845.40,847.23,848.73,849.88,850.85,851.67,852.39,852.74,851.91,850.80,849.21,847.11,844.52,841.68,837.93,835.63,836.70,839.84,841.97,843.64,845.10
859.13,859.35,860.79,862.59,864.37,866.03,867.73,869.28,870.62,871.77,872.92,874.01,875.19,876.42,877.65,878.88,879.75,880.31,880.63,880.94,881.22,881.27,881.12,881.01,880.81,880.46,880.11,879.75,878.88,877.88,876.88,875.94,875.11,874.15,873.14,872.02,870.63,869.08,867.92,866.89,865.75,864.36,862.79,861.25,859.88,859.04,859.67,860.03,860.27,861.04,862.36,863.76,865.16,866.50,867.54,868.42,869.13,869.46,868.97,867.86,867.26,867.77,869.42,870.45,871.14,871.18,870.63,869.91,868.83,867.50,866.24,865.69,866.89,868.53,869.88,870.72,871.25,872.01,872.95,873.92,874.72,875.03,875.07,874.99,874.83,874.75,874.76,874.85,874.96,874.96,874.83,874.53,874.16,873.81,873.41,873.08,872.68,872.16,871.56,870.81,869.91,868.82,867.50,866.15,864.26,862.09,860.17,859.58,858.78,857.66,857.10,859.02,860.30,860.99,861.22,861.17,861.72,862.83,863.93,864.38,863.26,861.48,859.09,856.15,853.24,853.94,855.43,857.61,860.72,863.25,864.85,865.60,865.66,865.46,865.43,865.66,865.98,866.20,866.44,866.65,866.61,866.11,865.06,863.33,861.41,859.02,855.20,851.26,848.11,847.37,849.88,851.55,853.14,854.71,855.46,853.59,851.81,850.17,849.06,849.32,850.98,852.72,853.38,852.44,850.78,850.00,850.88,853.32,856.69,858.65,859.41,859.67,859.98,860.64,861.41,862.34,863.40,864.45,865.02,865.12,864.58,863.06,861.25,859.33,857.15,854.61,852.04,849.46,847.11,845.65,846.41,847.38,848.12,848.52,848.59,848.63,849.40,851.23,853.79,855.61,856.30,856.83,857.44,857.90,857.76,856.95,855.88,854.62,852.66,851.26,850.06,848.96,848.34,849.20,849.91,850.26,850.38,850.28,850.17,849.92,849.27,847.93,846.43,845.17,844.07,842.85,841.75,840.73,839.94,839.47,839.19,839.20,839.49,840.61,843.75,846.23,848.31,849.93,850.88,851.78,852.58,853.27,853.47,852.22,850.99,849.38,847.32,844.86,841.98,838.18,836.34,838.34,841.05,843.22,844.98,846.32
859.16,859.70,861.33,863.21,865.07,866.85,868.64,869.94,871.00,871.99,873.10,874.18,875.36,876.61,877.89,879.17,879.94,880.41,880.77,881.13,881.45,881.51,881.33,881.04,880.68,880.28,879.91,879.54,878.74,877.78,876.89,876.15,875.48,874.84,874.09,873.02,871.37,869.62,867.77,865.74,863.61,862.11,860.69,859.98,860.04,860.43,861.30,861.69,861.94,862.59,863.52,864.49,865.66,867.06,868.34,869.24,869.80,870.06,869.89,869.39,869.17,869.47,870.31,871.08,871.32,871.04,870.27,869.13,868.61,867.75,866.60,865.79,866.89,868.36,869.61,870.48,871.07,871.70,872.55,873.55,874.49,874.97,875.13,875.15,875.11,875.02,875.04,874.98,874.82,874.69,874.54,874.30,874.01,873.68,873.25,872.84,872.38,871.83,871.25,870.52,869.62,868.53,867.22,865.92,864.23,862.48,861.16,860.71,859.67,858.18,857.29,859.16,860.56,861.69,862.47,862.71,863.06,863.89,864.61,864.58,863.11,860.98,858.67,856.35,854.54,856.02,857.96,859.90,862.02,864.46,865.81,866.36,866.40,866.22,866.18,866.25,866.37,866.54,866.81,866.91,866.77,866.14,864.59,862.65,860.37,857.51,853.65,850.11,848.28,848.53,850.81,852.46,853.99,855.44,856.06,854.00,851.97,850.24,849.15,849.31,850.70,852.67,854.38,854.97,853.41,852.27,852.02,853.02,855.92,858.46,860.04,860.82,861.07,861.43,862.02,862.80,863.73,864.75,865.25,865.30,864.77,863.26,861.15,858.89,856.54,854.09,851.59,849.09,847.32,846.81,848.22,849.64,850.56,850.68,849.88,849.27,850.00,851.85,854.27,855.80,856.70,857.43,858.06,858.32,857.73,856.79,855.63,854.03,851.35,849.81,849.03,848.85,849.46,850.58,851.33,851.66,851.62,851.40,851.20,850.81,850.02,848.63,846.88,845.24,843.79,842.45,841.25,840.25,839.64,839.50,839.63,839.89,840.42,841.74,844.83,847.15,849.08,850.63,851.65,852.65,853.52,854.13,854.11,852.66,851.15,849.40,847.38,845.03,842.02,838.36,836.96,839.50,842.31,844.54,846.29,847.54
859.16,860.06,861.83,863.76,865.66,867.51,869.34,870.49,871.37,872.26,873.27,874.26,875.37,876.58,877.86,879.14,879.91,880.39,880.75,881.07,881.36,881.44,881.26,880.90,880.47,880.04,879.64,879.28,878.64,877.81,877.06,876.45,875.86,875.42,874.92,874.08,872.47,870.63,868.39,865.65,862.64,860.72,859.86,860.07,861.06,862.13,862.97,863.44,863.85,864.47,865.14,865.81,866.70,867.86,869.02,869.79,870.24,870.43,870.45,870.35,870.46,870.73,871.12,871.62,871.38,870.67,869.55,868.04,867.89,867.47,866.63,865.90,866.61,867.82,868.94,869.74,870.34,870.98,871.86,872.92,873.96,874.55,874.80,874.85,874.76,874.60,874.48,874.35,874.20,874.05,873.91,873.75,873.56,873.36,873.01,872.55,872.04,871.48,870.92,870.25,869.37,868.29,867.07,865.88,864.51,863.30,862.53,861.86,860.39,858.57,857.48,859.23,860.79,862.27,863.45,863.97,864.20,864.69,865.02,864.64,862.85,860.49,858.26,856.52,855.86,857.47,859.48,861.46,863.41,865.48,866.50,866.89,866.93,866.74,866.71,866.73,866.80,866.92,867.13,867.08,866.69,865.72,863.82,861.72,859.04,855.72,851.97,849.21,848.70,849.75,851.61,853.26,854.78,856.17,856.67,854.47,852.24,850.41,849.34,849.58,850.73,852.57,854.71,856.45,856.07,855.40,854.56,854.09,855.31,857.75,859.83,861.14,861.62,862.06,862.67,863.35,864.11,864.96,865.39,865.45,864.89,863.18,860.78,858.32,855.89,853.48,851.04,848.66,847.57,848.09,850.09,852.01,853.09,853.09,851.91,850.63,850.96,852.45,854.50,855.88,857.04,857.97,858.54,858.46,857.58,856.58,855.34,853.49,850.60,849.06,848.78,849.48,850.82,852.00,852.72,852.97,852.77,852.29,851.75,851.05,850.06,848.67,846.83,844.97,843.30,841.90,840.69,839.98,839.82,840.22,840.77,841.30,842.03,843.33,845.75,847.77,849.50,850.96,852.11,853.25,854.20,854.75,854.57,853.13,851.50,849.73,847.72,845.20,842.03,838.55,837.53,840.51,843.53,845.81,847.56,848.76
859.15,860.44,862.26,864.18,866.07,867.89,869.66,870.79,871.66,872.49,873.35,874.21,875.22,876.35,877.52,878.73,879.62,880.20,880.52,880.71,880.94,881.05,880.96,880.64,880.26,879.77,879.31,878.97,878.49,877.94,877.36,876.78,876.23,875.77,875.40,874.86,873.62,871.80,869.55,866.61,863.05,860.51,860.64,861.71,862.85,863.79,864.62,865.23,865.77,866.34,866.94,867.55,868.19,868.83,869.43,870.00,870.43,870.69,870.82,870.78,871.00,871.40,871.79,871.99,871.32,870.16,868.63,866.89,866.73,866.66,866.46,866.28,866.29,867.13,867.99,868.53,869.03,869.84,870.91,872.09,873.11,873.65,873.93,873.98,873.77,873.56,873.18,873.04,873.14,873.01,872.91,872.83,872.82,872.88,872.74,872.33,871.77,871.18,870.64,870.08,869.25,868.21,867.16,866.09,865.11,864.42,863.97,862.73,860.70,858.70,857.71,859.33,861.06,862.73,864.08,864.78,864.95,865.04,865.06,864.55,862.44,860.01,857.82,856.50,857.10,858.20,859.71,861.92,864.74,866.22,866.91,867.24,867.32,867.19,867.16,867.24,867.33,867.34,867.36,867.11,866.30,864.74,862.70,860.44,857.39,853.72,850.33,848.79,849.40,850.91,852.41,854.00,855.56,856.94,857.36,855.02,852.69,850.77,849.75,850.28,851.37,852.80,854.56,856.60,858.36,858.87,858.18,856.78,855.81,857.34,859.28,860.80,861.66,862.52,863.30,863.97,864.53,865.05,865.45,865.54,864.85,862.71,860.05,857.54,855.14,852.75,850.39,848.24,847.82,849.25,851.79,854.12,855.26,855.36,854.49,852.76,852.34,853.11,854.66,856.09,857.44,858.44,858.85,858.26,857.32,856.32,854.97,852.99,850.43,849.11,849.36,850.69,852.01,853.28,854.02,854.19,853.77,852.87,851.73,850.57,849.41,848.07,846.31,844.40,842.58,841.14,840.12,840.02,840.62,841.71,842.69,843.53,844.37,845.30,846.40,848.01,849.54,850.91,852.21,853.51,854.53,855.05,854.81,853.59,852.09,850.46,848.42,845.43,842.06,838.79,838.13,841.42,844.66,846.98,848.73,849.91
859.32,860.71,862.47,864.28,866.03,867.68,869.24,870.28,871.00,871.56,872.27,873.50,874.84,876.05,877.03,878.03,878.94,879.69,880.20,880.43,880.66,880.77,880.70,880.43,880.11,879.49,878.85,878.46,878.13,877.77,877.43,877.05,876.56,876.13,875.69,875.08,873.98,872.21,870.04,867.09,863.52,861.53,862.11,863.44,864.71,865.59,866.03,866.18,866.22,866.32,866.55,867.11,867.80,868.38,868.48,869.56,870.35,870.74,871.04,871.18,871.48,871.84,872.12,872.18,871.48,870.48,869.28,867.79,866.73,866.64,866.90,866.77,866.38,866.51,866.76,866.92,867.24,868.18,869.71,871.20,871.75,872.11,872.18,872.08,871.94,871.95,871.79,871.80,871.97,871.96,871.89,871.92,872.06,872.24,872.28,872.13,871.75,871.19,870.69,870.20,869.52,868.68,867.72,866.78,865.98,865.38,864.71,862.97,860.66,858.70,857.91,859.38,861.15,862.99,864.45,865.00,865.13,865.13,864.99,864.27,861.82,859.70,858.10,857.42,858.53,859.78,861.23,863.20,865.61,866.59,867.14,867.50,867.68,867.67,867.63,867.68,867.71,867.57,867.39,866.63,865.26,863.37,861.28,858.33,854.84,851.53,849.78,850.00,851.33,852.71,853.63,855.02,856.58,857.89,858.24,856.30,854.04,851.79,850.54,851.60,853.18,854.98,856.50,857.55,858.56,859.70,859.89,859.04,857.82,858.02,859.31,860.76,861.78,862.80,863.63,864.29,864.82,865.32,865.62,865.51,864.50,861.88,859.08,856.50,854.07,851.77,849.70,848.00,847.99,849.77,852.75,854.97,856.19,856.53,855.97,854.58,853.94,854.44,855.86,857.10,858.24,858.83,858.75,857.93,856.99,856.00,854.56,852.42,850.12,849.49,850.31,851.95,853.35,854.34,854.79,854.63,853.73,852.38,850.97,849.72,848.61,847.28,845.64,843.51,841.43,840.37,840.05,840.93,842.29,843.69,845.17,846.20,846.83,847.15,847.35,848.17,849.32,850.62,852.03,853.48,854.60,855.18,854.98,853.88,852.52,851.10,849.20,845.96,842.08,839.32,839.16,842.23,845.38,847.86,849.49,850.27
859.48,860.76,862.42,864.12,865.71,867.10,868.38,869.41,870.00,870.25,870.88,872.30,873.87,875.28,876.33,877.18,878.02,878.86,879.59,880.00,880.31,880.46,880.40,880.14,879.80,879.11,878.36,877.88,877.62,877.39,877.19,876.99,876.65,876.27,875.77,875.08,873.99,872.26,870.18,867.51,864.47,863.07,863.82,865.24,866.59,867.39,867.47,867.19,866.79,866.44,866.38,866.68,867.24,867.81,867.87,869.21,870.20,870.68,871.15,871.46,871.81,872.15,872.37,872.43,871.86,871.09,870.25,869.14,867.64,867.24,867.50,867.55,867.06,866.77,866.60,866.49,866.60,867.07,868.32,869.64,869.76,869.91,869.89,869.76,869.65,869.93,870.11,870.35,870.65,870.86,870.92,871.08,871.32,871.56,871.71,871.74,871.54,871.11,870.73,870.31,869.77,869.06,868.15,867.22,866.46,865.77,864.78,862.70,860.40,858.71,858.19,859.49,861.30,863.26,864.74,865.09,865.20,865.15,864.89,863.94,861.21,859.46,858.50,858.43,859.72,861.16,862.66,864.36,866.13,866.78,867.25,867.64,867.90,867.98,867.91,867.89,867.83,867.55,867.10,865.85,864.07,861.94,859.51,855.78,852.39,850.24,850.31,851.80,853.51,854.70,855.23,856.28,857.69,858.85,859.17,857.92,855.87,853.40,851.97,853.41,855.32,857.37,858.72,858.98,858.99,860.18,860.93,860.73,859.74,859.15,859.82,861.02,862.03,863.04,863.91,864.59,865.11,865.58,865.75,865.33,863.89,860.88,858.04,855.39,852.90,850.69,849.04,847.96,848.16,849.87,852.92,854.94,856.36,857.23,857.27,856.36,855.80,856.23,857.52,858.37,859.06,859.09,858.50,857.55,856.63,855.59,853.97,851.67,849.91,850.20,851.59,853.30,854.54,855.13,855.23,854.63,853.10,851.44,850.03,848.86,847.82,846.55,844.97,842.80,840.88,840.59,841.11,842.64,844.31,845.70,847.50,848.64,848.99,848.72,848.24,848.49,849.38,850.64,852.09,853.61,854.77,855.30,855.01,853.94,852.69,851.43,849.63,846.26,842.18,839.90,840.19,843.13,846.04,848.53,849.96,850.37
859.57,860.50,861.99,863.62,865.04,866.09,867.03,868.20,868.75,868.72,869.39,870.48,871.97,873.68,875.27,876.13,876.83,877.60,878.48,879.24,879.79,880.04,879.97,879.67,879.19,878.55,877.84,877.25,876.97,876.74,876.54,876.41,876.33,876.01,875.56,874.89,873.67,871.97,870.02,868.01,866.16,865.00,865.67,867.07,868.47,869.15,869.03,868.62,868.09,867.52,867.38,867.09,867.10,867.63,868.37,869.31,870.04,870.57,871.09,871.53,871.93,872.28,872.57,872.82,872.50,871.87,871.14,870.48,869.66,868.64,868.15,868.77,868.64,868.51,868.39,868.26,868.15,867.18,866.85,867.09,867.10,867.08,867.22,867.25,867.10,867.58,868.10,868.62,869.17,869.72,870.07,870.34,870.60,870.87,870.98,871.02,870.93,870.74,870.59,870.31,869.79,869.07,868.17,867.03,866.13,865.24,863.94,861.76,859.90,858.76,858.60,859.78,861.68,863.64,865.00,865.17,865.27,865.18,864.79,863.60,860.72,859.27,858.87,859.22,860.38,861.85,863.42,864.96,866.24,866.78,867.20,867.59,867.89,867.96,867.85,867.73,867.54,867.15,866.30,864.75,862.86,860.58,857.25,852.91,850.59,850.67,852.25,854.00,855.64,856.79,857.26,857.84,858.89,859.76,860.11,859.78,858.12,855.75,854.38,855.91,857.55,859.38,860.62,860.86,860.67,861.13,861.57,861.59,860.89,860.60,860.95,861.68,862.48,863.30,864.23,864.95,865.41,865.78,865.75,864.89,862.94,859.70,856.95,854.27,851.70,849.56,848.55,848.23,848.44,849.50,852.03,853.86,855.74,857.54,858.66,858.19,857.97,858.51,859.52,859.70,859.72,859.14,858.15,857.12,856.23,855.00,853.06,850.67,850.01,851.38,853.25,854.81,855.42,855.53,855.24,854.13,851.84,850.15,849.05,848.11,847.14,846.01,844.42,842.65,841.62,842.58,843.90,845.36,846.57,847.55,849.33,850.48,850.59,849.82,848.90,849.11,850.05,851.31,852.67,854.14,855.21,855.48,854.82,853.69,852.46,851.22,849.41,846.07,842.47,840.49,841.07,844.28,846.81,848.94,850.09,850.30
859.72,860.41,861.47,862.62,863.67,864.53,865.50,866.69,867.17,866.97,867.61,868.61,869.88,871.37,873.00,874.29,875.35,876.26,877.07,877.87,878.53,878.91,879.03,878.92,878.46,877.85,877.18,876.55,876.27,876.07,875.94,875.89,875.90,875.66,875.22,874.44,873.03,871.34,869.68,868.13,866.84,866.14,866.89,868.19,869.63,870.98,870.52,869.58,868.63,867.81,867.21,866.88,867.07,867.79,868.55,869.25,869.90,870.49,870.98,871.41,871.75,872.09,872.47,872.77,872.86,872.70,872.28,871.65,871.00,870.23,869.76,870.02,869.98,869.90,869.81,869.71,869.59,868.93,868.59,868.59,868.58,868.55,868.63,868.62,868.43,868.60,868.67,868.70,868.71,868.74,868.68,868.88,869.29,869.74,869.87,870.01,870.09,870.05,869.97,869.84,869.52,868.94,867.94,866.77,865.70,864.43,862.67,860.69,859.36,858.87,859.34,860.92,862.99,864.41,865.10,865.24,865.29,865.19,864.77,863.57,860.83,859.62,859.39,859.80,860.92,862.29,863.77,865.13,866.16,866.60,866.96,867.28,867.52,867.56,867.47,867.36,867.09,866.36,865.14,863.51,861.60,859.16,855.41,851.95,850.91,852.10,854.14,856.10,857.75,858.83,859.17,859.51,860.10,860.65,860.95,860.74,859.40,857.93,857.42,858.88,860.13,861.48,862.35,862.41,862.15,862.38,862.64,862.66,862.32,862.13,862.22,862.58,863.26,864.05,864.76,865.34,865.73,865.85,865.55,864.10,861.63,858.48,855.61,852.89,850.63,849.32,849.56,849.74,849.41,849.37,851.45,853.60,855.78,857.87,859.41,859.37,859.30,859.59,860.07,860.04,859.74,858.91,857.78,856.75,855.81,853.89,851.85,850.67,851.39,853.10,854.68,855.67,855.79,855.44,854.23,852.42,850.46,849.16,848.25,847.41,846.56,845.84,845.06,844.31,844.02,844.88,846.22,847.65,848.64,849.14,850.38,851.68,851.72,850.55,849.40,849.45,850.44,851.86,853.29,854.72,855.56,855.52,854.55,853.21,851.95,850.69,848.94,845.93,842.77,841.83,843.07,845.96,848.09,849.44,850.07,850.05
860.14,860.90,861.55,862.22,862.88,863.48,864.32,865.27,865.64,865.56,866.26,867.10,868.03,869.15,870.64,872.20,873.64,874.78,875.58,876.38,877.14,877.67,877.97,878.11,877.69,877.11,876.46,875.85,875.58,875.42,875.37,875.38,875.41,875.21,874.69,873.78,872.30,870.72,869.35,868.12,867.13,866.81,867.49,868.56,869.91,871.53,870.91,869.68,868.51,867.61,866.81,866.63,867.01,867.77,868.42,869.09,869.79,870.42,870.84,871.17,871.41,871.71,872.13,872.39,872.78,873.07,873.10,872.69,872.12,871.69,871.41,871.20,871.16,871.10,871.02,870.94,870.87,870.78,870.75,870.73,870.73,870.73,870.72,870.64,870.47,870.33,869.99,869.55,869.04,868.54,868.12,868.16,868.53,868.92,868.94,869.01,869.09,869.10,868.99,868.95,868.88,868.58,867.73,866.64,865.50,864.03,862.06,860.07,859.07,859.13,860.27,862.35,864.31,865.10,865.20,865.31,865.31,865.19,864.79,863.73,861.44,860.36,860.05,860.31,861.31,862.49,863.79,865.01,865.91,866.31,866.63,866.87,867.03,867.03,867.00,866.88,866.45,865.37,863.88,862.19,860.20,857.54,853.79,851.76,851.97,853.77,855.94,857.99,859.57,860.54,860.83,861.07,861.31,861.61,861.83,861.48,860.41,859.86,860.27,861.73,862.63,863.50,863.98,863.85,863.54,863.62,863.66,863.58,863.48,863.38,863.34,863.51,864.06,864.79,865.27,865.67,865.95,865.75,865.04,863.08,860.21,857.09,854.10,851.47,849.89,849.92,851.25,851.70,850.67,849.44,850.93,853.39,855.85,858.08,859.82,860.09,860.13,860.16,860.20,860.08,859.60,858.63,857.44,856.38,855.28,852.94,851.21,851.46,853.13,854.78,855.83,856.16,855.79,854.85,852.82,850.62,849.21,848.31,847.59,846.95,846.41,846.18,846.22,846.36,846.57,847.02,848.14,849.59,850.56,850.80,851.52,852.81,852.79,851.34,849.86,849.66,850.64,852.17,853.73,855.17,855.76,855.42,854.21,852.71,851.38,850.03,848.31,845.76,843.37,843.67,845.54,847.79,849.30,849.88,850.00,849.63
861.25,862.75,863.32,863.75,864.06,864.12,864.24,864.29,864.55,865.22,866.26,866.57,866.96,867.72,868.93,870.07,871.55,872.98,874.08,875.00,875.94,876.62,877.04,877.31,876.96,876.39,875.77,875.20,874.93,874.85,874.87,874.91,874.84,874.54,873.81,872.76,871.59,870.35,869.19,868.08,867.14,866.84,866.94,867.55,868.39,868.73,868.50,867.92,867.25,866.73,866.68,866.73,866.81,867.05,867.73,868.82,869.75,870.39,870.70,870.80,870.89,871.11,871.44,871.47,871.73,872.26,872.94,873.49,873.13,872.73,872.43,872.16,872.08,872.00,871.93,871.85,871.77,871.70,871.62,871.58,871.58,871.58,871.53,871.48,871.44,871.41,871.29,871.05,870.68,870.29,870.05,869.86,869.61,869.22,868.79,868.24,867.86,867.71,867.47,867.36,867.49,867.73,867.73,866.87,865.96,864.95,863.42,860.72,859.48,859.79,861.46,863.87,864.95,865.30,865.38,865.44,865.33,865.19,864.88,864.19,862.88,861.75,861.01,860.79,861.39,862.21,863.30,864.43,865.35,865.89,866.20,866.37,866.45,866.46,866.50,866.24,865.52,864.16,862.59,860.83,858.47,855.40,852.42,852.14,853.38,855.34,857.53,859.42,860.67,861.48,861.98,862.24,862.52,862.79,862.88,862.32,861.40,861.29,862.18,863.88,864.68,865.22,865.47,865.32,864.85,864.54,864.24,863.95,863.77,863.83,864.02,864.30,864.67,865.12,865.53,865.83,865.88,865.31,863.92,861.71,858.78,855.29,852.38,850.14,849.91,852.04,853.62,853.89,852.17,849.84,850.40,852.78,855.49,857.99,859.82,860.15,860.23,860.27,860.25,860.09,859.51,858.48,857.19,855.90,854.48,852.81,852.27,853.55,854.89,855.98,856.42,856.16,855.20,853.29,851.20,849.46,848.40,847.58,847.14,847.08,847.33,847.64,847.87,848.04,848.21,848.50,849.38,850.93,852.23,852.82,853.47,854.22,854.02,852.56,850.30,849.70,850.51,852.01,853.67,855.26,855.67,855.09,853.78,852.30,850.82,849.21,847.41,845.51,844.70,846.27,848.37,849.56,850.00,850.13,849.88,848.93
863.52,864.97,865.56,865.89,865.74,864.90,864.48,864.78,865.04,865.45,867.20,867.64,867.63,867.68,868.14,869.07,870.36,871.58,872.53,873.58,874.94,875.88,876.36,876.66,876.30,875.77,875.24,874.77,874.48,874.36,874.28,874.18,873.96,873.67,872.89,871.83,870.94,870.07,868.98,867.91,867.25,867.37,867.27,867.41,867.72,867.59,867.56,867.38,867.12,866.97,867.09,867.24,867.13,866.92,867.44,868.56,869.60,870.26,870.43,870.39,870.14,869.89,869.78,869.76,870.42,871.29,872.20,873.14,873.53,873.57,873.41,873.13,873.00,872.91,872.83,872.75,872.68,872.57,872.47,872.42,872.41,872.38,872.32,872.21,872.08,871.96,871.82,871.57,871.22,870.89,870.74,870.61,870.40,869.99,869.53,868.87,868.13,867.38,866.65,866.14,866.23,866.70,867.02,866.66,866.16,865.48,864.20,861.40,859.91,860.34,862.35,864.56,865.29,865.49,865.53,865.48,865.30,865.17,864.92,864.37,863.36,862.28,861.35,860.76,860.86,861.56,862.53,863.50,864.25,864.71,864.99,865.16,865.23,865.16,865.06,864.56,863.59,862.10,860.24,858.19,855.94,853.75,852.63,853.20,854.68,856.66,858.82,860.46,861.53,862.33,862.96,863.33,863.65,863.87,863.85,863.35,862.61,862.85,863.90,865.16,865.70,866.00,866.11,865.98,865.63,865.28,864.84,864.36,864.07,863.94,864.01,864.15,864.31,864.84,865.15,865.21,864.93,864.09,862.52,860.15,857.08,853.56,850.89,849.98,851.46,854.99,856.77,856.47,854.11,851.15,850.75,852.59,855.16,857.74,859.75,860.15,860.28,860.35,860.31,860.09,859.49,858.26,856.70,855.30,854.03,853.45,853.80,855.06,856.14,856.70,856.56,855.72,854.15,851.78,849.98,848.76,847.98,847.76,847.82,848.13,848.64,849.16,849.51,849.75,849.90,850.04,850.82,852.43,853.85,854.48,854.96,855.31,854.97,853.57,850.97,849.94,850.53,851.98,853.67,855.37,855.66,854.92,853.53,852.10,850.67,849.10,847.49,846.23,846.26,847.89,849.52,850.07,850.22,850.16,849.49,847.98
866.09,867.31,867.89,868.00,867.21,865.43,865.04,865.94,866.10,865.83,868.22,869.02,868.81,868.23,867.91,868.60,869.58,870.43,871.19,872.55,874.30,875.47,875.95,876.22,875.82,875.32,874.86,874.48,874.16,873.93,873.71,873.42,873.04,872.75,872.03,871.10,870.43,869.86,868.79,867.83,867.57,868.10,867.99,867.76,867.64,867.60,867.69,867.74,867.78,867.87,867.93,868.01,867.67,867.00,867.02,867.80,868.60,869.05,868.87,868.63,868.10,867.49,867.13,867.51,868.84,870.19,871.32,872.42,873.57,874.18,874.27,874.04,873.93,873.83,873.74,873.66,873.58,873.44,873.34,873.25,873.16,872.99,872.81,872.61,872.36,872.17,871.95,871.63,871.22,870.85,870.71,870.74,870.79,870.64,870.35,869.83,868.96,867.75,866.52,865.44,865.21,865.63,866.08,866.20,866.08,865.63,864.46,861.81,860.24,860.90,863.26,864.97,865.53,865.65,865.60,865.44,865.24,865.12,864.88,864.33,863.38,862.40,861.42,860.57,860.22,860.74,861.56,862.33,862.87,863.18,863.40,863.55,863.60,863.40,863.03,862.21,861.00,859.42,857.65,855.83,854.25,853.36,853.94,854.74,856.01,857.79,859.87,861.28,862.32,863.17,863.88,864.35,864.66,864.79,864.71,864.36,863.84,864.28,865.26,865.93,866.25,866.39,866.41,866.31,866.14,865.88,865.42,864.85,864.38,863.96,863.68,863.48,863.39,863.99,864.20,864.02,863.47,862.45,860.85,858.33,855.16,851.91,849.81,850.58,853.64,857.82,859.53,858.78,856.14,852.97,851.89,852.86,854.95,857.45,859.64,860.13,860.33,860.41,860.36,860.11,859.48,858.08,856.31,854.87,854.05,854.53,855.48,856.34,857.00,857.00,856.36,855.04,852.88,850.47,849.08,848.35,847.88,848.30,848.87,849.43,850.00,850.64,851.10,851.43,851.62,851.64,852.25,853.78,855.21,855.85,856.18,856.15,855.62,854.28,851.63,850.35,850.71,852.04,853.75,855.53,855.71,854.87,853.44,852.07,850.76,849.36,848.03,847.26,847.57,848.75,849.73,849.90,850.03,849.83,848.76,846.81
868.29,869.64,869.97,869.26,867.38,864.93,866.25,867.55,867.14,866.01,868.40,869.49,869.52,869.00,868.41,868.52,869.06,869.68,870.59,872.89,874.71,875.74,876.15,876.29,875.82,875.26,874.77,874.34,874.02,873.65,873.25,872.83,872.39,871.97,871.47,870.92,870.39,869.81,868.75,868.13,868.50,868.92,868.96,868.65,868.52,869.41,869.60,869.65,869.68,869.65,869.55,869.17,868.31,866.99,865.69,865.23,864.93,864.33,863.06,862.33,861.93,861.80,862.32,864.41,866.66,868.81,870.66,871.84,873.19,874.22,874.76,874.77,874.89,874.79,874.64,874.57,874.49,874.35,874.24,874.07,873.62,872.92,872.31,871.95,871.89,871.89,871.70,871.31,870.70,870.03,869.74,869.90,870.18,870.26,870.29,870.18,869.88,869.19,867.81,865.98,864.85,864.64,865.22,865.37,865.36,864.92,863.62,861.31,860.24,861.65,864.57,865.45,865.76,865.66,865.40,865.21,865.14,865.02,864.65,863.93,863.05,862.16,861.28,860.47,859.95,859.83,860.27,860.85,861.19,861.40,861.48,861.47,861.33,860.96,860.16,858.90,857.31,855.74,855.60,856.05,856.46,856.68,857.03,857.14,857.56,858.57,860.41,861.89,863.13,864.12,864.78,865.21,865.36,865.37,865.28,865.13,864.90,865.14,865.67,866.07,866.43,866.63,866.65,866.51,866.36,866.17,865.94,865.52,864.68,864.07,863.14,862.21,861.78,862.05,862.10,861.89,861.37,860.37,858.62,855.91,852.84,850.50,849.83,852.33,856.07,859.30,860.02,859.75,857.91,855.40,854.61,854.13,855.13,857.18,859.42,860.09,860.36,860.47,860.43,860.16,859.41,858.09,856.49,855.16,855.19,856.10,857.08,857.57,857.19,856.48,855.57,854.11,851.41,849.74,848.80,848.35,848.40,848.99,849.73,850.43,851.09,851.91,852.53,853.05,853.38,853.37,853.43,854.43,855.72,856.69,857.07,856.51,855.57,854.22,851.99,851.05,851.28,852.34,854.01,855.88,855.91,854.97,853.63,852.37,851.15,850.00,848.93,848.08,847.78,848.26,848.80,848.95,849.03,848.55,847.20,845.18
869.66,870.92,871.24,870.56,869.00,867.26,868.40,869.29,868.69,867.24,867.97,869.37,869.87,869.51,868.90,868.67,869.23,870.45,872.25,874.25,875.75,876.61,876.96,877.10,876.62,875.82,875.03,874.47,874.11,873.68,873.17,872.58,871.95,871.53,871.24,870.96,870.52,870.01,869.33,869.02,869.41,869.90,870.17,870.11,870.13,871.06,871.32,871.36,871.28,871.03,870.69,869.86,868.53,866.73,864.82,863.39,862.23,861.11,859.89,859.13,859.06,859.50,860.63,863.16,865.60,867.94,870.02,871.43,872.91,874.23,875.08,875.21,875.35,875.28,875.20,875.18,875.10,874.99,874.71,874.21,873.41,872.43,871.60,871.16,871.19,871.34,871.30,870.97,870.37,869.60,868.95,868.98,869.35,869.58,869.88,870.06,870.09,869.78,868.68,866.90,865.38,864.53,864.57,864.56,864.56,864.26,863.39,862.08,861.53,862.81,865.19,865.80,865.85,865.50,865.03,864.70,864.55,864.36,863.99,863.42,862.73,861.94,861.18,860.52,860.10,859.94,860.08,860.12,859.77,859.38,859.14,858.97,858.81,858.64,858.41,858.14,857.64,856.88,857.22,858.05,858.82,859.30,859.51,859.20,859.01,859.51,861.41,863.03,864.15,864.90,865.38,865.63,865.68,865.64,865.57,865.49,865.40,865.54,865.83,866.15,866.53,866.77,866.84,866.74,866.60,866.41,866.24,865.91,865.04,864.16,862.88,861.54,860.61,860.25,860.10,859.78,859.10,857.88,855.99,853.50,851.13,850.10,850.95,854.27,857.82,859.94,860.25,860.16,859.21,857.85,857.31,856.16,856.03,857.25,859.46,860.13,860.44,860.55,860.44,860.14,859.32,858.28,857.20,856.35,856.78,857.22,857.35,857.03,856.27,855.34,854.25,852.74,850.39,849.19,848.66,848.51,848.70,849.25,850.04,850.98,852.01,852.99,853.87,854.63,855.17,855.26,855.15,855.57,856.48,857.49,857.55,856.71,855.63,854.44,853.02,852.43,852.52,853.22,854.59,856.34,856.13,854.94,853.45,852.15,851.02,849.76,848.55,847.82,847.18,847.20,847.35,847.23,846.98,846.40,845.24,843.56
870.61,871.68,872.14,871.90,871.32,870.78,870.87,871.07,870.50,869.02,867.64,868.95,869.83,869.76,869.37,869.46,870.36,872.29,874.91,876.05,877.12,877.80,878.12,878.30,877.84,876.74,875.54,874.75,874.29,873.79,873.17,872.43,871.61,871.27,871.17,871.05,870.69,870.31,870.12,870.07,870.24,870.87,871.38,871.71,872.01,872.56,872.85,872.87,872.63,872.09,871.41,870.21,868.51,866.41,864.35,862.29,860.52,859.19,858.44,857.84,858.16,859.11,860.61,862.84,865.08,867.33,869.46,871.17,872.74,874.22,875.25,875.46,875.50,875.49,875.52,875.56,875.49,875.41,874.91,874.02,872.93,871.78,870.84,870.32,870.35,870.64,870.80,870.64,870.13,869.32,868.24,868.05,868.42,868.79,869.30,869.65,869.85,869.77,869.11,867.75,866.27,865.02,864.40,864.19,864.14,864.05,863.80,863.62,863.51,864.19,865.49,866.07,865.86,865.28,864.60,864.00,863.65,863.35,863.08,862.79,862.32,861.68,861.11,860.71,860.54,860.65,860.59,860.08,859.00,857.99,857.45,857.17,857.09,857.25,857.88,858.92,859.87,860.13,860.36,860.63,860.94,861.26,861.48,861.02,860.60,860.90,862.77,864.36,865.15,865.51,865.77,865.81,865.81,865.77,865.70,865.62,865.59,865.67,865.88,866.18,866.56,866.84,866.99,866.97,866.84,866.63,866.43,866.14,865.44,864.39,862.98,861.45,860.03,858.92,858.42,857.89,856.99,855.52,853.60,851.60,850.18,850.43,852.51,856.03,858.96,860.13,860.37,860.29,860.13,859.91,859.55,858.31,857.37,857.71,859.68,860.25,860.55,860.63,860.43,860.08,859.29,858.65,858.21,857.91,858.27,857.77,856.68,855.44,854.67,853.79,852.65,851.24,849.69,848.87,848.71,848.82,848.93,849.30,850.04,851.21,852.70,853.90,855.12,856.20,856.98,857.23,857.15,857.10,857.53,858.32,857.89,856.96,855.92,855.01,854.45,854.18,854.17,854.53,855.47,856.75,856.20,854.71,852.97,851.58,850.46,848.92,847.38,846.80,846.07,845.78,845.55,845.02,844.46,843.89,843.10,841.97
871.72,872.67,873.27,873.32,873.03,872.66,872.54,872.68,872.13,870.68,869.10,868.64,868.99,869.49,869.82,872.41,873.95,875.14,876.59,877.51,878.42,879.08,879.42,879.45,878.99,877.83,876.35,875.03,874.34,873.56,872.68,871.81,871.19,871.01,870.99,870.94,870.75,870.44,870.37,870.45,870.71,871.37,872.01,872.68,873.36,873.93,874.26,874.22,873.75,872.79,871.55,870.14,868.45,866.45,864.47,862.48,860.62,858.99,857.78,857.05,857.59,858.75,860.16,862.14,864.26,866.65,869.16,871.11,872.73,874.19,875.22,875.48,875.56,875.58,875.61,875.65,875.58,875.50,874.96,873.98,872.78,871.52,870.32,869.53,869.43,869.85,870.23,870.30,869.89,868.70,867.40,867.14,867.57,868.11,868.70,869.09,869.29,869.25,868.73,867.57,866.58,865.97,865.74,865.62,865.59,865.54,865.43,865.35,865.31,865.52,865.95,866.30,865.91,865.21,864.26,863.11,862.54,862.23,862.03,861.86,861.47,861.22,861.12,861.13,861.16,861.53,861.56,861.17,860.44,859.78,859.48,859.34,859.30,859.45,859.70,860.20,860.76,861.11,861.52,861.77,862.05,862.45,862.78,862.77,863.10,863.80,864.52,865.23,865.62,865.81,865.93,865.95,865.95,865.90,865.82,865.69,865.62,865.66,865.81,866.08,866.45,866.76,867.00,867.11,867.02,866.82,866.57,866.30,865.95,865.27,863.93,862.36,860.87,859.13,857.75,856.72,855.86,854.68,853.08,851.71,851.00,851.56,853.55,856.63,859.14,860.16,860.42,860.48,860.44,860.33,860.04,859.26,858.84,859.13,860.10,860.50,860.69,860.64,860.36,860.00,859.65,859.44,859.30,859.07,858.45,856.95,855.13,853.53,852.66,851.80,850.97,850.13,849.28,849.10,849.24,849.40,849.38,849.40,850.00,851.15,852.76,854.55,856.27,857.79,858.86,859.13,859.13,859.10,859.18,859.25,858.56,857.72,856.94,856.34,856.04,856.03,856.09,856.39,856.98,856.78,855.59,853.91,852.09,850.64,849.37,847.65,845.88,845.03,844.56,844.05,843.34,842.52,842.30,841.76,841.10,840.42
872.68,873.56,874.22,874.44,874.36,874.13,874.02,874.11,873.76,872.82,871.81,871.04,871.20,871.78,872.31,874.97,876.44,877.27,878.07,878.82,879.44,879.87,880.06,879.94,879.28,878.00,876.40,874.88,873.97,873.02,872.04,871.18,870.85,870.79,870.79,870.78,870.71,870.53,870.57,870.78,871.19,871.86,872.55,873.33,874.12,874.70,875.02,874.95,874.36,873.06,871.49,869.88,868.14,866.25,864.40,862.53,860.65,858.81,857.18,856.33,857.16,858.54,859.81,861.72,864.15,866.87,869.47,871.22,872.80,874.14,875.09,875.43,875.55,875.59,875.63,875.68,875.61,875.51,874.89,873.82,872.58,871.30,869.98,868.88,868.36,868.77,869.27,869.44,869.00,867.56,866.46,866.36,866.95,867.78,868.57,868.88,868.97,868.93,868.62,867.80,867.20,866.99,867.01,866.99,866.97,866.91,866.81,866.70,866.66,866.56,866.41,866.32,865.85,865.09,863.95,862.36,861.43,861.04,860.90,860.85,860.71,860.75,860.93,861.25,861.75,862.37,862.52,862.29,861.80,861.44,861.21,861.05,860.96,861.02,861.01,861.17,861.46,861.79,862.26,862.56,862.92,863.43,863.92,864.17,864.68,865.31,865.45,865.66,865.84,865.98,866.06,866.04,866.01,865.93,865.81,865.68,865.57,865.57,865.70,865.95,866.29,866.61,866.91,867.15,867.16,867.00,866.74,866.46,866.22,865.81,864.79,863.36,861.67,859.70,858.27,857.34,856.65,855.52,854.00,853.09,852.94,853.59,854.99,856.90,858.76,860.08,860.41,860.62,860.67,860.55,860.30,859.86,859.81,860.08,860.49,860.80,860.81,860.61,860.27,859.93,859.80,859.88,860.07,859.97,858.23,855.85,853.50,851.71,850.99,850.39,849.89,849.50,849.20,849.45,850.00,850.32,850.02,849.76,850.34,851.63,853.48,855.51,857.47,858.94,859.80,859.98,860.00,860.00,859.96,859.77,859.21,858.63,858.12,857.70,857.42,857.25,857.06,856.93,856.77,855.63,854.03,852.30,850.63,849.32,848.27,847.33,846.62,846.31,845.97,844.88,843.41,842.05,841.28,840.55,840.04,839.85
873.48,874.30,874.94,875.26,875.36,875.34,875.34,875.35,875.28,875.14,875.07,875.18,875.47,875.79,876.10,876.95,877.84,878.66,879.36,879.88,880.13,880.19,880.10,879.76,878.77,877.32,875.73,874.28,873.20,872.27,871.35,870.61,870.59,870.60,870.60,870.60,870.59,870.57,870.71,871.05,871.62,872.31,873.01,873.71,874.40,874.97,875.20,875.13,874.47,872.94,871.27,869.48,867.63,865.79,864.06,862.28,860.35,858.31,856.41,855.74,857.01,858.67,859.86,861.80,864.80,867.81,870.20,871.45,872.88,874.04,874.84,875.29,875.42,875.49,875.57,875.61,875.53,875.38,874.66,873.52,872.30,871.08,869.74,868.34,867.25,867.46,867.92,868.00,867.36,865.79,865.27,865.66,866.58,867.77,868.86,869.06,868.98,868.92,868.86,868.45,868.14,868.04,868.11,868.19,868.16,868.05,867.87,867.69,867.54,867.24,866.74,866.13,865.58,864.79,863.52,861.64,860.28,859.72,859.60,859.74,859.96,860.24,860.58,861.16,862.27,863.11,863.44,863.35,862.96,862.74,862.40,862.09,861.90,861.82,861.75,861.85,862.09,862.42,862.80,863.18,863.65,864.24,864.86,865.16,865.39,865.58,865.66,865.75,865.87,866.00,866.10,866.05,865.96,865.80,865.58,865.46,865.30,865.31,865.46,865.73,866.11,866.44,866.77,867.10,867.25,867.17,866.94,866.63,866.32,865.99,865.43,864.27,862.29,860.45,859.60,859.19,858.72,857.50,855.90,855.29,855.56,856.21,856.84,857.27,858.29,859.94,860.37,860.73,860.87,860.77,860.54,860.30,860.36,860.58,860.82,861.07,860.87,860.50,860.14,859.85,859.74,860.06,860.60,860.57,857.70,854.55,851.90,850.17,849.80,849.60,849.41,849.28,849.36,849.89,850.90,851.53,850.99,850.57,851.19,852.69,854.79,856.72,858.61,859.65,859.98,860.00,860.00,860.00,859.99,859.92,859.65,859.34,859.01,858.65,858.25,857.65,856.96,856.12,854.98,853.50,851.83,850.27,849.01,848.08,847.50,847.90,848.92,849.63,849.30,847.48,845.21,843.17,841.20,840.10,839.80,840.09
874.07,874.80,875.34,875.76,876.02,876.12,876.18,876.19,876.22,876.34,876.61,877.13,877.59,877.88,878.05,878.50,879.09,879.62,880.01,880.25,880.26,880.14,879.76,878.72,877.41,875.88,874.36,873.09,872.16,871.40,870.78,870.39,870.40,870.40,870.40,870.40,870.40,870.40,870.53,870.91,871.62,872.36,873.11,873.83,874.48,874.97,875.18,874.85,873.94,872.41,870.73,868.92,867.04,865.15,863.36,861.57,859.27,856.65,854.68,855.75,857.90,859.93,861.47,863.30,866.30,868.96,870.71,871.70,872.72,873.69,874.43,874.79,874.94,875.03,875.11,875.15,875.06,874.72,873.97,872.95,871.87,870.78,869.42,867.92,866.57,865.96,866.05,865.67,864.39,862.62,863.22,864.89,866.70,868.11,869.37,869.65,869.61,869.58,869.52,869.30,869.16,869.13,869.22,869.34,869.30,869.10,868.77,868.32,867.76,867.11,866.38,865.63,864.74,863.69,862.30,860.40,858.83,857.85,857.61,858.11,858.70,859.45,860.31,861.31,862.53,863.63,864.25,864.43,864.25,864.00,863.49,863.07,862.84,862.62,862.52,862.51,862.64,863.00,863.38,863.77,864.19,864.65,865.09,865.32,865.49,865.62,865.69,865.68,865.70,865.74,865.73,865.65,865.50,865.18,864.73,864.44,864.14,864.25,864.63,865.08,865.94,866.42,866.72,867.00,867.24,867.30,867.13,866.81,866.45,866.09,865.63,864.62,862.79,861.17,860.59,860.34,859.99,859.15,857.70,857.28,857.85,858.68,859.05,859.10,859.37,860.03,860.46,860.89,861.14,861.14,860.92,860.82,860.91,861.05,861.11,861.02,860.71,860.32,859.96,859.72,859.73,860.44,861.16,860.32,856.51,852.92,850.52,849.65,849.59,849.56,849.48,849.43,849.62,850.33,851.80,853.00,852.95,852.75,853.26,854.54,856.31,857.69,859.18,859.90,860.00,860.00,860.00,860.00,859.96,859.74,859.03,858.44,857.92,857.43,856.96,856.26,855.14,853.69,852.14,850.93,849.90,849.24,848.99,848.70,848.52,849.04,850.00,850.62,850.21,848.61,846.44,844.03,841.41,840.15,840.03,840.65
874.57,875.20,875.67,876.12,876.51,876.75,876.92,877.00,877.11,877.31,877.57,877.85,878.08,878.26,878.45,878.94,879.52,879.98,880.19,880.23,879.97,879.57,878.88,877.44,875.85,874.19,872.60,871.32,870.63,870.36,870.25,870.22,870.24,870.24,870.23,870.21,870.21,870.21,870.35,870.75,871.46,872.21,872.96,873.67,874.28,874.69,874.81,874.29,873.25,871.78,870.04,868.18,866.29,864.44,862.57,860.55,857.75,854.82,853.55,855.98,858.73,861.01,862.81,864.62,867.34,869.57,870.90,871.71,872.47,873.28,873.94,874.18,874.31,874.37,874.41,874.41,874.28,873.88,873.22,872.37,871.39,870.24,868.61,866.84,865.36,864.58,864.46,863.72,862.05,860.29,861.57,864.13,866.66,868.30,869.68,870.08,870.11,870.08,870.00,869.88,869.79,869.77,869.81,869.91,869.82,869.57,869.16,868.57,867.77,866.93,866.12,865.31,864.24,863.01,861.60,859.91,858.24,856.51,855.81,856.50,857.36,858.70,860.16,861.62,863.02,864.31,865.00,865.24,865.17,864.95,864.49,864.03,863.66,863.40,863.30,863.21,863.22,863.50,863.85,864.20,864.53,864.84,865.12,865.28,865.37,865.42,865.44,865.31,865.18,865.01,864.74,864.43,863.92,863.28,862.63,862.33,862.31,862.84,863.69,864.55,865.75,866.40,866.73,866.97,867.22,867.32,867.21,866.94,866.55,866.14,865.64,864.68,863.08,861.92,861.52,861.27,860.90,860.32,859.23,858.97,859.50,860.26,860.50,860.43,860.31,860.32,860.69,861.12,861.40,861.47,861.28,861.18,861.17,861.15,861.05,860.78,860.46,860.09,859.72,859.51,859.49,859.98,860.26,858.79,854.81,851.51,849.77,849.66,849.97,849.90,849.73,849.74,850.39,851.57,853.29,854.80,855.38,855.75,856.16,856.93,858.01,858.74,859.61,860.00,860.00,860.00,860.00,860.00,859.85,859.32,858.23,857.29,856.54,855.93,855.29,854.40,853.06,851.53,850.23,849.59,849.31,849.40,849.71,849.67,849.60,850.01,850.75,851.23,850.66,849.20,847.15,844.51,841.35,840.23,840.41,841.25
874.97,875.51,875.94,876.38,876.83,877.24,877.56,877.74,877.90,878.07,878.04,877.50,877.09,877.03,877.41,878.17,879.04,879.71,879.94,879.86,879.28,878.49,877.49,876.02,874.18,872.28,870.45,868.94,868.54,869.04,869.61,869.92,870.00,869.99,869.93,869.87,869.86,869.85,870.10,870.55,871.18,871.88,872.59,873.24,873.81,874.16,874.10,873.51,872.50,871.11,869.24,867.23,865.32,863.54,861.61,859.07,855.76,853.00,853.27,856.34,859.30,861.64,863.50,865.42,867.64,869.50,870.74,871.46,872.17,872.86,873.37,873.51,873.54,873.56,873.53,873.44,873.21,872.90,872.43,871.78,870.84,869.38,867.22,865.02,863.52,863.37,863.28,862.39,860.70,859.15,860.55,863.44,866.36,868.24,869.71,870.24,870.33,870.26,870.16,870.05,869.91,869.78,869.71,869.71,869.57,869.31,868.96,868.40,867.64,866.85,866.07,865.29,864.27,863.02,861.68,860.36,858.63,855.88,854.35,855.01,856.13,858.12,860.17,862.04,863.76,865.12,865.65,865.70,865.63,865.53,865.34,864.90,864.33,864.13,864.03,863.91,863.81,863.88,864.13,864.39,864.61,864.80,865.02,865.13,865.10,865.00,864.90,864.63,864.29,863.83,863.17,862.40,861.25,860.14,859.37,859.34,860.08,861.36,862.86,864.28,865.58,866.36,866.79,867.01,867.17,867.21,867.15,866.99,866.60,866.16,865.52,864.54,863.25,862.72,862.44,862.07,861.55,861.01,860.45,860.29,860.48,860.84,861.01,860.95,860.83,860.81,861.05,861.40,861.64,861.69,861.51,861.30,861.06,860.82,860.60,860.36,860.11,859.77,859.38,859.16,858.86,858.48,857.74,856.00,852.69,850.51,849.72,850.16,850.87,850.53,850.05,850.18,851.73,853.60,855.33,856.80,858.00,859.10,859.42,859.54,859.70,859.81,859.94,860.00,860.00,860.00,860.00,860.00,859.65,858.69,857.40,856.14,855.22,854.53,853.64,852.51,851.23,850.15,849.66,849.77,850.19,850.69,850.99,850.69,850.46,850.74,851.36,851.80,850.99,849.44,847.36,844.61,841.08,840.32,840.87,841.84
875.19,875.69,876.17,876.67,877.12,877.39,877.44,877.45,877.50,877.51,877.22,876.51,875.77,875.46,876.14,877.13,878.22,879.08,879.41,879.01,878.27,877.37,876.22,874.46,872.29,869.87,867.57,865.96,865.90,867.00,868.13,868.79,868.92,868.71,868.47,868.29,868.20,868.15,868.80,869.78,870.73,871.45,872.18,872.78,873.24,873.56,873.30,872.62,871.71,870.50,868.41,866.00,863.75,861.73,859.43,856.07,852.79,851.12,853.18,856.73,859.69,861.95,863.79,865.75,867.68,869.30,870.50,871.21,871.90,872.39,872.66,872.71,872.72,872.72,872.68,872.56,872.24,871.85,871.46,870.94,869.98,867.93,865.51,863.29,861.91,862.17,862.23,861.51,859.92,858.07,859.93,863.03,865.93,867.89,869.60,870.25,870.37,870.25,870.00,869.66,869.31,868.99,868.75,868.72,868.56,868.35,868.18,867.98,867.60,867.00,866.25,865.55,864.69,863.55,862.24,860.79,858.82,855.18,852.99,853.79,855.97,858.53,860.70,862.43,864.02,865.34,865.84,865.89,865.81,865.74,865.60,865.30,864.88,864.55,864.39,864.22,864.04,863.93,863.98,864.13,864.32,864.50,864.60,864.61,864.54,864.43,864.26,863.78,863.25,862.65,861.87,860.89,859.23,857.80,857.25,858.15,859.63,861.33,863.06,864.61,865.68,866.40,866.88,867.12,867.18,867.12,867.04,866.91,866.61,866.21,865.59,864.79,863.97,863.56,863.20,862.75,862.21,861.68,861.27,861.11,861.18,861.42,861.50,861.44,861.35,861.31,861.44,861.71,861.73,861.48,861.14,860.86,860.59,860.32,860.04,859.72,859.46,859.19,858.80,858.18,857.36,856.42,855.23,853.45,851.11,850.07,850.18,851.14,852.08,850.99,850.17,850.74,853.06,854.88,856.49,857.99,859.26,859.87,860.00,860.00,860.00,860.00,860.00,860.00,860.00,860.00,860.00,860.00,859.50,858.17,856.53,855.21,854.20,853.43,852.74,852.11,851.22,850.38,850.05,850.41,851.05,851.71,852.10,851.69,851.56,851.76,852.08,852.07,851.07,849.48,847.35,844.67,842.13,841.03,841.24,842.27
875.34,875.82,876.34,876.85,877.21,877.25,877.04,876.89,876.82,876.70,876.18,875.34,874.39,874.03,875.15,876.31,877.49,878.42,878.73,878.06,877.23,876.24,874.86,872.60,869.92,866.98,864.37,862.98,863.42,864.93,866.38,867.24,867.25,866.88,866.49,866.21,866.13,866.33,867.49,869.00,870.30,871.07,871.75,872.27,872.66,872.97,872.61,871.89,871.01,869.84,867.43,864.61,861.95,859.52,856.82,852.99,850.19,849.78,853.09,856.87,859.82,861.98,863.62,865.36,867.18,868.86,870.19,870.91,871.56,871.86,871.91,871.88,871.88,871.88,871.83,871.68,871.29,870.71,870.15,869.57,868.50,866.08,863.47,861.40,860.52,861.20,861.28,860.48,858.86,857.08,859.48,862.62,865.33,867.38,869.28,870.10,870.29,870.09,869.64,869.08,868.56,868.09,867.70,867.58,867.41,867.26,867.22,867.30,867.23,866.90,866.34,865.76,865.04,863.91,862.48,860.75,858.13,854.03,851.71,852.85,855.81,858.76,860.96,862.54,864.04,865.39,865.93,866.01,865.97,865.89,865.75,865.55,865.24,864.73,864.51,864.34,864.14,863.93,863.81,863.83,863.94,864.07,864.05,863.99,863.91,863.80,863.54,862.89,862.22,861.41,860.29,858.85,856.89,855.73,856.00,857.77,859.76,861.66,863.43,864.98,865.88,866.50,866.95,867.20,867.20,867.06,866.92,866.80,866.57,866.21,865.67,865.11,864.66,864.28,863.86,863.38,862.88,862.37,862.01,861.82,861.81,861.97,861.96,861.89,861.83,861.78,861.82,861.87,861.65,861.19,860.74,860.36,860.03,859.68,859.28,858.89,858.61,858.36,858.03,857.37,856.27,855.03,853.54,851.59,850.12,850.12,851.02,852.33,853.34,851.94,851.18,852.07,854.27,855.70,857.06,858.47,859.66,859.96,860.00,860.00,860.00,860.00,860.00,860.00,860.00,859.99,859.93,859.73,859.00,857.50,855.78,854.64,853.83,853.20,852.76,852.54,851.99,851.37,851.18,851.65,852.30,852.87,853.11,852.70,852.66,852.81,852.81,852.23,851.09,849.35,847.10,844.62,843.01,841.71,841.59,842.58
875.42,875.94,876.42,876.84,877.01,876.76,876.47,876.24,876.09,875.88,875.22,874.03,873.01,872.95,874.66,875.91,877.03,877.82,877.95,877.14,876.26,875.09,873.28,870.30,866.91,863.54,860.98,860.24,861.40,863.08,864.53,865.28,864.95,864.49,864.07,863.77,863.84,864.78,866.50,868.38,869.95,870.78,871.28,871.69,872.08,872.39,872.12,871.44,870.49,869.06,866.20,863.06,859.99,857.06,854.00,850.36,848.56,849.34,852.96,856.60,859.53,861.58,862.75,863.91,865.84,867.95,869.73,870.54,871.09,871.25,871.16,871.03,871.00,871.00,870.93,870.72,870.30,869.36,868.39,867.44,866.16,863.80,861.01,859.21,859.38,860.51,860.37,859.04,857.14,856.30,859.20,862.13,864.51,866.71,868.67,869.75,870.06,869.71,869.08,868.42,867.82,867.29,866.79,866.48,866.27,866.16,866.19,866.32,866.35,866.32,866.20,865.76,865.10,863.77,862.01,859.88,856.10,852.17,850.55,852.23,855.28,858.36,860.60,862.21,863.87,865.38,866.00,866.12,866.15,866.09,865.95,865.72,865.31,864.62,864.33,864.20,864.08,863.91,863.71,863.59,863.52,863.47,863.40,863.33,863.25,863.11,862.72,862.02,861.25,860.07,858.09,855.76,853.93,853.92,855.80,858.06,860.17,862.03,863.71,865.18,866.11,866.64,867.01,867.25,867.20,867.01,866.83,866.67,866.48,866.13,865.71,865.33,865.06,864.76,864.38,863.99,863.58,863.12,862.74,862.50,862.42,862.48,862.37,862.28,862.22,862.20,862.13,861.83,861.41,860.94,860.47,859.97,859.45,858.90,858.30,857.88,857.55,857.23,857.01,857.00,856.14,854.91,853.19,850.79,849.90,850.76,852.26,853.65,854.58,853.80,853.68,854.60,855.37,856.08,857.03,858.15,859.18,859.85,860.00,860.00,860.00,860.00,860.00,860.00,860.00,859.96,859.71,859.02,857.95,856.59,855.29,854.63,854.37,854.26,854.00,853.77,853.34,852.98,853.12,853.66,854.13,854.25,854.00,853.69,853.69,853.77,853.51,852.33,851.09,849.02,846.57,844.37,843.18,842.12,841.95,842.74
875.53,876.02,876.53,876.77,876.70,876.36,876.05,875.77,875.44,874.87,873.55,872.00,871.41,872.07,873.97,875.41,876.55,877.28,877.33,876.47,875.37,873.62,871.08,867.80,864.23,861.07,858.92,858.55,860.09,861.84,863.10,863.53,862.99,862.29,861.67,861.36,861.82,863.26,865.26,867.41,869.31,870.28,870.74,871.11,871.49,871.78,871.61,871.03,869.97,868.10,865.20,862.10,858.88,855.54,852.24,848.38,847.44,849.45,853.07,856.12,858.24,859.67,860.63,861.62,863.44,865.73,868.05,869.66,870.39,870.55,870.31,869.81,869.71,869.64,869.39,868.90,868.24,867.11,866.22,865.44,864.11,861.89,858.82,857.07,857.94,858.78,858.27,856.72,855.25,856.37,859.36,861.93,863.97,865.93,867.75,868.88,869.28,868.99,868.44,867.80,867.16,866.55,865.97,865.44,865.08,864.96,865.11,865.38,865.54,865.62,865.55,865.09,864.19,862.67,860.59,857.83,854.04,850.76,849.74,851.62,854.62,857.71,860.18,862.11,863.90,865.41,866.03,866.20,866.30,866.32,866.16,865.85,865.25,864.11,863.33,863.00,862.91,862.80,862.65,862.74,862.81,862.72,862.57,862.48,862.40,862.30,862.11,861.43,860.41,858.14,854.30,852.18,852.08,853.44,855.75,858.12,860.26,862.09,863.73,865.22,866.20,866.70,867.01,867.21,867.15,866.92,866.66,866.41,866.12,865.71,865.20,864.86,864.84,864.68,864.44,864.17,863.91,863.62,863.35,863.15,863.00,862.86,862.68,862.50,862.39,862.33,862.16,861.80,861.34,860.83,860.30,859.66,858.97,858.33,857.79,857.24,856.62,856.09,855.80,855.86,855.54,854.88,853.46,850.90,849.96,851.03,853.02,855.04,856.17,856.16,856.44,857.13,857.36,857.32,857.57,858.12,858.88,859.73,859.98,860.00,860.00,860.00,860.00,860.00,859.94,859.69,859.18,858.39,857.48,856.51,855.59,855.18,855.09,855.12,854.97,854.79,854.53,854.37,854.48,854.82,855.04,855.00,854.71,854.50,854.48,854.42,853.93,852.49,851.04,848.90,846.50,844.42,843.40,842.44,842.31,843.03
875.63,876.09,876.53,876.57,876.31,875.96,875.65,875.26,874.68,873.69,871.88,870.06,870.00,871.39,873.31,874.95,876.11,876.76,876.73,875.84,874.32,871.95,868.87,865.51,861.99,859.14,857.35,857.20,858.92,860.64,861.67,861.79,861.08,860.17,859.33,859.06,860.17,862.03,864.21,866.49,868.55,869.53,869.98,870.39,870.86,871.13,871.10,870.63,869.44,867.19,864.41,861.46,858.16,854.51,850.86,846.55,846.31,849.43,852.87,855.26,856.47,857.22,857.99,858.96,860.78,863.19,865.83,867.93,868.64,868.80,868.54,867.84,867.73,867.61,867.17,866.38,865.57,864.53,863.93,863.47,862.17,859.99,856.76,854.98,856.03,856.45,855.75,854.38,853.70,856.49,859.45,861.70,863.48,865.17,866.83,867.89,868.29,868.10,867.70,867.15,866.51,865.82,865.11,864.38,863.82,863.63,863.90,864.34,864.72,864.91,864.80,864.27,863.10,861.40,859.04,855.75,852.22,849.59,849.07,851.12,854.11,857.21,859.88,862.11,864.03,865.44,866.03,866.24,866.39,866.45,866.27,865.75,864.79,863.27,862.06,861.49,861.38,861.50,861.54,861.89,862.12,861.99,861.69,861.55,861.51,861.53,861.54,860.92,859.25,855.78,850.77,849.32,850.88,853.27,855.65,858.01,860.16,861.98,863.59,865.10,866.16,866.66,866.93,867.10,867.02,866.75,866.41,866.01,865.45,864.77,864.17,863.94,864.23,864.31,864.25,864.13,863.98,863.82,863.67,863.48,863.24,862.95,862.70,862.47,862.32,862.24,862.05,861.75,861.32,860.79,860.23,859.51,858.76,858.17,857.84,857.24,856.38,855.59,855.04,854.78,854.62,854.34,853.32,850.99,850.03,851.16,853.44,855.99,857.40,858.17,858.73,859.14,859.13,858.67,858.35,858.36,858.80,859.69,859.97,860.00,860.00,860.00,860.00,860.00,859.91,859.54,858.84,858.09,857.40,856.78,856.15,855.89,855.85,855.89,855.79,855.65,855.53,855.48,855.49,855.61,855.61,855.49,855.27,855.12,855.07,854.86,854.15,852.51,850.85,848.70,846.44,844.56,843.65,842.85,842.71,843.28
875.69,876.12,876.27,876.11,875.82,875.51,875.25,874.56,873.56,872.27,870.66,868.81,869.17,871.09,872.90,874.65,875.78,876.29,876.08,875.10,872.83,870.03,867.04,863.89,860.61,857.88,856.14,856.01,857.59,859.13,859.99,859.95,859.10,858.07,857.07,857.01,859.20,861.44,863.73,865.91,867.66,868.31,868.72,869.37,870.13,870.43,870.57,870.17,868.92,866.54,864.02,861.22,857.90,854.00,849.71,844.62,844.78,848.74,851.80,853.58,854.21,854.47,854.93,855.97,858.16,860.75,863.13,864.49,864.50,864.59,864.66,864.32,864.38,864.30,863.73,862.75,862.14,861.70,861.60,861.46,860.35,857.90,854.86,852.99,853.21,853.34,852.98,852.58,853.09,856.17,859.10,861.22,862.90,864.57,866.09,866.88,867.15,867.04,866.83,866.39,865.83,865.09,864.10,863.20,862.43,862.07,862.38,863.05,863.85,864.26,864.14,863.54,862.16,860.34,857.86,854.39,851.00,848.67,848.51,850.87,854.02,857.18,859.88,862.16,864.23,865.46,865.97,866.20,866.37,866.34,866.10,865.14,863.49,861.87,860.72,859.92,859.72,860.49,860.92,861.41,861.65,861.42,860.85,860.60,860.67,860.89,860.95,860.43,857.28,852.77,848.89,848.49,850.50,852.98,855.31,857.64,859.82,861.65,863.23,864.68,865.91,866.47,866.72,866.84,866.76,866.45,866.01,865.36,864.22,862.78,862.23,862.45,863.10,863.62,863.83,863.81,863.65,863.50,863.34,863.03,862.67,862.42,862.13,861.93,861.82,861.81,861.77,861.66,861.35,860.86,860.30,859.62,859.11,858.88,858.87,858.48,857.68,856.63,855.47,854.36,853.23,852.53,851.80,850.39,849.97,851.19,853.38,855.87,857.62,859.05,859.78,859.89,859.84,859.74,859.36,859.01,859.13,859.80,859.99,860.00,860.00,860.00,860.00,860.00,859.98,859.84,859.16,858.52,857.93,857.33,856.83,856.60,856.57,856.59,856.45,856.30,856.15,856.06,856.06,856.08,855.99,855.82,855.60,855.44,855.30,854.97,854.07,852.15,850.32,848.19,846.16,844.68,843.96,843.49,843.25,843.34
875.70,876.08,876.08,875.83,875.46,875.01,874.45,873.58,872.47,871.10,869.37,867.48,868.19,870.57,872.50,874.39,875.49,875.88,875.47,874.13,871.74,868.91,865.92,862.88,859.61,856.69,854.72,854.49,855.93,857.33,857.90,857.48,856.60,855.55,855.24,856.30,859.31,861.38,863.51,865.26,866.18,866.65,866.95,867.61,868.49,868.97,869.28,868.94,867.88,866.02,863.63,861.01,857.64,853.31,848.46,842.83,842.30,845.85,849.47,851.35,851.61,851.29,851.38,853.14,855.58,858.08,860.13,860.91,860.45,860.40,860.45,860.04,860.25,860.19,859.55,858.55,858.32,858.27,858.61,858.86,857.88,855.35,852.68,850.86,850.31,849.74,849.38,850.17,852.33,855.31,857.85,859.71,861.32,863.16,865.10,865.93,866.13,866.03,865.83,865.36,864.69,863.85,862.82,861.88,860.88,860.52,861.30,862.14,863.08,863.60,863.53,862.91,861.75,860.09,857.59,853.80,850.19,848.03,848.23,850.93,854.10,857.27,860.06,862.46,864.51,865.57,865.95,866.08,866.07,865.61,864.48,862.91,861.16,859.64,858.51,857.70,857.64,858.87,859.89,860.67,861.08,861.00,860.43,859.59,859.28,859.62,860.13,858.81,855.40,851.17,847.67,846.98,849.43,852.30,854.65,857.00,859.19,861.04,862.60,864.00,865.22,865.87,866.16,866.24,866.16,865.81,865.25,864.35,862.83,861.03,860.70,861.31,862.12,862.92,863.35,863.47,863.37,863.22,862.93,862.53,862.12,861.82,861.58,861.43,861.36,861.36,861.36,861.42,861.31,860.97,860.43,859.92,859.64,859.58,859.64,859.44,858.99,858.11,856.80,855.52,854.22,853.24,852.24,850.78,850.76,852.05,854.04,856.30,858.13,859.44,860.06,860.13,860.06,860.04,859.82,859.58,859.60,859.91,860.00,860.00,860.00,860.00,860.00,860.00,860.00,859.94,859.50,858.99,858.46,857.91,857.52,857.31,857.24,857.21,857.09,856.91,856.76,856.61,856.39,856.20,856.01,855.85,855.71,855.53,855.30,854.81,853.79,851.90,850.03,848.12,846.37,845.08,844.53,844.16,843.89,843.80
875.72,876.03,875.96,875.67,875.26,874.71,873.93,872.96,871.83,870.45,868.62,866.47,867.22,869.87,872.04,874.04,875.15,875.44,874.80,873.05,870.75,868.06,865.14,862.21,858.86,855.55,853.19,852.82,854.19,855.42,855.65,854.84,853.94,852.84,853.24,855.56,859.52,861.43,863.20,864.35,864.50,864.85,865.04,865.61,866.52,867.20,867.66,867.37,866.55,865.35,863.24,860.85,857.43,852.65,847.23,841.12,839.41,841.85,845.81,847.69,847.55,846.68,846.47,849.06,852.34,855.09,856.82,857.18,856.52,856.28,856.08,855.30,855.19,854.96,854.42,853.81,854.07,854.59,855.41,856.06,855.35,852.86,850.17,847.98,846.54,845.49,845.43,847.51,851.20,854.04,856.12,857.70,859.33,861.51,863.88,864.75,864.85,864.63,864.25,863.74,863.05,862.21,861.21,860.13,859.29,859.36,860.58,861.51,862.45,863.00,862.94,862.32,861.47,860.06,857.52,853.34,849.44,847.52,848.13,851.15,854.28,857.44,860.30,862.81,864.84,865.69,865.93,865.85,865.37,864.15,862.07,860.04,858.40,857.09,855.96,855.23,855.36,856.89,858.48,859.58,860.18,860.27,859.87,858.37,857.65,858.13,859.05,856.88,853.69,850.12,846.65,845.13,848.01,851.38,853.83,856.19,858.40,860.26,861.83,863.15,864.33,865.09,865.46,865.48,865.34,864.96,864.30,863.25,861.53,859.52,859.38,860.29,861.27,862.25,862.83,863.09,863.09,862.89,862.48,862.01,861.56,861.19,861.02,860.94,860.90,860.90,860.91,861.09,861.18,861.04,860.60,860.28,860.17,860.18,860.23,860.16,860.06,859.48,858.36,857.28,856.23,855.26,854.11,852.61,852.84,853.96,855.51,857.25,858.83,859.70,860.10,860.19,860.14,860.12,860.07,860.02,860.00,860.01,860.01,860.01,860.01,860.00,860.00,860.00,860.00,859.97,859.76,859.38,858.89,858.41,858.10,857.91,857.78,857.66,857.53,857.31,857.15,856.91,856.47,856.10,855.84,855.71,855.67,855.49,855.18,854.49,853.29,851.54,849.78,848.13,846.67,845.61,845.23,844.87,844.60,844.43
