562.82,563.61,564.29,564.05,563.35,562.67,561.86,561.14,560.25,559.57,560.46,561.95,563.67,565.36,566.82,568.08,569.13,569.75,569.83,569.69,569.27,568.44,567.28,566.09,564.96,564.87,565.55,566.62,567.75,568.76,569.24,568.93,567.78,565.53,563.50,562.49,563.29,565.36,567.96,570.81,573.80,576.76,579.51,582.01,584.31,586.43,587.88,587.64,586.44,585.09,583.91,582.50,580.72,578.72,577.25,577.56,578.16,578.50,578.35,576.75,574.63,572.21,569.37,566.00,562.23,559.07,556.76,555.08,554.78,555.78,557.38,558.87,559.97,560.48,560.17,558.35,553.84,547.73,542.51,539.10,537.92,536.76,535.42,534.26,533.58,533.17,533.27,533.87,534.86,535.86,536.86,537.84,538.80,539.80,541.05,542.16,543.23,544.30,545.33,546.40,547.49,548.60,549.70,550.78,551.87,552.84,553.54,553.87,554.24,554.72,555.38,556.36,558.25,560.23,561.64,562.10,563.01,564.28,565.60,566.87,568.23,569.58,571.34,573.63,576.47,579.22,581.26,582.86,584.27,585.63,587.12,588.72,590.32,591.62,592.59,593.65,594.74,595.58,596.23,596.42,596.48,596.68,597.28,597.94,598.75,599.77,601.06,602.32,603.78,605.13,606.18,607.54,609.09,610.83,612.76,614.80,616.79,618.79,620.66,622.27,623.99,625.19,626.18,627.19,628.32,629.43,630.88,632.62,634.33,635.81,637.37,638.95,640.55,642.41,644.17,645.65,646.88,648.14,649.82,652.08,654.61,656.97,659.10,660.71,662.04,663.23,664.43,665.78,667.14,668.52,670.00,671.43,672.77,674.11,675.48,676.78,678.14,679.82,681.98,684.65,687.36,689.90,692.29,694.62,696.93,699.24,701.55,703.82,706.11,708.36,710.92,713.82,716.83,720.05,723.64,727.31,730.64,733.22,735.67,738.20,740.83,743.51,745.92,748.98,752.91,757.65,762.14,766.57,771.05,775.70,780.57,786.60,791.88,796.14,800.43,805.12,809.94,814.92,820.37,826.88,834.80,843.98,853.45,860.32,866.80,874.62,882.02,885.28,886.77,887.25,887.43,887.93,889.85,893.74,897.96,901.59
562.60,563.37,563.73,563.36,562.64,561.94,561.23,560.42,559.31,558.58,560.14,561.76,563.42,564.99,566.20,567.19,568.10,568.64,568.63,568.39,567.91,567.16,566.17,565.03,563.88,563.42,563.68,564.55,565.51,566.14,566.31,565.80,564.20,561.57,559.60,558.97,560.26,562.78,565.76,568.88,572.03,575.04,577.87,580.42,582.65,584.58,586.19,585.84,584.40,582.93,581.41,579.76,578.01,576.32,575.24,575.66,576.57,577.32,577.17,575.00,572.64,570.06,566.86,563.16,559.45,556.58,554.53,552.76,552.16,552.88,554.43,556.33,558.03,558.68,558.17,556.12,552.08,547.20,542.44,538.75,537.36,535.95,534.49,533.33,532.75,532.56,533.13,534.00,534.95,535.96,536.95,537.95,538.95,540.04,541.40,542.48,543.47,544.45,545.24,546.08,546.93,547.80,548.75,549.79,550.60,551.17,551.53,551.70,552.10,552.83,554.00,555.78,557.70,559.43,560.76,561.62,562.75,564.41,566.16,567.75,569.27,570.73,572.48,574.59,577.04,579.38,581.24,582.69,583.74,584.43,585.60,587.04,588.51,589.70,590.62,591.56,592.44,593.07,593.69,594.00,594.23,594.65,595.57,596.42,597.29,598.32,599.81,601.64,604.01,606.14,607.41,608.73,610.24,611.91,613.71,615.48,617.28,619.15,621.00,622.67,624.38,625.66,626.78,627.93,629.20,630.51,632.19,634.04,635.42,636.79,638.30,639.81,641.17,642.63,644.22,645.83,647.44,649.09,651.00,653.13,655.28,657.14,658.62,659.85,660.91,661.89,663.12,664.49,665.92,667.41,669.09,670.61,672.03,673.45,674.92,676.32,677.80,679.53,681.66,684.32,687.01,689.55,691.96,694.30,696.63,698.96,701.29,703.58,705.83,708.07,710.57,713.34,716.28,719.59,723.31,727.06,730.34,732.86,735.22,737.57,739.96,742.41,744.36,747.71,752.47,757.87,762.59,767.21,771.78,776.30,781.03,787.08,792.35,796.56,800.90,805.73,810.75,815.90,821.40,827.76,835.72,844.66,853.63,860.55,868.02,876.86,885.11,889.18,891.52,892.27,891.76,890.45,890.45,893.94,898.43,902.57
562.50,563.16,563.20,562.85,562.27,561.52,560.82,559.68,558.47,558.07,560.19,561.85,563.22,564.38,565.30,566.23,566.95,567.30,567.15,566.77,566.21,565.63,564.96,563.91,562.77,562.03,561.82,562.26,563.04,563.40,563.38,562.82,561.28,559.35,557.80,557.34,558.82,561.04,563.98,567.24,570.50,573.49,576.35,579.11,581.64,583.54,584.62,584.06,582.63,581.09,579.22,577.19,575.34,573.94,573.28,573.94,575.38,576.72,576.64,574.32,571.77,568.76,564.87,560.75,557.07,553.98,551.60,550.24,549.77,550.13,551.21,552.94,554.42,554.74,553.82,551.71,549.08,545.40,541.30,537.81,536.38,535.07,533.61,532.49,532.19,532.60,533.32,534.21,535.20,536.20,537.16,538.11,539.02,539.92,541.02,541.89,542.65,543.38,544.11,544.84,545.58,546.36,547.29,548.20,548.82,549.23,549.57,549.93,550.71,552.05,553.88,555.71,557.36,559.00,560.49,561.63,562.93,564.76,566.81,568.74,570.22,571.93,573.75,575.61,577.49,579.01,580.36,581.51,582.32,582.81,583.68,584.91,586.30,587.31,588.24,589.10,589.87,590.48,591.11,591.55,592.06,592.92,594.46,596.26,597.70,598.86,600.40,602.94,605.62,607.86,609.34,610.68,612.25,614.00,615.79,617.45,618.94,620.46,622.10,623.95,625.77,627.18,628.20,629.01,630.17,632.08,633.97,635.55,636.77,637.99,639.36,640.79,642.15,643.51,644.98,646.60,648.28,649.79,651.56,653.38,655.05,656.37,657.60,658.70,659.65,660.55,661.82,663.27,664.87,666.56,668.31,669.96,671.44,672.89,674.46,675.92,677.55,679.34,681.38,683.95,686.59,689.00,691.30,693.73,696.16,698.59,700.95,703.21,705.45,707.69,710.03,712.63,715.73,719.03,722.72,726.37,729.46,732.03,734.44,736.69,738.68,740.24,741.97,745.87,751.57,757.74,763.05,767.92,772.39,776.54,781.15,787.21,792.55,796.87,801.34,806.24,811.47,816.82,822.30,828.57,836.92,845.82,854.24,861.61,870.73,880.60,889.20,893.63,896.12,897.19,896.98,895.60,894.49,895.64,898.68,902.78
562.46,562.78,562.61,562.31,561.88,561.25,560.60,559.00,557.56,557.43,559.95,561.56,562.70,563.63,564.42,565.30,565.81,565.89,565.58,565.07,564.49,564.07,563.64,562.69,561.61,560.68,560.10,560.12,560.59,560.74,560.59,560.08,558.92,557.43,556.12,555.75,557.34,559.32,562.15,565.44,568.80,571.91,574.90,577.94,580.76,582.59,583.26,582.54,580.94,578.85,576.74,574.53,572.69,571.58,571.44,572.59,574.45,576.14,576.24,574.02,571.47,568.23,563.87,559.45,555.64,552.29,549.56,548.05,547.42,547.48,548.16,549.43,550.36,550.39,549.41,547.56,545.73,542.84,539.06,535.62,534.41,533.21,532.29,531.84,532.05,532.79,533.57,534.45,535.44,536.36,537.23,538.12,538.98,539.78,540.76,541.60,542.36,543.11,543.92,544.68,545.37,546.05,546.83,547.65,548.34,548.91,549.46,550.21,551.26,553.08,555.47,557.34,558.43,559.58,560.79,561.89,563.19,565.13,567.31,569.38,571.03,572.58,574.05,575.48,576.90,578.04,579.08,580.01,580.75,581.17,581.78,582.73,583.88,584.77,585.81,587.00,588.20,589.20,590.08,590.77,591.66,593.03,594.91,597.03,598.71,600.04,601.68,604.48,607.28,609.59,611.17,612.47,613.95,615.71,617.60,619.22,620.61,621.94,623.42,625.25,627.12,628.76,630.00,630.86,632.00,634.05,635.92,637.31,638.33,639.29,640.51,641.87,643.22,644.51,645.89,647.33,648.75,649.98,651.50,653.00,654.30,655.37,656.49,657.53,658.47,659.42,660.74,662.32,664.04,665.85,667.67,669.40,670.93,672.46,674.12,675.70,677.42,679.23,681.19,683.56,686.09,688.40,690.63,693.09,695.66,698.16,700.55,702.78,704.99,707.20,709.47,711.99,715.19,718.50,722.01,725.45,728.47,731.10,733.34,735.40,737.25,738.72,741.02,745.41,751.47,758.09,763.80,768.83,773.25,777.27,781.82,787.61,792.80,797.15,801.69,806.59,811.95,817.52,823.12,829.24,837.69,846.60,854.93,862.71,872.56,883.08,892.22,897.15,899.81,901.01,901.26,900.62,899.22,898.54,899.74,902.87
562.38,562.26,561.98,561.71,561.40,560.97,560.33,558.27,556.57,556.59,559.35,560.94,561.95,562.79,563.57,564.39,564.65,564.47,563.99,563.38,562.80,562.46,562.17,561.36,560.37,559.31,558.45,558.08,558.20,558.16,557.93,557.50,556.88,555.61,554.39,554.06,555.62,557.48,560.23,563.48,566.92,570.23,573.42,576.69,579.73,581.55,581.96,581.09,579.12,576.27,574.02,571.86,570.18,569.38,569.85,571.55,573.74,575.60,575.92,573.91,571.46,568.13,563.49,558.90,554.90,551.34,548.30,546.22,545.13,544.84,545.13,545.75,546.01,545.85,545.01,543.48,541.76,539.35,535.89,532.68,531.90,530.95,530.89,531.41,532.19,533.03,533.83,534.72,535.68,536.51,537.32,538.17,539.01,539.82,540.82,541.75,542.66,543.58,544.56,545.44,546.14,546.73,547.34,548.08,548.95,549.84,550.71,551.91,553.18,555.29,558.02,559.92,560.38,560.84,561.54,562.40,563.55,565.45,567.59,569.64,571.48,572.60,573.52,574.47,575.56,576.63,577.54,578.38,579.17,579.67,580.13,580.87,581.88,582.89,584.19,585.89,587.70,589.22,590.47,591.46,592.72,594.52,596.48,598.41,600.09,601.59,603.32,605.96,608.62,610.82,612.34,613.50,614.80,616.58,618.68,620.44,621.90,623.19,624.53,626.21,628.08,629.96,631.56,632.81,634.16,636.13,637.88,639.14,639.93,640.62,641.69,642.97,644.22,645.34,646.52,647.66,648.68,649.64,650.94,652.17,653.25,654.28,655.36,656.40,657.44,658.53,659.91,661.60,663.42,665.29,667.17,668.92,670.54,672.18,673.93,675.63,677.38,679.20,681.11,683.26,685.65,687.89,690.05,692.47,695.17,697.71,700.08,702.31,704.49,706.70,709.02,711.63,714.83,718.11,721.39,724.62,727.65,730.36,732.40,734.27,736.16,738.06,741.36,746.19,752.22,759.01,765.07,770.16,774.59,778.66,783.18,788.42,793.24,797.51,802.05,806.84,812.30,818.10,823.89,829.83,838.13,847.08,855.68,863.79,873.63,884.41,894.09,899.46,902.32,903.71,904.64,905.25,904.26,902.59,902.00,903.43
561.91,561.69,561.35,561.04,560.74,560.27,559.13,557.04,555.42,555.41,558.04,559.97,561.16,561.95,562.71,563.36,563.44,563.14,562.59,561.88,561.18,560.66,560.32,559.87,558.88,557.75,556.73,556.03,555.99,555.75,555.37,554.95,554.57,553.61,552.58,552.15,553.24,555.25,558.09,561.37,564.83,568.20,571.45,574.59,577.54,579.90,580.38,578.99,576.47,573.55,571.25,569.45,568.25,567.98,569.12,570.99,573.25,575.20,575.59,573.66,571.26,567.83,562.91,558.37,554.39,550.81,547.60,544.97,543.01,541.98,541.52,541.33,541.26,541.09,540.19,538.23,535.55,533.44,531.64,530.32,530.07,530.15,530.73,531.53,532.38,533.23,534.06,535.00,536.04,537.02,538.00,538.97,539.88,540.74,541.82,542.80,543.72,544.68,545.72,546.65,547.50,548.27,548.97,549.63,550.39,551.16,552.06,553.64,555.26,557.28,559.59,561.26,561.78,562.13,562.66,563.44,564.30,565.51,567.16,569.12,570.51,571.47,572.29,573.11,573.99,574.95,575.93,576.90,577.86,578.81,579.57,580.80,582.67,584.77,586.74,588.42,589.87,591.15,592.44,593.50,594.78,596.51,598.29,599.99,601.63,603.25,604.92,606.91,608.48,609.67,610.61,611.38,612.72,614.75,617.35,619.92,621.63,622.81,623.98,625.62,627.38,629.15,630.84,632.55,634.91,637.59,639.39,640.33,641.10,641.83,642.80,643.85,644.70,645.06,645.50,646.20,647.19,648.32,649.86,651.16,652.24,653.28,654.32,655.51,656.78,658.06,659.47,661.24,663.17,665.08,666.86,668.66,670.43,672.21,674.02,675.73,677.49,679.32,681.29,683.47,685.73,687.86,689.93,692.18,694.79,697.25,699.57,701.80,704.03,706.49,709.26,712.27,715.31,718.36,721.54,724.77,727.92,730.89,733.32,735.42,737.25,739.06,742.85,748.03,754.16,761.01,767.94,773.07,777.34,781.57,785.91,790.26,794.38,798.37,802.68,807.24,812.79,818.79,824.60,830.43,838.57,847.58,856.52,864.83,874.38,884.88,894.22,899.01,901.99,904.64,907.17,909.13,909.41,908.57,907.49,906.68
561.41,561.12,560.75,560.07,559.22,558.22,556.67,554.77,553.62,554.02,556.51,558.67,560.11,561.03,561.73,562.29,562.24,561.82,561.13,559.94,558.77,558.05,557.83,557.90,557.23,556.20,555.09,554.16,553.86,553.36,552.83,552.41,552.14,551.53,550.76,550.34,551.03,553.03,555.99,559.29,562.60,565.91,569.07,571.85,574.27,576.35,576.61,575.15,572.90,570.67,568.71,567.30,566.74,567.26,568.89,570.86,573.10,574.96,575.11,573.17,570.63,567.05,562.11,557.55,553.47,549.98,546.97,544.05,541.46,539.69,538.53,537.75,537.20,536.70,535.61,533.61,531.16,529.62,528.91,528.76,529.01,529.76,530.70,531.65,532.54,533.45,534.33,535.30,536.38,537.43,538.50,539.58,540.66,541.71,542.90,543.91,544.88,545.88,546.94,547.92,548.81,549.61,550.36,551.06,551.76,552.49,553.38,555.07,556.73,558.49,560.30,561.80,562.65,563.26,563.88,564.59,565.27,566.03,567.21,568.77,569.95,571.02,572.03,572.99,573.95,574.99,576.06,577.09,578.09,579.30,580.34,582.04,584.56,587.22,589.22,590.71,591.92,593.05,594.10,595.06,596.27,597.86,599.44,600.94,602.36,603.69,604.94,606.24,607.10,607.74,608.41,609.19,610.56,612.69,615.51,618.45,620.36,621.53,622.58,624.18,625.93,627.70,629.40,631.25,634.11,637.65,639.91,640.84,641.55,642.20,642.93,643.65,644.07,643.92,643.81,644.21,645.25,646.69,648.42,649.95,651.21,652.32,653.47,654.92,656.44,657.88,659.26,661.18,663.41,665.57,667.14,668.84,670.80,672.75,674.44,676.13,677.86,679.79,681.94,684.18,686.41,688.50,690.55,692.75,695.06,697.13,699.30,701.75,704.31,707.01,710.17,713.69,717.02,720.32,723.43,726.41,729.33,732.40,734.88,737.00,738.96,741.04,744.78,750.44,757.44,764.91,771.76,776.72,780.95,785.20,789.07,792.63,796.14,799.82,803.98,808.37,813.90,819.82,825.25,831.08,839.29,848.67,858.10,866.08,875.28,884.94,893.25,897.57,900.89,904.51,908.21,911.37,913.06,913.17,912.06,910.03
560.93,560.53,559.99,558.61,556.75,554.85,553.13,551.59,551.24,552.49,554.89,557.06,558.73,559.88,560.50,561.07,560.91,560.34,559.37,557.38,555.53,554.65,554.80,555.49,555.44,554.67,553.57,552.49,551.74,550.95,550.31,549.90,549.68,549.41,548.95,548.65,549.19,550.99,554.00,557.25,560.25,563.37,566.26,568.52,570.08,571.02,570.78,569.73,568.51,567.57,566.37,565.46,565.67,567.18,569.07,571.11,573.29,574.88,574.46,572.43,569.55,565.77,561.06,556.45,552.12,548.85,546.36,543.40,540.53,538.16,536.37,535.20,534.00,532.93,531.62,530.09,529.06,528.28,527.90,527.99,528.67,529.61,530.65,531.68,532.68,533.68,534.63,535.63,536.69,537.69,538.70,539.88,541.18,542.51,543.83,544.92,545.96,547.04,548.13,549.15,549.95,550.62,551.34,552.15,552.93,553.69,554.59,556.11,557.50,558.87,560.27,561.67,562.99,564.12,565.05,565.73,566.37,567.08,567.88,568.85,570.10,571.47,572.86,574.19,575.47,576.76,577.91,578.91,579.86,581.07,582.29,584.30,587.06,589.50,590.84,592.02,593.23,594.27,594.85,595.58,596.72,598.25,599.64,601.01,602.03,602.70,603.28,604.06,604.90,605.70,606.50,607.68,609.05,611.08,613.76,616.36,618.37,619.61,620.63,622.16,624.03,625.95,627.67,629.34,632.03,636.37,639.36,640.61,641.21,641.61,642.02,642.34,642.40,642.09,641.73,641.98,643.12,644.90,646.77,648.59,650.19,651.40,652.82,654.58,656.35,657.90,659.25,661.44,664.20,666.83,668.23,669.69,671.78,673.86,675.33,676.94,678.65,680.74,683.17,685.41,687.78,689.92,692.00,694.29,696.14,697.71,699.73,702.58,705.56,708.34,711.71,715.71,719.82,723.83,727.03,729.63,732.01,734.88,736.95,738.86,741.06,743.75,747.20,753.60,762.11,770.43,776.23,780.89,785.18,789.21,792.41,795.40,798.51,801.96,806.08,810.40,815.78,821.27,826.03,831.98,840.48,850.54,860.73,868.19,877.05,885.18,891.56,895.56,899.46,903.62,907.94,912.06,915.08,916.01,915.18,912.97
560.49,559.78,557.99,555.72,553.37,551.29,549.90,548.88,549.23,551.16,553.47,555.33,556.68,557.63,558.26,558.98,558.67,557.59,555.90,553.77,552.01,551.51,552.21,553.30,553.67,553.09,552.02,550.82,549.43,548.45,547.82,547.53,547.51,547.36,547.05,547.01,547.98,549.67,552.26,555.12,557.86,560.54,562.87,564.64,565.78,566.19,565.78,564.75,563.95,564.01,563.68,564.11,565.43,567.49,569.47,571.46,573.59,574.89,573.61,571.58,568.32,564.27,559.75,555.23,551.08,547.98,545.65,542.90,540.27,537.65,535.14,533.05,531.63,530.65,529.69,528.68,527.94,527.26,527.15,527.64,528.59,529.58,530.64,531.71,532.76,533.87,534.98,536.00,536.94,537.90,538.86,540.01,541.33,542.76,544.17,545.43,546.59,547.74,548.95,550.00,550.81,551.50,552.25,553.04,553.79,554.53,555.37,556.48,557.57,558.77,560.10,561.49,562.92,564.28,565.53,566.59,567.43,568.23,569.03,569.89,570.93,572.35,573.90,575.46,576.96,578.42,579.53,580.53,581.66,582.97,584.37,586.33,588.64,590.27,591.16,591.86,592.44,592.74,592.94,593.65,594.89,596.57,598.15,599.36,600.14,600.60,601.01,602.44,604.36,606.09,607.21,608.29,609.64,611.58,613.80,615.20,616.80,618.11,619.32,620.83,622.87,624.88,626.68,628.35,630.66,634.62,637.73,639.36,639.87,640.25,640.54,640.68,640.63,640.41,639.84,640.01,641.33,643.35,645.43,647.44,649.21,650.61,652.31,654.19,656.08,657.83,659.39,662.26,665.66,668.86,670.96,672.30,674.02,675.83,677.26,678.90,680.78,682.98,685.41,687.60,690.10,692.41,694.64,697.00,698.60,700.87,703.64,706.43,708.34,710.54,713.52,717.42,722.19,726.90,731.10,734.49,736.74,738.42,740.10,741.79,743.67,746.43,751.13,759.19,768.43,775.09,780.20,784.91,789.06,792.35,795.31,798.28,801.50,805.08,809.24,813.74,818.77,823.60,827.91,834.57,842.94,853.71,865.94,874.99,883.87,888.79,891.00,894.06,898.19,903.18,908.22,912.65,916.18,918.13,917.65,915.02
559.98,558.51,555.59,552.54,549.78,547.60,546.60,546.23,547.25,549.66,551.93,553.41,554.34,554.99,555.58,556.40,556.07,554.72,552.60,550.41,548.81,548.71,549.88,551.22,551.82,551.23,549.99,548.57,546.86,545.83,545.30,545.18,545.42,545.38,545.18,545.38,546.74,548.36,550.49,552.88,555.21,557.08,558.63,560.05,561.19,561.51,561.21,560.51,560.25,561.15,561.98,563.72,565.90,568.13,570.04,571.91,573.74,574.53,572.68,570.55,567.11,562.94,558.60,554.52,550.93,548.09,545.73,542.99,540.23,537.20,534.06,531.27,529.88,529.06,528.37,527.66,526.97,526.33,526.51,527.40,528.52,529.65,530.78,531.91,533.03,534.20,535.42,536.50,537.41,538.32,539.22,540.30,541.58,543.01,544.47,545.81,547.05,548.22,549.43,550.47,551.32,552.10,552.93,553.76,554.52,555.26,556.04,556.89,557.78,558.82,560.04,561.43,562.88,564.37,565.82,567.13,568.18,569.11,570.02,570.94,571.87,573.25,574.87,576.57,578.19,579.70,580.83,581.90,583.15,584.27,585.49,586.90,588.37,589.50,590.18,590.55,590.63,590.40,590.44,591.39,592.85,594.52,596.15,597.44,598.40,599.14,600.08,602.58,605.56,608.10,609.62,610.84,612.19,613.89,615.62,616.31,617.42,618.61,619.76,621.03,623.27,625.02,626.51,628.10,630.03,633.27,635.89,637.33,637.78,638.23,638.48,638.59,638.59,638.43,638.16,638.66,640.20,642.28,644.44,646.48,648.30,649.88,651.91,654.15,656.29,658.21,660.22,663.62,667.60,671.50,674.45,675.93,677.32,678.92,680.72,682.68,684.43,686.25,688.29,690.56,693.28,695.80,698.22,700.84,702.85,705.60,708.55,710.96,711.97,713.43,715.80,719.38,724.60,729.80,734.67,738.53,740.56,741.47,742.87,744.46,746.35,749.72,756.63,765.49,773.92,779.13,783.82,788.42,792.35,795.23,798.06,801.13,804.53,808.33,812.65,817.32,822.07,826.60,831.19,838.46,847.27,858.74,872.17,882.71,890.98,893.79,893.46,894.94,898.08,903.10,908.42,912.92,916.74,919.47,919.30,916.37
559.31,556.56,553.04,549.44,546.18,543.81,543.08,543.56,545.23,547.82,550.09,551.22,551.74,552.06,552.54,553.35,553.20,552.03,549.96,547.64,546.14,546.32,547.81,549.23,549.75,548.88,547.23,545.46,543.96,543.12,542.76,542.86,543.36,543.46,543.40,543.77,545.27,546.83,548.60,550.50,552.24,552.90,553.47,554.70,556.28,556.97,557.16,557.34,557.99,559.57,561.83,564.55,567.11,569.18,570.81,572.50,573.62,573.61,571.71,569.36,565.99,561.99,557.89,554.73,552.07,549.59,546.99,543.89,540.33,536.60,532.96,529.96,528.77,528.02,527.32,526.63,525.95,525.44,525.94,527.17,528.41,529.80,531.13,532.37,533.55,534.77,536.00,537.15,538.17,539.03,539.89,540.91,542.08,543.42,544.87,546.16,547.36,548.47,549.50,550.45,551.37,552.28,553.25,554.23,555.06,555.84,556.66,557.51,558.37,559.22,560.19,561.57,563.02,564.53,565.99,567.30,568.51,569.56,570.61,571.71,572.73,574.06,575.65,577.38,579.01,580.39,581.61,582.84,584.03,584.53,585.07,585.37,585.65,586.85,587.61,587.94,587.96,587.81,588.11,589.61,591.36,592.80,594.20,595.91,597.52,599.13,601.38,605.12,608.74,611.67,613.72,615.51,616.89,618.22,619.52,620.48,621.19,621.93,622.62,623.30,625.71,626.64,627.30,628.60,630.19,632.56,634.03,634.48,634.89,635.45,635.76,635.97,636.18,636.08,636.80,638.13,639.89,641.84,643.84,645.74,647.49,649.20,651.57,654.54,657.20,659.29,662.01,665.58,670.04,674.80,678.47,680.41,681.71,683.35,685.92,688.50,689.70,690.52,691.77,694.35,697.38,700.11,702.75,705.84,709.04,711.61,713.76,715.50,716.31,717.06,718.68,721.82,727.18,732.52,737.30,740.84,742.46,743.49,744.79,746.48,749.04,754.04,763.77,771.91,777.66,782.47,787.02,791.18,794.86,797.96,800.74,803.84,807.41,811.50,816.09,820.84,825.50,830.37,836.18,843.75,853.90,866.05,879.19,890.28,896.92,899.62,899.78,899.05,899.66,903.48,908.38,912.79,916.81,919.91,920.00,916.99
557.96,554.82,551.32,547.32,543.32,540.23,539.52,540.85,543.10,545.62,547.55,548.41,548.64,548.74,549.23,550.36,550.32,548.90,546.27,543.71,543.06,543.86,545.51,546.97,546.72,545.46,543.80,542.21,541.23,540.71,540.53,540.75,541.38,541.55,541.75,542.36,543.71,545.27,546.84,548.36,549.60,549.95,550.20,550.99,552.24,553.46,554.77,556.09,557.56,559.53,562.38,565.49,568.20,570.24,571.65,573.12,573.51,572.76,571.01,568.54,565.45,562.17,559.12,556.79,554.29,551.58,548.61,545.07,540.86,536.49,532.38,529.15,527.74,526.93,526.25,525.59,524.94,524.81,525.61,527.00,528.38,529.84,531.28,532.69,534.02,535.33,536.56,537.74,538.84,539.74,540.63,541.67,542.82,544.01,545.30,546.45,547.47,548.35,549.18,549.98,550.88,551.85,552.81,553.77,554.63,555.61,556.83,557.86,558.72,559.57,560.56,561.82,563.21,564.69,566.13,567.43,568.68,569.87,571.07,572.31,573.50,574.81,576.23,577.68,579.05,580.23,581.17,582.02,582.76,582.93,583.00,582.85,582.62,582.94,583.21,584.11,585.54,587.28,588.98,590.93,592.82,594.46,595.90,597.69,599.76,601.98,604.30,607.94,611.52,614.72,617.39,619.63,621.07,622.51,624.15,625.50,626.15,626.55,626.62,626.33,627.59,627.78,627.88,628.63,629.57,630.87,631.59,631.76,632.05,632.61,633.01,633.43,634.11,634.87,636.19,637.82,639.61,641.43,643.02,644.82,646.71,648.45,650.92,654.28,657.64,660.66,664.04,667.83,672.74,677.93,681.19,683.48,685.38,687.32,689.49,691.42,692.63,693.64,695.03,697.62,700.75,703.73,706.55,709.47,712.15,714.68,717.04,718.98,719.79,720.67,722.19,724.92,729.76,734.57,738.69,741.81,743.68,745.25,746.71,748.81,752.58,759.69,768.60,775.43,780.31,784.84,789.32,793.56,797.33,800.49,803.27,806.24,809.96,814.42,819.20,824.10,829.15,834.62,841.10,849.28,860.55,873.69,886.89,896.01,901.05,903.36,903.76,902.72,902.26,904.74,908.66,912.86,917.29,920.57,920.93,918.10
556.77,553.61,550.33,546.17,541.78,538.19,536.61,537.48,540.02,543.21,544.81,545.47,545.45,545.28,545.67,547.01,547.06,545.50,542.55,539.97,540.10,541.48,543.25,544.52,543.58,542.05,540.55,539.39,538.86,538.60,538.66,539.09,539.80,540.11,540.64,541.52,542.68,544.06,545.33,546.46,547.36,547.85,548.28,548.89,549.88,551.53,553.75,555.89,557.95,560.31,563.62,566.77,569.33,571.10,572.27,573.48,573.39,572.23,570.70,568.41,565.73,563.12,560.91,559.19,556.65,553.61,550.15,546.11,541.44,536.29,531.59,528.50,526.83,525.88,525.18,524.55,523.94,524.32,525.43,526.90,528.38,529.85,531.36,532.87,534.34,535.75,537.02,538.27,539.48,540.41,541.38,542.41,543.45,544.44,545.50,546.46,547.30,547.99,548.69,549.38,550.20,551.12,552.04,552.96,553.87,555.05,556.60,557.88,558.88,559.87,560.94,562.13,563.47,564.88,566.25,567.52,568.77,570.03,571.31,572.60,573.88,575.17,576.37,577.44,578.37,579.19,579.84,580.36,580.69,580.67,580.31,579.99,579.83,579.85,580.08,581.79,584.66,587.94,590.62,592.80,594.82,596.72,598.20,599.83,602.01,604.56,606.98,610.16,613.55,616.93,620.12,622.78,624.56,626.25,628.01,629.34,629.86,629.97,629.66,628.78,628.68,628.17,627.80,628.01,628.44,629.06,629.35,629.35,629.47,630.15,630.79,631.51,632.60,634.08,635.73,637.45,639.15,640.78,642.05,643.85,645.96,647.94,650.65,654.38,658.39,662.27,666.09,670.00,674.95,679.97,682.53,684.89,687.28,689.52,691.30,692.66,694.04,695.50,697.24,699.77,702.98,706.20,709.19,711.80,713.86,716.36,718.97,721.13,722.19,723.40,725.10,727.66,731.75,736.02,739.55,742.37,744.56,746.66,748.74,751.82,756.92,765.05,772.18,777.75,782.32,786.68,791.27,795.74,799.63,802.69,805.50,808.53,812.50,817.31,822.18,827.23,832.85,839.09,846.23,854.90,867.00,880.73,893.58,900.56,904.54,906.65,907.24,906.24,905.12,906.28,909.20,913.35,918.05,921.27,921.87,919.56
556.30,553.41,550.42,546.57,542.66,539.29,535.11,532.85,535.07,540.50,541.97,542.55,542.32,541.78,541.77,542.91,543.01,541.74,539.30,537.25,537.62,539.28,541.18,541.84,540.75,539.24,538.05,537.59,537.20,537.03,537.42,538.31,539.04,539.67,540.66,541.86,542.86,543.65,544.36,545.06,545.86,546.92,548.14,549.32,550.56,552.36,554.69,556.86,559.09,561.97,565.86,568.74,570.56,571.53,572.38,573.28,573.23,572.33,571.04,569.56,567.42,565.06,562.88,561.28,558.77,555.40,551.31,546.73,541.92,535.66,530.15,527.90,526.12,524.96,524.15,523.52,522.95,523.97,525.42,526.91,528.44,529.91,531.39,532.89,534.41,535.88,537.30,538.73,540.04,540.99,542.08,542.98,543.72,544.42,545.18,545.93,546.65,547.34,548.04,548.73,549.42,550.14,551.01,551.93,552.93,554.20,555.81,557.37,558.78,560.06,561.26,562.50,563.81,565.09,566.33,567.53,568.76,569.95,571.14,572.32,573.50,574.73,575.71,576.34,576.57,576.79,577.31,577.82,578.05,578.06,577.26,577.02,577.81,579.21,580.59,583.33,586.85,589.99,592.14,594.18,596.33,598.39,599.77,600.94,602.62,605.04,608.24,610.97,614.20,617.69,621.07,624.16,626.88,628.82,629.88,630.31,630.29,630.20,630.05,629.58,628.39,627.26,626.48,626.28,626.66,627.53,627.83,627.53,627.45,628.50,629.67,630.84,632.13,633.60,635.24,636.84,638.31,639.64,640.95,642.89,645.33,648.04,651.36,655.60,660.05,664.22,668.07,671.84,675.96,679.79,681.68,683.55,685.85,688.25,690.32,691.89,693.54,695.35,697.37,699.84,703.15,706.59,709.72,712.13,714.25,716.67,719.05,721.07,722.77,724.25,726.38,729.25,732.51,736.56,739.98,742.74,745.10,747.44,751.01,756.05,762.43,769.03,774.36,779.08,783.54,787.96,792.94,797.72,801.60,804.33,807.14,810.76,815.22,820.20,825.05,830.26,836.54,843.75,851.80,860.59,872.98,886.32,897.81,903.55,907.63,910.13,910.93,909.70,908.02,907.95,910.12,914.59,919.17,921.93,922.68,921.49
555.69,553.44,550.84,547.56,544.15,540.90,536.54,532.18,531.45,534.61,537.09,538.29,538.69,538.59,538.30,539.04,538.88,537.71,535.78,534.10,534.78,536.56,538.31,538.65,537.81,536.59,535.96,536.56,536.80,537.21,537.98,539.17,540.58,541.86,543.02,544.12,545.09,545.55,546.00,546.39,546.81,547.70,548.99,550.34,551.76,553.57,555.70,557.80,560.30,563.76,567.67,569.85,571.05,571.84,572.63,573.18,573.11,572.47,571.46,570.39,568.87,566.97,564.85,562.90,560.13,556.47,552.09,547.40,542.43,535.57,529.58,527.57,525.52,524.07,523.13,522.58,522.27,523.56,525.21,526.83,528.40,529.92,531.42,532.93,534.44,535.94,537.39,538.80,540.07,540.97,541.79,542.52,543.21,543.87,544.56,545.25,545.95,546.64,547.34,548.03,548.69,549.34,550.08,550.91,552.00,553.38,555.04,556.74,558.38,559.87,561.17,562.35,563.57,564.81,566.01,567.18,568.41,569.59,570.73,571.87,573.04,573.86,574.27,574.30,574.02,573.94,574.15,574.44,574.77,575.71,576.52,577.75,579.46,581.21,583.08,585.88,588.94,591.20,593.17,595.02,596.61,597.83,598.70,599.64,601.55,604.63,608.68,611.73,614.85,618.13,621.49,624.89,627.99,629.91,630.50,630.61,630.41,630.21,629.69,628.32,626.93,625.70,624.79,624.45,625.09,626.09,626.40,626.15,626.34,627.69,629.33,631.01,632.66,634.08,635.41,636.74,638.08,639.45,641.91,644.78,647.72,650.66,654.40,658.50,662.79,666.94,670.05,673.26,676.25,678.69,680.25,681.89,684.05,686.40,688.55,690.44,692.12,693.98,696.19,698.76,701.78,704.97,708.06,710.69,712.86,714.99,717.15,719.27,721.17,722.73,724.92,728.03,732.00,736.60,740.20,743.00,745.47,747.95,752.56,758.29,764.48,770.36,775.27,779.88,784.40,788.94,794.39,799.11,802.80,805.56,808.43,812.76,817.65,822.58,827.35,833.15,840.73,848.89,856.63,865.28,878.00,890.78,900.72,905.91,909.70,912.29,913.81,914.09,912.76,911.84,912.86,916.41,920.15,922.59,923.43,922.62
554.84,553.57,551.42,548.81,545.95,542.76,538.82,533.33,529.60,529.25,531.84,533.65,534.83,535.33,534.96,535.25,534.69,533.51,532.10,531.21,532.25,533.95,535.41,535.70,535.49,534.94,535.04,536.49,537.30,538.29,539.55,541.14,543.22,545.02,546.28,547.24,548.16,548.40,548.60,548.70,548.69,549.19,550.26,551.61,553.13,554.89,556.76,558.86,561.64,565.48,569.07,570.54,571.32,572.11,572.84,573.04,572.90,572.48,571.78,571.03,570.04,568.61,566.58,564.14,561.08,557.24,552.80,548.18,542.99,535.77,529.45,527.21,524.90,523.15,522.07,521.67,521.73,523.14,524.91,526.65,528.28,529.87,531.40,532.90,534.37,535.88,537.28,538.60,539.77,540.58,541.13,541.75,542.45,543.15,543.85,544.54,545.24,545.95,546.63,547.33,547.97,548.60,549.23,550.00,551.15,552.61,554.32,556.08,557.84,559.47,560.88,562.00,563.14,564.35,565.56,566.73,567.92,569.05,570.13,571.19,572.29,572.69,572.57,572.11,571.49,571.20,571.27,571.63,572.50,574.51,577.01,579.52,581.79,583.67,585.83,588.35,590.65,592.06,593.77,595.21,596.09,596.44,596.92,598.01,600.57,604.50,609.10,612.43,615.40,618.43,621.66,625.13,628.31,630.12,630.44,630.38,629.89,629.38,628.35,626.13,624.83,623.73,622.87,622.62,623.59,624.67,625.01,624.90,625.52,627.11,629.03,631.12,633.27,634.98,636.16,637.38,638.84,640.60,644.14,647.75,650.96,654.00,657.86,661.58,665.41,669.20,671.46,673.90,675.83,677.20,678.63,680.14,682.12,684.31,686.45,688.59,690.26,692.10,694.37,696.97,699.58,702.37,705.31,708.16,710.46,712.47,714.53,716.74,718.69,720.35,722.55,725.85,730.88,736.44,740.43,743.30,745.85,748.40,753.83,759.84,765.40,770.83,775.76,780.47,785.08,789.76,795.59,800.16,803.68,806.62,809.70,814.69,819.90,824.73,829.52,836.00,844.72,853.56,860.79,869.38,882.34,894.49,902.99,907.87,911.25,913.82,916.05,917.95,917.42,916.17,916.13,918.33,921.06,923.23,924.18,923.63
553.35,553.76,552.15,550.33,548.12,544.85,540.90,536.27,531.90,528.60,527.41,529.11,530.77,531.61,531.64,531.47,530.42,529.04,528.21,529.55,531.01,532.23,533.18,533.96,535.16,536.20,537.31,538.65,539.28,540.49,542.49,545.00,547.04,548.67,550.01,551.12,551.86,551.94,551.68,551.34,551.09,551.20,551.92,553.07,554.53,556.19,557.92,560.28,563.32,566.85,569.57,570.80,571.60,572.37,572.81,572.68,572.38,572.06,571.72,571.31,570.64,569.49,567.57,564.66,561.47,557.78,553.64,549.24,543.64,536.38,529.83,526.56,524.07,522.05,520.87,520.74,521.29,522.77,524.52,526.27,527.96,529.69,531.21,532.63,534.03,535.45,536.75,537.94,538.98,539.71,540.32,540.97,541.68,542.43,543.13,543.83,544.55,545.29,545.93,546.61,547.26,547.88,548.53,549.38,550.57,552.02,553.72,555.44,557.15,558.84,560.38,561.53,562.69,563.89,565.11,566.25,567.32,568.26,569.14,569.97,570.74,570.99,570.82,570.38,569.75,569.27,569.82,571.41,573.95,576.62,579.03,580.96,582.67,585.03,587.49,589.57,591.28,592.69,593.54,593.98,594.29,594.68,595.49,597.66,601.41,606.09,610.31,612.99,615.69,618.59,621.54,624.54,627.34,629.03,629.44,629.17,627.71,626.21,624.74,623.08,621.91,621.03,620.60,620.88,622.11,623.29,623.65,623.65,624.67,626.38,628.10,630.19,633.12,636.19,638.01,639.79,642.09,644.92,648.32,651.29,653.99,657.06,660.34,663.53,666.59,669.32,671.16,672.53,673.91,675.41,676.92,678.41,680.11,682.01,684.05,686.09,687.92,689.78,691.78,694.03,696.25,698.68,701.30,703.99,706.64,709.24,711.59,713.59,715.59,717.61,719.99,723.39,729.07,736.19,740.88,743.81,746.37,748.92,754.95,761.14,766.18,771.24,776.12,780.89,785.56,790.33,796.17,800.71,804.30,807.56,811.25,816.57,821.83,826.64,831.83,838.89,847.61,856.25,863.59,872.63,885.53,897.00,904.52,909.23,912.18,914.66,917.09,919.34,920.10,919.69,919.35,920.00,921.83,923.73,925.01,925.09
551.82,552.76,552.13,551.02,549.16,545.85,541.48,537.32,533.26,529.30,525.91,525.52,526.14,526.60,526.31,526.62,526.87,527.22,528.10,530.28,532.13,533.53,534.59,535.65,537.24,538.79,540.29,541.82,543.14,544.76,546.81,549.17,551.34,553.11,554.57,555.66,556.10,555.92,555.31,554.65,554.13,553.67,553.92,554.74,555.99,557.58,559.55,562.39,565.63,568.51,570.19,571.10,571.85,572.49,572.48,572.10,571.71,571.40,571.22,571.11,570.76,570.00,568.40,565.29,562.15,558.72,554.88,550.56,544.81,537.60,530.89,526.73,523.53,521.20,519.97,519.98,520.82,522.38,524.12,525.85,527.59,529.33,530.86,532.26,533.59,534.85,536.01,537.05,537.92,538.60,539.34,540.14,540.96,541.72,542.42,543.17,543.90,544.59,545.22,545.93,546.65,547.38,548.12,549.02,550.16,551.57,553.27,554.98,556.64,558.33,559.92,561.12,562.25,563.33,564.32,565.13,565.92,566.74,567.54,568.26,568.81,568.89,568.71,568.37,568.07,568.52,569.86,572.02,574.97,577.95,580.27,582.03,583.64,585.95,588.14,589.81,591.07,592.04,592.30,592.32,592.46,593.11,594.86,597.62,602.00,607.19,611.08,613.56,616.05,618.63,621.07,623.46,625.03,625.75,625.64,624.75,623.20,621.71,620.63,620.11,619.52,618.98,618.82,619.37,620.78,621.92,622.26,622.41,623.93,626.25,628.42,630.93,634.35,637.69,640.17,642.63,645.39,648.19,650.83,653.31,655.81,658.60,661.44,663.76,665.85,667.75,668.95,670.08,671.38,672.79,674.13,675.46,676.98,678.92,681.36,683.54,685.36,687.00,688.64,690.47,692.17,694.16,696.67,699.79,702.53,705.75,708.60,710.61,712.67,715.10,717.89,721.81,728.69,736.73,741.52,744.26,746.90,749.84,756.10,762.20,766.88,771.62,776.40,781.13,785.84,790.76,796.65,801.19,804.83,808.32,812.57,817.98,823.23,828.14,833.69,841.11,849.76,858.26,865.90,875.59,888.67,899.42,905.61,909.92,912.61,914.94,917.31,919.57,921.08,921.40,921.26,921.42,922.64,924.21,925.59,926.19
549.44,550.97,551.44,550.84,549.09,545.81,541.14,537.31,533.90,530.25,525.57,522.70,521.80,521.71,521.26,522.59,524.70,527.15,529.75,532.04,534.21,536.03,537.49,538.75,540.30,541.90,543.54,545.35,547.43,549.42,551.33,553.30,555.58,557.53,559.05,560.05,560.27,559.92,559.11,558.23,557.41,556.38,556.15,556.57,557.58,559.30,561.83,565.00,568.04,570.03,570.79,571.42,572.04,572.45,571.98,571.45,570.93,570.51,570.38,570.62,570.62,570.22,568.98,565.91,562.93,559.86,556.40,552.07,546.38,539.31,532.36,527.17,523.09,520.51,519.28,519.38,520.39,522.01,523.75,525.46,527.20,528.89,530.40,531.77,533.02,534.12,535.13,536.00,536.73,537.38,538.27,539.25,540.20,541.00,541.73,542.52,543.26,543.92,544.57,545.33,546.15,547.00,547.86,548.77,549.88,551.25,552.92,554.61,556.26,557.90,559.45,560.63,561.70,562.63,563.34,563.76,564.23,564.90,565.65,566.33,566.68,566.64,566.60,566.66,566.98,568.59,570.63,573.00,575.82,578.81,580.98,582.71,584.34,586.25,587.93,589.13,589.94,590.44,590.40,590.31,590.58,591.74,594.55,597.62,602.22,607.57,611.21,613.56,615.70,617.78,619.68,621.52,621.75,621.35,620.61,619.15,617.86,616.84,616.45,617.13,617.39,617.24,617.29,617.99,619.44,620.47,620.98,621.63,623.83,626.89,629.72,632.74,636.38,639.47,642.44,645.45,648.36,650.66,652.47,654.57,656.89,659.12,661.44,662.87,664.03,665.20,665.72,666.86,668.21,669.52,670.69,671.95,673.40,675.44,678.32,680.77,682.53,683.89,685.13,686.71,688.27,690.14,692.75,696.46,699.22,702.83,706.09,708.20,710.40,713.55,716.99,721.57,729.65,737.78,742.26,744.74,747.48,751.00,757.26,763.10,767.48,771.98,776.64,781.31,786.03,791.12,797.09,801.63,805.29,808.95,813.71,819.09,824.26,829.26,835.08,842.69,851.24,859.70,867.84,878.14,891.40,901.48,906.39,910.26,912.76,914.97,917.19,919.34,921.29,922.25,922.58,922.76,923.53,924.79,926.12,927.12
543.94,548.14,549.53,548.73,546.64,543.64,539.86,536.57,533.50,529.95,524.70,521.20,519.55,519.37,520.65,523.45,526.48,529.28,531.71,533.84,535.98,538.05,539.92,541.44,543.05,544.76,546.64,548.60,550.16,552.12,554.39,556.76,558.85,560.53,561.83,562.78,563.33,563.29,562.63,561.66,560.52,559.25,558.62,558.67,559.63,562.18,565.86,568.35,569.75,570.56,571.13,571.73,572.09,571.98,571.41,570.86,570.01,569.14,568.98,569.87,570.25,569.98,568.81,566.25,563.59,561.09,558.27,553.93,548.70,541.88,534.29,527.27,522.46,519.91,518.84,519.00,520.20,521.83,523.53,525.23,526.88,528.47,529.82,531.02,532.14,533.17,534.09,534.83,535.45,536.16,537.14,538.19,539.25,540.28,541.11,541.83,542.55,543.34,544.14,545.01,545.88,546.74,547.65,548.57,549.77,551.16,552.67,554.35,556.03,557.61,558.94,559.85,560.75,561.56,562.18,562.53,562.70,563.13,563.75,564.34,564.47,564.41,565.10,566.50,568.13,569.79,571.74,574.06,576.69,579.18,581.10,582.60,583.80,584.97,586.10,586.57,586.81,587.40,587.68,587.69,588.53,590.84,594.05,597.31,601.43,606.03,609.68,611.48,612.60,613.83,615.53,617.17,617.08,616.39,615.57,614.37,613.24,612.70,612.92,614.01,615.31,615.63,615.88,616.67,617.84,618.64,620.11,622.55,625.96,629.42,632.63,635.81,639.09,641.74,644.65,647.52,650.03,651.88,653.63,655.46,657.16,658.40,659.63,660.58,661.29,661.74,661.81,662.47,663.68,665.19,666.65,668.39,669.99,671.85,674.48,677.33,679.16,680.23,681.15,683.27,686.29,689.26,692.43,696.37,699.37,702.55,705.42,707.68,710.31,715.15,719.82,724.89,733.30,739.50,743.10,745.49,748.20,752.51,758.44,763.73,767.84,772.30,776.88,781.50,786.25,791.45,797.51,801.98,805.60,809.42,814.54,819.86,824.83,829.69,835.47,843.05,851.42,860.09,869.17,879.59,892.67,902.38,906.77,910.33,912.77,914.94,917.12,919.27,921.33,922.91,923.85,924.17,924.63,925.76,927.00,928.00
539.81,543.95,545.49,545.00,543.36,540.98,538.00,535.13,532.00,528.04,522.57,519.29,518.21,518.96,521.48,525.00,528.40,531.33,533.68,535.75,537.74,539.72,541.64,543.39,545.13,547.05,549.03,550.89,552.28,554.26,556.65,559.11,561.01,562.65,564.03,565.18,566.11,566.45,566.06,565.17,563.89,562.45,561.59,561.50,562.50,565.28,568.40,570.00,570.57,570.93,571.40,571.82,571.91,571.55,570.93,570.00,568.44,566.93,566.82,567.91,568.67,568.79,567.99,565.84,563.63,561.66,559.44,555.65,550.94,544.59,536.77,528.27,522.50,519.55,518.38,518.66,520.03,521.66,523.32,524.97,526.55,528.05,529.23,530.24,531.20,532.14,532.93,533.59,534.18,534.96,536.01,537.11,538.24,539.46,540.51,541.33,542.13,543.00,543.86,544.75,545.63,546.53,547.47,548.52,549.82,551.21,552.63,554.19,555.77,557.06,558.00,558.78,559.60,560.38,561.02,561.35,561.39,561.58,561.93,562.39,562.81,563.55,565.12,567.27,569.37,571.05,572.91,574.88,576.79,578.58,580.14,581.37,582.24,582.79,583.25,583.29,583.27,583.74,584.42,585.57,587.51,590.33,593.34,596.59,599.92,603.15,605.86,607.30,608.19,609.11,610.40,611.81,612.31,612.15,611.55,610.69,609.82,609.98,610.95,612.23,613.64,614.06,614.37,615.34,617.22,619.11,621.83,625.37,629.02,632.39,635.57,638.55,641.25,643.52,646.18,648.73,650.83,652.32,653.67,654.82,655.67,656.13,656.78,657.53,658.15,658.50,658.62,659.47,660.92,662.69,664.47,666.44,668.15,669.89,672.09,674.93,676.97,678.40,680.02,683.56,687.34,690.71,693.99,697.73,701.04,704.22,707.18,709.97,713.49,718.40,723.10,728.28,736.35,740.83,743.63,745.91,748.74,754.11,759.75,764.50,768.32,772.59,777.09,781.70,786.50,791.76,797.85,802.25,805.82,809.69,815.00,820.26,825.09,829.82,835.45,842.65,851.18,860.21,869.42,880.40,893.34,902.75,906.98,910.39,912.75,914.87,917.01,919.16,921.14,922.78,924.03,924.88,925.67,926.69,927.71,928.58
536.82,539.21,540.39,540.46,539.66,538.00,535.71,533.04,529.55,524.98,519.80,517.26,517.49,519.63,522.92,526.64,530.13,533.15,535.60,537.70,539.45,541.15,542.91,544.81,546.72,548.78,550.76,552.39,553.90,555.96,558.29,560.57,562.35,564.13,565.77,567.26,568.48,569.10,569.00,568.33,567.15,565.75,564.89,564.80,565.78,568.16,569.73,570.46,570.83,571.20,571.56,571.71,571.58,571.15,570.48,568.76,566.26,564.14,564.15,565.15,566.23,566.88,566.60,564.93,563.27,561.75,559.98,557.00,552.85,547.15,539.54,530.09,523.07,519.38,517.92,518.29,519.88,521.50,523.11,524.70,526.23,527.60,528.62,529.44,530.23,531.05,531.71,532.30,532.91,533.79,534.89,536.02,537.21,538.59,539.90,540.93,541.86,542.78,543.65,544.51,545.41,546.34,547.34,548.58,549.93,551.31,552.69,554.05,555.38,556.25,556.77,557.49,558.23,559.03,559.71,560.06,560.11,560.10,560.23,560.71,561.79,563.69,566.02,568.44,570.44,572.11,573.79,575.19,576.12,577.25,578.41,579.39,580.03,580.21,580.08,579.96,579.94,580.20,581.25,583.95,587.15,590.10,592.61,595.61,598.00,599.69,601.10,602.33,603.40,604.31,605.11,606.31,607.80,608.58,608.41,607.85,607.38,608.27,609.95,611.28,612.24,612.51,613.04,614.63,617.73,621.24,625.10,629.00,632.21,635.22,638.07,640.59,642.64,644.61,646.95,649.14,650.88,652.09,652.84,653.14,653.11,652.98,653.39,654.10,654.93,655.76,656.42,657.95,659.83,661.82,663.88,665.94,667.78,669.50,671.38,674.00,676.26,678.38,681.19,686.27,690.16,693.41,696.48,699.78,703.41,706.92,710.26,713.69,718.11,722.11,726.12,731.18,738.58,741.79,743.97,746.14,749.15,755.75,761.10,765.26,768.82,772.81,777.24,781.89,786.72,791.99,798.00,802.37,805.92,809.79,815.16,820.37,825.12,829.74,835.21,841.87,850.70,860.09,868.98,880.73,893.62,902.81,907.04,910.40,912.65,914.65,916.69,918.80,920.65,922.02,923.34,924.87,926.33,927.38,928.24,929.00
534.46,535.94,536.67,536.67,536.00,534.57,532.84,529.82,525.70,521.10,517.74,516.18,517.19,520.03,523.69,527.59,531.29,534.59,537.34,539.46,540.94,542.44,544.12,545.91,547.86,549.70,551.41,553.05,554.77,556.93,559.11,561.13,563.05,564.98,566.84,568.46,569.48,569.84,569.83,569.58,569.13,568.63,568.21,568.19,568.65,569.54,570.16,570.60,570.97,571.32,571.46,571.39,571.12,570.67,570.00,566.56,563.16,561.11,561.30,562.31,563.49,564.30,564.42,563.98,562.90,561.59,559.86,556.98,553.48,548.71,542.06,533.00,524.07,519.39,517.56,517.87,519.78,521.40,522.92,524.44,525.93,527.02,527.88,528.63,529.29,529.93,530.47,531.02,531.70,532.66,533.78,535.00,536.31,537.75,539.22,540.41,541.45,542.42,543.38,544.30,545.21,546.21,547.41,548.66,549.93,551.26,552.60,553.69,554.47,555.01,555.42,555.88,556.47,557.13,557.75,558.18,558.24,558.33,558.92,560.22,562.05,564.21,566.52,568.83,570.89,572.21,573.12,573.75,574.23,575.21,576.25,577.12,577.73,578.15,578.25,578.27,578.43,579.01,580.11,583.10,586.73,590.04,592.44,594.55,596.06,597.22,598.68,599.72,600.36,600.83,601.48,602.92,604.66,605.96,606.40,605.87,606.01,607.19,608.88,610.24,610.76,611.03,612.92,616.98,620.47,624.18,627.77,630.96,633.48,636.29,638.74,640.69,642.20,644.04,646.17,648.18,649.81,650.76,651.18,651.14,650.78,650.27,650.29,651.02,652.46,654.55,656.69,658.88,660.95,662.95,665.10,667.35,669.46,671.62,674.06,676.73,678.90,681.27,684.50,689.10,692.46,695.46,698.38,701.34,705.17,708.96,712.53,715.98,719.82,723.48,727.35,732.29,739.34,742.32,744.41,746.52,749.60,757.28,762.12,765.59,768.94,772.84,777.23,781.85,786.66,791.82,797.58,801.99,805.68,809.61,814.96,820.15,824.87,829.45,834.88,841.38,850.15,859.56,868.44,880.47,893.58,902.78,906.81,910.11,912.16,913.77,915.42,917.45,919.31,920.61,921.86,923.50,925.41,927.19,928.56,929.57
531.74,532.67,533.12,532.87,532.07,530.85,529.30,526.05,521.97,517.97,515.63,515.53,517.39,520.50,524.14,527.88,531.69,535.37,538.55,540.70,542.18,543.48,544.78,546.15,547.78,549.33,550.78,552.28,554.18,556.75,559.22,561.33,563.35,565.36,567.33,569.01,569.88,570.08,570.12,570.11,570.07,570.06,569.94,569.95,570.08,570.17,570.36,570.68,571.04,571.29,571.25,571.06,570.73,570.11,568.62,564.31,560.58,558.57,558.63,559.60,560.75,561.63,562.08,562.42,561.86,560.54,558.51,555.72,552.70,548.58,542.80,534.76,525.63,520.01,517.38,517.48,519.74,521.37,522.83,524.24,525.45,526.33,527.09,527.75,528.31,528.82,529.30,529.85,530.58,531.57,532.76,534.08,535.47,536.95,538.46,539.75,540.88,541.91,542.90,543.74,544.63,545.70,547.07,548.35,549.72,551.03,552.11,552.92,553.38,553.73,554.00,554.09,554.54,555.12,555.69,556.25,556.86,557.58,558.68,560.36,562.42,564.61,566.75,568.76,570.47,571.38,571.75,571.91,572.17,573.05,574.04,574.87,575.53,576.24,576.84,577.25,577.70,578.50,579.56,582.47,586.03,589.28,591.42,592.87,594.00,595.17,596.76,597.97,598.46,598.67,599.18,600.62,602.38,603.85,604.54,603.99,604.44,605.66,607.21,608.63,609.66,611.28,614.60,619.47,622.76,626.25,629.33,631.78,633.71,635.98,637.98,639.58,640.89,642.83,644.90,646.79,648.22,648.79,648.93,648.73,648.32,648.01,648.61,649.80,651.70,654.39,657.27,659.92,662.13,664.08,666.25,668.52,670.93,673.55,676.44,679.32,681.76,684.41,687.63,691.32,694.31,697.16,699.94,702.64,706.24,709.60,712.75,716.02,719.93,723.77,727.64,732.45,739.58,742.57,744.68,746.79,749.74,757.07,761.73,764.99,768.08,771.97,776.49,781.16,785.93,790.95,796.27,800.89,805.06,809.31,814.51,819.63,824.33,828.86,834.20,840.59,849.34,858.77,867.77,880.13,893.30,902.28,905.93,909.01,910.93,912.26,913.57,915.43,917.15,918.80,920.51,922.40,924.53,926.70,928.50,929.88
528.44,528.93,529.20,528.65,527.75,526.82,525.16,521.95,518.53,515.59,513.63,515.24,517.98,521.03,524.35,527.64,531.43,535.45,539.13,541.34,542.95,544.00,544.66,545.39,546.46,547.73,549.00,550.29,552.39,555.58,558.71,561.26,563.30,565.31,567.32,569.02,569.87,570.07,570.14,570.19,570.19,570.19,570.18,570.18,570.22,570.30,570.44,570.74,571.05,571.15,570.98,570.75,570.45,569.55,566.66,562.42,558.89,556.69,556.18,557.00,557.98,558.82,559.47,560.03,559.83,558.37,555.90,553.29,550.58,546.81,541.75,535.14,527.45,521.07,517.34,517.07,519.70,521.38,522.78,524.01,524.77,525.55,526.22,526.78,527.26,527.73,528.22,528.81,529.55,530.51,531.81,533.23,534.69,536.14,537.61,538.95,540.14,541.19,542.13,542.77,543.59,544.74,546.26,547.63,549.20,550.52,551.22,551.80,552.17,552.43,552.51,552.20,552.60,553.20,553.83,554.61,556.18,557.84,559.41,560.96,562.76,564.78,566.68,568.27,569.29,569.81,569.94,569.99,570.28,571.11,572.12,573.02,573.81,574.76,575.98,576.91,577.66,578.51,579.47,582.02,585.09,587.81,589.55,590.76,592.03,593.53,595.22,596.78,597.38,597.55,597.95,599.13,600.76,602.10,602.66,602.16,602.73,603.99,605.50,607.12,609.38,613.26,617.64,621.55,624.15,627.14,629.68,631.59,633.08,634.53,636.13,637.67,639.14,641.30,643.40,645.13,646.21,646.29,646.19,645.98,645.88,646.39,648.35,650.32,652.44,654.99,657.76,660.55,662.80,664.68,666.88,669.06,671.76,674.79,677.89,681.08,684.10,687.09,690.07,692.82,695.63,698.42,701.07,703.49,706.47,708.81,711.11,714.19,718.87,723.28,727.24,731.93,739.38,742.50,744.67,746.82,749.52,755.23,759.96,763.44,766.30,770.26,775.03,779.82,784.56,789.44,794.27,799.19,804.06,808.83,813.84,818.87,823.54,828.04,833.19,839.48,848.21,857.71,866.87,879.45,892.36,901.00,904.38,907.09,908.94,910.17,911.30,912.96,914.62,917.05,919.62,921.85,924.00,926.14,928.16,929.90
523.92,523.26,522.79,522.50,522.41,522.30,520.79,518.14,515.22,512.97,513.13,515.49,518.40,521.36,524.39,527.39,530.85,534.80,538.78,540.97,542.04,542.49,542.69,543.15,543.96,545.15,546.62,548.41,551.01,554.41,557.86,560.85,562.90,564.95,566.98,568.74,569.74,570.00,570.12,570.22,570.27,570.32,570.33,570.33,570.35,570.43,570.57,570.81,571.02,571.03,570.83,570.56,570.28,569.42,566.42,562.62,559.10,556.07,553.88,554.21,554.71,555.03,555.31,555.78,555.35,554.01,552.00,549.75,547.28,543.96,539.65,534.18,527.91,521.63,517.23,516.26,519.50,521.29,522.40,523.25,523.90,524.57,525.18,525.70,526.17,526.63,527.25,527.95,528.73,529.64,530.90,532.36,533.82,535.20,536.56,537.89,539.06,539.98,540.64,541.09,541.88,543.16,544.93,546.52,547.96,549.18,550.07,550.64,550.93,551.03,550.92,550.55,551.00,552.02,553.33,554.77,556.57,558.43,560.13,561.63,563.24,564.67,565.98,567.11,567.86,568.27,568.43,568.79,569.69,570.77,572.05,573.34,574.57,575.80,577.08,578.12,578.94,579.64,580.35,582.01,584.04,586.00,587.70,589.48,591.23,592.97,594.68,595.77,596.04,596.22,596.95,598.09,599.43,600.43,600.80,600.60,602.13,604.65,607.33,609.62,612.39,616.02,619.61,622.39,624.07,626.28,628.47,630.29,631.48,632.77,634.41,636.30,638.34,640.45,642.28,643.39,643.63,643.37,643.19,643.54,644.57,646.52,648.98,651.23,653.26,655.23,657.38,659.50,661.38,663.27,665.82,668.39,671.23,674.33,677.61,680.86,684.19,687.50,690.62,693.29,695.96,698.60,700.94,702.63,704.81,706.72,709.03,712.55,717.62,722.37,726.66,731.46,738.34,741.65,743.99,746.21,748.80,753.16,757.51,761.08,764.14,768.31,773.05,777.95,782.89,787.84,792.67,797.58,802.58,807.70,812.97,818.05,822.73,827.23,832.21,838.21,846.72,856.17,865.27,876.76,888.43,897.37,902.31,904.46,906.24,907.69,909.03,910.86,914.01,917.54,920.43,922.26,924.18,926.21,928.05,929.62
519.75,518.36,517.37,517.26,517.60,517.64,516.05,514.07,512.14,511.12,512.99,515.74,518.65,521.50,524.25,526.96,529.86,533.35,537.21,539.57,540.47,540.62,540.54,540.81,541.46,542.91,545.02,547.66,550.61,553.90,557.33,560.49,562.54,564.57,566.61,568.30,569.08,569.48,569.88,570.17,570.26,570.35,570.39,570.42,570.47,570.55,570.68,570.83,570.94,570.89,570.72,570.44,570.14,569.27,566.26,562.78,559.13,555.34,551.83,551.45,551.50,551.45,551.41,551.49,550.88,549.70,548.09,546.18,543.90,541.07,537.54,533.07,527.84,521.87,517.01,515.24,518.69,520.65,521.68,522.36,523.00,523.56,524.08,524.58,525.08,525.63,526.37,527.15,527.95,528.86,530.13,531.50,532.85,534.16,535.47,536.77,537.88,538.67,539.21,539.60,540.45,541.84,543.61,545.17,546.45,547.60,548.62,549.22,549.53,549.58,549.45,549.46,550.12,551.48,553.24,555.07,556.93,558.79,560.43,561.79,563.07,564.02,564.92,565.77,566.37,566.97,567.56,568.44,569.82,571.21,572.75,574.33,575.86,577.26,578.49,579.51,580.33,580.96,581.53,582.57,583.91,585.43,587.10,589.16,591.13,592.83,594.18,594.63,594.64,594.90,595.85,596.98,598.00,598.74,599.22,600.01,602.76,606.30,609.70,612.31,614.90,617.58,619.99,621.78,622.87,624.61,626.60,628.41,629.63,631.13,633.01,635.13,637.30,639.18,640.77,641.47,641.15,640.62,640.82,641.86,643.74,646.54,649.10,651.27,653.09,654.67,656.38,658.13,659.91,661.91,664.63,667.41,670.18,673.18,676.57,679.69,682.91,686.28,689.65,692.52,695.03,697.40,699.40,700.66,702.46,704.62,707.54,711.63,716.73,721.53,726.02,730.87,736.98,740.63,743.20,745.45,747.90,751.09,754.88,758.48,761.94,766.40,771.30,776.45,781.60,786.51,791.34,796.22,801.30,806.65,812.12,817.17,821.83,826.31,831.08,836.87,845.02,854.22,863.17,872.91,882.81,891.69,898.30,901.17,903.45,905.45,907.33,909.55,913.73,918.02,921.13,922.62,924.17,925.89,927.50,928.97
516.37,514.95,513.89,513.73,513.75,513.04,511.11,509.80,509.46,510.42,513.00,515.87,518.71,521.41,523.90,526.29,528.47,531.08,534.30,536.92,538.29,538.70,538.61,538.77,539.39,541.52,544.75,548.41,551.44,554.33,557.38,560.35,562.34,564.29,566.24,567.62,567.67,568.22,569.21,569.97,570.13,570.28,570.36,570.46,570.58,570.66,570.75,570.79,570.79,570.72,570.63,570.38,569.99,568.94,565.77,562.37,558.49,554.20,550.21,548.91,548.57,548.44,548.24,547.65,547.03,545.99,544.50,542.88,540.79,538.48,535.75,532.11,527.38,521.79,516.70,514.09,517.12,519.29,520.57,521.39,522.10,522.50,522.95,523.46,524.05,524.79,525.63,526.45,527.28,528.24,529.58,530.73,531.82,533.11,534.39,535.63,536.64,537.36,538.03,538.53,539.53,540.97,542.43,543.63,544.77,545.87,546.82,547.46,547.95,548.13,548.26,549.11,550.12,551.57,553.32,555.12,556.96,558.70,560.15,561.21,562.03,562.77,563.62,564.45,565.00,566.10,567.50,569.02,570.58,572.28,573.98,575.63,577.21,578.64,579.79,580.73,581.55,582.24,582.87,583.79,585.04,586.57,588.13,589.89,591.59,592.93,593.42,593.26,593.26,593.66,594.60,595.75,596.53,597.19,598.22,600.74,604.68,608.56,611.79,614.07,615.80,617.27,618.58,619.70,620.72,622.50,624.43,626.23,627.83,629.78,631.97,634.04,635.66,637.10,638.56,639.24,638.91,638.32,639.46,641.20,643.32,646.00,648.30,650.06,651.64,653.24,654.91,656.92,659.03,661.24,663.80,666.40,668.85,671.60,674.97,677.79,680.42,683.52,687.11,690.27,692.61,694.59,696.34,697.82,699.88,703.01,707.00,711.65,716.38,720.88,725.34,730.07,735.38,739.55,742.40,744.61,746.73,748.89,752.14,755.82,759.83,764.67,770.06,775.62,780.95,785.62,790.34,795.25,800.43,805.89,811.39,816.25,820.82,825.26,829.78,835.46,843.11,851.87,860.59,868.22,876.02,884.12,891.86,897.23,900.85,903.76,906.44,909.24,913.45,917.90,921.18,922.56,923.67,924.89,926.30,927.90
513.54,511.97,510.95,510.50,510.24,509.64,508.31,507.73,508.42,510.44,513.15,515.94,518.63,521.15,523.46,525.63,527.59,529.46,531.33,533.20,534.77,535.84,536.61,537.64,539.06,541.93,545.72,549.64,552.65,555.46,558.23,560.81,562.78,564.75,565.78,565.85,565.28,565.17,566.89,568.90,569.98,570.21,570.30,570.40,570.51,570.63,570.67,570.65,570.60,570.53,570.49,570.32,569.75,568.28,565.10,561.68,557.71,553.47,549.83,547.77,546.55,545.76,545.20,544.44,543.57,542.50,541.29,540.14,538.65,536.77,534.48,531.46,526.96,521.65,516.52,513.39,515.78,517.74,519.16,520.20,520.89,521.33,521.87,522.55,523.40,524.42,525.52,526.60,527.63,528.65,529.75,530.69,531.57,532.53,533.48,534.48,535.37,536.12,536.90,537.61,538.68,539.99,541.09,542.14,543.17,544.17,545.07,545.72,546.39,547.12,548.03,549.35,550.44,551.63,553.08,554.85,556.62,558.14,559.42,560.43,561.20,561.97,562.98,564.13,565.18,566.57,568.06,569.66,571.40,573.21,574.97,576.70,578.34,579.69,580.68,581.58,582.46,583.33,584.17,585.00,586.14,587.66,589.08,590.46,591.61,592.28,592.10,591.71,591.87,592.59,593.80,595.24,596.47,597.74,599.44,602.32,605.88,609.23,611.91,613.58,614.92,616.12,617.52,619.16,620.50,622.25,624.11,625.93,627.63,629.28,630.91,632.27,633.13,633.95,635.26,636.09,636.42,637.50,639.39,641.39,643.41,645.57,647.23,648.76,650.54,652.80,655.41,657.72,659.92,662.16,664.45,666.54,668.57,670.83,673.56,676.10,678.49,681.19,684.26,687.13,689.26,691.27,693.66,696.83,699.64,703.20,707.44,712.04,716.21,720.38,724.58,728.90,733.60,738.29,741.49,743.23,743.86,745.12,749.15,753.72,758.15,763.55,769.62,775.56,780.94,785.45,790.02,794.88,800.00,805.34,810.62,815.30,819.76,824.16,828.57,833.98,841.05,849.37,858.28,866.02,872.58,878.78,885.50,894.12,899.73,903.50,906.45,909.44,913.39,917.41,920.31,921.43,922.26,923.37,924.88,926.76
510.81,509.43,508.44,507.80,507.34,506.90,506.15,506.41,507.98,510.64,513.34,516.02,518.55,520.90,523.00,524.99,526.84,528.23,529.11,530.34,531.95,533.66,535.45,537.45,539.70,543.12,547.17,551.07,554.16,556.95,559.38,561.44,563.25,564.69,564.68,563.65,562.53,561.59,563.57,566.69,569.19,570.01,570.23,570.31,570.41,570.53,570.54,570.48,570.42,570.36,570.34,570.13,569.24,567.32,564.25,560.93,557.06,553.07,549.89,547.36,545.31,543.70,542.58,541.63,540.60,539.57,538.61,537.81,536.81,535.27,533.31,530.74,526.36,521.25,516.14,512.67,514.42,516.15,517.66,518.94,519.84,520.50,521.27,522.19,523.28,524.51,525.80,527.08,528.29,529.34,530.24,531.03,531.75,532.42,533.10,533.87,534.65,535.44,536.27,537.07,538.08,539.18,540.08,541.06,542.04,543.01,543.99,544.78,545.68,546.86,548.30,549.79,550.88,551.83,552.96,554.54,556.07,557.38,558.55,559.63,560.59,561.55,562.76,564.19,565.66,567.19,568.65,570.23,572.08,573.95,575.76,577.56,579.24,580.50,581.41,582.31,583.26,584.28,585.29,586.06,587.03,588.35,589.54,590.61,591.25,591.31,590.62,590.44,591.08,592.27,593.84,595.60,597.25,598.94,600.90,603.52,606.43,609.15,611.32,612.59,613.94,615.38,617.19,619.33,620.90,622.59,624.25,625.79,627.21,628.36,629.26,630.03,630.71,631.37,632.72,633.87,634.95,637.40,639.75,642.00,644.12,645.98,647.13,648.47,650.43,653.21,656.49,659.03,661.30,663.53,665.69,667.55,669.50,671.57,673.72,675.87,677.79,680.04,682.78,685.47,687.55,689.80,692.87,697.22,700.55,704.15,708.14,712.29,715.94,719.71,723.50,727.33,731.44,736.17,739.61,741.10,740.66,741.48,746.45,752.13,757.31,763.19,769.60,775.66,781.00,785.40,789.84,794.64,799.66,804.78,809.77,814.31,818.68,823.01,827.34,832.42,838.81,846.68,855.99,864.57,870.94,876.11,882.05,892.57,899.38,903.65,906.76,909.81,913.28,916.71,919.12,919.94,920.61,921.75,923.48,925.70
508.05,507.51,506.55,505.92,505.46,504.88,504.25,505.52,507.92,510.82,513.52,516.13,518.56,520.74,522.51,524.37,526.09,527.41,528.34,529.62,531.09,533.22,535.90,538.66,541.37,544.98,548.96,552.63,556.04,558.77,560.73,562.10,563.47,563.35,562.44,561.13,559.54,557.81,559.08,562.66,567.21,569.54,570.13,570.25,570.33,570.41,570.36,570.29,570.24,570.21,570.12,569.62,568.25,565.90,563.13,560.17,556.69,553.10,550.22,547.69,545.08,542.64,540.71,539.29,538.39,537.60,536.79,536.01,535.09,533.77,532.08,529.68,525.32,520.33,515.31,511.71,512.95,514.61,516.18,517.71,519.26,520.39,521.56,522.77,523.99,525.28,526.53,527.80,529.03,530.04,530.97,531.73,532.37,533.00,533.63,534.27,534.98,535.75,536.53,537.21,537.93,538.77,539.75,540.76,541.80,542.93,544.18,545.40,546.59,547.81,549.09,550.35,551.35,552.28,553.25,554.29,555.34,556.47,557.65,558.91,560.32,561.66,563.05,564.51,565.99,567.52,569.00,570.61,572.47,574.38,576.24,578.08,579.78,580.98,582.04,583.00,583.96,585.01,586.01,586.74,587.45,588.26,589.11,589.99,590.35,590.03,589.15,589.84,591.42,593.31,595.25,597.28,598.95,600.40,601.83,603.62,606.08,608.41,610.32,611.72,613.60,615.84,618.11,620.14,621.60,623.17,624.35,625.07,625.61,626.32,626.63,627.31,629.01,630.43,632.16,633.86,635.57,638.00,640.37,643.06,645.81,647.95,649.02,650.19,652.05,654.80,657.83,660.47,662.84,665.10,667.39,669.67,672.27,674.80,676.80,678.33,679.24,681.05,684.08,687.06,689.36,692.08,695.47,699.33,702.53,705.66,708.84,712.09,715.38,718.61,721.86,725.15,728.65,732.55,735.95,737.82,737.68,738.86,744.46,751.31,757.87,764.01,770.03,775.70,780.86,785.24,789.59,794.36,799.26,804.10,808.80,813.27,817.57,821.77,826.06,830.73,836.32,843.70,853.60,863.39,871.13,877.54,884.06,893.59,899.79,903.94,907.18,910.26,913.00,915.79,917.71,918.23,918.92,920.21,922.24,924.84
505.04,505.33,504.62,504.12,503.72,503.08,502.60,504.50,507.55,510.84,513.57,516.21,518.69,520.78,522.25,523.81,525.37,526.70,527.80,529.11,530.77,533.41,536.81,539.97,542.94,546.29,549.85,553.40,556.95,559.54,561.16,561.97,562.40,561.81,560.39,558.39,555.99,553.48,553.70,557.62,564.60,568.60,569.88,570.19,570.25,570.28,570.23,570.15,570.07,569.86,568.94,567.73,565.95,563.58,561.19,558.62,555.88,553.10,550.39,547.65,544.77,541.94,539.37,537.37,536.41,535.72,534.99,534.24,533.34,532.13,530.17,526.85,522.35,517.75,513.58,510.97,512.29,514.15,516.35,518.53,520.08,521.16,522.32,523.54,524.73,525.88,526.97,528.05,529.09,530.03,531.05,531.90,532.64,533.38,534.08,534.72,535.40,536.16,536.86,537.52,538.20,538.96,539.90,540.96,542.12,543.35,544.63,545.94,547.23,548.50,549.73,550.80,551.75,552.70,553.68,554.69,555.70,556.73,557.78,558.94,560.42,561.83,563.26,564.73,566.20,567.71,569.21,570.85,572.70,574.55,576.37,578.17,579.85,581.20,582.33,583.19,583.87,584.44,585.12,585.69,586.18,586.66,587.41,588.22,588.41,588.27,588.77,590.22,591.99,593.99,596.24,598.51,600.33,601.81,603.13,604.62,606.44,608.24,609.96,611.75,613.93,616.36,618.64,620.41,621.42,622.30,622.88,623.21,623.64,625.03,626.61,628.33,630.24,631.65,633.32,635.00,636.67,638.78,641.93,645.29,648.36,650.65,652.16,653.43,655.08,657.43,660.32,663.20,665.88,668.32,670.50,672.82,675.68,678.39,680.21,681.50,682.64,684.60,687.30,689.22,691.49,694.22,697.28,700.45,703.28,705.91,708.50,711.17,714.11,717.01,719.65,722.21,725.35,728.95,732.18,734.55,735.89,737.85,743.49,750.69,758.09,764.62,770.49,775.70,780.37,784.56,788.66,793.39,798.36,803.18,807.83,812.25,816.37,820.34,824.58,829.14,834.41,841.47,851.47,862.07,871.00,878.94,886.50,894.39,900.02,904.19,907.57,910.61,913.06,914.75,915.82,916.48,917.53,919.25,921.62,924.42
502.20,503.01,502.63,502.32,502.01,501.44,501.12,503.28,506.81,510.70,513.52,516.28,518.81,520.86,522.10,523.35,524.81,526.25,527.53,528.83,530.75,533.83,537.66,541.03,544.10,547.04,550.10,553.49,557.05,559.63,561.08,561.37,560.81,559.88,558.04,555.45,552.46,549.48,549.12,553.26,561.69,567.07,569.30,570.06,570.17,570.14,569.89,569.58,569.23,568.63,566.94,565.10,563.08,560.86,558.66,556.38,554.33,552.34,549.98,547.15,544.19,541.12,538.03,535.48,534.44,533.81,533.15,532.40,531.05,529.27,526.56,522.35,518.14,514.52,511.73,510.49,512.10,514.23,516.95,519.62,521.03,521.96,522.98,524.10,525.23,526.26,527.18,528.06,528.91,529.78,530.87,531.83,532.68,533.52,534.31,535.01,535.73,536.50,537.17,537.86,538.56,539.29,540.19,541.33,542.60,543.89,545.15,546.44,547.75,549.06,550.27,551.23,552.17,553.16,554.19,555.26,556.33,557.32,558.27,559.30,560.67,562.06,563.49,564.94,566.39,567.84,569.34,570.98,572.80,574.55,576.32,578.03,579.67,581.17,582.27,582.97,583.34,583.44,583.71,584.12,584.43,584.69,585.36,586.09,586.44,586.96,588.97,590.91,592.64,594.52,596.85,599.17,601.11,602.77,604.25,605.71,607.12,608.55,610.16,612.20,614.45,616.66,618.61,620.01,620.58,620.74,620.92,621.27,622.02,624.16,627.06,629.76,631.57,632.99,634.75,636.42,637.94,639.85,643.81,647.78,651.11,653.62,655.64,657.11,658.62,660.63,663.48,666.69,669.69,672.21,674.08,676.31,679.12,681.81,683.61,684.93,686.39,688.33,690.37,691.22,693.33,695.82,698.32,700.75,703.03,705.27,707.53,709.91,712.61,715.39,717.73,719.87,722.80,726.31,729.40,732.14,734.78,737.41,742.85,750.12,758.15,764.97,770.70,775.49,779.68,783.64,787.44,792.00,797.00,802.04,806.72,811.15,815.12,818.84,823.00,827.66,832.82,839.56,849.26,860.44,870.45,879.75,888.27,894.84,900.14,904.34,907.78,910.68,912.72,913.37,913.85,915.02,916.67,918.83,921.44,924.34
500.08,500.49,500.54,500.48,500.31,500.03,499.95,501.57,505.26,510.19,513.29,516.26,518.85,520.86,522.07,523.10,524.73,526.45,527.81,529.00,531.17,534.31,537.99,541.32,544.14,546.68,549.29,552.28,555.67,558.66,560.27,560.13,558.82,556.97,554.64,552.06,549.48,546.89,547.57,551.66,558.48,564.17,567.96,569.73,570.03,569.93,568.97,567.74,566.47,565.10,563.37,561.57,559.75,557.72,555.18,552.86,550.97,549.45,548.02,545.67,542.90,539.71,536.19,533.35,532.28,531.75,531.22,530.33,527.19,523.03,518.61,514.55,512.07,510.88,510.34,510.58,512.51,514.90,517.42,519.70,521.15,522.09,522.93,523.90,525.05,526.12,526.98,527.80,528.65,529.51,530.52,531.44,532.29,533.13,533.97,534.83,535.68,536.53,537.39,538.12,538.81,539.56,540.52,541.75,543.06,544.36,545.66,546.91,548.21,549.46,550.62,551.66,552.67,553.70,554.76,555.77,556.79,557.88,558.94,559.95,561.05,562.38,563.78,565.19,566.58,567.94,569.37,570.94,572.66,574.32,576.02,577.66,579.22,580.64,581.48,581.97,582.24,582.30,582.26,582.49,582.75,582.95,583.34,583.93,585.24,587.31,589.87,591.66,593.28,594.96,596.75,598.53,600.44,602.52,604.61,606.34,608.08,609.77,611.43,613.15,614.97,616.26,617.30,618.15,618.58,618.43,618.88,620.09,621.72,623.84,626.63,629.14,630.70,632.81,635.52,637.70,639.27,641.60,645.81,650.03,653.72,656.71,659.05,660.75,662.44,664.61,667.61,671.24,674.40,676.63,677.81,679.88,682.14,684.44,686.72,688.40,689.46,690.37,691.31,692.26,694.08,696.00,697.80,699.51,701.01,703.18,705.69,708.30,711.12,714.19,717.11,719.88,722.91,726.39,729.50,732.18,734.61,737.22,742.28,749.56,758.03,764.72,770.13,774.68,778.74,782.52,785.99,789.97,794.83,800.45,805.22,809.78,813.77,817.36,821.34,826.37,831.69,837.98,846.67,858.07,868.97,878.96,887.72,894.49,900.03,904.26,907.51,910.04,910.88,911.14,912.10,914.41,917.13,919.50,922.04,924.85
498.95,499.21,499.36,499.40,499.31,499.14,499.33,500.52,503.73,508.50,511.90,515.24,518.29,520.63,521.67,522.64,524.44,526.46,528.24,529.88,532.21,534.87,537.66,540.55,542.78,544.92,547.29,550.12,553.36,556.57,558.32,557.99,556.17,553.79,551.16,548.51,546.26,545.13,546.74,550.83,556.77,561.84,565.76,567.91,568.33,567.53,566.09,564.44,562.80,561.24,559.59,557.97,556.29,554.34,551.76,548.88,546.64,545.31,544.72,543.11,540.37,536.88,533.17,530.63,529.27,528.24,526.91,524.50,520.64,516.67,513.30,511.12,510.04,509.83,510.06,510.82,512.63,515.04,517.38,519.37,520.74,521.67,522.61,523.69,524.89,525.98,526.82,527.62,528.43,529.25,530.17,531.07,531.95,532.84,533.73,534.62,535.50,536.39,537.28,538.07,538.84,539.67,540.74,542.01,543.32,544.64,545.94,547.22,548.52,549.76,550.91,552.02,553.11,554.18,555.25,556.29,557.34,558.41,559.44,560.40,561.32,562.59,563.96,565.34,566.69,568.04,569.35,570.78,572.44,574.06,575.63,577.10,578.44,579.69,580.49,580.94,581.19,581.26,581.07,581.00,581.09,581.46,582.39,583.70,585.70,588.19,590.57,592.28,593.87,595.47,597.08,598.71,600.60,602.47,604.20,605.90,607.83,609.70,611.31,612.58,613.85,614.71,615.41,616.05,616.47,617.15,618.39,620.06,621.90,623.89,626.19,628.32,630.02,632.41,635.33,637.97,640.38,643.66,647.78,651.81,655.52,658.82,661.62,663.84,666.11,669.10,673.42,676.91,679.61,681.59,682.88,684.78,686.31,687.64,689.05,690.11,690.86,691.51,692.12,692.63,693.65,694.85,696.13,697.54,698.81,701.39,704.75,708.38,711.88,715.82,718.99,721.41,724.06,727.21,730.04,732.51,734.82,737.25,741.78,748.66,757.04,763.68,769.10,773.59,777.54,781.27,784.65,788.24,792.67,798.15,803.29,808.36,812.61,816.12,819.96,825.14,830.67,836.89,844.97,855.81,866.43,876.58,886.02,893.97,899.75,903.67,906.41,908.49,909.09,909.79,911.57,914.79,918.05,920.36,922.66,925.27
498.21,498.43,498.53,498.61,498.60,498.50,498.89,499.77,502.32,506.41,510.00,513.58,517.10,519.90,521.05,522.14,523.99,526.13,528.25,530.44,532.77,534.73,536.53,538.97,540.71,542.56,544.85,547.75,551.03,554.32,556.14,555.76,553.53,550.78,547.89,545.12,543.15,543.67,546.15,550.28,555.61,559.85,563.39,565.56,566.01,564.48,562.68,560.75,558.89,557.24,555.62,554.19,552.70,550.85,548.23,544.83,542.29,541.01,540.88,539.93,537.17,533.50,529.90,527.76,526.02,524.21,521.75,517.66,513.99,511.35,509.90,509.78,509.74,509.89,510.35,511.25,512.77,514.99,517.09,518.81,520.10,521.10,522.23,523.49,524.76,525.86,526.71,527.48,528.25,529.03,529.86,530.75,531.67,532.59,533.51,534.38,535.26,536.17,537.03,537.89,538.74,539.67,540.84,542.12,543.44,544.75,546.06,547.38,548.73,549.99,551.16,552.32,553.48,554.59,555.68,556.76,557.85,558.89,559.88,560.76,561.58,562.74,564.08,565.45,566.77,568.12,569.29,570.56,572.15,573.73,575.13,576.38,577.50,578.52,579.25,579.70,579.96,580.08,579.86,579.56,579.64,580.42,582.11,584.27,586.69,589.07,590.91,592.51,594.10,595.70,597.28,598.90,600.66,602.05,603.08,604.50,606.46,608.48,610.16,611.12,612.00,612.73,613.40,614.09,614.77,616.47,618.47,620.44,622.31,624.20,626.00,627.77,629.71,632.14,634.89,637.78,641.06,645.40,649.43,653.17,656.73,660.14,663.50,666.53,669.77,673.81,679.17,682.36,684.53,686.29,687.77,689.36,690.20,690.54,690.78,691.06,691.51,692.08,692.55,692.49,692.62,693.13,694.07,695.51,697.08,700.30,704.61,709.31,713.41,717.95,721.08,722.89,725.05,727.76,730.36,732.76,735.02,737.28,741.15,747.35,755.33,762.00,767.55,772.14,776.16,779.95,783.38,786.74,790.75,795.83,801.31,806.89,811.46,815.06,818.87,824.10,829.79,836.01,843.62,853.59,863.55,873.60,883.79,893.25,899.34,902.85,904.94,906.62,907.41,908.92,911.63,915.50,919.03,921.23,923.28,925.64
497.43,497.60,497.69,497.80,497.89,497.95,498.33,499.19,501.29,504.62,507.89,511.04,514.48,517.79,520.16,521.76,523.29,524.84,526.55,528.97,530.72,532.01,533.45,536.07,538.17,540.11,542.52,546.02,549.94,553.04,554.72,554.47,551.90,548.76,545.50,542.53,540.80,542.12,545.39,549.66,554.34,558.31,561.60,563.49,563.73,562.29,560.18,557.74,555.33,553.23,551.25,549.90,548.78,547.27,544.21,541.25,539.21,537.95,537.01,536.04,533.42,530.22,527.41,525.19,523.13,520.49,516.92,512.55,510.81,509.95,509.55,509.70,509.82,510.27,511.03,512.08,513.39,514.99,516.58,518.06,519.43,520.81,522.09,523.36,524.64,525.79,526.64,527.41,528.19,528.95,529.69,530.55,531.46,532.33,533.25,534.12,535.00,535.92,536.77,537.67,538.58,539.54,540.66,541.94,543.26,544.57,545.89,547.26,548.72,550.11,551.36,552.52,553.68,554.83,555.94,557.04,558.17,559.29,560.31,561.16,561.95,562.91,564.14,565.53,566.88,568.06,569.13,570.31,571.75,573.13,574.35,575.42,576.36,577.11,577.45,577.70,577.98,578.24,578.10,578.07,578.84,580.66,582.72,584.98,587.24,589.19,590.33,591.58,593.22,594.90,596.32,597.92,599.24,600.08,600.54,601.22,602.77,605.03,607.29,608.70,609.91,610.85,611.78,612.95,614.64,616.46,618.46,620.62,622.85,624.90,626.76,628.53,630.40,632.61,634.94,637.39,640.52,645.56,649.91,653.65,656.94,660.02,664.08,668.69,673.62,678.52,682.34,685.44,687.77,689.32,690.14,690.97,691.44,691.57,691.51,691.76,691.86,691.88,691.81,691.46,691.15,691.31,692.20,694.25,697.26,701.28,705.99,710.85,714.48,717.85,720.29,722.03,724.07,726.27,729.29,732.36,734.66,736.96,739.91,745.02,752.31,759.18,764.89,769.89,774.46,778.57,782.16,785.66,789.62,794.42,799.76,805.34,810.20,814.29,818.38,823.64,829.25,835.23,842.21,851.39,860.88,870.72,881.21,892.08,898.66,901.90,903.43,904.84,906.00,908.49,912.01,916.08,919.64,921.90,923.89,925.90
496.64,496.76,496.88,496.99,497.15,497.43,497.92,498.75,500.38,502.91,505.95,508.93,512.20,515.50,518.18,520.01,521.37,522.68,524.29,526.60,528.31,529.55,530.91,533.49,536.09,538.49,541.33,545.25,549.54,552.38,553.75,553.44,551.09,547.61,543.87,540.69,539.42,541.00,544.47,548.63,552.87,556.75,559.56,561.16,561.48,560.35,558.12,555.50,552.78,550.13,547.86,546.38,545.26,543.90,541.18,538.77,536.95,535.51,534.15,532.83,530.06,527.00,524.62,522.55,520.03,516.72,513.00,510.22,509.55,509.50,509.64,510.01,510.44,511.09,511.95,513.02,514.28,515.62,517.01,518.38,519.62,520.88,522.04,523.23,524.51,525.68,526.54,527.31,528.08,528.85,529.59,530.41,531.28,532.11,533.00,533.88,534.77,535.67,536.55,537.41,538.28,539.17,540.21,541.59,543.00,544.41,545.83,547.28,548.80,550.22,551.47,552.63,553.79,554.95,556.10,557.21,558.37,559.52,560.56,561.44,562.28,563.19,564.32,565.61,566.85,567.90,568.88,569.93,571.11,572.29,573.35,574.26,575.00,575.47,575.52,575.62,575.85,576.15,576.52,577.51,579.13,581.26,583.33,585.32,587.05,588.40,589.34,590.64,592.26,593.80,595.06,596.63,597.74,598.39,598.75,599.17,600.40,602.45,604.69,606.44,607.97,609.38,610.86,612.58,614.67,616.65,618.57,620.70,623.45,625.89,627.81,629.82,632.36,634.64,636.50,638.58,641.69,646.87,650.87,654.13,657.02,660.08,665.64,670.98,676.05,680.72,683.84,686.86,689.13,690.45,690.98,691.57,691.83,691.73,691.41,691.56,691.50,691.28,690.90,690.20,689.19,689.29,690.83,694.00,698.24,702.57,706.99,711.27,714.19,716.49,718.31,719.98,722.10,724.49,728.15,731.79,734.10,736.39,738.85,743.17,749.65,756.24,762.14,767.53,772.48,776.91,780.99,784.76,788.84,793.66,798.78,804.26,809.31,813.77,818.03,823.14,828.67,834.54,841.22,849.97,858.72,867.98,878.44,890.29,897.89,901.50,902.94,904.42,905.95,908.72,912.31,916.19,919.53,921.63,923.35,924.99
495.84,495.94,496.10,496.26,496.52,497.03,497.69,498.49,499.63,501.41,504.30,507.29,510.36,513.30,515.69,517.54,518.89,520.26,522.01,524.18,526.20,527.79,529.30,531.74,534.80,537.78,541.05,545.15,549.46,551.97,552.97,552.56,550.72,546.93,542.72,539.40,538.60,540.13,543.44,547.36,551.29,555.07,557.36,558.73,559.29,558.54,556.32,553.76,550.91,547.67,545.12,543.40,542.08,540.76,538.81,536.91,535.12,533.44,531.84,529.88,526.83,523.85,521.77,520.00,517.03,513.35,510.16,509.57,509.38,509.51,509.92,510.57,511.37,512.15,513.00,514.01,515.30,516.62,518.00,519.32,520.31,521.20,522.12,523.18,524.41,525.55,526.40,527.18,527.96,528.73,529.50,530.33,531.15,531.95,532.80,533.70,534.59,535.45,536.35,537.17,537.96,538.78,539.71,541.19,542.74,544.28,545.82,547.37,548.91,550.30,551.52,552.69,553.84,555.00,556.16,557.32,558.46,559.62,560.68,561.61,562.53,563.46,564.50,565.63,566.70,567.64,568.56,569.45,570.32,571.27,572.19,572.95,573.48,573.69,573.53,573.53,573.74,574.18,575.34,577.60,579.96,581.90,583.74,585.25,586.35,587.20,588.24,589.78,591.29,592.59,593.69,595.19,596.24,596.99,597.59,598.18,599.32,600.98,602.92,604.86,606.64,608.56,610.66,612.89,614.94,617.03,618.94,621.07,624.34,627.16,629.38,631.92,635.31,637.80,639.26,641.10,644.22,648.97,652.31,654.97,657.48,660.72,667.68,673.03,677.34,681.22,684.14,686.99,689.04,690.18,690.66,691.28,691.46,691.21,690.73,690.72,690.48,690.01,689.30,688.31,686.95,687.50,690.14,694.50,699.50,703.74,707.48,710.75,712.84,714.28,715.62,717.22,719.56,722.52,726.91,731.08,733.44,735.71,737.97,741.76,747.48,753.62,759.65,765.28,770.46,775.18,779.88,783.98,788.30,793.34,798.27,803.60,808.69,813.31,817.59,822.43,827.83,833.66,840.22,848.60,856.59,865.19,875.49,888.01,897.01,901.42,903.07,904.79,906.58,909.13,912.28,915.72,918.69,920.54,921.98,923.36
495.02,495.17,495.46,495.90,496.45,497.09,497.78,498.51,499.36,500.74,503.56,506.50,509.30,511.78,513.75,515.51,517.12,518.83,520.87,523.54,526.03,528.13,530.10,532.65,535.82,538.82,541.90,545.50,549.20,551.28,552.06,551.68,550.23,546.23,541.95,538.68,537.72,539.23,542.33,546.03,549.75,552.99,555.17,556.59,557.28,556.86,554.73,552.36,549.49,545.66,542.62,540.67,539.25,538.04,536.62,534.94,533.24,531.46,529.26,526.21,523.12,520.81,519.59,518.12,515.08,511.94,509.72,509.36,509.40,509.63,510.25,511.45,512.33,513.17,514.04,515.04,516.34,517.65,518.96,520.13,520.92,521.76,522.63,523.52,524.47,525.45,526.28,527.08,527.89,528.66,529.44,530.25,531.10,531.93,532.77,533.64,534.50,535.36,536.23,537.06,537.92,538.79,539.71,541.09,542.60,544.17,545.76,547.36,548.92,550.31,551.53,552.69,553.85,555.01,556.17,557.32,558.43,559.57,560.65,561.63,562.56,563.49,564.45,565.44,566.40,567.29,568.09,568.82,569.50,570.13,570.82,571.43,571.85,571.89,571.58,571.51,571.97,573.26,575.42,578.11,580.45,582.06,583.35,584.34,585.29,586.33,587.61,589.05,590.38,591.52,592.51,593.68,594.77,595.85,596.99,598.37,600.06,601.94,603.88,605.76,607.56,609.65,611.97,614.25,616.01,617.87,620.15,622.96,626.24,629.01,632.64,636.41,639.40,641.95,643.45,645.30,648.04,651.35,654.52,657.21,659.78,663.18,669.01,673.59,677.36,680.73,683.15,685.45,687.27,688.44,688.81,689.27,689.59,689.69,689.59,689.39,688.41,686.78,684.94,684.02,684.68,687.22,691.14,695.76,700.25,703.86,706.81,709.11,710.36,711.37,712.52,714.14,716.73,720.04,725.20,730.13,732.77,735.10,737.36,740.98,746.43,752.61,758.39,763.79,768.92,773.90,778.88,783.30,787.98,793.35,798.37,803.53,808.26,812.47,816.55,820.95,825.97,831.61,838.04,845.46,853.25,861.86,872.14,885.05,895.88,901.34,903.18,905.02,906.74,908.70,911.08,913.85,916.37,918.24,919.95,921.63
494.37,494.72,495.20,495.82,496.52,497.21,497.90,498.60,499.36,500.61,503.34,506.21,508.85,511.17,513.11,515.05,516.85,518.73,520.97,523.97,526.86,529.35,531.59,534.12,536.92,539.68,542.39,545.15,548.06,549.85,550.63,550.41,549.08,545.38,541.41,538.20,536.78,538.27,541.14,544.56,548.09,551.12,553.14,554.56,555.48,555.44,553.60,551.31,548.22,543.82,540.48,538.39,536.87,535.60,534.28,532.69,530.73,528.41,525.66,522.75,520.38,518.82,517.95,516.41,513.58,511.08,509.60,509.22,509.37,509.67,510.36,511.68,512.68,513.66,514.65,515.71,516.93,518.16,519.37,520.43,521.19,522.03,522.86,523.67,524.49,525.38,526.20,527.02,527.86,528.63,529.40,530.23,531.08,531.92,532.77,533.63,534.48,535.33,536.17,537.05,537.95,538.86,539.77,541.11,542.61,544.18,545.77,547.36,548.92,550.30,551.50,552.65,553.79,554.94,556.09,557.21,558.30,559.42,560.48,561.45,562.35,563.27,564.18,565.09,565.98,566.61,567.19,567.76,568.28,568.73,569.29,569.80,570.16,570.23,570.06,570.26,571.09,572.83,575.38,577.99,580.11,581.50,582.48,583.40,584.43,585.62,586.96,588.37,589.72,590.99,592.17,593.41,594.67,595.96,597.38,599.19,601.23,603.32,605.31,607.11,609.00,611.49,614.12,616.50,618.39,620.49,623.15,626.35,629.75,632.99,636.81,640.60,643.59,646.15,647.59,649.21,651.46,653.92,656.78,659.45,662.00,664.92,669.13,672.73,675.95,678.97,681.29,683.27,684.93,686.11,686.50,686.85,687.13,687.23,686.97,686.25,684.67,682.61,680.84,681.16,683.40,686.99,691.32,695.88,699.97,702.99,705.25,706.82,707.65,708.58,709.72,711.33,714.06,718.21,723.78,728.98,732.10,734.49,736.72,739.85,744.68,751.68,757.52,762.80,767.91,772.96,777.87,782.74,787.92,793.48,798.57,803.36,807.58,811.33,815.12,819.00,823.55,828.78,834.68,840.95,848.11,856.59,867.00,879.80,892.33,899.61,902.51,904.14,905.67,907.23,909.09,911.29,913.28,915.31,917.48,919.68
493.94,494.60,495.26,495.95,496.64,497.34,498.04,498.73,499.54,500.84,503.50,506.28,508.90,511.31,513.55,515.87,517.79,519.72,522.09,525.05,528.09,530.71,532.96,535.21,537.26,539.61,541.89,543.75,545.88,547.48,548.42,548.47,547.13,544.21,540.87,537.75,535.80,537.26,539.88,542.99,546.35,549.43,551.29,552.70,553.84,554.19,552.79,550.43,546.90,542.04,538.63,536.48,534.85,533.37,531.75,530.02,527.56,524.52,521.51,519.73,518.55,517.64,516.68,514.91,512.48,510.57,509.52,509.11,509.28,509.63,510.26,511.38,512.52,513.69,514.86,515.99,517.09,518.20,519.30,520.33,521.16,522.01,522.82,523.62,524.47,525.33,526.17,527.02,527.85,528.63,529.40,530.23,531.08,531.92,532.77,533.63,534.48,535.33,536.18,537.09,538.00,538.91,539.83,541.21,542.72,544.26,545.81,547.35,548.89,550.25,551.41,552.56,553.65,554.76,555.89,556.97,558.03,559.12,560.16,561.10,561.96,562.88,563.76,564.61,565.37,565.58,565.90,566.31,566.72,567.12,567.62,568.12,568.55,568.84,569.07,569.76,570.99,572.77,575.11,577.30,579.12,580.43,581.40,582.61,583.89,585.16,586.46,587.90,589.45,591.03,592.61,594.25,595.75,597.14,598.59,600.48,602.63,604.84,606.90,608.68,610.83,613.86,616.88,619.39,621.81,624.51,627.48,630.72,634.32,638.24,641.19,643.95,647.23,649.74,650.99,652.23,653.98,656.17,658.55,661.03,663.37,665.34,667.87,670.49,673.22,676.03,678.55,680.47,682.09,683.37,683.95,684.24,684.30,684.01,683.12,681.63,679.74,678.13,677.74,680.07,683.15,686.69,690.57,694.73,698.61,701.21,702.92,704.06,704.91,705.98,707.27,708.94,711.74,717.14,722.82,727.79,731.46,733.88,736.07,738.50,742.45,750.63,756.79,762.15,767.29,772.25,776.79,782.05,787.71,793.33,798.51,802.85,806.51,809.83,813.31,816.68,820.74,825.42,830.50,835.64,841.74,849.62,859.74,871.71,885.67,895.44,900.42,902.05,903.54,904.94,906.50,908.30,909.87,912.18,914.89,917.66
494.00,494.69,495.38,496.08,496.77,497.47,498.16,498.86,499.71,501.11,503.80,506.58,509.23,511.76,514.20,516.60,518.72,520.98,523.54,525.64,527.70,529.63,531.33,532.66,533.86,535.75,537.95,539.94,541.79,543.09,544.06,544.53,543.80,541.87,539.31,536.65,534.83,536.21,538.61,541.52,544.77,547.61,549.78,551.27,552.20,552.61,551.63,548.93,544.88,540.08,536.87,534.64,532.89,531.24,528.87,526.25,523.58,521.09,519.16,517.86,516.90,516.08,515.26,514.18,512.12,510.43,509.51,509.09,509.19,509.54,510.20,511.28,512.44,513.58,514.71,515.82,516.95,518.08,519.18,520.20,521.05,521.90,522.70,523.50,524.36,525.25,526.11,526.96,527.80,528.63,529.40,530.23,531.08,531.92,532.77,533.66,534.54,535.39,536.24,537.11,537.99,538.87,539.83,541.22,542.71,544.20,545.69,547.19,548.69,550.04,551.22,552.28,553.31,554.33,555.37,556.42,557.32,558.42,559.58,560.65,561.52,562.43,563.32,563.98,564.08,563.99,564.25,564.67,565.06,565.49,565.89,566.57,567.54,568.44,569.00,569.91,571.25,572.97,574.83,576.60,578.23,579.68,581.01,582.52,584.07,585.60,587.13,588.65,590.24,591.88,593.56,595.25,596.85,598.35,599.93,602.10,604.25,606.39,608.56,610.85,613.55,616.72,619.71,622.34,625.26,628.21,631.14,634.15,637.43,640.69,643.07,645.23,647.78,649.89,651.03,652.22,653.79,655.50,657.53,659.53,661.24,662.50,664.12,666.30,669.03,672.03,674.31,676.27,678.33,680.29,681.43,681.68,681.42,680.63,679.13,677.22,675.49,675.55,677.80,681.00,683.93,686.61,689.32,692.44,695.81,698.17,699.86,701.20,702.34,703.58,705.28,707.51,710.57,717.25,722.88,727.27,730.98,733.39,735.62,737.87,741.45,749.46,755.77,761.30,766.53,771.38,775.49,780.05,785.25,791.02,796.72,801.11,804.50,807.43,810.80,814.19,817.96,822.17,826.84,831.52,836.39,841.92,848.70,857.83,872.42,884.96,893.57,898.34,901.11,902.55,903.72,905.31,907.53,910.44,913.44,916.27
494.13,494.82,495.52,496.21,496.90,497.57,498.24,498.91,499.77,501.20,503.96,506.75,509.45,512.07,514.57,516.92,519.03,521.18,523.33,524.74,525.97,527.27,528.53,529.32,530.03,531.42,533.22,535.03,536.55,537.79,538.96,539.94,540.10,538.99,537.10,535.14,534.21,535.60,537.68,540.20,543.10,545.72,548.04,549.61,550.41,550.69,549.73,546.77,542.63,538.36,535.33,532.86,530.64,528.36,525.39,522.70,520.46,518.70,517.47,516.31,515.34,514.48,513.77,513.38,511.81,510.36,509.47,509.04,509.08,509.45,510.11,511.16,512.29,513.41,514.50,515.60,516.75,517.91,519.03,520.07,520.92,521.77,522.58,523.40,524.26,525.16,526.04,526.90,527.75,528.60,529.42,530.25,531.10,531.96,532.81,533.70,534.58,535.42,536.27,537.14,538.00,538.87,539.83,541.17,542.62,544.05,545.48,546.92,548.37,549.67,550.79,551.76,552.75,553.68,554.60,555.56,556.47,557.63,558.87,560.04,561.01,561.95,562.67,562.99,562.65,562.36,562.54,563.00,563.58,564.39,565.18,566.28,567.69,568.94,569.68,570.57,571.84,573.51,575.04,576.50,577.99,579.52,581.14,582.84,584.57,586.31,587.99,589.60,591.21,592.86,594.56,596.26,597.92,599.65,601.63,604.07,606.28,608.37,610.54,613.08,616.11,619.14,621.93,624.53,627.53,630.44,633.20,635.87,638.57,641.00,642.87,644.56,646.35,648.01,649.20,650.50,652.04,653.48,655.21,656.83,658.13,659.04,660.27,662.02,664.38,667.15,669.35,671.55,673.81,675.91,677.24,677.62,677.35,676.47,674.86,673.11,672.37,674.09,678.06,681.33,683.81,685.84,687.76,689.99,692.57,694.52,696.11,697.65,699.40,701.21,703.62,706.63,710.23,717.51,722.86,726.55,729.92,732.57,734.89,737.12,740.46,747.80,754.24,759.88,765.03,769.74,773.63,777.62,782.18,787.54,793.27,797.95,801.48,804.37,807.74,811.36,815.06,818.96,823.26,827.72,831.84,835.84,840.21,846.48,858.80,871.52,882.30,889.76,893.99,896.90,899.52,902.29,905.43,908.90,912.07,914.78
494.21,494.89,495.60,496.29,496.96,497.59,498.22,498.85,499.65,501.05,503.84,506.63,509.39,512.03,514.44,516.64,518.50,519.96,521.04,522.11,522.94,523.88,524.92,525.74,526.46,527.35,528.38,529.46,530.56,532.01,533.57,535.04,536.16,535.66,534.34,533.31,533.88,535.36,537.05,538.98,541.27,543.77,545.95,547.49,548.32,548.34,546.96,543.96,540.31,536.96,534.05,531.18,528.07,524.70,521.46,519.78,518.60,517.47,516.23,514.94,513.85,512.91,512.25,512.27,511.36,510.25,509.38,508.89,508.94,509.33,510.00,510.96,512.05,513.18,514.30,515.40,516.56,517.72,518.87,519.94,520.79,521.64,522.49,523.33,524.18,525.04,525.95,526.83,527.68,528.54,529.43,530.31,531.16,532.01,532.86,533.71,534.57,535.42,536.27,537.18,538.06,538.91,539.82,541.08,542.45,543.83,545.17,546.55,547.93,549.12,550.11,550.99,551.95,552.82,553.60,554.42,555.55,556.81,558.05,559.21,560.36,561.32,561.71,561.56,561.13,560.80,560.96,561.54,562.50,564.07,565.74,567.44,569.06,570.28,571.02,571.74,572.77,574.40,575.84,577.14,578.49,580.00,581.74,583.51,585.31,587.11,588.82,590.50,592.14,593.79,595.48,597.17,598.87,601.00,603.61,606.28,608.65,610.73,612.75,615.11,618.11,620.75,623.16,625.55,628.16,630.80,633.29,635.56,637.58,639.29,640.69,641.94,643.17,644.38,645.77,647.30,648.89,650.39,651.90,653.35,654.60,655.54,656.86,658.13,659.65,661.69,664.07,666.63,668.73,670.24,671.28,671.92,672.02,671.53,670.43,669.58,670.57,673.58,677.79,680.41,682.36,684.15,685.89,687.57,689.16,690.52,691.87,693.55,696.16,698.97,702.32,706.20,710.62,717.56,722.31,725.29,727.99,731.23,733.75,736.03,739.20,745.46,752.10,757.79,762.63,767.12,771.07,774.86,778.79,783.14,788.19,793.24,797.35,800.62,804.10,808.08,811.98,815.80,819.74,824.12,828.11,831.92,835.69,839.71,846.73,856.45,867.14,876.02,881.70,887.52,893.55,899.11,903.37,907.28,910.51,912.96
493.93,494.47,495.25,495.97,496.61,497.22,497.84,498.50,499.25,500.44,502.75,505.49,508.44,511.17,513.22,515.13,516.75,517.96,518.70,519.33,519.94,520.60,521.33,522.09,522.83,523.67,524.59,525.60,526.76,528.03,529.32,530.61,531.78,532.08,531.86,531.69,532.31,533.71,535.27,537.14,539.44,541.71,543.62,544.89,545.46,545.25,543.78,541.15,538.21,535.64,532.94,529.75,526.01,522.10,519.28,518.18,517.32,516.24,514.99,513.69,512.46,511.43,510.79,510.84,510.43,509.78,509.08,508.56,508.63,509.07,509.75,510.68,511.82,512.98,514.13,515.26,516.42,517.54,518.68,519.76,520.66,521.51,522.36,523.23,524.12,524.97,525.85,526.73,527.62,528.47,529.35,530.24,531.12,531.97,532.82,533.67,534.51,535.37,536.22,537.13,538.01,538.87,539.76,540.97,542.32,543.68,544.99,546.24,547.35,548.37,549.29,550.10,550.88,551.65,552.49,553.49,554.65,555.83,556.98,558.04,558.88,559.63,559.91,559.72,559.37,559.49,560.37,561.64,563.06,564.80,566.60,568.39,570.07,571.38,572.30,573.06,573.95,575.29,576.63,577.84,579.04,580.43,582.21,584.00,585.79,587.60,589.37,591.01,592.63,594.24,595.86,597.51,599.27,601.63,604.63,607.64,610.09,612.10,613.93,615.93,618.38,620.56,622.36,624.05,626.64,629.60,632.14,634.17,635.96,637.36,638.38,639.24,640.09,640.98,642.15,643.61,645.31,647.12,648.65,650.04,651.34,652.54,653.94,655.23,656.67,658.52,660.66,663.07,664.96,666.27,667.41,668.15,668.34,668.01,667.45,668.09,669.95,672.76,676.03,678.46,680.41,682.10,683.65,685.07,686.39,687.88,689.60,691.72,694.60,697.71,701.39,705.68,710.47,715.98,719.94,722.58,724.95,729.33,732.26,734.70,737.55,741.94,749.31,755.30,759.67,763.83,767.82,771.63,775.35,779.08,783.17,788.00,792.47,796.34,800.06,804.14,808.63,812.98,816.76,820.76,824.77,828.75,832.59,836.13,840.69,847.68,856.53,865.72,873.10,879.52,886.70,895.02,901.30,905.49,908.42,910.47
493.39,493.94,494.79,495.51,496.13,496.77,497.39,498.02,498.69,499.60,501.31,503.73,506.65,509.47,511.45,513.24,514.69,515.73,516.30,516.57,517.06,517.46,517.83,518.48,519.04,519.83,520.78,521.88,523.44,524.64,525.72,526.84,527.94,528.82,529.48,530.00,530.60,531.80,533.29,535.13,537.39,539.40,540.98,541.92,542.20,541.83,540.53,538.43,536.13,534.02,531.49,527.97,523.87,519.84,517.33,516.42,515.80,515.00,513.90,512.61,511.29,510.18,509.54,509.55,509.42,509.09,508.60,508.12,508.25,508.75,509.43,510.32,511.48,512.66,513.84,515.02,516.19,517.33,518.48,519.59,520.52,521.40,522.25,523.13,524.05,524.90,525.75,526.64,527.55,528.40,529.25,530.14,531.03,531.88,532.75,533.60,534.45,535.30,536.15,537.05,537.93,538.78,539.67,540.85,542.15,543.44,544.65,545.79,546.71,547.60,548.50,549.27,549.88,550.53,551.38,552.50,553.66,554.76,555.75,556.56,557.09,557.65,557.85,557.78,557.96,558.88,560.41,562.13,563.80,565.50,567.22,568.96,570.64,571.95,573.04,573.93,574.81,575.94,577.19,578.33,579.46,580.78,582.57,584.36,586.13,587.90,589.71,591.30,592.88,594.47,596.01,597.60,599.32,601.69,604.74,607.85,610.35,612.31,613.99,615.73,617.77,619.57,620.88,622.01,624.36,627.43,630.23,632.47,634.14,635.35,636.11,636.69,637.30,637.78,638.71,640.09,641.86,643.85,645.48,646.90,648.27,649.67,651.12,652.57,654.15,655.96,657.89,659.99,661.65,662.86,664.03,664.93,665.19,665.10,665.26,666.97,669.15,671.38,673.58,675.75,677.78,679.70,681.47,683.00,684.47,686.31,688.48,691.00,693.97,697.11,700.80,705.10,709.69,713.84,717.07,719.46,721.63,726.38,730.27,733.39,736.10,739.22,746.80,752.90,756.98,760.79,764.59,768.36,771.98,775.40,778.80,783.09,787.57,791.89,795.95,800.19,805.14,810.05,814.04,817.76,821.78,825.89,829.89,833.50,836.98,841.99,848.96,857.94,866.44,873.17,880.95,891.13,899.31,903.56,906.13,907.99
492.58,493.43,494.29,495.00,495.63,496.28,496.90,497.44,497.94,498.57,499.66,501.36,503.79,506.58,509.12,511.13,512.50,513.38,513.81,513.89,514.37,514.51,514.45,514.99,515.01,515.56,516.49,517.69,519.94,521.46,522.72,523.99,525.21,526.23,527.17,528.11,529.07,530.01,531.38,533.04,534.88,536.65,537.83,538.42,538.49,538.08,537.21,535.74,533.88,531.75,529.30,525.43,521.34,517.75,515.08,513.86,513.68,513.75,513.05,511.78,510.45,509.33,508.65,508.64,508.48,508.20,507.86,507.58,507.83,508.36,509.03,509.86,510.92,512.12,513.34,514.57,515.80,517.07,518.28,519.40,520.39,521.32,522.19,523.07,523.98,524.84,525.69,526.58,527.49,528.34,529.19,530.04,530.90,531.75,532.66,533.53,534.38,535.23,536.08,536.94,537.79,538.65,539.54,540.71,541.91,543.02,544.02,545.09,546.00,546.89,547.79,548.60,549.09,549.61,550.32,551.36,552.49,553.58,554.33,554.68,555.09,555.56,555.68,555.90,557.31,559.39,561.13,562.67,564.22,565.74,567.30,568.96,570.59,571.74,572.87,573.94,575.00,576.15,577.34,578.44,579.62,581.01,582.76,584.54,586.28,588.01,589.77,591.35,592.89,594.44,595.97,597.47,598.98,601.02,603.66,606.43,608.94,610.90,612.55,614.25,616.33,617.91,619.05,620.00,621.62,624.20,627.47,630.62,632.18,633.30,633.94,634.44,634.97,634.89,635.68,637.07,638.81,640.69,642.44,644.00,645.41,646.82,648.28,649.97,651.75,653.56,655.47,657.23,658.66,659.77,660.73,661.90,662.35,662.74,663.91,665.68,667.59,669.22,670.56,672.17,674.23,676.82,679.51,681.71,683.77,686.05,688.53,691.23,694.20,697.17,700.57,704.34,707.99,711.36,714.04,716.18,718.29,722.00,727.61,732.28,735.17,738.36,745.06,750.87,755.06,758.48,761.71,765.23,768.83,772.30,775.58,779.01,782.99,787.44,791.91,796.47,801.55,806.78,811.50,815.30,819.20,823.26,827.36,831.24,834.89,839.16,844.89,853.16,861.73,869.13,877.49,887.97,897.44,901.50,903.77,905.88
492.00,492.96,493.83,494.53,495.00,495.27,495.88,496.52,497.07,497.63,498.51,499.63,501.10,503.03,505.46,507.78,509.46,510.62,511.27,511.33,511.45,511.35,511.15,511.35,511.27,511.49,511.98,512.70,514.05,516.01,518.38,520.81,522.46,523.55,524.54,525.56,526.57,527.45,528.84,530.33,531.56,532.60,533.26,533.55,533.48,533.06,532.28,531.21,529.80,527.88,525.37,521.98,518.50,515.37,512.78,511.49,511.53,512.12,512.04,510.91,509.74,508.72,507.95,507.69,507.49,507.30,507.14,507.08,507.42,508.02,508.73,509.49,510.38,511.57,512.83,514.06,515.31,516.60,517.92,519.20,520.34,521.26,522.13,522.99,523.88,524.77,525.63,526.51,527.42,528.27,529.12,529.95,530.76,531.58,532.45,533.31,534.18,535.07,535.91,536.76,537.61,538.47,539.38,540.39,541.45,542.47,543.41,544.40,545.28,546.17,547.08,547.90,548.40,548.92,549.56,550.35,551.32,552.10,552.53,552.65,552.99,553.39,554.07,555.33,557.69,559.93,561.60,563.00,564.42,565.85,567.33,568.91,570.43,571.54,572.64,573.69,574.75,575.95,577.15,578.33,579.57,581.00,582.71,584.45,586.14,587.82,589.53,591.07,592.51,593.96,595.40,596.79,598.18,599.81,601.92,604.71,607.12,609.21,611.08,612.77,614.62,615.97,617.12,618.26,619.43,621.18,624.12,627.53,629.62,631.12,631.85,632.15,632.24,631.99,632.89,634.49,636.45,638.43,640.02,641.32,642.58,644.02,645.52,647.30,649.18,651.03,652.83,654.49,655.98,657.26,658.29,659.38,660.41,661.50,662.80,664.27,666.03,667.52,668.62,669.79,671.32,674.09,677.55,680.63,683.03,685.36,687.66,690.00,692.68,695.22,698.40,702.09,705.30,708.31,710.63,712.79,715.57,719.47,726.21,731.70,734.64,737.66,743.24,749.24,754.25,757.13,759.88,763.17,766.61,769.84,772.93,776.18,779.85,783.99,788.50,793.08,798.01,803.15,808.20,812.63,816.69,820.72,824.81,828.86,832.71,836.65,841.50,848.64,857.20,866.07,875.36,885.28,895.08,900.10,903.13,905.58
491.51,492.49,493.30,493.87,494.11,494.03,494.64,495.39,496.06,496.67,497.39,498.03,498.71,499.79,501.76,504.03,505.81,507.21,508.26,508.61,508.52,508.29,508.09,508.08,508.01,507.95,507.99,508.23,508.64,510.76,513.90,517.26,519.38,520.61,521.67,522.74,523.75,524.63,525.85,526.96,527.56,527.73,527.85,527.82,527.64,527.24,526.52,525.71,524.69,523.14,520.75,518.02,515.34,512.84,510.68,509.51,509.67,510.50,510.85,509.99,509.04,508.14,507.30,506.79,506.58,506.49,506.50,506.69,507.12,507.74,508.45,509.16,509.90,511.04,512.31,513.59,514.87,516.20,517.61,519.03,520.30,521.21,522.06,522.91,523.77,524.70,525.56,526.44,527.34,528.19,529.04,529.84,530.62,531.41,532.24,533.08,533.95,534.85,535.70,536.55,537.41,538.28,539.16,539.99,540.90,541.85,542.78,543.70,544.57,545.46,546.37,547.19,547.73,548.26,548.81,549.35,550.07,550.54,550.73,550.75,551.07,551.63,553.05,555.39,558.35,560.40,561.89,563.20,564.53,565.92,567.35,568.81,570.21,571.30,572.35,573.35,574.41,575.63,576.87,578.10,579.39,580.80,582.48,584.17,585.83,587.45,589.07,590.55,591.91,593.25,594.63,595.97,597.29,598.62,600.26,602.94,605.19,607.39,609.50,611.28,612.92,614.17,615.39,616.69,617.64,618.78,621.09,624.24,626.90,628.88,629.81,629.99,629.72,629.53,630.63,632.43,634.50,636.42,637.83,638.92,640.00,641.38,642.83,644.63,646.60,648.55,650.26,651.92,653.50,654.92,656.12,657.22,658.82,660.50,661.78,662.94,664.53,666.00,667.13,668.18,669.34,672.14,676.07,679.76,682.28,684.55,686.62,688.52,690.71,692.76,695.71,699.30,702.23,705.20,707.69,710.33,713.94,718.42,725.70,731.47,734.36,737.14,741.63,747.82,753.62,756.05,758.44,761.48,764.65,767.60,770.51,773.74,777.22,781.04,785.42,789.93,794.66,799.64,804.83,809.82,814.15,818.27,822.38,826.50,830.50,834.26,838.39,844.22,852.40,862.61,873.12,883.19,893.92,899.76,903.28,905.95
491.06,492.01,492.56,492.71,492.63,492.60,493.21,493.97,494.81,495.59,495.95,496.32,496.96,497.86,498.95,500.15,501.20,502.47,504.09,505.46,505.68,505.61,505.62,505.83,505.81,505.62,505.51,505.73,506.21,507.68,510.04,512.96,515.43,517.03,518.41,519.72,520.82,521.71,522.17,522.40,522.38,521.69,521.26,520.92,520.60,520.32,519.77,519.10,518.34,517.36,515.65,513.48,511.54,510.11,509.05,508.39,508.58,509.19,509.34,508.90,508.24,507.45,506.63,506.04,505.88,505.90,506.06,506.58,507.10,507.58,508.14,508.88,509.53,510.54,511.79,513.22,514.65,516.09,517.55,518.97,520.23,521.15,522.00,522.85,523.71,524.63,525.50,526.35,527.21,528.06,528.91,529.71,530.51,531.34,532.13,532.91,533.73,534.59,535.44,536.29,537.18,538.04,538.78,539.50,540.29,541.14,542.07,542.99,543.86,544.75,545.65,546.48,547.06,547.49,547.87,548.27,548.62,548.95,549.15,549.26,549.67,550.92,553.17,556.10,559.01,560.63,561.96,563.27,564.60,565.98,567.33,568.65,569.89,570.96,571.88,572.95,574.13,575.31,576.54,577.78,579.00,580.29,581.96,583.66,585.28,586.81,588.25,589.66,591.00,592.35,593.74,595.12,596.49,597.87,599.35,601.21,603.27,605.45,607.66,609.74,611.43,612.93,614.23,615.33,616.50,617.76,619.32,621.37,624.21,626.63,627.87,628.22,628.09,628.27,629.59,631.36,633.13,634.43,635.83,637.03,638.08,639.12,640.26,642.01,644.11,646.26,648.00,649.74,651.28,652.63,654.01,655.60,657.45,659.29,660.77,661.91,663.19,664.57,666.02,667.69,669.30,672.13,675.81,679.30,681.58,683.77,685.81,687.46,688.82,690.49,693.05,696.18,698.85,702.35,706.28,710.38,714.68,719.81,726.57,731.76,734.44,736.94,740.66,746.63,752.62,754.96,757.29,759.93,762.69,765.45,768.21,771.40,774.91,778.69,782.75,787.12,791.78,796.69,801.80,806.82,811.47,815.94,820.27,824.33,828.34,831.96,835.47,839.87,846.77,857.44,869.66,882.30,896.23,901.63,904.26,906.71
490.58,491.25,491.59,491.47,491.19,491.17,491.79,492.74,493.62,494.18,494.28,494.60,495.26,496.11,496.97,497.96,498.75,499.66,500.87,501.99,502.47,502.76,503.10,503.51,503.58,503.40,503.19,503.20,503.78,505.24,507.51,510.32,512.77,514.60,516.31,517.82,518.69,519.13,519.06,518.88,518.62,517.56,516.91,516.30,515.66,515.22,514.67,514.02,513.40,512.84,511.83,510.55,509.41,508.59,507.89,507.32,507.42,507.87,507.91,507.68,507.19,506.56,505.87,505.24,505.29,505.66,506.20,506.91,507.48,507.92,508.35,508.87,509.37,510.28,511.50,512.95,514.44,515.95,517.43,518.87,520.16,521.08,521.95,522.83,523.68,524.50,525.36,526.23,527.08,527.93,528.78,529.58,530.38,531.22,532.00,532.77,533.56,534.38,535.23,536.08,536.89,537.64,538.30,538.96,539.64,540.40,541.27,542.18,543.08,544.06,545.01,545.53,545.95,546.31,546.67,547.02,547.21,547.47,547.94,548.63,549.43,551.17,553.63,556.51,559.33,560.73,561.85,563.06,564.41,565.76,567.09,568.31,569.43,570.50,571.48,572.61,573.82,574.99,576.22,577.43,578.62,579.90,581.50,583.07,584.60,586.08,587.47,588.93,590.34,591.75,593.21,594.64,596.07,597.50,598.92,600.36,602.24,604.26,606.32,608.34,610.21,611.76,613.09,614.31,615.65,617.00,618.39,620.05,622.41,624.68,626.04,626.58,626.62,627.23,628.46,629.85,631.19,632.40,633.85,635.13,636.25,637.36,638.51,640.06,641.93,643.98,645.80,647.62,649.28,650.80,652.33,654.41,656.40,658.25,659.97,661.65,663.46,665.23,666.91,668.75,671.36,674.74,678.16,680.69,682.99,685.34,687.48,689.33,691.50,694.00,696.52,698.90,701.21,705.16,708.86,712.47,716.79,721.97,727.57,731.75,734.15,736.52,739.61,745.62,752.00,754.23,756.38,758.57,760.88,763.39,766.19,769.32,772.74,776.43,780.34,784.69,789.38,794.23,799.17,804.21,809.20,814.00,818.50,822.71,826.67,830.22,833.54,837.14,842.03,850.73,863.65,880.40,895.97,901.71,904.31,906.67
490.12,490.44,490.62,490.38,490.04,490.03,490.57,491.67,492.46,492.65,492.53,492.88,493.57,494.43,495.32,496.37,497.08,497.67,498.28,498.86,499.56,500.20,500.76,501.29,501.45,501.36,501.11,500.91,501.53,503.16,505.58,508.46,510.88,512.86,514.76,516.29,516.80,516.78,516.34,515.90,515.48,514.28,513.55,512.77,511.91,511.36,510.81,510.20,509.70,509.43,508.98,508.48,507.98,507.47,506.86,506.25,506.22,506.52,506.51,506.39,506.02,505.53,505.00,504.54,504.90,505.67,506.59,507.43,508.01,508.46,508.80,509.07,509.47,510.30,511.44,512.84,514.35,515.88,517.37,518.79,520.07,520.98,521.85,522.73,523.55,524.28,525.16,526.05,526.91,527.77,528.62,529.43,530.24,531.08,531.86,532.63,533.40,534.18,534.99,535.80,536.51,537.13,537.75,538.38,538.99,539.67,540.46,541.42,542.39,543.44,544.33,544.48,544.69,545.01,545.37,545.73,545.99,546.43,547.28,548.54,549.76,551.74,554.13,556.77,559.46,560.76,561.73,562.82,564.14,565.45,566.73,567.87,568.90,569.98,571.12,572.32,573.54,574.72,575.96,577.16,578.35,579.63,581.12,582.56,584.01,585.47,586.88,588.41,589.88,591.35,592.87,594.34,595.80,597.27,598.67,599.87,601.57,603.42,605.28,607.16,609.14,610.69,612.08,613.49,614.94,616.36,617.78,619.32,621.12,623.06,624.38,625.00,625.19,626.15,627.23,628.31,629.47,630.86,632.31,633.59,634.76,635.99,637.16,638.52,640.13,641.98,643.88,645.73,647.60,649.48,651.46,654.10,656.24,658.08,660.10,662.49,664.88,666.98,668.78,670.69,674.16,677.90,680.95,682.62,685.01,687.54,689.88,692.19,695.48,698.89,701.50,703.35,705.44,709.47,712.37,714.97,718.89,723.75,728.25,731.55,733.62,735.69,737.73,743.91,751.15,753.19,754.85,756.60,758.60,761.02,764.07,767.23,770.62,774.29,778.14,782.47,787.18,792.02,796.82,801.87,807.18,812.26,816.93,821.30,825.18,828.70,832.00,835.16,838.23,844.28,857.04,877.40,894.34,900.97,903.92,906.20
