480.00,480.00,479.99,479.94,479.90,479.88,479.82,479.80,479.80,479.80,479.80,479.81,479.84,479.89,479.88,479.82,479.81,479.80,479.80,479.79,479.80,479.80,479.81,479.81,479.81,479.81,479.81,479.81,479.81,479.81,479.83,479.88,479.90,479.90,479.95,480.04,480.19,480.33,480.48,480.57,480.57,480.57,480.57,480.57,480.56,480.48,480.34,480.28,480.27,480.31,480.46,480.67,480.89,481.07,481.14,481.16,481.21,481.30,481.38,481.54,481.65,481.78,482.01,482.24,482.42,482.61,482.81,482.97,483.12,483.22,483.30,483.38,483.46,483.55,483.65,483.78,483.86,483.94,484.03,484.17,484.41,484.70,485.19,485.92,486.91,487.83,488.82,489.79,490.78,491.92,493.00,494.25,495.54,496.72,497.68,498.61,499.45,500.20,500.92,501.51,502.06,502.66,503.36,504.18,504.99,505.84,506.77,507.77,508.71,509.60,510.43,511.17,512.03,513.36,514.92,516.40,517.82,518.70,519.65,521.00,522.56,524.00,525.42,526.87,528.40,529.82,531.58,533.51,535.43,537.30,538.54,539.58,540.58,541.43,541.51,541.18,540.78,540.75,541.67,543.76,546.25,549.39,555.04,558.95,561.54,563.49,565.62,568.36,571.28,574.45,577.66,579.40,580.24,580.64,580.88,581.41,581.67,582.51,584.77,588.96,591.20,593.08,595.30,598.14,601.43,605.01,608.16,610.39,611.06,611.16,611.21,611.56,612.24,612.22,611.99,612.87,615.05,617.35,619.28,620.77,621.86,622.54,622.99,623.14,623.33,623.96,625.63,628.20,631.33,634.62,637.35,639.50,643.36,647.90,651.64,654.56,657.32,660.16,663.13,666.19,668.72,670.54,671.54,671.51,671.08,669.72,667.34,663.59,658.27,652.40,648.65,647.25,646.79,646.16,645.28,644.03,642.31,640.45,636.47,632.15,628.38,625.13,621.53,618.07,614.88,612.06,609.59,609.52,611.13,613.46,614.64,612.79,610.72,610.11,612.34,614.88,617.13,617.59,614.74,611.23,609.07,607.81,607.42,608.50,611.15,616.04,621.22,623.38,624.72,625.25,625.34,625.12,624.51,623.79,622.67,621.07
479.93,479.93,479.93,479.91,479.88,479.83,479.81,479.80,479.77,479.74,479.79,479.80,479.81,479.82,479.82,479.81,479.80,479.80,479.79,479.74,479.77,479.80,479.80,479.80,479.80,479.80,479.80,479.80,479.80,479.80,479.81,479.84,479.89,479.90,479.91,479.96,480.06,480.21,480.32,480.38,480.38,480.38,480.38,480.38,480.38,480.34,480.21,480.08,480.04,480.17,480.37,480.60,480.78,480.87,480.84,480.88,480.98,481.10,481.19,481.39,481.55,481.72,481.95,482.18,482.35,482.51,482.69,482.83,482.94,483.03,483.10,483.19,483.32,483.41,483.50,483.59,483.67,483.75,483.89,484.11,484.39,484.70,485.28,486.11,487.10,488.04,489.02,490.04,491.10,492.19,493.18,494.20,495.23,496.24,497.23,498.09,498.81,499.40,499.94,500.44,501.02,501.68,502.39,503.17,504.02,504.93,505.87,506.86,507.80,508.72,509.62,510.52,511.83,514.09,516.48,517.92,519.09,520.05,521.19,522.57,523.60,524.36,525.36,526.67,528.25,530.03,532.37,534.69,536.56,538.38,540.12,541.73,543.11,544.01,543.99,543.70,543.39,543.13,543.04,543.53,544.91,547.41,550.74,554.65,558.16,561.04,563.40,566.32,569.34,572.85,576.95,579.73,581.16,582.13,583.11,584.29,585.39,586.63,588.36,590.90,592.95,594.98,597.13,599.87,604.31,608.39,611.53,613.60,614.41,614.70,614.63,614.74,615.31,615.38,615.00,615.54,617.43,619.96,622.69,625.07,626.88,627.89,628.19,627.87,627.36,627.14,628.13,630.24,633.52,637.19,639.59,641.38,644.63,648.50,651.84,654.84,657.57,660.33,663.26,666.28,667.29,667.63,667.68,667.32,666.73,665.88,664.31,661.38,656.58,651.54,648.16,646.44,645.22,644.36,643.58,642.76,641.66,639.51,635.07,630.25,626.00,622.38,619.02,615.51,612.26,610.04,608.22,608.36,609.91,612.13,613.47,611.84,609.50,608.28,610.08,612.38,614.65,615.52,613.58,610.58,608.40,606.92,606.40,607.80,610.18,614.30,618.69,620.65,621.75,622.21,622.40,622.46,622.18,621.74,620.73,619.01
479.90,479.90,479.90,479.90,479.87,479.81,479.80,479.78,479.74,479.71,479.75,479.76,479.76,479.77,479.80,479.80,479.78,479.76,479.75,479.71,479.74,479.76,479.76,479.76,479.76,479.76,479.77,479.80,479.80,479.80,479.80,479.81,479.86,479.89,479.90,479.91,479.98,480.12,480.20,480.21,480.19,480.18,480.18,480.18,480.18,480.17,480.07,479.96,479.94,480.08,480.30,480.49,480.59,480.60,480.59,480.65,480.77,480.92,481.07,481.29,481.49,481.69,481.92,482.12,482.28,482.42,482.55,482.67,482.76,482.83,482.92,483.03,483.15,483.24,483.32,483.41,483.54,483.68,483.85,484.09,484.39,484.70,485.35,486.22,487.17,488.08,489.04,490.04,491.06,492.08,493.02,493.92,494.84,495.76,496.71,497.44,498.03,498.54,499.03,499.52,500.08,500.70,501.39,502.20,503.09,504.02,504.96,505.98,506.98,507.98,508.98,510.00,511.89,514.81,517.82,519.79,521.13,522.39,523.75,525.09,525.83,526.23,526.74,527.48,528.58,530.49,533.19,535.90,538.13,540.30,542.50,544.38,545.77,546.64,546.60,546.38,546.16,545.88,545.40,545.09,545.46,546.64,548.05,551.05,554.52,557.83,560.56,563.06,565.87,569.65,574.43,577.41,578.86,580.20,581.91,583.68,585.02,586.58,588.53,590.81,592.61,594.26,596.33,599.45,604.28,608.29,611.75,614.76,617.01,617.84,617.95,618.10,618.72,619.06,618.17,618.18,619.94,622.89,626.12,629.02,631.40,632.98,633.73,633.34,632.51,631.83,632.02,633.25,635.95,639.30,641.32,642.99,645.62,648.67,651.57,655.19,658.22,660.92,663.41,665.33,665.04,664.32,663.63,662.83,662.32,661.85,660.67,658.06,653.92,649.66,647.05,645.79,644.12,642.96,642.00,641.21,640.37,638.13,633.77,628.85,624.21,620.24,616.91,613.49,610.28,608.17,606.53,607.10,608.90,611.00,612.29,611.01,608.75,607.04,608.00,610.03,612.35,613.70,612.74,610.28,608.02,606.20,605.40,607.17,609.48,612.81,616.14,617.54,618.25,618.49,618.64,618.84,618.74,618.43,617.50,615.84
479.89,479.89,479.89,479.89,479.86,479.81,479.80,479.75,479.70,479.70,479.70,479.70,479.70,479.73,479.78,479.79,479.75,479.70,479.70,479.70,479.70,479.70,479.70,479.70,479.70,479.70,479.73,479.79,479.79,479.79,479.79,479.80,479.81,479.87,479.89,479.90,479.92,480.04,480.09,480.07,480.01,480.01,480.01,480.01,480.01,480.00,479.94,479.91,479.93,480.02,480.21,480.33,480.34,480.31,480.38,480.47,480.61,480.78,481.00,481.24,481.46,481.69,481.90,482.06,482.21,482.32,482.40,482.49,482.56,482.64,482.75,482.88,482.98,483.07,483.16,483.27,483.49,483.71,483.90,484.10,484.39,484.69,485.35,486.21,487.12,488.00,488.90,489.84,490.77,491.70,492.62,493.51,494.38,495.29,496.13,496.70,497.19,497.68,498.20,498.74,499.25,499.77,500.41,501.28,502.22,503.17,504.13,505.21,506.29,507.39,508.47,509.54,511.88,515.14,518.62,521.50,523.38,525.19,526.85,528.10,528.72,529.00,529.08,529.14,529.63,531.58,534.43,537.43,540.17,542.89,545.41,547.25,548.39,549.18,549.32,549.21,549.05,548.86,548.49,548.05,547.60,547.23,547.21,548.67,551.22,554.37,557.43,559.25,561.65,565.38,570.25,572.92,574.10,575.62,577.89,580.02,581.32,583.20,585.80,588.63,590.19,591.37,593.55,597.45,602.24,605.94,609.87,614.40,618.95,620.63,621.24,621.78,622.61,623.21,621.84,621.31,622.86,626.04,629.38,632.48,635.21,637.37,638.79,638.64,637.86,637.08,636.54,636.77,638.44,640.95,642.63,644.29,646.32,648.55,651.12,655.63,659.07,661.64,663.34,663.55,662.11,660.64,659.38,658.19,657.96,657.85,656.77,654.06,650.24,646.70,645.13,644.86,643.26,641.74,640.35,639.29,638.53,636.57,632.71,627.98,623.05,618.78,615.41,612.16,609.08,606.69,604.81,605.70,607.82,609.81,611.01,610.15,608.14,606.15,606.11,607.88,610.24,612.01,612.04,610.10,607.79,605.61,604.46,606.34,608.62,611.23,613.46,614.10,614.28,614.18,614.16,614.36,614.31,614.15,613.39,611.93
479.83,479.83,479.83,479.83,479.82,479.80,479.80,479.74,479.70,479.70,479.70,479.70,479.70,479.71,479.73,479.74,479.71,479.70,479.70,479.70,479.70,479.70,479.70,479.70,479.70,479.70,479.71,479.73,479.74,479.74,479.76,479.80,479.80,479.82,479.86,479.90,479.91,479.95,479.97,479.95,479.94,479.94,479.94,479.94,479.94,479.93,479.91,479.90,479.91,479.94,480.01,480.05,480.05,480.06,480.18,480.36,480.55,480.76,481.00,481.23,481.46,481.67,481.84,481.95,482.05,482.14,482.21,482.29,482.37,482.48,482.60,482.71,482.83,483.00,483.16,483.31,483.53,483.77,483.98,484.19,484.40,484.65,485.20,485.97,486.84,487.75,488.63,489.53,490.44,491.32,492.19,493.09,493.96,494.75,495.42,495.97,496.48,496.99,497.49,498.01,498.54,499.07,499.67,500.50,501.52,502.60,503.69,504.82,505.96,507.03,508.03,509.07,510.73,513.92,517.85,521.37,524.11,527.04,529.42,530.70,531.10,531.14,531.22,531.56,532.62,535.04,537.85,540.57,543.08,545.91,548.18,549.70,550.58,551.34,552.20,552.46,552.31,552.18,552.22,551.82,551.19,550.46,549.76,549.46,550.14,551.95,554.86,556.61,558.51,560.78,563.39,566.14,567.65,569.30,571.37,572.91,575.12,577.81,580.48,582.55,584.31,586.58,589.98,594.77,600.21,604.04,607.81,612.67,619.36,622.47,624.46,626.16,627.53,627.96,627.39,626.96,627.39,629.26,631.89,634.83,637.59,639.52,640.61,640.73,640.50,640.23,639.88,640.04,641.01,642.60,644.29,645.73,647.26,649.08,651.72,656.55,659.78,661.77,662.59,661.66,658.88,656.34,654.58,653.70,653.81,654.33,653.70,650.60,644.81,642.10,641.63,642.17,641.96,639.96,637.70,636.28,636.16,635.39,632.40,627.99,622.90,618.52,615.20,612.11,609.12,606.46,604.00,604.10,605.67,607.73,609.47,608.83,606.89,604.85,604.48,606.11,608.25,610.13,610.97,609.62,607.48,605.27,603.73,604.40,606.48,608.70,610.23,610.31,609.84,609.22,608.84,608.83,608.83,609.31,609.19,608.08
479.80,479.80,479.80,479.80,479.80,479.80,479.77,479.73,479.70,479.69,479.67,479.66,479.66,479.67,479.70,479.70,479.70,479.69,479.67,479.66,479.66,479.66,479.66,479.67,479.69,479.70,479.70,479.70,479.70,479.70,479.73,479.77,479.80,479.80,479.83,479.87,479.90,479.90,479.88,479.87,479.87,479.87,479.87,479.87,479.87,479.87,479.87,479.87,479.87,479.87,479.89,479.90,479.90,479.93,480.09,480.30,480.53,480.76,481.00,481.23,481.43,481.59,481.71,481.79,481.86,481.94,482.02,482.10,482.20,482.35,482.51,482.64,482.82,483.02,483.21,483.41,483.63,483.86,484.10,484.31,484.46,484.64,485.07,485.73,486.59,487.49,488.35,489.21,490.07,490.90,491.77,492.62,493.40,494.08,494.66,495.21,495.76,496.31,496.81,497.33,497.88,498.44,499.11,499.98,501.03,502.19,503.36,504.53,505.64,506.66,507.61,508.63,509.78,512.60,516.47,520.31,523.59,527.08,529.97,531.69,532.55,533.17,533.72,534.44,535.90,538.28,540.89,543.38,545.69,548.37,550.25,551.50,552.33,553.15,554.41,555.16,555.49,555.79,556.12,555.90,555.39,554.70,553.64,552.34,551.64,552.05,554.04,555.34,556.71,558.04,559.33,561.61,563.45,565.39,567.43,568.86,571.24,573.99,576.50,578.28,580.35,583.74,588.12,593.23,598.54,603.06,607.32,612.36,619.52,623.50,626.57,629.03,630.45,631.01,631.17,631.08,631.12,632.25,634.31,636.41,638.30,639.87,640.98,641.63,642.11,642.47,642.47,642.82,643.47,644.48,646.01,647.26,648.58,650.35,653.08,657.15,659.80,661.27,661.39,659.33,655.42,652.31,650.53,650.06,650.54,651.08,650.18,646.69,641.05,638.93,638.84,639.55,639.63,637.07,634.48,633.21,633.85,634.25,632.31,628.51,623.43,618.52,614.94,611.79,608.68,605.55,602.73,602.14,603.25,605.47,607.68,607.43,605.63,603.46,602.72,604.23,606.24,608.06,609.12,608.42,606.92,605.02,603.15,602.49,603.74,605.31,606.32,606.12,605.19,604.31,603.85,603.97,604.26,605.08,605.28,604.46
479.80,479.80,479.80,479.80,479.80,479.78,479.73,479.70,479.70,479.68,479.62,479.61,479.61,479.63,479.69,479.69,479.69,479.67,479.62,479.61,479.61,479.61,479.61,479.62,479.67,479.69,479.69,479.69,479.69,479.70,479.70,479.73,479.78,479.80,479.80,479.83,479.88,479.89,479.85,479.81,479.81,479.81,479.81,479.81,479.81,479.81,479.81,479.81,479.81,479.82,479.88,479.90,479.90,479.93,480.09,480.30,480.53,480.76,480.99,481.21,481.34,481.43,481.51,481.59,481.67,481.75,481.83,481.93,482.07,482.27,482.49,482.71,482.94,483.12,483.30,483.53,483.76,483.99,484.23,484.44,484.58,484.69,485.00,485.57,486.39,487.24,488.09,488.90,489.68,490.46,491.33,492.07,492.69,493.27,493.87,494.43,495.00,495.60,496.15,496.71,497.27,497.92,498.76,499.74,500.78,501.90,503.10,504.25,505.30,506.28,507.22,508.21,509.19,511.47,514.81,518.59,521.96,525.35,528.46,531.01,532.95,534.82,536.22,537.35,538.95,540.80,543.07,545.45,547.70,550.01,551.51,552.64,553.64,554.61,555.87,557.15,558.34,559.36,559.85,559.87,559.68,559.25,558.13,556.69,555.37,554.62,555.12,555.57,556.42,557.53,558.78,560.15,562.22,564.55,566.80,568.60,570.35,572.37,574.54,576.69,579.13,583.39,588.33,593.18,597.67,603.25,608.53,613.64,619.61,623.74,627.37,630.05,631.10,632.06,632.63,633.00,633.43,634.56,636.20,636.94,637.30,638.52,640.17,641.61,642.85,643.81,644.15,644.76,645.46,646.26,647.47,648.62,650.03,652.02,654.75,657.19,659.04,660.13,659.78,656.62,652.05,648.93,647.50,647.28,647.93,647.86,646.09,642.46,639.25,637.45,637.01,637.21,636.34,633.29,630.87,630.18,631.61,632.98,632.25,629.35,624.46,618.69,614.55,611.08,607.63,603.89,600.99,600.03,600.89,603.34,605.80,606.07,604.53,602.15,600.94,602.23,604.18,605.82,606.53,606.52,605.99,604.69,602.68,600.91,600.71,601.33,601.97,601.71,600.65,599.78,599.54,600.08,600.86,601.55,601.69,601.05
479.80,479.80,479.76,479.74,479.74,479.73,479.71,479.70,479.68,479.63,479.61,479.60,479.60,479.61,479.63,479.63,479.63,479.63,479.60,479.60,479.60,479.60,479.60,479.60,479.63,479.63,479.63,479.63,479.63,479.67,479.70,479.71,479.74,479.78,479.80,479.81,479.83,479.83,479.82,479.80,479.80,479.80,479.80,479.77,479.74,479.74,479.74,479.74,479.75,479.80,479.83,479.87,479.90,479.93,480.09,480.30,480.53,480.75,480.93,481.07,481.17,481.24,481.32,481.40,481.48,481.58,481.71,481.89,482.09,482.31,482.56,482.83,483.06,483.24,483.43,483.66,483.89,484.12,484.36,484.56,484.72,484.85,485.18,485.66,486.26,487.00,487.83,488.59,489.27,489.95,490.68,491.31,491.88,492.47,493.04,493.62,494.23,494.86,495.54,496.23,497.02,497.90,498.82,499.89,500.81,501.74,502.79,503.89,504.92,505.89,506.82,507.78,508.79,510.89,513.79,516.91,519.77,522.91,526.16,529.28,531.79,533.92,535.98,538.02,539.95,541.87,544.00,546.18,548.26,550.29,551.80,553.10,554.34,555.62,557.00,558.34,559.65,560.88,561.55,561.65,561.59,561.42,560.74,559.84,558.91,558.20,558.08,557.98,558.45,559.44,560.84,562.34,564.51,566.91,569.10,570.58,571.97,573.53,575.36,577.64,580.63,585.29,590.40,595.21,599.93,605.63,610.65,614.93,619.43,623.24,626.72,629.40,630.72,631.40,631.89,632.36,632.93,633.71,634.24,634.31,634.46,635.70,638.21,640.36,641.99,643.07,643.49,644.02,644.75,645.68,646.87,648.33,650.08,652.05,654.10,655.87,657.45,658.33,657.65,654.06,650.44,647.82,646.02,644.66,644.13,643.30,641.83,639.79,638.12,636.62,635.57,634.74,633.22,630.31,627.63,626.81,628.97,630.98,631.44,629.63,625.28,619.30,614.57,610.54,606.76,603.06,599.85,599.00,600.01,602.31,604.62,605.16,603.91,601.63,600.15,600.62,601.98,603.32,603.97,604.22,604.04,603.39,602.14,600.23,598.74,598.34,598.58,598.45,597.84,597.15,596.97,597.60,598.18,598.37,598.11,597.33
479.80,479.77,479.72,479.70,479.70,479.70,479.70,479.70,479.66,479.61,479.60,479.58,479.57,479.58,479.60,479.60,479.60,479.60,479.60,479.58,479.57,479.57,479.58,479.60,479.60,479.60,479.60,479.60,479.60,479.64,479.68,479.70,479.70,479.75,479.78,479.78,479.78,479.78,479.78,479.78,479.78,479.78,479.78,479.75,479.70,479.70,479.70,479.70,479.72,479.77,479.80,479.84,479.88,479.93,480.06,480.29,480.51,480.69,480.81,480.89,480.97,481.06,481.16,481.25,481.35,481.49,481.68,481.88,482.12,482.35,482.59,482.88,483.12,483.32,483.53,483.77,484.02,484.25,484.48,484.72,484.97,485.14,485.45,485.83,486.26,486.88,487.59,488.25,488.84,489.43,490.01,490.59,491.24,492.02,492.77,493.49,494.15,494.80,495.54,496.29,497.14,498.09,499.10,500.41,501.41,502.23,503.08,504.02,504.95,505.85,506.69,507.50,508.51,510.40,512.85,515.34,517.69,520.48,523.67,527.07,530.09,532.50,535.08,537.84,540.28,542.34,544.34,546.33,548.27,550.13,551.67,553.10,554.53,556.02,557.52,558.92,560.25,561.53,562.44,562.90,563.12,563.14,562.77,562.38,562.03,561.69,561.43,561.25,561.58,562.44,563.85,565.47,567.69,570.05,572.09,573.11,574.19,575.43,576.97,579.28,582.97,587.79,592.75,597.42,602.15,607.48,611.94,615.46,618.82,622.11,625.17,627.61,628.91,629.22,629.52,630.07,630.83,631.49,631.29,631.01,631.18,632.51,635.51,638.26,640.35,641.57,641.89,642.28,643.03,644.08,645.21,646.76,648.80,650.94,652.74,654.23,655.68,656.51,655.81,652.27,649.50,647.11,644.81,642.53,640.77,639.06,637.70,636.97,636.47,635.63,634.45,632.99,631.14,627.96,624.74,623.54,625.96,628.49,629.95,629.13,625.52,620.00,615.12,610.79,606.79,603.01,599.31,598.38,599.47,601.71,603.71,604.48,603.58,601.57,599.97,599.26,599.62,600.46,601.21,601.76,601.85,601.68,601.12,599.48,597.24,595.93,595.57,595.56,595.35,594.86,594.71,595.21,595.38,595.14,594.56,593.69
479.78,479.72,479.70,479.70,479.70,479.69,479.69,479.69,479.66,479.61,479.59,479.54,479.51,479.53,479.59,479.59,479.59,479.59,479.58,479.52,479.51,479.51,479.52,479.58,479.59,479.59,479.59,479.59,479.60,479.61,479.64,479.69,479.70,479.71,479.71,479.71,479.71,479.71,479.71,479.71,479.71,479.71,479.71,479.70,479.69,479.69,479.69,479.69,479.70,479.72,479.78,479.81,479.85,479.91,480.01,480.26,480.44,480.54,480.63,480.70,480.79,480.89,481.04,481.18,481.33,481.52,481.72,481.90,482.12,482.35,482.58,482.82,483.05,483.33,483.59,483.84,484.13,484.38,484.61,484.91,485.37,485.59,485.78,486.04,486.43,486.91,487.42,487.92,488.42,488.96,489.45,490.08,490.95,492.13,493.35,494.31,495.08,495.71,496.41,497.10,497.74,498.46,499.61,501.34,502.71,503.64,504.24,504.91,505.63,506.36,507.00,507.49,508.39,509.94,511.91,513.99,515.99,518.33,521.15,524.48,528.02,530.99,533.91,536.99,540.15,542.31,544.17,546.01,547.88,549.74,551.25,552.68,554.16,555.69,557.28,558.83,560.26,561.53,562.77,563.94,564.71,564.85,564.51,564.45,564.61,564.82,564.83,565.13,565.57,566.30,567.50,569.00,571.16,573.42,575.21,575.82,576.61,577.63,579.01,581.31,585.79,590.45,594.94,599.23,603.37,607.87,611.72,614.81,617.56,620.16,622.63,624.49,625.21,625.19,625.39,626.11,627.25,628.17,628.01,627.65,627.77,629.16,632.11,635.27,637.91,639.43,639.50,639.74,640.50,641.59,642.52,643.75,645.95,648.56,650.89,652.46,653.90,654.85,654.50,651.51,648.98,646.30,643.52,640.99,638.27,635.60,633.84,633.53,633.92,634.21,633.63,632.24,630.43,626.30,622.29,620.56,622.64,625.56,627.71,627.66,624.97,620.68,616.25,612.04,607.98,603.75,599.42,597.98,598.94,601.37,602.97,603.91,603.46,601.90,600.36,598.31,597.26,597.29,598.18,599.21,599.57,599.63,599.39,598.35,596.14,594.12,592.92,592.94,592.85,592.54,592.41,592.58,592.27,591.85,591.17,590.33
479.74,479.70,479.70,479.70,479.69,479.65,479.64,479.64,479.63,479.60,479.59,479.53,479.50,479.51,479.54,479.55,479.55,479.55,479.54,479.51,479.50,479.50,479.51,479.54,479.55,479.55,479.55,479.55,479.59,479.60,479.62,479.65,479.69,479.70,479.70,479.70,479.70,479.70,479.70,479.70,479.69,479.65,479.64,479.64,479.64,479.64,479.64,479.64,479.66,479.70,479.74,479.78,479.84,479.90,479.95,480.14,480.27,480.35,480.43,480.55,480.67,480.82,481.01,481.17,481.36,481.55,481.74,481.94,482.13,482.35,482.58,482.81,483.04,483.30,483.57,483.84,484.11,484.38,484.63,484.94,485.48,485.99,486.26,486.43,486.68,487.08,487.57,488.06,488.54,489.07,489.55,490.53,491.88,493.28,494.64,495.59,496.28,496.88,497.51,498.10,498.50,499.03,500.33,502.23,504.00,505.22,505.78,506.43,507.12,507.66,508.02,508.32,509.02,510.09,511.54,513.46,515.35,517.35,519.52,522.08,525.55,528.51,531.60,535.15,539.16,541.65,543.62,545.50,547.39,549.29,550.86,552.36,553.86,555.38,556.98,558.56,560.08,561.55,562.89,564.24,565.37,566.14,566.62,567.08,567.60,568.10,568.41,568.78,569.30,570.12,571.44,573.24,575.14,576.84,578.07,578.51,579.25,580.46,582.22,584.84,588.61,592.41,596.11,599.78,603.41,607.12,610.27,612.78,614.86,616.79,618.36,619.42,619.75,619.42,620.07,621.67,623.68,624.64,624.70,624.29,624.22,625.62,628.68,631.73,634.10,635.39,635.52,635.73,636.52,637.70,638.69,639.74,641.85,644.71,647.76,650.31,652.29,653.44,653.17,650.60,647.92,645.06,641.99,638.66,634.70,631.71,630.32,630.68,631.55,632.28,632.22,631.25,629.24,624.88,620.38,618.32,620.60,623.39,625.48,625.89,624.17,620.71,616.58,612.45,608.27,603.67,599.07,596.97,597.63,600.47,601.96,602.86,602.77,601.85,600.74,598.90,597.06,595.76,595.56,596.36,596.88,597.16,597.25,596.88,595.02,592.75,590.98,590.61,590.45,590.38,590.37,590.33,590.06,589.63,589.04,588.36
479.68,479.68,479.68,479.68,479.66,479.61,479.60,479.60,479.60,479.60,479.58,479.52,479.50,479.50,479.49,479.50,479.50,479.50,479.50,479.50,479.49,479.49,479.50,479.50,479.50,479.50,479.50,479.51,479.56,479.59,479.60,479.61,479.67,479.68,479.68,479.68,479.68,479.68,479.68,479.68,479.67,479.61,479.60,479.60,479.60,479.60,479.59,479.57,479.61,479.68,479.70,479.75,479.81,479.88,479.91,480.00,480.10,480.19,480.30,480.45,480.62,480.81,481.01,481.19,481.40,481.59,481.77,481.98,482.16,482.37,482.59,482.81,483.04,483.27,483.53,483.82,484.05,484.35,484.62,484.95,485.54,486.31,486.73,486.90,487.02,487.32,487.79,488.29,488.78,489.33,490.06,491.62,493.43,494.74,496.11,496.97,497.58,498.15,498.89,499.37,499.62,499.97,501.12,503.08,505.16,506.71,507.41,508.09,508.80,509.29,509.58,509.88,510.41,511.03,511.89,513.22,514.85,516.57,518.23,520.08,523.09,525.86,528.91,532.58,536.97,540.23,542.61,544.63,546.63,548.64,550.38,551.98,553.50,555.03,556.72,558.37,559.98,561.59,562.97,564.35,565.70,567.00,568.18,569.14,570.03,570.87,571.57,572.08,572.78,573.82,575.31,577.21,578.69,579.83,580.65,581.04,581.89,583.33,585.40,588.18,591.01,593.91,596.78,599.62,602.45,605.33,607.81,609.74,611.16,612.22,612.83,613.15,613.23,612.86,614.15,616.62,619.39,620.69,621.15,620.84,620.62,621.86,624.80,627.55,629.56,630.60,630.85,631.11,632.01,633.39,634.56,636.04,638.59,641.83,645.31,648.58,651.03,652.23,651.82,649.56,646.77,643.80,640.57,636.68,632.05,628.81,627.47,628.05,629.05,629.79,629.99,629.38,627.37,623.31,618.80,616.50,618.60,621.44,623.40,624.13,623.27,620.40,616.15,611.75,607.32,602.52,597.94,595.50,595.96,599.08,600.77,601.66,601.81,601.39,600.69,599.34,597.13,594.84,593.51,593.69,594.18,594.61,594.91,595.08,593.93,591.88,589.83,588.96,588.50,588.53,588.62,588.45,588.24,587.84,587.35,586.80
479.62,479.62,479.62,479.62,479.61,479.60,479.60,479.60,479.60,479.59,479.53,479.50,479.50,479.48,479.43,479.48,479.50,479.50,479.50,479.50,479.45,479.45,479.50,479.50,479.50,479.50,479.50,479.50,479.51,479.56,479.60,479.60,479.61,479.62,479.62,479.62,479.62,479.62,479.62,479.62,479.61,479.60,479.60,479.60,479.60,479.59,479.54,479.51,479.54,479.62,479.68,479.71,479.75,479.82,479.89,479.92,479.97,480.09,480.29,480.45,480.65,480.85,481.02,481.24,481.42,481.61,481.82,481.99,482.20,482.43,482.64,482.82,483.04,483.27,483.51,483.75,483.99,484.28,484.58,484.96,485.60,486.46,487.09,487.42,487.50,487.63,487.97,488.44,488.97,489.60,491.08,493.51,495.65,496.32,497.55,498.38,498.97,499.61,500.73,501.17,501.39,501.59,502.00,503.90,506.11,507.94,509.06,509.74,510.49,511.23,511.90,512.50,512.99,513.36,513.41,513.18,514.12,515.61,517.20,518.84,520.87,523.38,526.09,529.07,532.81,537.56,540.82,543.15,545.36,547.61,549.68,551.43,552.95,554.64,556.60,558.45,560.12,561.62,563.06,564.46,565.81,567.11,568.41,569.71,571.07,572.45,573.68,574.69,575.83,577.21,578.81,580.21,581.07,581.91,582.78,583.25,584.40,585.94,587.89,590.36,592.50,594.77,596.90,598.64,600.06,601.98,603.82,605.30,606.14,605.93,605.63,605.50,605.54,605.61,607.67,610.59,613.60,615.97,617.14,617.16,616.94,617.79,620.00,622.38,624.27,625.31,625.62,626.00,627.23,629.00,630.50,633.56,637.68,641.73,644.87,647.92,650.34,651.27,650.40,648.35,645.69,642.77,639.56,635.81,631.88,628.15,625.82,625.59,626.23,626.44,626.34,625.85,624.34,621.32,617.56,615.09,616.03,619.55,621.60,622.53,622.28,619.72,614.62,609.28,604.30,599.64,595.53,593.44,593.96,596.96,599.33,600.41,600.62,600.33,599.82,598.63,596.64,594.36,592.43,591.54,591.70,592.09,592.41,592.75,592.90,591.79,589.94,588.55,587.43,587.24,587.32,587.13,586.79,586.35,585.88,585.38
479.55,479.55,479.58,479.60,479.60,479.59,479.56,479.55,479.55,479.54,479.51,479.50,479.48,479.44,479.41,479.44,479.45,479.45,479.45,479.45,479.42,479.42,479.45,479.45,479.45,479.45,479.46,479.50,479.50,479.53,479.56,479.60,479.60,479.60,479.60,479.60,479.60,479.60,479.60,479.58,479.55,479.55,479.55,479.55,479.55,479.55,479.51,479.50,479.51,479.56,479.63,479.68,479.72,479.76,479.83,479.85,479.89,480.01,480.24,480.40,480.61,480.83,481.02,481.25,481.42,481.62,481.84,482.04,482.23,482.44,482.67,482.86,483.05,483.27,483.50,483.74,483.97,484.23,484.52,484.90,485.53,486.44,487.36,487.94,488.01,488.06,488.24,488.59,489.06,489.79,492.14,495.36,497.88,498.40,499.20,500.77,502.45,503.93,505.26,505.04,504.71,504.48,504.04,504.94,507.03,509.36,511.15,512.32,513.65,515.01,516.14,516.57,516.44,516.01,515.39,514.77,514.70,515.35,516.51,518.06,519.63,521.79,524.27,526.98,530.09,534.50,538.51,541.72,544.12,546.51,548.76,550.64,552.26,554.13,556.20,558.22,560.06,561.65,562.83,563.92,564.96,566.05,567.50,569.00,570.52,572.00,573.25,574.33,575.78,577.59,579.55,581.02,582.17,583.29,584.42,585.32,586.55,587.95,589.59,591.52,592.81,594.18,595.26,595.90,596.85,597.15,597.76,598.89,600.14,600.30,600.05,599.86,599.97,600.28,602.02,604.50,607.44,610.72,612.71,613.26,613.21,613.88,616.19,618.23,619.69,620.57,621.12,621.93,623.83,626.54,629.20,633.48,638.16,642.20,644.96,647.45,649.33,649.85,648.84,647.05,644.61,641.97,639.05,635.60,631.99,627.92,624.52,622.77,622.66,622.37,622.05,621.58,620.36,618.24,615.07,612.50,612.66,615.97,618.48,620.11,620.57,618.58,614.50,609.56,604.24,598.78,594.01,591.64,591.85,594.40,596.81,598.38,598.99,598.85,598.46,597.70,596.15,594.12,592.07,590.55,590.04,589.99,590.19,590.57,590.99,590.56,589.44,588.15,586.78,586.23,586.03,585.72,585.31,584.86,584.39,583.91
479.50,479.51,479.56,479.58,479.58,479.57,479.52,479.50,479.50,479.50,479.50,479.50,479.46,479.40,479.40,479.40,479.40,479.40,479.40,479.40,479.40,479.40,479.40,479.40,479.40,479.40,479.43,479.48,479.49,479.49,479.53,479.58,479.58,479.58,479.58,479.58,479.58,479.58,479.58,479.56,479.50,479.50,479.50,479.49,479.49,479.49,479.49,479.49,479.49,479.51,479.58,479.65,479.69,479.72,479.78,479.80,479.84,479.96,480.17,480.34,480.55,480.77,481.01,481.24,481.42,481.63,481.87,482.11,482.28,482.49,482.72,482.93,483.10,483.31,483.53,483.75,483.98,484.20,484.47,484.84,485.43,486.43,487.62,488.44,488.52,488.54,488.60,488.80,489.23,490.19,493.60,497.27,499.80,500.34,500.93,503.21,505.95,508.32,509.79,509.05,508.21,507.54,506.47,506.20,507.90,510.51,513.05,514.95,516.94,518.88,520.35,520.46,519.70,518.55,517.45,516.72,515.80,515.60,516.19,517.48,518.80,520.56,522.83,525.40,528.02,531.56,535.98,540.01,542.73,545.17,547.55,549.64,551.50,553.46,555.53,557.59,559.55,561.19,562.09,562.85,563.56,564.39,565.85,567.49,569.10,570.58,571.79,572.87,574.52,576.67,579.05,580.88,582.41,583.83,585.17,586.38,587.65,588.87,590.18,591.65,592.31,592.83,592.90,592.58,593.12,592.00,591.51,592.32,594.09,594.98,595.14,595.14,595.44,596.06,597.38,599.29,601.95,605.56,608.15,609.44,610.09,611.13,613.69,615.51,616.69,617.56,618.46,619.67,622.12,625.65,629.53,634.64,639.12,642.58,644.93,646.81,648.02,648.12,647.03,645.46,643.35,641.06,638.51,635.38,632.07,627.76,623.44,620.28,619.29,618.47,617.81,617.19,616.10,614.75,612.19,609.79,609.49,612.22,615.05,617.38,618.57,617.33,614.54,610.31,604.91,598.61,592.95,590.10,589.86,591.83,594.05,596.03,597.08,597.20,596.89,596.53,595.48,593.89,592.03,590.22,589.04,588.39,588.27,588.58,588.94,588.93,588.44,587.40,586.03,585.22,584.75,584.34,583.88,583.41,582.95,582.47
479.50,479.50,479.51,479.52,479.52,479.52,479.50,479.50,479.50,479.50,479.50,479.50,479.46,479.40,479.40,479.40,479.40,479.40,479.40,479.40,479.40,479.40,479.40,479.40,479.40,479.40,479.40,479.42,479.42,479.47,479.51,479.52,479.52,479.52,479.52,479.52,479.52,479.52,479.52,479.51,479.50,479.50,479.50,479.47,479.42,479.42,479.42,479.42,479.44,479.50,479.58,479.61,479.65,479.71,479.78,479.80,479.84,479.94,480.12,480.27,480.48,480.71,480.94,481.18,481.39,481.65,481.94,482.23,482.46,482.69,482.90,483.07,483.28,483.47,483.64,483.82,484.04,484.23,484.47,484.83,485.40,486.60,487.95,488.86,489.04,489.11,489.13,489.24,489.71,491.38,496.27,499.46,500.76,501.38,502.71,504.85,507.50,510.22,511.83,511.58,510.80,509.92,508.89,507.95,508.62,510.73,513.92,516.90,519.22,521.22,522.62,522.46,521.56,520.42,519.30,518.30,517.26,516.77,516.68,517.07,518.26,519.58,521.55,524.06,526.62,529.34,533.22,537.39,540.86,543.16,545.63,548.23,550.65,552.44,554.22,556.08,557.83,559.17,560.07,560.77,561.39,562.04,563.06,564.75,566.47,568.06,569.57,570.86,572.44,574.62,577.43,579.82,581.23,582.48,583.72,584.49,585.83,586.98,588.12,589.62,590.44,590.52,590.01,589.14,588.59,587.25,586.58,587.09,588.76,589.97,590.77,591.36,592.02,593.34,595.03,596.84,598.81,601.21,603.59,606.12,608.86,611.80,614.20,616.16,617.85,619.33,620.73,622.01,624.25,627.70,632.24,637.29,640.25,642.12,644.07,645.50,646.14,645.84,644.64,643.11,641.53,639.65,637.37,634.57,631.78,627.35,622.67,619.08,617.21,615.70,614.37,613.13,611.91,610.98,609.37,607.85,607.72,609.50,611.96,614.48,616.39,616.21,613.72,609.91,604.99,598.67,592.49,589.13,588.33,589.63,591.57,593.42,594.78,595.44,595.14,594.83,594.27,593.47,592.36,590.81,589.30,587.94,586.98,587.06,587.29,587.10,586.46,585.57,584.60,583.96,583.50,583.05,582.58,582.12,581.65,581.19
479.46,479.46,479.46,479.46,479.46,479.46,479.46,479.48,479.49,479.46,479.46,479.46,479.43,479.40,479.39,479.36,479.35,479.35,479.35,479.35,479.35,479.35,479.35,479.35,479.35,479.35,479.37,479.40,479.40,479.44,479.47,479.50,479.50,479.50,479.50,479.50,479.50,479.46,479.46,479.46,479.46,479.46,479.46,479.44,479.40,479.40,479.40,479.40,479.41,479.46,479.53,479.58,479.63,479.71,479.78,479.80,479.84,479.93,480.06,480.24,480.46,480.70,480.97,481.24,481.48,481.75,482.06,482.36,482.60,482.86,483.10,483.29,483.52,483.69,483.85,484.01,484.20,484.37,484.55,484.94,485.86,487.06,488.36,489.30,489.67,490.18,490.49,490.99,492.13,494.69,498.61,500.91,501.85,502.51,503.89,505.96,508.50,511.20,513.09,513.44,513.00,512.19,511.24,510.11,509.92,511.40,514.88,518.32,521.18,523.50,524.89,524.49,523.46,522.15,520.82,519.66,518.66,518.04,517.65,517.59,518.32,519.21,520.71,522.84,525.36,527.66,530.95,534.69,538.14,540.81,543.32,545.82,548.29,550.61,552.39,554.02,555.51,556.66,557.53,558.22,558.86,559.51,560.35,561.83,563.48,565.17,566.89,568.39,570.03,572.16,574.92,577.51,579.26,580.69,581.86,582.39,583.32,584.02,584.56,585.16,585.73,585.74,585.22,584.32,583.59,582.66,582.35,582.99,584.70,586.31,587.76,589.06,590.33,592.04,594.03,595.96,597.77,599.80,602.58,605.83,609.44,613.29,616.33,618.62,620.51,622.31,624.49,626.16,627.71,630.16,635.16,639.09,641.08,642.18,643.29,643.76,643.99,643.46,641.98,639.92,638.81,637.77,636.21,633.68,631.12,627.34,623.22,619.66,617.34,615.32,613.44,611.68,609.99,608.40,606.91,605.90,606.06,607.74,609.99,612.44,614.66,615.43,613.28,609.70,605.02,598.84,592.49,588.76,587.31,587.84,589.83,591.69,593.06,593.73,593.44,593.10,592.71,592.15,591.30,590.24,588.91,587.52,586.30,585.68,585.58,585.24,584.61,583.96,583.29,582.84,582.45,582.02,581.56,581.10,580.61,580.11
479.40,479.40,479.40,479.40,479.40,479.40,479.40,479.45,479.46,479.40,479.40,479.40,479.39,479.38,479.38,479.32,479.31,479.31,479.31,479.31,479.31,479.31,479.31,479.31,479.31,479.31,479.32,479.38,479.40,479.40,479.43,479.48,479.49,479.49,479.49,479.49,479.48,479.42,479.40,479.40,479.40,479.40,479.40,479.38,479.38,479.38,479.38,479.38,479.39,479.42,479.49,479.55,479.62,479.70,479.77,479.80,479.84,479.92,480.02,480.25,480.48,480.75,481.06,481.36,481.61,481.88,482.19,482.49,482.73,483.01,483.29,483.54,483.77,483.95,484.11,484.26,484.42,484.57,484.75,485.28,486.69,487.88,489.17,490.28,491.06,492.11,492.85,493.84,495.60,498.64,500.87,502.31,503.21,503.79,504.71,506.63,509.08,511.70,513.94,515.00,515.07,514.50,513.62,512.52,511.63,512.45,515.86,519.47,522.93,525.69,527.16,526.51,525.33,523.79,522.24,521.08,520.43,519.96,519.45,518.98,519.13,519.72,520.69,522.17,524.41,526.30,529.02,532.21,535.37,538.38,540.80,542.90,545.06,547.82,549.73,551.35,552.80,553.94,554.76,555.46,556.15,556.88,557.73,558.93,560.43,562.16,564.05,565.69,567.38,569.42,571.98,574.54,576.66,578.26,579.27,579.65,579.99,580.13,579.92,579.39,579.60,579.79,579.73,579.46,579.32,579.26,579.65,580.68,582.52,584.50,586.45,588.32,590.13,592.05,594.15,596.10,597.87,599.91,603.19,606.87,610.83,615.19,618.96,621.60,623.63,625.63,628.55,630.80,631.91,633.36,638.14,640.61,641.86,642.50,642.58,642.04,641.71,640.77,638.81,636.14,635.45,635.37,634.75,632.64,630.19,627.19,623.88,620.61,618.15,615.84,613.64,611.50,609.31,606.71,604.82,603.92,604.34,606.18,608.34,610.66,613.01,614.56,613.00,609.79,605.31,599.17,592.87,588.74,586.50,586.22,588.29,590.19,591.47,592.04,591.78,591.42,591.04,590.53,589.77,589.17,588.14,586.97,585.76,584.48,583.98,583.51,582.97,582.55,582.11,581.81,581.51,581.11,580.64,580.16,579.64,579.08
479.40,479.40,479.40,479.40,479.40,479.40,479.40,479.42,479.41,479.40,479.40,479.40,479.36,479.32,479.32,479.31,479.30,479.30,479.30,479.30,479.30,479.30,479.30,479.30,479.30,479.30,479.31,479.33,479.39,479.40,479.41,479.43,479.43,479.43,479.43,479.43,479.42,479.40,479.40,479.40,479.40,479.40,479.35,479.32,479.32,479.32,479.32,479.32,479.35,479.40,479.48,479.51,479.56,479.63,479.72,479.77,479.84,479.92,480.03,480.34,480.61,480.87,481.18,481.48,481.74,482.01,482.32,482.62,482.86,483.14,483.45,483.73,483.96,484.18,484.37,484.52,484.67,484.78,485.26,486.31,488.06,489.54,491.31,493.24,495.04,496.40,497.61,498.70,499.86,501.56,503.36,504.72,505.45,505.45,505.16,506.52,508.94,511.85,514.47,516.54,517.35,517.08,516.26,515.21,513.95,514.07,516.79,520.44,524.40,527.68,529.41,528.49,527.01,525.32,523.80,523.02,523.59,524.10,523.57,522.09,521.77,522.49,522.98,523.36,524.42,525.26,527.56,530.66,533.71,536.23,538.18,539.70,541.03,542.77,544.78,547.24,549.62,551.16,552.04,552.67,553.35,554.21,555.26,556.38,557.73,559.36,561.25,562.82,564.39,566.31,568.78,571.12,572.96,574.13,574.65,574.80,574.77,574.40,573.65,572.65,572.77,573.44,574.73,576.65,578.47,579.99,581.51,583.22,585.29,587.40,589.27,590.98,592.70,594.65,596.23,597.55,598.88,600.88,604.16,607.99,612.35,617.37,620.98,623.71,626.04,628.36,631.34,634.35,636.69,638.63,640.99,642.48,643.04,642.84,641.98,641.03,639.45,637.12,634.17,631.48,631.13,631.79,632.22,631.18,628.77,625.88,622.89,620.09,617.96,616.00,613.98,611.84,609.52,606.43,603.55,601.84,602.21,603.93,606.08,608.47,610.94,612.82,612.74,610.75,606.65,599.94,593.88,589.05,585.71,584.56,586.37,588.17,589.52,590.28,590.25,589.92,589.57,589.18,588.66,588.08,587.06,585.91,584.76,583.72,582.95,582.37,581.88,581.45,581.14,580.89,580.60,580.19,579.68,579.11,578.52,577.93
479.36,479.36,479.36,479.36,479.36,479.36,479.36,479.36,479.36,479.36,479.36,479.36,479.33,479.30,479.30,479.30,479.28,479.26,479.26,479.29,479.27,479.26,479.26,479.26,479.26,479.28,479.30,479.31,479.35,479.36,479.36,479.36,479.36,479.39,479.40,479.39,479.36,479.36,479.36,479.36,479.36,479.36,479.32,479.30,479.30,479.30,479.30,479.30,479.31,479.37,479.44,479.49,479.53,479.61,479.69,479.77,479.84,479.91,480.01,480.43,480.74,481.00,481.31,481.62,481.87,482.14,482.45,482.75,482.99,483.27,483.58,483.88,484.12,484.38,484.63,484.90,485.26,485.59,486.26,487.52,489.59,491.61,493.82,496.18,498.47,500.10,501.44,502.53,503.54,504.75,505.99,507.01,507.52,507.20,506.34,507.01,509.14,512.38,515.41,517.94,519.35,519.63,518.90,517.82,516.38,515.85,517.45,521.08,525.33,528.97,531.06,530.42,528.71,526.69,525.23,525.28,526.85,528.24,528.30,527.02,526.57,526.82,526.59,526.07,526.14,526.04,527.26,529.45,531.97,533.90,535.56,536.81,537.75,538.92,540.66,542.76,544.74,546.17,547.81,548.87,549.90,551.24,552.72,553.69,554.77,556.19,558.00,559.52,560.98,562.49,564.09,565.63,566.77,567.97,569.12,569.41,569.52,569.50,569.40,569.37,570.32,572.22,574.74,577.62,580.19,582.36,584.37,586.37,588.47,590.58,592.48,594.29,596.16,598.34,599.89,600.83,601.45,602.62,605.44,609.28,613.97,619.35,623.14,625.88,628.37,631.03,634.10,637.32,640.03,642.09,643.50,644.64,644.71,643.80,642.10,640.37,637.72,634.52,631.28,629.00,628.22,628.48,628.89,628.20,625.52,623.04,620.75,618.48,616.42,614.61,612.89,611.14,609.07,606.12,602.96,600.53,599.93,601.50,603.69,606.14,608.69,610.87,611.75,610.98,607.92,601.56,595.29,589.78,585.33,582.87,584.14,585.73,587.03,587.93,588.30,588.42,588.25,587.93,587.57,586.98,585.98,584.89,583.89,583.02,582.17,581.47,580.89,580.37,580.07,579.81,579.47,579.00,578.44,577.81,577.19,576.61
479.30,479.30,479.30,479.30,479.30,479.30,479.30,479.30,479.30,479.30,479.30,479.31,479.30,479.30,479.29,479.29,479.25,479.20,479.22,479.27,479.24,479.20,479.20,479.20,479.20,479.25,479.29,479.30,479.31,479.31,479.31,479.31,479.31,479.36,479.39,479.37,479.31,479.31,479.31,479.30,479.30,479.30,479.29,479.29,479.29,479.29,479.29,479.29,479.29,479.31,479.38,479.46,479.53,479.61,479.69,479.77,479.84,479.90,479.97,480.48,480.81,481.06,481.36,481.67,481.91,482.19,482.49,482.79,483.05,483.35,483.68,483.98,484.24,484.52,484.92,485.47,486.17,486.83,487.62,488.89,491.24,493.82,496.39,498.91,501.28,503.19,504.52,505.66,506.85,508.17,508.88,509.43,509.67,509.17,508.01,507.89,509.59,513.09,516.52,519.17,521.06,522.02,521.49,520.41,518.88,517.69,518.02,521.49,525.91,529.81,532.33,532.38,530.52,528.13,526.62,527.42,529.66,531.81,532.87,532.62,532.26,531.80,530.85,529.68,528.95,528.07,527.93,528.74,530.42,531.81,533.30,534.57,535.55,536.55,537.86,539.00,539.92,540.98,543.54,545.28,546.85,548.74,550.60,551.37,552.14,553.35,555.04,556.42,557.69,558.66,559.17,559.77,560.23,561.72,563.90,564.47,565.06,565.96,567.19,568.82,571.02,574.35,577.81,580.77,583.30,585.55,587.64,589.66,591.68,593.69,595.87,598.16,600.49,602.90,604.63,605.30,605.04,604.95,607.01,610.78,615.72,621.24,625.42,628.17,630.64,633.50,636.60,639.64,642.20,644.21,645.77,646.94,646.69,645.21,642.76,640.12,636.68,633.02,629.79,628.03,626.48,625.71,625.36,624.42,621.50,619.61,618.12,616.28,614.11,612.30,610.91,609.68,608.03,605.61,602.74,599.83,597.84,598.98,601.22,603.76,606.37,608.77,610.19,610.46,608.71,603.32,596.90,590.69,585.10,581.23,581.81,583.08,584.25,585.23,586.04,586.77,586.93,586.74,586.44,585.89,584.96,584.00,583.15,582.36,581.52,580.68,579.90,579.26,578.88,578.57,578.18,577.63,577.03,576.36,575.73,575.16
479.29,479.24,479.23,479.23,479.23,479.23,479.23,479.23,479.23,479.24,479.29,479.30,479.30,479.28,479.24,479.23,479.21,479.20,479.20,479.22,479.21,479.20,479.20,479.20,479.20,479.21,479.25,479.30,479.30,479.30,479.30,479.30,479.30,479.32,479.33,479.32,479.30,479.30,479.30,479.28,479.23,479.23,479.23,479.23,479.23,479.23,479.23,479.23,479.25,479.31,479.38,479.46,479.53,479.61,479.69,479.77,479.84,479.90,479.95,480.35,480.58,480.75,481.02,481.32,481.57,481.84,482.14,482.41,482.78,483.18,483.58,483.94,484.28,484.60,485.35,486.59,487.60,488.31,489.20,490.63,493.08,495.69,498.35,500.95,503.43,505.66,507.33,508.82,510.30,511.77,512.55,512.99,512.93,511.89,509.74,508.80,510.03,513.46,517.17,520.11,522.43,523.93,523.92,523.14,521.39,519.59,519.06,521.77,526.31,530.58,533.58,534.52,532.84,530.32,528.30,528.12,530.21,533.14,535.35,536.14,536.02,535.62,534.68,533.36,532.07,530.72,529.75,529.50,530.26,531.38,532.79,534.39,535.96,537.09,538.45,539.49,540.32,541.43,543.68,545.65,547.52,549.39,550.77,551.25,551.91,553.13,554.85,555.56,556.21,556.92,557.62,558.39,559.25,560.70,562.41,562.91,564.08,565.96,568.22,570.61,573.39,576.91,580.38,583.34,585.98,588.41,590.65,592.73,594.69,596.69,599.65,603.25,606.75,608.88,610.13,610.10,608.91,608.02,609.13,612.75,617.92,623.25,627.80,630.61,632.79,635.09,637.63,640.45,643.28,645.86,647.81,649.08,648.70,646.88,643.93,640.86,637.33,633.25,629.32,627.57,625.87,624.40,623.03,621.37,619.20,617.74,616.26,614.21,611.96,610.21,608.97,607.93,606.45,604.60,602.36,599.65,596.89,596.50,598.65,601.46,604.09,606.31,608.06,608.82,607.68,603.26,598.32,591.32,584.43,580.03,579.86,580.62,581.63,582.69,583.60,584.48,585.18,585.51,585.25,584.87,584.15,583.32,582.49,581.71,580.87,579.79,578.71,578.08,577.54,577.16,576.76,576.22,575.65,574.99,574.32,573.68
479.25,479.21,479.20,479.20,479.20,479.20,479.20,479.20,479.20,479.21,479.26,479.26,479.26,479.25,479.21,479.20,479.20,479.20,479.20,479.17,479.16,479.16,479.17,479.20,479.20,479.20,479.22,479.26,479.26,479.26,479.26,479.26,479.26,479.26,479.26,479.26,479.26,479.26,479.26,479.24,479.20,479.20,479.20,479.20,479.20,479.20,479.20,479.20,479.22,479.27,479.35,479.43,479.50,479.58,479.66,479.74,479.81,479.87,479.93,480.15,480.27,480.37,480.56,480.84,481.08,481.35,481.65,481.95,482.37,482.81,483.26,483.68,484.12,484.54,485.70,487.68,489.18,490.29,491.74,493.72,496.16,498.37,500.86,503.44,505.90,508.24,510.22,512.00,513.72,515.35,516.28,516.72,516.21,513.97,510.75,509.44,510.49,513.76,517.50,520.80,523.68,525.83,526.43,525.88,524.11,522.00,520.89,523.21,527.49,531.79,535.21,536.94,536.01,533.57,530.87,529.41,531.07,534.41,537.42,539.02,539.14,538.88,538.12,536.96,535.57,534.01,532.56,531.70,531.81,532.38,533.15,534.51,536.34,537.85,539.63,541.05,542.24,543.58,545.63,548.07,550.58,552.83,554.17,554.63,555.28,556.34,557.43,557.57,557.84,558.33,559.02,560.18,561.53,562.96,564.09,564.13,564.70,566.42,568.89,571.63,575.16,578.90,582.41,585.51,588.34,590.99,593.41,595.63,597.79,600.41,604.01,607.98,611.48,613.56,614.90,614.85,613.44,612.18,612.74,616.15,621.26,626.29,630.12,632.61,634.66,636.82,639.02,641.57,644.39,647.20,649.35,650.72,650.32,648.45,645.51,642.53,638.70,633.90,629.12,627.27,625.50,623.73,621.89,619.92,618.02,616.43,614.70,612.58,610.44,608.72,607.35,606.13,604.73,603.23,601.50,599.22,596.33,594.53,595.67,598.34,601.51,603.84,605.61,606.44,605.83,602.98,599.31,592.19,584.60,579.46,578.29,578.58,579.53,580.74,581.76,582.69,583.64,584.23,584.07,583.82,583.27,582.58,581.81,581.04,580.07,578.74,577.45,576.83,576.19,575.75,575.34,574.80,574.25,573.61,572.94,572.25
479.20,479.19,479.19,479.19,479.19,479.19,479.19,479.19,479.19,479.19,479.20,479.20,479.20,479.20,479.19,479.20,479.19,479.19,479.18,479.12,479.11,479.11,479.13,479.18,479.19,479.20,479.20,479.21,479.21,479.21,479.21,479.21,479.21,479.21,479.21,479.21,479.21,479.21,479.21,479.20,479.19,479.19,479.19,479.19,479.19,479.19,479.19,479.19,479.20,479.22,479.29,479.37,479.44,479.52,479.60,479.68,479.75,479.82,479.89,479.92,479.94,479.98,480.08,480.30,480.51,480.78,481.10,481.47,481.87,482.32,482.79,483.27,483.81,484.39,485.96,488.62,490.76,492.60,494.98,497.73,500.13,501.80,503.98,506.42,508.78,511.04,513.19,515.20,517.07,518.79,519.81,520.27,519.25,515.57,511.36,509.99,511.09,514.13,517.62,521.29,524.82,527.70,528.98,528.55,526.94,524.86,523.47,525.72,529.41,533.44,537.15,539.48,539.67,537.53,534.21,531.53,532.41,535.77,539.20,541.36,541.80,541.68,541.18,540.39,539.30,537.72,536.11,534.99,534.68,534.49,534.25,534.88,536.50,538.37,540.65,542.69,544.47,546.19,548.35,551.52,554.98,558.02,559.79,560.47,561.22,562.03,562.11,561.94,562.14,562.48,562.91,564.43,566.10,567.45,568.08,567.42,566.52,567.11,568.97,571.63,575.96,580.04,583.77,587.21,590.30,593.21,595.88,598.37,600.94,604.59,608.49,611.91,614.40,616.71,618.64,619.20,618.24,617.11,617.62,620.78,625.52,630.00,632.30,634.19,636.28,638.64,640.78,643.07,645.63,648.26,650.37,651.81,651.57,650.03,647.59,644.88,640.45,634.72,629.13,627.13,625.35,623.58,621.80,619.98,617.89,615.76,613.63,611.52,609.56,607.85,606.17,604.52,603.05,601.63,600.19,598.40,595.93,593.16,592.55,594.52,598.38,601.20,602.82,603.46,603.37,602.41,599.63,593.14,585.58,579.55,577.22,577.00,577.89,579.27,580.45,581.38,582.31,582.92,582.90,582.75,582.31,581.71,581.04,580.28,579.06,577.54,576.15,575.51,574.85,574.37,573.91,573.38,572.83,572.23,571.56,570.86
479.13,479.13,479.13,479.13,479.13,479.13,479.13,479.13,479.13,479.13,479.13,479.13,479.13,479.13,479.14,479.19,479.16,479.13,479.13,479.11,479.10,479.10,479.11,479.13,479.13,479.17,479.20,479.20,479.20,479.20,479.20,479.20,479.20,479.20,479.20,479.20,479.20,479.20,479.16,479.13,479.13,479.13,479.13,479.13,479.13,479.13,479.13,479.13,479.16,479.21,479.28,479.36,479.44,479.51,479.59,479.67,479.74,479.81,479.83,479.83,479.83,479.85,479.89,479.97,480.09,480.29,480.58,480.96,481.39,481.94,482.53,483.11,483.74,484.39,486.14,489.11,491.78,494.36,497.15,500.07,502.83,505.15,507.41,509.68,511.92,514.11,516.32,518.32,520.04,521.48,522.26,522.49,521.52,518.27,513.44,511.60,512.37,515.01,517.92,521.64,525.61,529.14,531.11,530.85,529.44,527.65,526.49,528.30,531.52,535.34,539.05,541.30,541.91,540.42,537.57,534.54,533.63,536.57,540.07,542.43,543.91,544.03,543.71,543.22,542.37,540.94,539.37,538.05,537.18,536.45,536.19,536.49,537.21,537.96,539.61,541.51,543.55,545.87,548.52,552.58,556.91,560.50,562.45,563.45,564.51,565.64,566.17,566.38,566.84,567.43,568.08,569.33,570.32,570.96,571.10,570.26,569.29,569.11,569.68,571.14,575.08,579.26,583.43,587.59,591.31,594.62,597.69,600.68,603.82,607.39,610.70,613.61,616.12,618.58,620.60,621.47,621.23,621.18,622.17,625.24,629.23,632.23,634.12,635.83,637.62,639.58,641.76,644.22,646.73,649.05,650.86,652.25,652.75,652.36,650.72,646.89,641.62,635.37,629.54,627.59,625.85,624.13,622.43,620.79,619.10,617.13,614.63,611.67,609.31,607.74,606.11,604.18,602.08,600.18,598.59,597.03,595.14,592.84,590.95,591.04,593.63,597.34,599.36,600.24,600.47,600.07,598.00,593.01,586.53,580.37,577.49,576.05,576.24,577.62,578.84,579.91,580.91,581.61,581.72,581.64,581.29,580.70,579.90,578.95,577.72,576.22,574.83,574.13,573.56,573.02,572.51,572.00,571.41,570.80,570.09,569.31
479.10,479.10,479.10,479.10,479.10,479.10,479.10,479.10,479.10,479.10,479.10,479.10,479.10,479.10,479.11,479.15,479.13,479.10,479.10,479.10,479.10,479.10,479.10,479.10,479.10,479.14,479.18,479.18,479.18,479.18,479.18,479.18,479.18,479.18,479.18,479.18,479.18,479.18,479.13,479.10,479.10,479.10,479.10,479.10,479.10,479.10,479.10,479.10,479.13,479.20,479.26,479.33,479.41,479.49,479.56,479.64,479.72,479.78,479.78,479.78,479.78,479.78,479.78,479.78,479.83,479.97,480.20,480.60,481.10,481.74,482.41,483.06,483.73,484.41,486.19,489.28,492.33,495.37,498.36,501.37,504.53,507.67,510.34,512.72,515.00,517.19,519.37,521.27,522.80,523.96,524.57,524.55,523.50,520.65,516.08,513.78,513.94,516.10,518.52,522.34,526.61,530.60,533.25,533.13,531.83,530.30,529.41,530.70,533.38,536.82,540.36,542.74,543.81,542.73,540.19,537.20,534.97,537.07,540.22,542.69,545.09,546.05,546.25,546.02,545.32,543.99,542.48,540.97,539.59,538.58,538.38,538.60,538.96,539.13,539.80,540.91,542.51,544.84,547.76,552.00,556.82,561.23,563.59,565.44,567.11,568.62,569.82,570.73,571.54,572.21,572.72,573.51,573.81,573.93,573.83,573.09,572.49,572.19,572.16,572.75,575.32,578.31,581.95,586.41,590.76,594.41,597.83,601.20,604.61,608.30,611.41,614.16,616.83,619.53,621.53,622.75,623.43,624.51,625.99,628.61,631.47,633.09,634.34,635.70,637.19,638.93,641.30,644.00,646.74,649.22,650.92,652.17,653.06,653.44,652.51,648.18,642.62,636.43,630.76,628.38,626.62,624.99,623.42,621.97,620.57,618.88,616.45,613.24,610.69,609.18,607.55,605.36,602.55,599.87,597.79,595.97,594.04,592.20,589.86,588.63,589.62,592.98,594.80,595.67,596.04,595.99,595.05,592.05,587.11,581.13,577.83,575.32,574.75,575.91,577.14,578.34,579.41,580.14,580.35,580.33,579.96,579.27,578.29,577.25,576.13,574.79,573.50,572.70,572.19,571.67,571.13,570.58,569.94,569.31,568.56,567.73
479.09,479.09,479.09,479.09,479.09,479.09,479.09,479.09,479.09,479.09,479.09,479.09,479.09,479.09,479.09,479.10,479.10,479.09,479.09,479.09,479.09,479.09,479.09,479.09,479.09,479.10,479.10,479.11,479.11,479.11,479.11,479.11,479.11,479.11,479.11,479.11,479.10,479.10,479.10,479.09,479.09,479.09,479.09,479.09,479.09,479.09,479.09,479.09,479.13,479.19,479.21,479.27,479.35,479.42,479.50,479.57,479.65,479.70,479.71,479.71,479.71,479.71,479.71,479.71,479.77,479.86,480.02,480.43,481.05,481.74,482.43,483.10,483.74,484.41,486.12,489.11,492.32,495.44,498.53,501.76,505.34,509.17,512.50,515.38,517.93,520.20,522.29,524.05,525.42,526.36,526.95,526.73,525.35,522.46,519.09,516.44,515.76,517.34,519.57,523.65,528.09,532.27,535.57,535.50,534.17,532.78,532.12,532.86,534.90,537.78,541.07,543.98,545.68,544.69,542.08,539.29,536.56,537.38,539.66,542.26,545.26,547.74,548.95,549.02,548.37,547.07,545.51,543.78,542.03,541.02,540.72,541.08,541.90,542.51,542.17,541.96,542.36,543.83,546.44,549.88,554.64,560.20,563.36,566.65,569.25,571.15,572.97,574.82,576.04,576.50,576.34,576.59,576.48,576.43,576.45,576.06,576.09,576.37,576.76,577.18,577.56,578.00,579.86,583.82,588.46,592.29,595.90,599.43,602.69,606.87,610.46,613.49,616.34,619.34,621.38,623.08,624.81,626.77,628.62,630.39,631.80,632.37,632.57,633.28,634.54,636.43,639.16,642.08,645.34,648.54,650.52,651.56,652.25,652.73,652.27,648.61,643.57,638.10,632.96,629.54,627.59,626.10,624.72,623.44,622.08,620.71,618.87,616.37,614.07,612.47,610.66,608.20,604.79,601.13,598.22,595.58,592.76,590.97,589.12,587.59,587.05,588.37,589.14,589.58,589.89,590.22,590.83,590.16,587.07,581.63,577.97,574.76,573.50,574.19,575.41,576.68,577.74,578.46,578.70,578.72,578.22,577.33,576.19,575.23,574.27,573.21,572.14,571.25,570.72,570.29,569.78,569.11,568.41,567.71,566.94,566.11
479.05,479.05,479.05,479.05,479.05,479.05,479.05,479.05,479.05,479.05,479.05,479.05,479.05,479.05,479.05,479.05,479.05,479.05,479.05,479.05,479.05,479.05,479.05,479.05,479.05,479.05,479.06,479.10,479.10,479.10,479.10,479.10,479.10,479.10,479.10,479.09,479.05,479.05,479.05,479.05,479.05,479.05,479.05,479.05,479.05,479.05,479.05,479.05,479.07,479.14,479.19,479.26,479.34,479.41,479.49,479.53,479.56,479.59,479.64,479.64,479.64,479.64,479.64,479.64,479.71,479.80,479.99,480.39,481.04,481.74,482.41,483.07,483.73,484.41,485.95,488.57,491.37,494.51,498.29,502.51,506.68,510.76,514.33,517.54,520.43,522.93,525.07,526.81,528.11,528.96,529.41,529.21,527.90,525.00,521.79,519.05,517.90,519.00,521.95,526.26,530.75,534.97,538.26,538.05,536.58,535.20,534.68,535.19,536.70,539.38,542.96,546.31,548.26,548.01,545.87,542.28,538.81,538.10,539.42,542.33,546.20,549.46,551.71,552.90,552.76,551.27,549.06,546.83,545.09,543.97,543.28,543.44,544.43,545.58,546.02,545.91,545.54,545.26,545.50,547.77,551.92,557.39,562.03,566.29,569.68,572.36,574.84,577.34,579.05,579.76,579.49,579.35,579.12,579.10,579.36,579.67,580.21,580.81,581.37,581.80,582.12,582.04,582.57,584.28,586.55,589.65,593.17,596.75,599.87,602.95,606.55,610.26,613.64,616.83,619.55,621.84,623.85,625.96,627.97,629.41,630.23,630.43,630.39,630.68,631.61,633.53,636.52,639.78,643.31,646.85,649.50,650.64,651.18,651.47,651.16,648.91,644.79,640.12,635.54,631.45,629.01,627.43,626.17,624.89,623.72,622.70,621.51,619.92,618.12,616.18,613.94,611.31,608.05,603.85,599.99,596.37,592.83,590.29,588.71,587.36,585.99,584.83,584.83,585.02,585.25,585.78,586.56,586.85,585.49,581.93,578.10,574.44,572.59,572.70,573.83,575.00,575.93,576.53,576.71,576.65,576.11,575.21,574.11,573.17,572.24,571.33,570.50,569.88,569.43,569.03,568.56,567.89,566.91,566.11,565.32,564.48
479.00,479.00,479.00,479.00,479.00,479.00,479.00,479.00,479.00,479.00,479.00,479.00,479.00,479.00,479.00,479.00,479.00,479.00,479.00,479.00,479.00,479.00,479.00,479.00,479.00,479.00,479.02,479.07,479.07,479.07,479.07,479.07,479.07,479.07,479.07,479.06,479.01,479.00,479.00,479.00,479.00,479.00,479.00,479.00,479.00,479.00,479.00,479.00,479.03,479.10,479.18,479.26,479.34,479.41,479.47,479.48,479.48,479.50,479.56,479.57,479.57,479.57,479.58,479.60,479.66,479.77,479.95,480.29,480.88,481.54,482.18,482.77,483.50,484.25,485.66,487.90,490.24,493.54,497.97,503.04,507.88,512.09,515.83,519.28,522.49,525.31,527.63,529.42,530.71,531.62,532.05,531.92,530.79,528.07,525.09,522.39,520.96,521.71,525.26,529.53,533.87,537.89,540.75,540.41,538.97,537.69,537.30,537.78,539.19,542.02,545.85,549.05,550.87,551.09,549.46,545.58,541.65,539.54,539.86,542.84,547.26,551.07,554.22,556.50,557.07,555.85,553.57,551.08,548.90,547.05,545.87,545.79,546.85,548.49,549.98,550.34,549.56,547.79,545.97,546.73,549.58,554.26,560.23,565.20,569.30,572.75,575.73,578.69,580.85,582.07,582.26,581.97,581.89,582.11,582.65,583.50,584.37,585.12,585.76,586.32,586.89,586.83,586.64,586.64,586.82,588.69,591.36,594.27,596.97,599.06,602.21,605.78,609.06,612.84,616.38,619.47,622.04,624.24,626.22,627.38,627.83,627.84,627.83,628.04,628.97,631.03,634.19,637.71,641.35,644.93,647.99,649.05,649.24,649.14,648.81,647.70,644.96,641.57,637.85,633.77,630.92,629.07,627.74,626.53,625.54,624.78,624.08,623.23,621.82,619.68,617.32,614.82,611.80,607.17,602.70,598.53,594.56,591.27,589.63,588.38,586.57,583.36,582.00,581.48,581.41,581.87,582.50,583.31,583.36,581.68,578.13,574.25,571.73,571.06,572.21,573.28,574.08,574.56,574.64,574.48,573.90,573.06,572.06,571.20,570.34,569.55,568.92,568.55,568.18,567.80,567.36,566.73,565.65,564.71,563.80,562.89
479.00,479.00,479.00,479.00,479.00,479.00,479.00,479.00,479.00,479.00,479.00,479.00,479.00,479.00,479.00,479.00,479.00,479.00,479.00,479.00,479.00,479.00,479.00,479.00,479.00,479.00,479.00,479.01,479.01,479.01,479.01,479.01,479.01,479.01,479.01,479.01,479.00,479.00,479.00,479.00,479.00,479.00,479.00,479.00,479.00,479.00,479.00,479.00,479.02,479.10,479.18,479.25,479.33,479.39,479.41,479.41,479.41,479.44,479.50,479.51,479.51,479.51,479.52,479.59,479.66,479.75,479.84,479.99,480.42,480.99,481.54,482.03,482.86,483.76,485.16,487.14,489.19,492.93,497.67,503.00,508.59,512.92,516.82,520.48,523.88,527.11,529.76,531.71,533.09,534.31,534.99,534.93,533.94,531.81,529.63,527.09,525.54,526.16,529.65,533.40,537.26,540.74,542.67,542.38,541.30,540.35,540.10,540.84,542.90,546.26,550.04,552.07,553.23,553.16,551.83,549.05,545.26,542.18,541.48,543.94,548.21,552.48,556.25,559.19,560.60,560.54,559.51,557.35,553.81,550.21,548.46,548.21,549.21,551.27,553.48,554.37,553.66,551.32,548.90,547.73,548.27,551.35,557.99,563.37,568.07,572.19,575.30,578.53,581.02,583.01,584.46,584.45,584.90,585.64,586.50,587.42,588.34,589.08,589.76,590.51,591.02,591.07,591.06,591.11,590.87,591.05,591.65,592.72,594.42,596.40,598.45,600.24,602.17,607.18,611.55,615.68,619.58,622.15,623.85,624.60,624.72,624.58,624.75,625.51,627.03,629.50,632.69,636.27,639.78,643.07,645.82,646.33,645.80,645.09,644.54,643.73,643.03,641.67,639.33,636.36,633.46,631.14,629.47,628.45,627.58,626.87,626.32,625.75,624.49,622.58,620.77,618.93,615.98,610.97,606.55,602.70,598.85,595.08,592.88,591.40,589.53,585.34,581.53,579.35,578.54,578.49,578.91,580.00,580.81,580.36,577.85,574.15,570.84,569.13,570.45,571.48,572.19,572.59,572.61,572.31,571.71,570.94,570.11,569.43,568.77,568.12,567.57,567.25,566.93,566.57,566.15,565.62,564.79,563.65,562.48,561.39
478.94,478.94,478.94,478.94,478.94,478.94,478.94,478.94,478.94,478.94,478.94,478.94,478.94,478.94,478.94,478.94,478.94,478.94,478.94,478.94,478.94,478.94,478.94,478.94,478.94,478.94,478.94,478.94,478.94,478.94,478.97,479.00,479.00,479.00,478.98,478.94,478.94,478.94,478.94,478.94,478.94,478.94,478.94,478.94,478.94,478.94,478.94,478.94,478.98,479.05,479.13,479.21,479.26,479.30,479.34,479.34,479.34,479.37,479.44,479.44,479.44,479.44,479.46,479.53,479.61,479.69,479.76,479.86,480.08,480.37,480.67,481.04,481.80,482.90,484.49,486.52,488.58,492.31,497.14,502.75,508.85,513.29,517.22,520.88,524.31,527.66,530.49,532.84,534.86,536.72,537.71,537.82,537.04,535.27,533.47,531.33,529.82,529.97,532.83,536.17,539.59,542.64,544.43,544.79,544.22,543.70,543.97,545.22,547.40,550.16,553.00,554.83,555.76,555.72,554.65,552.20,548.55,545.51,544.04,544.98,548.72,553.60,557.82,560.90,562.71,563.24,562.69,561.08,558.24,554.95,552.44,551.19,551.61,554.12,556.84,558.25,557.99,555.84,552.79,550.10,548.95,550.35,554.76,559.80,565.02,569.92,573.58,576.68,579.64,582.35,584.52,585.92,587.32,588.60,589.68,590.66,591.70,592.44,593.04,593.71,594.03,594.01,594.10,594.35,594.20,594.07,594.18,594.56,595.19,596.29,597.48,598.58,599.94,603.19,607.04,611.12,615.18,618.67,620.66,621.42,621.46,621.41,622.43,624.38,626.76,629.40,632.38,635.62,638.72,641.43,643.28,643.23,642.24,641.08,640.17,639.46,639.29,638.65,637.18,635.36,633.62,632.26,631.17,630.06,628.27,626.87,625.86,625.15,624.62,624.09,623.27,621.86,619.13,614.43,610.48,607.33,604.26,600.11,596.79,594.50,592.62,589.32,585.34,581.62,578.94,578.17,577.27,576.43,576.11,576.14,574.70,572.73,570.36,568.35,568.44,569.30,570.00,570.36,570.32,570.09,569.74,569.24,568.60,567.99,567.36,566.72,566.16,565.87,565.66,565.34,564.94,564.47,563.78,562.74,561.50,560.24
478.90,478.90,478.90,478.90,478.90,478.90,478.90,478.90,478.90,478.90,478.90,478.90,478.90,478.90,478.90,478.90,478.90,478.90,478.90,478.90,478.90,478.90,478.90,478.90,478.90,478.90,478.90,478.90,478.90,478.90,478.93,478.98,478.99,478.99,478.95,478.90,478.90,478.90,478.90,478.90,478.90,478.90,478.90,478.90,478.90,478.90,478.90,478.90,478.93,479.00,479.08,479.15,479.19,479.20,479.27,479.28,479.28,479.30,479.36,479.38,479.38,479.38,479.40,479.47,479.55,479.63,479.70,479.77,479.86,479.88,479.95,480.21,480.75,482.01,483.82,485.96,488.14,491.71,496.49,502.24,508.62,513.24,517.25,520.95,524.36,527.76,530.71,533.44,536.06,538.47,539.68,539.97,539.48,538.18,536.81,535.08,533.61,533.29,535.44,538.38,541.42,544.19,546.18,547.21,547.17,547.08,547.81,549.38,551.50,553.64,555.63,557.39,558.17,558.23,557.46,555.38,552.11,548.96,546.68,546.23,549.25,554.57,559.24,562.55,564.63,565.51,565.14,563.94,562.06,559.56,556.64,554.52,554.16,556.63,559.65,561.72,562.34,560.89,557.63,554.10,551.88,551.79,553.26,556.81,561.50,566.44,570.48,573.73,577.23,580.62,583.45,586.26,588.86,590.93,592.42,593.59,594.77,595.58,596.12,596.61,596.69,596.58,596.72,597.17,597.29,597.30,597.48,597.67,597.42,597.58,598.32,599.41,600.63,601.87,604.50,607.62,611.00,614.90,617.27,618.46,618.96,619.43,621.36,624.27,627.24,629.85,632.47,635.22,637.76,639.75,640.62,640.02,638.71,637.23,635.92,635.13,634.88,634.44,633.59,632.73,632.12,631.78,631.31,629.95,627.28,625.32,623.98,623.20,623.37,624.16,624.50,623.73,621.06,616.98,613.72,611.37,609.18,605.26,601.25,598.16,596.08,593.78,590.36,585.87,581.74,579.95,577.80,575.13,573.18,572.52,571.43,570.80,569.49,567.57,566.47,566.91,567.52,567.85,567.79,567.81,567.77,567.55,567.13,566.60,565.99,565.33,564.74,564.46,564.37,564.11,563.73,563.30,562.70,561.82,560.63,559.26
478.90,478.90,478.90,478.90,478.90,478.90,478.90,478.90,478.90,478.90,478.90,478.90,478.90,478.90,478.90,478.90,478.90,478.90,478.90,478.90,478.90,478.90,478.90,478.90,478.90,478.90,478.90,478.90,478.90,478.90,478.91,478.91,478.91,478.91,478.91,478.90,478.90,478.90,478.90,478.90,478.90,478.90,478.90,478.90,478.90,478.90,478.90,478.90,478.93,479.00,479.08,479.11,479.12,479.13,479.20,479.22,479.22,479.22,479.24,479.30,479.31,479.31,479.33,479.41,479.48,479.55,479.63,479.71,479.79,479.81,479.85,479.96,480.09,481.35,483.24,485.43,487.81,491.20,495.70,501.18,507.35,512.37,516.78,520.71,524.17,527.63,530.71,533.53,536.18,538.55,539.79,540.23,540.18,539.82,539.35,537.86,536.33,535.80,537.51,539.97,542.73,545.54,547.96,549.31,549.74,550.00,550.65,551.82,553.88,556.21,558.35,559.61,560.08,560.16,559.90,558.95,556.65,552.23,548.75,548.11,550.24,555.35,560.59,564.77,567.18,568.19,567.80,566.48,564.56,562.50,560.36,558.32,557.09,558.20,561.04,564.20,566.52,566.59,564.31,561.54,559.47,558.38,557.29,556.81,558.13,561.03,564.64,569.02,573.21,577.18,580.96,584.31,588.50,592.06,594.45,596.15,597.57,598.58,599.23,599.51,599.35,599.17,599.31,599.83,600.27,600.55,601.10,601.55,600.97,600.62,601.95,603.99,605.59,606.59,607.09,607.72,608.99,611.46,614.00,616.45,618.68,620.68,623.14,625.87,628.45,630.66,632.65,634.88,636.67,637.76,637.90,636.81,635.38,633.80,632.13,630.89,630.08,629.47,628.94,628.50,627.97,627.69,627.14,625.37,622.76,621.19,620.40,620.12,620.34,621.40,623.00,623.65,620.39,617.24,615.00,613.37,611.80,609.80,606.64,603.34,600.43,597.96,595.23,592.01,588.48,585.06,582.70,580.26,576.97,572.87,570.16,568.52,567.15,565.86,564.85,564.31,564.44,564.74,564.78,565.42,565.60,565.53,565.38,565.17,564.59,563.90,563.31,563.05,563.04,562.88,562.55,562.08,561.52,560.77,559.75,558.51
478.85,478.85,478.85,478.85,478.85,478.85,478.85,478.85,478.85,478.85,478.85,478.85,478.85,478.85,478.85,478.85,478.85,478.85,478.85,478.85,478.85,478.85,478.85,478.85,478.85,478.85,478.85,478.85,478.85,478.85,478.85,478.85,478.85,478.85,478.85,478.85,478.85,478.85,478.85,478.85,478.85,478.85,478.85,478.85,478.85,478.85,478.85,478.88,478.91,478.96,479.03,479.06,479.06,479.07,479.14,479.15,479.15,479.16,479.20,479.24,479.25,479.26,479.32,479.42,479.48,479.54,479.62,479.69,479.74,479.78,479.82,479.89,479.90,481.22,483.06,485.07,487.36,490.37,494.72,500.21,506.25,511.61,516.23,520.25,523.79,527.30,530.42,533.17,535.58,537.65,539.00,539.81,540.24,540.27,540.14,539.10,537.90,537.44,539.10,541.31,543.80,546.42,548.94,550.47,551.43,552.13,552.81,553.97,555.83,557.88,559.70,560.72,561.31,561.74,561.96,561.62,560.35,557.06,553.85,552.17,552.79,556.88,561.78,566.20,569.25,570.63,570.45,569.21,567.22,565.29,563.38,561.45,559.92,560.19,563.41,566.84,569.30,570.01,569.10,567.30,565.40,563.65,561.73,560.29,560.23,561.33,563.04,565.88,569.41,573.32,577.49,581.68,587.35,592.01,594.95,597.41,599.56,601.21,602.27,602.58,602.45,601.97,601.81,602.27,602.89,603.80,605.10,606.17,605.77,604.75,605.86,608.02,609.73,610.73,610.85,610.89,611.32,612.49,614.70,617.56,620.53,623.10,625.59,627.92,629.99,631.70,633.18,634.12,634.81,635.22,634.86,633.58,631.93,630.05,628.09,626.86,625.94,625.27,624.83,624.43,623.89,623.46,622.84,621.44,619.70,618.63,618.05,617.81,618.03,618.95,620.48,621.85,621.18,618.43,616.41,615.06,613.69,612.26,610.09,607.74,605.42,602.96,600.54,597.89,594.73,590.82,587.34,584.57,581.27,576.96,573.38,570.76,568.85,567.39,566.13,564.50,562.95,562.13,562.59,563.28,563.59,563.75,563.85,563.74,563.14,562.43,561.85,561.62,561.68,561.61,561.35,560.90,560.40,559.77,558.86,557.66
478.80,478.80,478.80,478.80,478.80,478.80,478.80,478.80,478.80,478.80,478.80,478.80,478.80,478.80,478.80,478.80,478.80,478.80,478.80,478.80,478.80,478.80,478.80,478.80,478.80,478.80,478.80,478.80,478.80,478.80,478.80,478.80,478.80,478.80,478.80,478.80,478.80,478.80,478.80,478.80,478.80,478.80,478.80,478.80,478.80,478.80,478.80,478.84,478.88,478.90,478.97,478.99,478.99,479.00,479.07,479.08,479.09,479.12,479.18,479.19,479.19,479.23,479.32,479.47,479.51,479.55,479.62,479.68,479.70,479.75,479.82,479.89,479.94,481.35,483.12,484.87,486.98,489.68,493.92,499.43,505.44,511.00,515.62,519.59,523.16,526.70,529.88,532.50,534.57,536.28,537.69,538.86,539.68,539.94,539.90,539.25,538.41,538.09,539.77,541.86,544.13,546.57,549.11,550.86,552.29,553.38,554.17,555.41,557.02,558.67,560.13,561.09,561.85,562.59,563.17,563.32,563.13,561.87,559.64,557.05,556.21,558.96,563.00,567.24,570.93,572.97,573.21,572.15,570.13,568.10,566.13,564.23,562.63,562.31,565.95,569.21,571.22,572.24,572.71,571.86,570.24,568.22,566.32,565.19,564.67,564.38,563.92,564.35,566.48,569.81,574.03,578.97,585.65,591.12,594.62,597.76,600.68,603.13,604.90,605.64,605.62,604.80,604.26,604.56,605.30,606.81,608.75,610.40,610.35,608.94,609.53,611.37,613.14,614.38,614.91,615.14,615.25,615.40,617.04,619.91,623.17,625.92,628.16,630.00,631.51,632.68,633.49,633.09,632.68,632.39,631.47,629.99,628.10,625.99,624.03,623.04,622.23,621.61,621.17,620.73,620.20,619.64,619.00,618.18,617.36,616.72,616.19,615.84,616.01,616.65,617.72,619.41,621.68,619.79,617.94,616.63,615.30,613.91,612.53,611.26,609.90,607.73,605.63,603.31,600.46,596.64,592.29,588.92,585.83,582.32,578.38,575.03,572.45,570.50,568.75,566.16,562.75,560.37,560.79,561.36,561.79,562.15,562.40,562.29,561.70,560.95,560.34,560.20,560.30,560.29,560.11,559.74,559.30,558.79,557.96,556.80
478.80,478.80,478.80,478.80,478.80,478.80,478.80,478.80,478.80,478.80,478.80,478.80,478.80,478.80,478.80,478.80,478.80,478.80,478.80,478.80,478.80,478.80,478.80,478.80,478.80,478.80,478.80,478.80,478.80,478.80,478.80,478.80,478.80,478.80,478.80,478.80,478.80,478.80,478.80,478.80,478.80,478.80,478.80,478.80,478.80,478.80,478.80,478.81,478.82,478.83,478.91,478.93,478.93,478.94,479.01,479.03,479.06,479.11,479.12,479.13,479.16,479.23,479.32,479.47,479.55,479.59,479.60,479.63,479.68,479.75,479.82,479.92,480.15,481.67,483.39,484.93,487.04,489.92,494.01,499.26,505.40,510.76,514.92,518.49,521.91,525.45,528.81,531.37,533.11,534.52,535.77,536.90,537.88,538.52,538.48,537.70,536.79,536.46,537.93,539.92,542.25,544.81,547.50,549.86,551.42,552.57,553.63,554.81,556.09,557.60,559.18,560.26,560.89,561.37,561.95,562.87,563.81,564.41,563.78,561.85,560.57,561.85,564.55,568.04,571.96,575.35,576.31,575.55,573.69,571.24,568.82,566.73,565.08,564.32,567.75,570.49,572.05,573.37,574.72,574.48,573.48,572.27,570.94,570.33,569.95,569.31,567.80,566.40,566.35,568.07,571.94,576.91,583.10,588.85,593.40,596.67,599.78,603.03,606.19,608.49,608.49,607.49,606.64,606.59,607.47,608.93,610.68,612.21,612.52,611.90,611.98,613.06,615.08,617.03,618.38,619.00,618.98,618.86,619.86,622.40,625.71,628.59,630.22,631.52,632.60,633.16,632.58,631.69,630.66,629.33,627.30,625.19,623.10,621.34,620.27,619.64,619.13,618.73,618.43,618.09,617.81,617.48,617.03,616.40,615.64,615.00,614.40,613.93,613.96,614.49,615.52,617.10,619.24,620.42,619.72,618.18,616.86,615.48,614.05,612.78,611.69,610.57,609.31,607.50,605.03,601.86,598.63,594.59,590.56,587.07,583.61,580.28,577.33,574.72,572.15,569.26,565.02,560.96,559.21,559.97,560.54,560.82,560.91,560.76,560.35,559.52,558.73,558.80,558.89,558.87,558.76,558.58,558.24,557.84,557.10,556.02
478.80,478.80,478.80,478.80,478.80,478.80,478.80,478.80,478.80,478.80,478.80,478.80,478.80,478.80,478.80,478.80,478.78,478.75,478.75,478.75,478.75,478.75,478.75,478.75,478.75,478.75,478.75,478.75,478.75,478.75,478.75,478.75,478.75,478.75,478.75,478.75,478.75,478.75,478.75,478.75,478.75,478.75,478.75,478.75,478.75,478.75,478.75,478.75,478.77,478.81,478.85,478.88,478.90,478.91,478.95,478.99,479.03,479.07,479.10,479.10,479.15,479.24,479.36,479.47,479.56,479.62,479.64,479.65,479.68,479.75,479.82,479.97,480.48,482.10,483.86,485.48,487.61,491.23,495.70,500.73,506.10,510.38,513.90,517.10,520.28,523.65,526.90,529.48,531.28,532.55,533.63,534.55,535.37,535.96,535.79,535.13,534.43,534.24,535.54,537.41,539.58,541.96,544.51,547.16,549.05,550.53,551.90,553.11,554.20,555.46,556.77,557.55,557.92,558.39,559.18,560.46,562.03,564.06,565.39,565.38,564.62,565.15,567.00,570.06,574.30,577.64,578.73,578.34,577.01,574.67,571.83,569.26,567.28,566.27,568.87,571.18,572.77,574.41,576.18,576.87,576.86,576.35,575.32,574.66,573.94,572.80,570.84,568.71,567.41,567.79,570.68,575.19,580.47,586.39,592.13,595.46,598.67,602.52,606.64,609.89,610.62,609.87,608.98,608.72,609.45,610.78,612.39,613.91,614.72,614.60,614.48,614.91,616.33,618.47,620.32,621.53,622.01,622.03,622.94,625.30,628.24,630.40,631.67,632.47,632.86,632.63,631.42,629.71,627.66,625.39,623.05,621.23,619.58,618.28,617.58,617.06,616.65,616.30,616.01,615.74,615.53,615.32,615.02,614.57,613.90,613.25,612.64,612.09,611.83,612.26,613.42,615.16,617.25,619.49,620.00,619.33,618.23,616.90,615.48,614.21,613.17,612.30,611.30,609.93,608.04,605.40,602.64,598.94,594.93,591.20,587.93,584.49,581.13,577.97,574.94,571.85,567.51,562.69,558.97,558.55,558.85,559.17,559.33,559.17,558.84,558.11,557.41,557.43,557.45,557.40,557.31,557.18,556.98,556.70,556.13,555.20
478.79,478.79,478.79,478.79,478.79,478.79,478.79,478.79,478.79,478.79,478.79,478.79,478.79,478.79,478.79,478.79,478.74,478.70,478.70,478.70,478.70,478.70,478.70,478.70,478.70,478.70,478.70,478.70,478.70,478.70,478.70,478.70,478.70,478.70,478.70,478.70,478.70,478.70,478.70,478.70,478.70,478.70,478.70,478.70,478.70,478.70,478.70,478.70,478.73,478.79,478.80,478.85,478.89,478.89,478.91,478.96,479.00,479.02,479.08,479.10,479.15,479.26,479.40,479.49,479.57,479.65,479.70,479.70,479.71,479.75,479.82,480.03,480.91,482.65,484.53,486.29,488.42,492.97,497.98,502.69,506.79,509.69,512.54,515.44,518.35,521.48,524.45,527.04,529.06,530.29,531.21,531.89,532.42,532.73,532.37,531.94,531.59,531.60,532.69,534.51,536.53,538.59,540.82,543.50,545.78,547.70,549.34,550.53,551.48,552.36,553.09,553.37,553.58,554.35,555.60,557.18,559.20,562.25,565.38,567.64,568.07,568.59,570.07,572.87,577.15,579.58,580.46,580.50,579.85,578.00,574.94,571.88,569.45,568.17,569.65,571.59,573.44,575.35,577.27,578.92,580.02,580.24,579.37,578.37,577.06,575.36,573.27,571.05,569.19,568.56,570.18,573.90,578.06,583.94,590.70,594.22,597.52,601.76,606.43,610.25,612.06,611.91,611.23,610.90,611.37,612.54,614.04,615.62,616.89,617.09,617.01,616.98,617.42,619.31,621.34,623.12,624.37,624.79,625.95,628.13,630.43,631.61,632.68,632.97,632.56,631.51,629.97,627.32,624.24,621.27,619.15,618.04,617.06,616.15,615.47,614.92,614.50,614.12,613.77,613.53,613.29,613.10,612.89,612.58,612.01,611.33,610.61,609.87,609.13,609.61,611.20,613.46,615.61,617.74,619.31,619.91,619.11,617.90,616.58,615.38,614.34,613.29,612.23,611.20,609.86,607.63,604.92,601.98,598.53,594.59,591.31,587.67,583.96,580.37,577.09,573.85,569.83,564.87,559.56,557.42,557.10,557.37,557.68,557.54,557.20,556.68,556.20,556.08,556.00,555.93,555.83,555.71,555.61,555.49,555.12,554.40
478.73,478.73,478.73,478.73,478.73,478.73,478.73,478.73,478.73,478.73,478.73,478.73,478.73,478.73,478.73,478.73,478.71,478.70,478.70,478.70,478.70,478.70,478.70,478.70,478.70,478.70,478.70,478.70,478.70,478.70,478.70,478.70,478.70,478.70,478.70,478.70,478.70,478.70,478.70,478.70,478.70,478.70,478.70,478.70,478.70,478.70,478.70,478.70,478.71,478.74,478.79,478.82,478.83,478.84,478.89,478.92,478.96,479.01,479.04,479.09,479.15,479.26,479.41,479.49,479.61,479.71,479.77,479.77,479.77,479.79,479.82,480.09,481.37,483.54,485.55,487.09,488.99,494.05,498.99,502.85,505.69,508.03,510.56,513.25,516.03,518.91,521.71,524.11,525.99,527.25,528.08,528.76,529.23,529.23,528.77,528.35,528.19,528.38,528.89,531.12,533.42,535.40,537.35,539.70,542.13,544.32,545.92,546.70,547.31,547.54,547.39,547.31,548.18,549.89,552.12,554.71,557.74,561.08,564.42,567.45,569.77,571.62,573.58,575.98,578.83,580.19,580.99,581.40,581.22,580.19,577.75,574.82,571.98,570.04,570.59,572.16,574.04,575.97,577.90,579.85,581.75,583.12,582.61,581.47,579.75,577.64,575.50,573.27,571.48,570.50,571.01,573.75,576.71,581.86,588.64,592.91,596.52,600.65,605.30,609.77,612.26,613.18,613.24,612.98,613.41,614.39,615.78,617.35,618.68,619.29,619.45,619.37,619.34,620.37,622.10,623.94,625.53,626.55,628.01,629.69,631.24,632.34,633.19,632.83,631.82,630.32,627.72,624.57,621.34,618.53,616.89,615.96,614.97,614.00,613.28,612.72,612.30,611.91,611.56,611.32,611.09,610.84,610.55,610.18,609.65,608.63,607.37,605.92,604.16,605.26,608.28,611.87,614.06,616.25,618.11,619.00,618.34,617.35,616.37,615.46,614.58,613.61,612.59,611.56,610.26,608.22,605.55,602.74,599.65,596.19,592.78,589.12,585.35,581.59,578.04,574.75,571.16,566.40,560.38,557.60,556.16,555.72,556.00,555.81,555.50,555.10,554.75,554.65,554.62,554.56,554.50,554.44,554.37,554.41,554.24,553.73
478.70,478.70,478.70,478.70,478.70,478.70,478.70,478.70,478.70,478.70,478.70,478.70,478.70,478.70,478.70,478.70,478.70,478.69,478.66,478.66,478.66,478.66,478.66,478.66,478.66,478.66,478.66,478.66,478.66,478.66,478.66,478.66,478.66,478.66,478.66,478.66,478.66,478.66,478.66,478.66,478.66,478.66,478.66,478.66,478.66,478.66,478.66,478.66,478.67,478.71,478.75,478.79,478.80,478.81,478.86,478.89,478.93,478.97,479.01,479.08,479.17,479.29,479.41,479.49,479.63,479.74,479.81,479.83,479.84,479.84,479.85,480.15,481.75,484.08,486.09,487.49,489.09,493.34,497.68,501.14,503.49,505.50,507.82,510.36,512.98,515.58,518.27,520.66,522.54,523.87,524.68,525.27,525.58,525.38,524.95,524.61,524.52,524.69,524.86,526.57,528.73,531.00,533.46,535.58,537.87,540.05,541.67,542.29,542.49,542.25,541.82,542.05,543.33,545.98,549.42,553.03,556.74,560.26,563.56,566.62,569.48,571.74,573.72,575.68,577.77,579.40,580.60,581.38,581.71,581.79,580.01,577.38,574.61,572.53,572.41,573.20,574.53,576.41,578.28,580.39,582.80,585.08,585.66,584.97,583.22,580.72,577.91,575.81,574.59,574.04,574.27,575.80,577.42,581.00,586.57,591.66,595.57,599.62,604.14,608.85,611.94,613.92,614.91,615.08,615.50,616.35,617.61,619.14,620.63,621.69,622.21,622.19,621.76,621.78,623.08,624.75,626.30,627.57,629.09,630.45,631.66,632.75,633.29,632.57,631.33,629.62,626.19,622.48,618.74,615.66,614.63,613.97,613.05,611.61,609.62,608.13,607.37,607.12,607.23,607.44,607.38,607.17,606.89,606.61,606.11,604.96,603.54,602.03,600.32,601.69,605.43,609.96,612.60,614.81,616.73,617.74,617.18,616.40,615.65,614.93,614.18,613.28,612.29,611.30,609.98,607.78,605.16,602.48,599.65,596.56,593.29,589.82,586.10,582.23,578.56,575.29,572.00,567.40,560.99,558.04,556.09,554.96,554.59,554.21,553.95,553.68,553.43,553.35,553.38,553.35,553.30,553.30,553.33,553.42,553.31,552.92
478.69,478.69,478.69,478.69,478.69,478.69,478.69,478.69,478.69,478.69,478.69,478.69,478.69,478.69,478.69,478.69,478.69,478.66,478.61,478.61,478.61,478.61,478.61,478.61,478.61,478.61,478.61,478.61,478.61,478.61,478.61,478.61,478.61,478.61,478.61,478.61,478.61,478.61,478.61,478.61,478.61,478.61,478.61,478.61,478.61,478.61,478.60,478.60,478.63,478.69,478.71,478.75,478.79,478.79,478.81,478.87,478.90,478.93,479.00,479.08,479.20,479.33,479.41,479.50,479.63,479.74,479.82,479.90,479.93,479.92,479.91,480.20,481.99,484.20,486.07,487.40,488.68,491.19,494.48,497.83,500.29,502.25,504.53,507.00,509.43,511.75,514.32,516.72,518.74,520.17,521.09,521.56,521.67,521.42,521.11,520.93,520.87,520.89,520.93,521.48,523.05,525.64,528.91,530.83,532.85,534.95,536.68,537.39,537.27,536.92,536.89,537.99,539.47,542.91,547.51,551.96,555.94,559.52,562.63,565.23,567.48,569.32,570.92,572.51,574.52,577.36,579.26,580.44,581.41,582.75,581.74,579.62,577.27,575.49,574.95,574.75,575.15,576.80,578.55,580.80,583.52,586.40,588.44,588.63,587.22,584.48,580.79,578.89,578.47,578.79,579.34,579.70,579.97,581.42,584.86,590.52,594.71,598.75,603.12,607.74,611.35,614.24,616.20,617.10,617.54,618.35,619.49,620.96,622.75,624.25,625.16,625.32,624.58,623.63,624.34,625.60,626.85,628.09,629.45,630.69,631.87,632.94,633.13,632.33,631.13,629.37,625.46,621.04,616.35,612.55,612.07,611.74,610.79,608.55,604.82,602.06,600.78,600.64,601.35,602.18,602.44,602.36,602.24,602.26,601.82,600.78,599.58,598.51,597.78,599.13,602.84,607.74,611.14,613.38,615.29,616.36,615.89,615.27,614.64,614.01,613.34,612.49,611.53,610.48,608.99,606.46,603.92,601.46,598.89,596.07,593.13,589.98,586.36,582.41,578.77,575.59,572.48,567.94,561.31,558.51,556.62,554.95,553.56,552.82,552.57,552.41,552.24,552.13,552.23,552.24,552.20,552.25,552.44,552.49,552.34,552.00
478.63,478.63,478.63,478.63,478.63,478.63,478.63,478.63,478.63,478.63,478.63,478.63,478.63,478.63,478.63,478.63,478.63,478.63,478.60,478.60,478.60,478.60,478.60,478.60,478.60,478.60,478.60,478.60,478.60,478.60,478.60,478.60,478.60,478.60,478.60,478.60,478.60,478.60,478.60,478.60,478.60,478.60,478.60,478.60,478.60,478.59,478.56,478.56,478.61,478.64,478.69,478.72,478.74,478.75,478.79,478.82,478.86,478.92,479.00,479.08,479.21,479.33,479.42,479.54,479.65,479.74,479.85,480.07,480.23,480.17,480.01,480.23,481.81,483.62,485.18,486.38,487.48,488.93,490.81,493.08,495.71,498.48,501.39,504.03,506.24,508.55,510.49,512.35,514.17,515.79,517.31,518.05,518.29,518.38,518.16,518.21,518.29,518.29,518.30,518.45,519.21,520.63,522.53,523.80,526.20,528.92,530.90,531.74,532.23,532.92,534.13,536.15,538.30,541.88,546.47,551.16,554.79,557.81,560.35,562.40,564.06,565.67,567.32,569.06,571.03,573.86,576.13,578.07,580.08,582.18,582.88,581.96,579.90,578.32,577.56,577.06,576.92,577.62,579.03,581.65,584.83,587.95,590.11,590.91,590.26,588.32,585.38,583.59,583.22,583.59,584.07,584.25,583.90,583.73,584.97,589.73,594.01,598.20,602.55,607.09,611.07,614.26,616.77,618.47,619.35,620.18,621.26,622.75,624.72,626.48,627.78,628.34,627.78,626.32,626.00,626.51,627.54,628.72,629.91,630.98,632.04,633.08,633.18,632.35,631.17,629.46,625.51,620.07,614.20,609.50,608.64,608.19,605.85,602.78,600.47,598.70,597.53,596.82,596.61,597.01,597.52,597.73,597.98,598.78,598.61,597.94,597.03,596.20,596.23,597.92,601.12,605.28,609.31,611.91,613.95,615.12,614.85,614.27,613.69,613.10,612.45,611.65,610.77,608.94,606.48,604.14,601.75,599.72,597.72,595.44,592.83,589.82,586.16,582.14,578.62,575.54,572.55,567.92,560.95,558.47,556.78,555.06,553.31,552.00,551.47,551.21,551.02,550.90,551.01,551.08,551.15,551.32,551.53,551.54,551.34,550.98
478.60,478.60,478.60,478.60,478.60,478.60,478.60,478.60,478.60,478.60,478.60,478.60,478.60,478.60,478.60,478.60,478.60,478.60,478.60,478.57,478.57,478.57,478.57,478.57,478.57,478.57,478.57,478.57,478.57,478.57,478.57,478.57,478.57,478.57,478.57,478.57,478.57,478.57,478.57,478.57,478.57,478.57,478.57,478.57,478.57,478.56,478.52,478.54,478.58,478.61,478.65,478.69,478.70,478.71,478.76,478.79,478.84,478.92,479.00,479.10,479.22,479.34,479.44,479.57,479.66,479.75,479.91,480.27,480.67,480.72,480.58,480.65,481.66,482.79,483.90,484.95,485.87,486.74,487.78,489.26,491.62,494.66,498.01,501.12,503.67,505.95,507.45,508.84,510.35,511.86,513.57,514.58,515.13,515.54,515.49,515.69,515.90,515.98,516.01,516.51,517.23,518.06,518.95,519.66,521.79,524.34,526.27,527.42,528.77,530.53,532.71,535.14,537.67,541.05,545.18,549.59,552.78,555.11,557.03,558.68,560.09,561.71,563.33,565.00,567.15,570.05,572.85,575.56,578.31,580.99,583.11,583.54,582.32,581.01,580.12,579.49,579.06,579.07,580.11,582.72,586.01,589.28,591.59,592.83,592.73,591.49,589.56,588.19,587.81,588.01,588.37,588.42,587.72,586.59,586.24,589.31,593.44,597.73,602.04,606.47,610.65,614.13,617.10,619.47,620.79,621.79,622.96,624.51,626.55,628.46,630.00,630.82,630.41,628.81,627.76,627.70,628.57,629.65,630.83,631.76,632.54,633.26,633.20,632.63,631.69,629.90,625.83,619.66,613.06,607.76,606.28,605.36,602.68,599.72,598.18,596.99,595.68,594.30,593.11,592.74,593.31,593.99,594.75,595.79,595.79,595.47,594.83,594.12,594.67,596.84,599.76,603.27,607.57,610.61,612.74,613.90,613.81,613.29,612.74,612.16,611.46,610.39,608.83,606.31,603.49,601.42,599.40,597.79,596.24,594.42,592.20,589.08,585.20,581.14,578.04,575.21,572.39,568.02,561.39,558.67,556.88,555.08,553.17,551.45,550.51,549.98,549.67,549.58,549.69,549.86,550.09,550.39,550.55,550.52,550.29,549.88
478.60,478.60,478.60,478.60,478.59,478.59,478.59,478.59,478.59,478.59,478.59,478.59,478.59,478.59,478.59,478.59,478.59,478.59,478.58,478.52,478.51,478.51,478.51,478.51,478.51,478.51,478.51,478.51,478.51,478.51,478.51,478.51,478.51,478.51,478.51,478.51,478.51,478.51,478.51,478.51,478.51,478.51,478.51,478.51,478.51,478.50,478.50,478.50,478.53,478.59,478.61,478.66,478.69,478.70,478.72,478.77,478.84,478.92,479.01,479.14,479.25,479.36,479.50,479.58,479.66,479.78,479.99,480.47,481.21,481.59,481.65,481.58,481.72,482.00,482.57,483.42,484.11,484.79,485.68,486.86,488.48,490.98,494.37,498.13,501.66,503.91,505.29,506.45,507.58,508.68,510.00,511.13,512.05,512.72,512.97,513.27,513.64,514.00,514.23,515.74,517.32,518.52,519.25,519.71,520.73,522.14,523.68,525.20,527.34,529.82,532.35,534.56,537.04,539.96,543.29,546.85,549.54,551.19,552.58,554.11,555.74,557.64,559.12,560.53,563.06,566.37,569.91,573.30,576.36,579.43,582.37,584.11,584.35,583.54,582.60,581.88,581.38,581.20,581.91,584.01,587.00,590.38,593.10,594.63,594.77,593.94,592.92,592.33,591.99,591.94,592.16,592.00,591.10,589.74,588.62,589.49,593.09,597.31,601.54,605.81,610.04,613.86,617.29,620.11,621.76,623.10,624.51,626.16,628.14,630.09,631.76,632.69,632.37,630.95,629.64,629.31,630.03,630.98,632.30,633.11,633.44,633.58,633.17,633.06,632.58,630.71,626.23,619.70,612.96,607.53,605.40,603.80,602.20,600.36,598.32,596.81,594.99,592.98,591.04,589.72,590.08,591.31,592.62,593.21,593.22,593.14,592.71,592.07,592.89,595.52,598.52,601.73,605.93,609.45,611.62,612.64,612.69,612.28,611.74,611.06,610.08,608.34,605.41,602.60,600.26,598.45,596.98,595.73,594.42,592.86,590.99,587.52,583.33,579.38,577.00,574.58,571.97,568.16,562.59,559.08,556.85,554.90,552.91,551.04,549.63,548.70,548.20,548.14,548.27,548.56,548.97,549.39,549.45,549.40,549.14,548.71
478.60,478.60,478.60,478.57,478.54,478.54,478.54,478.54,478.54,478.54,478.54,478.54,478.54,478.54,478.54,478.54,478.54,478.54,478.53,478.51,478.50,478.50,478.50,478.50,478.50,478.50,478.50,478.50,478.50,478.50,478.50,478.50,478.50,478.50,478.50,478.50,478.50,478.50,478.50,478.50,478.50,478.50,478.50,478.50,478.49,478.45,478.44,478.47,478.51,478.54,478.59,478.62,478.64,478.65,478.70,478.77,478.84,478.93,479.05,479.16,479.25,479.36,479.50,479.59,479.70,479.81,480.03,480.61,481.44,482.17,482.63,482.79,482.89,482.99,483.22,483.56,483.75,483.90,484.39,485.20,486.27,488.31,491.05,494.56,498.65,501.61,503.08,504.14,505.15,506.13,507.31,508.04,508.62,509.53,510.47,511.25,512.42,514.09,515.52,517.42,519.44,521.19,522.26,523.08,523.93,524.94,526.04,526.70,527.93,529.46,531.13,533.06,535.38,537.84,540.25,542.36,543.80,545.04,546.64,548.86,551.38,553.68,555.81,558.02,560.80,564.56,568.65,572.47,575.65,578.65,581.51,583.71,585.09,585.76,585.10,584.26,583.65,583.55,584.28,585.97,588.55,591.88,595.01,596.83,597.34,596.93,596.27,595.88,595.59,595.41,595.36,595.09,594.21,592.95,591.75,591.67,593.77,597.14,601.12,605.32,609.48,613.54,617.33,620.42,622.16,623.72,625.34,627.03,628.80,630.86,633.03,634.61,634.77,633.58,632.33,631.79,632.12,632.79,633.92,634.69,634.94,634.60,633.44,632.50,632.24,631.60,626.18,618.85,612.23,607.50,605.52,603.88,602.53,601.15,599.48,597.82,595.62,593.17,590.72,588.65,588.22,589.06,590.21,590.54,590.52,590.46,590.16,589.75,590.56,593.13,596.20,599.59,603.97,607.64,610.07,611.32,611.44,611.16,610.44,608.78,606.17,603.57,601.13,599.05,597.25,595.72,594.41,593.34,592.23,590.61,587.74,583.85,580.34,577.66,575.63,573.53,570.71,566.63,561.30,558.16,555.90,553.84,551.81,549.90,548.45,547.39,546.77,546.72,546.84,547.15,547.58,548.00,548.08,548.06,547.88,547.53
478.57,478.57,478.57,478.54,478.50,478.50,478.50,478.50,478.50,478.50,478.50,478.50,478.50,478.50,478.50,478.50,478.50,478.50,478.50,478.50,478.49,478.48,478.48,478.48,478.48,478.48,478.48,478.48,478.48,478.48,478.48,478.48,478.48,478.48,478.48,478.48,478.48,478.48,478.48,478.48,478.48,478.48,478.48,478.48,478.46,478.41,478.40,478.44,478.48,478.50,478.56,478.59,478.60,478.62,478.69,478.77,478.84,478.94,479.09,479.18,479.27,479.38,479.50,479.59,479.73,479.84,480.05,480.73,481.62,482.57,483.36,483.82,484.21,484.52,484.72,484.73,484.51,484.18,484.19,484.50,485.02,486.42,488.50,491.40,495.16,498.73,500.48,501.70,502.86,503.82,505.07,505.94,506.76,508.08,509.60,510.86,512.68,515.31,517.78,520.28,522.75,524.89,526.14,527.18,528.01,528.78,529.46,529.43,529.75,530.22,530.93,532.44,534.35,536.16,537.67,538.75,539.49,540.58,542.46,545.30,548.58,551.40,554.30,557.31,560.29,564.21,568.40,572.22,575.27,577.88,580.30,582.48,584.44,586.27,586.59,586.27,585.92,586.03,586.86,588.32,590.71,594.06,597.22,599.03,599.70,599.68,599.45,599.20,598.96,598.74,598.53,598.32,597.52,596.36,595.13,594.55,595.15,597.38,600.78,604.80,608.76,612.95,617.08,620.59,622.40,624.15,625.93,627.66,629.32,631.75,634.43,636.51,637.15,636.42,635.28,634.54,634.45,634.88,635.73,636.41,636.57,635.69,633.95,632.07,631.21,630.59,625.13,617.83,611.69,607.68,605.90,604.32,603.02,601.84,600.55,598.85,596.28,593.42,590.59,588.05,586.64,586.82,587.65,587.78,587.66,587.50,587.25,587.08,587.97,590.44,593.50,597.04,601.51,605.11,607.67,609.04,608.98,608.43,607.28,605.03,601.79,598.98,597.17,595.66,594.23,592.89,591.65,590.50,589.15,587.17,583.84,580.24,577.60,575.86,573.99,571.76,568.23,563.79,559.31,556.73,554.55,552.47,550.45,548.58,547.12,546.01,545.32,545.29,545.41,545.73,546.13,546.50,546.62,546.65,546.56,546.30
478.51,478.51,478.51,478.51,478.50,478.50,478.50,478.50,478.50,478.50,478.50,478.50,478.50,478.50,478.50,478.50,478.50,478.50,478.50,478.50,478.45,478.41,478.41,478.41,478.41,478.41,478.41,478.41,478.41,478.41,478.41,478.41,478.41,478.41,478.41,478.41,478.41,478.41,478.41,478.41,478.41,478.41,478.41,478.41,478.41,478.40,478.39,478.41,478.44,478.50,478.51,478.56,478.60,478.62,478.69,478.77,478.85,478.94,479.09,479.18,479.30,479.42,479.51,479.59,479.73,479.84,480.08,480.84,481.80,482.79,483.69,484.46,485.41,486.28,486.86,487.01,486.61,486.01,485.51,485.17,485.07,485.55,487.19,489.20,491.36,495.02,497.24,499.02,500.64,501.69,503.32,505.45,507.70,509.69,511.48,513.10,515.11,517.75,520.66,524.18,527.23,529.38,530.36,531.21,531.91,532.47,532.80,532.81,532.81,532.69,532.73,533.68,534.83,535.73,536.50,537.44,538.66,539.91,541.90,544.96,548.51,551.99,555.50,558.93,561.99,565.61,569.18,572.37,574.90,576.75,578.51,580.21,581.95,584.06,586.28,587.59,588.21,588.65,589.59,591.15,593.72,597.16,599.73,601.02,601.56,601.83,602.36,602.37,602.20,602.00,601.88,601.97,601.32,600.15,598.83,598.03,597.49,598.33,600.63,604.25,607.81,611.95,616.47,620.63,622.59,624.51,626.42,628.19,629.96,633.18,636.20,638.37,639.28,639.34,638.33,637.34,636.94,637.25,637.75,638.24,638.13,636.60,634.63,632.11,629.37,626.39,622.52,616.80,611.68,608.11,606.34,604.77,603.47,602.30,601.06,599.45,596.50,593.22,590.15,587.50,585.03,584.43,584.95,584.92,584.57,584.21,583.90,583.91,585.13,587.58,590.54,594.00,598.35,601.61,604.02,605.22,604.57,603.14,601.30,599.42,597.59,595.70,594.02,592.49,591.07,589.82,588.63,586.98,584.76,582.08,579.69,577.52,575.63,573.90,571.94,568.88,564.08,559.49,557.07,554.91,552.86,550.87,548.95,547.18,545.67,544.52,543.85,543.86,543.99,544.30,544.66,544.96,545.12,545.20,545.15,544.97
478.50,478.50,478.50,478.50,478.49,478.45,478.44,478.44,478.44,478.44,478.44,478.44,478.44,478.44,478.44,478.44,478.44,478.44,478.44,478.44,478.42,478.40,478.40,478.40,478.40,478.40,478.40,478.40,478.40,478.40,478.40,478.40,478.40,478.40,478.40,478.39,478.35,478.39,478.40,478.40,478.40,478.40,478.40,478.40,478.39,478.35,478.34,478.37,478.41,478.45,478.49,478.52,478.56,478.62,478.69,478.77,478.87,478.98,479.10,479.18,479.30,479.43,479.52,479.63,479.75,479.86,480.16,481.05,482.04,483.02,483.96,484.94,486.34,487.71,488.79,489.31,488.89,488.13,487.40,486.82,486.49,486.66,487.49,488.52,489.79,492.36,494.38,496.33,498.33,500.16,503.16,506.45,509.45,511.88,514.39,516.56,518.90,521.82,525.47,528.17,530.34,532.07,533.15,534.15,535.05,535.72,535.98,535.82,535.55,535.15,534.93,535.75,536.89,538.08,539.04,539.66,540.88,542.35,544.30,547.12,551.04,554.35,557.68,561.05,563.99,566.70,569.13,571.22,572.88,574.32,575.89,577.56,579.34,581.40,584.30,587.37,589.89,591.25,592.74,594.56,596.79,599.25,601.03,602.16,603.05,603.88,604.69,605.14,605.29,605.27,605.35,606.12,606.25,605.90,605.31,604.71,602.97,601.88,602.19,604.41,607.39,611.48,616.25,620.80,622.95,624.94,626.91,628.89,631.14,634.68,637.70,639.62,640.18,640.30,639.80,639.21,638.87,639.04,639.38,639.55,638.76,636.03,632.95,629.51,625.86,622.27,619.31,614.65,610.70,608.14,606.62,605.19,603.85,602.58,601.27,599.64,596.57,593.09,589.73,586.72,583.86,582.50,582.25,582.09,581.71,581.34,581.00,580.90,581.71,583.55,586.44,590.26,594.67,597.93,600.14,601.19,600.78,599.72,598.08,596.32,594.60,592.85,591.00,589.32,587.81,586.41,585.08,583.11,580.78,578.46,576.63,574.95,573.27,571.36,568.63,564.70,560.54,557.04,554.85,552.83,550.79,548.85,547.13,545.69,544.14,543.05,542.50,542.44,542.57,542.85,543.18,543.47,543.67,543.74,543.72,543.62
478.49,478.49,478.49,478.49,478.46,478.40,478.40,478.40,478.40,478.40,478.40,478.40,478.40,478.40,478.40,478.40,478.40,478.40,478.40,478.40,478.40,478.39,478.38,478.38,478.38,478.38,478.38,478.38,478.38,478.38,478.38,478.38,478.38,478.38,478.38,478.36,478.31,478.36,478.38,478.38,478.38,478.38,478.38,478.38,478.37,478.31,478.30,478.34,478.39,478.41,478.47,478.49,478.53,478.61,478.69,478.77,478.89,479.02,479.10,479.19,479.32,479.43,479.52,479.67,479.76,479.88,480.23,481.24,482.25,483.21,484.20,485.39,487.12,488.88,490.43,491.42,491.17,490.38,489.56,488.89,488.51,488.56,488.71,489.07,489.90,491.44,493.24,495.15,497.13,499.34,503.23,507.33,510.93,513.77,517.13,519.93,522.73,526.02,529.81,531.51,532.78,534.14,535.42,536.69,537.90,538.84,539.21,538.90,538.32,537.66,537.37,538.36,540.07,541.90,543.23,543.58,544.54,546.03,547.89,550.45,554.55,557.35,560.15,563.01,565.03,566.24,567.26,568.24,569.32,571.03,572.95,574.88,576.81,578.99,582.29,586.66,590.73,592.91,595.02,597.20,599.14,600.64,601.81,602.89,603.93,604.88,605.59,606.20,606.57,606.94,607.68,609.27,610.16,610.63,610.88,610.84,608.82,606.49,605.03,605.55,607.63,611.71,616.61,621.11,623.36,625.39,627.41,629.63,632.53,636.25,638.97,640.37,640.54,640.53,640.47,640.34,640.18,640.27,640.52,640.39,638.90,634.85,630.70,626.58,622.50,618.75,616.08,612.38,609.52,607.83,606.48,605.14,603.82,602.54,601.24,599.57,596.50,593.00,589.50,586.02,582.80,580.78,579.82,579.51,579.15,578.79,578.40,578.11,578.47,579.71,582.28,586.07,590.46,594.04,596.29,597.34,597.30,596.94,595.76,594.13,592.23,590.28,588.09,586.18,584.57,583.04,581.54,579.41,577.21,575.36,573.85,572.21,570.45,568.27,564.90,560.77,557.62,555.14,552.73,550.64,548.59,546.69,545.11,543.98,542.52,541.56,541.17,541.08,541.17,541.41,541.70,541.99,542.22,542.28,542.28,542.24
478.41,478.41,478.41,478.41,478.41,478.40,478.40,478.40,478.40,478.40,478.40,478.40,478.40,478.40,478.40,478.40,478.40,478.40,478.40,478.40,478.40,478.37,478.31,478.31,478.31,478.31,478.31,478.31,478.31,478.31,478.31,478.31,478.31,478.31,478.31,478.31,478.31,478.31,478.31,478.31,478.31,478.31,478.31,478.31,478.31,478.30,478.30,478.31,478.34,478.39,478.41,478.47,478.53,478.61,478.69,478.77,478.89,479.02,479.11,479.24,479.34,479.43,479.52,479.67,479.76,479.88,480.24,481.29,482.31,483.31,484.43,485.89,487.75,489.64,491.52,493.06,493.33,492.68,491.95,491.37,491.02,490.98,491.14,491.62,492.59,494.06,496.07,497.65,498.67,499.88,502.77,506.96,511.19,514.51,518.76,522.21,525.72,529.39,531.72,533.19,534.53,535.93,537.38,538.97,540.57,541.93,542.68,542.44,541.37,540.31,540.04,541.75,544.94,547.51,548.95,549.26,549.64,550.62,552.32,554.98,558.72,560.69,562.65,564.25,563.54,562.22,561.50,561.65,563.08,566.53,569.77,572.36,574.58,577.48,581.36,585.86,589.87,592.26,594.87,597.52,599.66,601.02,602.14,603.17,603.51,603.35,603.36,603.31,603.53,604.65,607.13,609.65,610.78,611.49,612.33,613.41,613.47,611.98,609.86,608.62,609.12,613.29,618.11,621.62,623.76,625.82,627.90,630.36,634.03,637.97,639.83,640.34,640.40,640.30,640.25,640.29,640.38,640.52,640.69,640.47,638.49,633.18,628.63,624.62,620.65,616.64,613.23,610.55,608.50,606.89,605.45,604.01,602.85,601.87,600.82,599.13,596.15,592.97,589.74,585.64,581.69,579.24,578.07,577.54,577.19,576.74,576.18,575.73,576.07,577.11,578.74,581.25,585.32,589.76,592.65,594.00,594.16,594.48,593.80,592.45,590.55,588.08,585.34,583.14,581.47,579.98,578.40,576.41,574.35,572.50,570.98,568.95,566.72,564.21,561.02,558.38,555.85,553.33,550.86,548.41,546.33,544.46,542.85,541.80,540.75,540.10,539.84,539.82,539.84,540.02,540.26,540.50,540.73,540.83,540.87,540.82
478.40,478.40,478.40,478.40,478.40,478.39,478.36,478.35,478.35,478.35,478.35,478.35,478.35,478.35,478.35,478.35,478.35,478.35,478.35,478.35,478.35,478.33,478.30,478.30,478.30,478.30,478.30,478.30,478.30,478.30,478.30,478.30,478.30,478.30,478.30,478.30,478.30,478.26,478.25,478.25,478.26,478.29,478.30,478.28,478.25,478.25,478.25,478.27,478.31,478.36,478.39,478.43,478.50,478.61,478.69,478.80,478.92,479.02,479.11,479.25,479.35,479.43,479.52,479.67,479.76,479.88,480.25,481.31,482.32,483.35,484.51,485.98,487.85,489.87,492.02,494.11,495.45,495.39,494.93,494.58,494.67,494.90,495.32,496.08,497.28,498.53,500.14,501.23,501.80,502.70,503.84,506.37,509.52,512.70,518.48,522.61,526.20,529.66,531.70,533.23,534.88,536.75,538.70,540.63,542.56,544.35,545.76,546.47,546.07,545.52,545.62,547.37,550.55,552.56,553.31,553.31,552.98,553.73,555.40,557.82,560.37,561.39,561.97,562.02,560.56,558.83,557.99,558.13,559.61,563.20,566.87,570.08,573.04,576.61,580.74,584.92,588.68,591.57,594.49,597.47,599.80,601.11,602.12,602.64,602.54,602.02,601.45,600.04,599.41,600.26,602.82,605.37,607.19,608.55,609.76,611.31,612.64,613.44,613.72,613.65,614.49,617.23,620.27,622.65,624.53,626.50,628.51,630.84,634.13,637.41,638.70,638.69,638.25,637.85,638.68,639.72,640.39,640.50,640.57,640.09,637.75,632.17,627.82,624.14,620.36,616.09,611.68,609.16,607.39,605.83,604.32,602.82,601.56,600.57,599.71,598.42,595.87,593.09,590.19,586.21,582.13,579.28,577.50,576.20,575.23,574.55,573.91,573.36,573.60,574.62,576.10,578.09,581.08,584.69,588.00,590.39,591.44,592.11,591.87,590.71,588.58,585.69,582.79,580.54,578.86,577.42,575.96,574.06,572.00,570.08,568.48,566.30,563.93,561.49,558.95,556.66,554.23,551.60,548.81,546.13,543.88,542.12,540.91,540.18,539.48,539.04,538.86,538.81,538.68,538.79,539.02,539.25,539.44,539.54,539.58,539.56
478.38,478.38,478.38,478.38,478.38,478.38,478.32,478.30,478.30,478.30,478.30,478.30,478.30,478.30,478.30,478.30,478.30,478.30,478.30,478.30,478.30,478.29,478.28,478.28,478.28,478.28,478.28,478.28,478.28,478.28,478.28,478.28,478.28,478.28,478.28,478.28,478.28,478.22,478.20,478.20,478.21,478.27,478.28,478.25,478.20,478.20,478.20,478.24,478.29,478.31,478.37,478.40,478.48,478.61,478.70,478.83,478.94,479.02,479.12,479.25,479.35,479.43,479.52,479.67,479.76,479.87,480.21,481.17,482.08,483.09,484.29,485.83,487.72,489.82,492.27,495.03,497.41,498.07,498.10,498.20,498.86,499.46,500.37,501.52,502.74,503.68,504.68,505.27,505.56,506.24,505.80,506.42,507.98,510.51,516.94,521.53,525.12,528.27,530.57,532.38,534.41,536.82,539.50,541.79,543.97,546.09,548.09,549.89,550.63,551.07,551.77,553.42,556.07,557.13,556.93,556.36,555.35,555.77,557.22,559.13,560.39,560.53,559.82,558.57,557.10,555.67,555.19,555.81,557.75,561.06,564.74,568.35,571.94,575.96,580.12,583.92,587.41,590.72,593.86,597.09,599.61,600.99,601.84,601.84,601.42,600.64,599.08,596.18,594.65,595.00,597.14,599.39,601.89,603.92,605.43,607.24,609.61,612.78,615.97,618.10,619.86,621.14,622.36,623.72,625.27,627.07,628.97,631.05,633.54,635.72,636.45,636.06,635.02,634.33,636.07,638.21,639.60,639.91,640.15,639.45,636.91,631.73,627.85,624.51,620.91,616.49,611.25,608.50,606.67,605.02,603.36,601.74,600.19,598.94,598.20,597.37,595.46,593.20,590.66,587.07,583.22,580.13,577.70,575.51,573.56,572.49,571.77,571.20,571.33,572.29,573.78,575.55,577.45,579.91,583.33,586.61,588.59,589.68,589.82,588.77,586.43,583.38,580.51,578.27,576.56,575.13,573.75,571.95,569.94,567.97,566.27,564.08,561.73,559.50,557.58,555.36,552.94,550.20,547.01,544.00,541.60,540.03,539.29,538.87,538.41,538.13,538.00,537.86,537.58,537.64,537.87,538.09,538.22,538.31,538.36,538.35
478.32,478.32,478.32,478.32,478.32,478.32,478.30,478.30,478.30,478.30,478.30,478.30,478.30,478.30,478.30,478.30,478.30,478.30,478.30,478.30,478.30,478.27,478.23,478.23,478.23,478.23,478.23,478.23,478.23,478.23,478.23,478.23,478.23,478.23,478.23,478.23,478.22,478.21,478.20,478.20,478.20,478.22,478.23,478.21,478.20,478.20,478.20,478.21,478.24,478.30,478.32,478.41,478.52,478.61,478.70,478.84,478.94,479.04,479.17,479.27,479.35,479.43,479.52,479.67,479.76,479.85,480.04,480.57,481.05,481.86,483.26,485.38,487.34,489.44,492.45,496.23,498.91,500.18,501.18,502.31,503.57,504.43,506.31,508.00,508.54,508.96,509.38,509.59,509.59,509.62,509.05,508.78,508.96,509.94,513.35,517.71,521.69,524.88,527.90,530.42,532.73,535.44,539.25,541.93,544.23,546.33,548.34,550.76,552.88,554.80,556.60,558.31,560.39,560.69,559.57,557.97,556.47,555.96,556.31,557.23,557.80,557.47,556.39,554.95,553.77,552.60,552.25,553.92,558.13,561.57,564.86,568.11,571.48,575.27,579.19,582.83,586.18,589.35,592.61,595.99,598.81,600.52,601.13,601.02,600.46,598.87,594.85,590.81,588.98,589.22,591.10,593.06,595.69,597.99,599.77,602.00,605.45,609.58,614.06,618.38,620.79,622.28,623.38,624.34,625.48,627.01,628.77,630.61,632.23,632.90,632.80,631.97,630.51,629.76,631.57,634.13,636.40,637.81,639.05,638.46,636.07,632.46,629.26,626.02,622.49,618.31,613.03,609.74,607.37,605.25,603.07,601.12,598.86,596.98,596.17,595.43,594.56,593.15,590.94,587.82,584.69,581.80,579.11,576.35,572.88,571.03,570.13,569.68,569.80,570.34,571.54,573.23,574.84,576.94,579.74,582.58,584.85,587.05,587.35,586.24,584.09,581.52,578.91,576.64,574.73,573.11,571.49,569.92,568.26,566.42,564.61,562.53,560.41,558.37,556.51,554.60,552.52,549.86,546.23,542.39,540.14,538.92,538.35,537.89,537.48,537.26,537.12,536.85,536.49,536.53,536.76,536.96,537.02,537.08,537.15,537.18
