478.68,478.70,478.76,478.79,478.80,478.80,478.80,478.85,478.88,478.88,478.90,478.90,478.90,478.92,478.98,479.00,479.00,479.02,479.08,479.10,479.10,479.10,479.10,479.11,479.16,479.19,479.20,479.21,479.26,479.29,479.30,479.30,479.31,479.35,479.39,479.40,479.41,479.48,479.50,479.50,479.51,479.56,479.59,479.60,479.60,479.61,479.66,479.69,479.70,479.70,479.70,479.75,479.79,479.80,479.80,479.80,479.83,479.88,479.90,479.90,479.90,479.90,479.92,479.99,480.13,480.28,480.43,480.59,480.74,480.90,481.08,481.29,481.46,481.62,481.73,481.78,481.78,481.78,481.75,481.69,481.67,481.62,481.59,481.56,481.50,481.48,481.43,481.39,481.36,481.31,481.29,481.24,481.19,481.17,481.12,481.09,481.05,480.99,480.91,480.89,480.84,480.80,480.77,480.72,480.69,480.66,480.60,480.58,480.53,480.49,480.47,480.41,480.39,480.34,480.30,480.27,480.22,480.19,480.15,480.11,480.12,480.13,480.17,480.22,480.23,480.29,480.32,480.35,480.42,480.43,480.53,480.67,480.85,481.07,481.24,481.41,481.55,481.65,481.78,481.89,482.00,482.13,482.21,482.27,482.31,482.32,482.33,482.40,482.43,482.45,482.51,482.52,482.58,482.63,482.64,482.71,482.72,482.76,482.82,482.83,482.88,482.91,482.95,483.00,483.02,483.02,483.06,483.12,483.13,483.19,483.22,483.25,483.31,483.32,483.38,483.43,483.43,483.43,483.43,483.38,483.32,483.32,483.32,483.26,483.22,483.22,483.22,483.15,483.13,483.13,483.12,483.05,483.02,483.02,483.02,483.00,482.95,482.93,482.93,482.93,482.93,482.88,482.82,482.82,482.82,482.82,482.82,482.82,482.80,482.75,482.72,482.72,482.72,482.72,482.72,482.72,482.72,482.70,482.65,482.63,482.63,482.63,482.63,482.63,482.63,482.63,482.63,482.63,482.63,482.63,482.63,482.63,482.63,482.63,482.63,482.63,482.66,482.70,482.70,482.72,482.72,482.72,482.72,482.72,482.72,482.72,482.72,482.73,482.78,482.80,482.81,482.82,482.82,482.82,482.82,482.82
478.63,478.69,478.71,478.76,478.80,478.80,478.80,478.81,478.81,478.83,478.89,478.90,478.90,478.90,478.92,478.98,479.00,479.00,479.03,479.09,479.10,479.10,479.10,479.10,479.11,479.16,479.20,479.20,479.21,479.26,479.30,479.30,479.30,479.31,479.35,479.40,479.41,479.48,479.50,479.50,479.50,479.51,479.57,479.60,479.60,479.60,479.61,479.66,479.70,479.70,479.70,479.71,479.75,479.80,479.80,479.80,479.81,479.83,479.89,479.90,479.90,479.90,479.92,479.99,480.13,480.28,480.43,480.59,480.74,480.90,481.08,481.29,481.46,481.61,481.71,481.72,481.72,481.72,481.71,481.68,481.62,481.60,481.56,481.51,481.49,481.43,481.41,481.37,481.31,481.30,481.24,481.21,481.18,481.12,481.10,481.05,481.01,480.99,480.91,480.84,480.81,480.78,480.72,480.70,480.66,480.61,480.59,480.53,480.51,480.47,480.41,480.40,480.34,480.31,480.28,480.22,480.20,480.15,480.11,480.11,480.17,480.19,480.23,480.28,480.29,480.36,480.38,480.42,480.48,480.49,480.55,480.68,480.85,481.07,481.24,481.43,481.63,481.76,481.86,481.99,482.11,482.19,482.27,482.29,482.34,482.38,482.39,482.46,482.49,482.51,482.58,482.59,482.65,482.69,482.70,482.77,482.78,482.84,482.88,482.89,482.90,482.95,482.99,483.01,483.07,483.09,483.13,483.19,483.19,483.26,483.28,483.31,483.38,483.39,483.44,483.49,483.49,483.49,483.49,483.44,483.38,483.38,483.38,483.33,483.28,483.28,483.28,483.23,483.19,483.19,483.18,483.12,483.09,483.09,483.07,483.02,482.99,482.99,482.99,482.99,482.99,482.94,482.88,482.88,482.88,482.88,482.88,482.87,482.81,482.79,482.78,482.78,482.78,482.78,482.78,482.78,482.77,482.72,482.69,482.69,482.69,482.69,482.69,482.69,482.69,482.69,482.69,482.69,482.69,482.69,482.69,482.69,482.69,482.69,482.69,482.69,482.69,482.70,482.71,482.77,482.78,482.78,482.78,482.78,482.78,482.78,482.78,482.79,482.80,482.80,482.83,482.88,482.88,482.88,482.88,482.88
478.61,478.65,478.69,478.73,478.75,478.75,478.79,478.80,478.80,478.81,478.84,478.85,478.87,478.90,478.91,478.94,478.98,479.00,479.01,479.04,479.05,479.07,479.10,479.10,479.10,479.15,479.20,479.20,479.20,479.23,479.26,479.30,479.30,479.30,479.35,479.40,479.41,479.44,479.48,479.50,479.50,479.50,479.56,479.60,479.60,479.60,479.60,479.65,479.70,479.70,479.70,479.70,479.74,479.80,479.80,479.80,479.80,479.82,479.89,479.90,479.90,479.90,479.92,479.99,480.13,480.28,480.43,480.59,480.74,480.90,481.08,481.29,481.42,481.56,481.65,481.64,481.61,481.60,481.62,481.64,481.60,481.56,481.52,481.49,481.45,481.41,481.37,481.33,481.29,481.25,481.22,481.17,481.14,481.10,481.06,481.02,480.98,480.95,480.90,480.83,480.78,480.74,480.70,480.66,480.62,480.58,480.55,480.51,480.47,480.43,480.39,480.35,480.31,480.28,480.24,480.20,480.16,480.15,480.15,480.17,480.24,480.25,480.29,480.35,480.36,480.43,480.45,480.48,480.54,480.55,480.58,480.69,480.89,481.08,481.27,481.47,481.65,481.80,481.96,482.11,482.22,482.26,482.34,482.35,482.40,482.45,482.46,482.52,482.55,482.58,482.64,482.65,482.71,482.75,482.76,482.79,482.84,482.88,482.91,482.94,482.95,483.00,483.05,483.06,483.13,483.15,483.19,483.25,483.26,483.33,483.38,483.42,483.45,483.49,483.53,483.55,483.55,483.55,483.55,483.50,483.45,483.45,483.45,483.39,483.35,483.35,483.35,483.28,483.25,483.25,483.24,483.18,483.15,483.15,483.14,483.07,483.05,483.05,483.05,483.05,483.01,482.98,482.95,482.95,482.95,482.95,482.95,482.94,482.87,482.85,482.85,482.85,482.85,482.85,482.85,482.84,482.80,482.76,482.75,482.75,482.75,482.75,482.75,482.75,482.75,482.75,482.75,482.72,482.70,482.71,482.74,482.75,482.75,482.75,482.75,482.75,482.75,482.75,482.75,482.79,482.80,482.82,482.85,482.85,482.85,482.85,482.85,482.85,482.85,482.85,482.87,482.90,482.90,482.93,482.95,482.95
478.60,478.61,478.66,478.69,478.70,478.71,478.77,478.78,478.79,478.80,478.80,478.80,478.84,478.89,478.90,478.90,478.95,478.99,479.00,479.00,479.00,479.03,479.09,479.10,479.10,479.14,479.19,479.20,479.20,479.20,479.23,479.28,479.30,479.30,479.34,479.39,479.40,479.40,479.45,479.50,479.50,479.50,479.55,479.59,479.60,479.60,479.60,479.64,479.69,479.70,479.70,479.70,479.73,479.78,479.80,479.80,479.80,479.82,479.88,479.90,479.90,479.90,479.92,479.99,480.13,480.28,480.43,480.59,480.74,480.90,481.07,481.27,481.38,481.50,481.58,481.56,481.50,481.49,481.52,481.57,481.56,481.52,481.49,481.46,481.40,481.39,481.33,481.29,481.27,481.21,481.19,481.14,481.10,481.07,481.02,480.99,480.96,480.90,480.88,480.83,480.76,480.70,480.68,480.62,480.59,480.56,480.50,480.49,480.43,480.39,480.37,480.31,480.29,480.24,480.20,480.19,480.13,480.18,480.22,480.23,480.30,480.31,480.36,480.42,480.43,480.49,480.51,480.54,480.61,480.62,480.62,480.72,480.93,481.10,481.31,481.50,481.67,481.83,482.04,482.23,482.34,482.36,482.43,482.46,482.50,482.55,482.57,482.63,482.66,482.69,482.75,482.76,482.82,482.85,482.87,482.87,482.94,482.96,482.98,483.06,483.08,483.13,483.17,483.19,483.25,483.27,483.32,483.37,483.38,483.44,483.51,483.57,483.57,483.62,483.63,483.63,483.61,483.60,483.60,483.56,483.51,483.51,483.51,483.46,483.42,483.42,483.41,483.36,483.31,483.31,483.31,483.25,483.22,483.22,483.21,483.13,483.12,483.12,483.11,483.10,483.04,483.01,483.01,483.01,483.01,483.01,483.01,482.99,482.93,482.92,482.92,482.92,482.92,482.92,482.91,482.88,482.82,482.81,482.81,482.81,482.81,482.81,482.81,482.81,482.81,482.81,482.80,482.76,482.72,482.73,482.79,482.80,482.81,482.81,482.81,482.81,482.81,482.81,482.81,482.81,482.81,482.85,482.90,482.90,482.91,482.92,482.92,482.92,482.92,482.92,482.92,482.92,482.92,482.97,483.01,483.01
478.60,478.60,478.61,478.66,478.70,478.70,478.72,478.72,478.75,478.80,478.80,478.80,478.81,478.84,478.89,478.90,478.91,478.94,479.00,479.00,479.00,479.01,479.03,479.09,479.10,479.11,479.14,479.19,479.20,479.20,479.21,479.23,479.29,479.30,479.31,479.34,479.39,479.40,479.45,479.50,479.50,479.50,479.51,479.55,479.60,479.60,479.60,479.61,479.64,479.69,479.70,479.70,479.71,479.73,479.79,479.80,479.80,479.80,479.82,479.88,479.90,479.90,479.92,479.99,480.13,480.28,480.43,480.59,480.74,480.90,481.06,481.22,481.37,481.47,481.49,481.44,481.42,481.42,481.43,481.44,481.45,481.49,481.46,481.41,481.39,481.33,481.31,481.27,481.22,481.20,481.14,481.11,481.08,481.02,481.00,480.96,480.91,480.89,480.83,480.81,480.76,480.68,480.63,480.61,480.56,480.51,480.49,480.43,480.41,480.37,480.32,480.30,480.24,480.21,480.20,480.20,480.19,480.24,480.28,480.29,480.37,480.38,480.43,480.48,480.49,480.55,480.58,480.61,480.67,480.68,480.68,480.76,480.94,481.16,481.33,481.53,481.73,481.88,482.05,482.30,482.49,482.55,482.63,482.69,482.73,482.76,482.81,482.84,482.88,482.93,482.95,483.01,483.03,483.07,483.12,483.13,483.19,483.23,483.25,483.32,483.38,483.42,483.45,483.50,483.52,483.58,483.61,483.64,483.69,483.72,483.77,483.82,483.82,483.77,483.76,483.73,483.67,483.61,483.60,483.59,483.58,483.58,483.58,483.52,483.48,483.48,483.48,483.42,483.38,483.38,483.37,483.30,483.28,483.28,483.27,483.20,483.18,483.18,483.17,483.11,483.09,483.08,483.08,483.08,483.08,483.08,483.06,483.00,482.99,482.98,482.98,482.98,482.98,482.98,482.94,482.89,482.88,482.88,482.88,482.88,482.88,482.88,482.88,482.88,482.88,482.87,482.82,482.79,482.78,482.78,482.80,482.80,482.83,482.88,482.88,482.88,482.88,482.88,482.88,482.88,482.88,482.89,482.90,482.91,482.95,482.98,482.98,482.98,482.98,482.98,482.98,482.98,482.98,482.99,483.03,483.08
478.56,478.60,478.60,478.63,478.67,478.70,478.70,478.70,478.72,478.75,478.75,478.79,478.80,478.81,478.86,478.89,478.90,478.92,478.96,478.99,479.00,479.00,479.01,479.05,479.09,479.10,479.12,479.15,479.19,479.20,479.20,479.22,479.28,479.30,479.30,479.32,479.39,479.40,479.43,479.47,479.50,479.50,479.50,479.52,479.56,479.59,479.60,479.60,479.61,479.65,479.69,479.70,479.70,479.71,479.75,479.78,479.80,479.80,479.81,479.88,479.90,479.90,479.92,479.99,480.13,480.28,480.43,480.59,480.74,480.90,481.05,481.21,481.36,481.43,481.42,481.36,481.35,481.35,481.33,481.32,481.36,481.39,481.40,481.39,481.35,481.31,481.27,481.24,481.19,481.15,481.12,481.08,481.04,481.00,480.96,480.92,480.88,480.85,480.81,480.77,480.73,480.68,480.61,480.56,480.53,480.49,480.45,480.41,480.37,480.33,480.29,480.25,480.22,480.20,480.21,480.24,480.25,480.30,480.35,480.36,480.43,480.44,480.49,480.54,480.55,480.62,480.65,480.68,480.74,480.75,480.75,480.82,480.98,481.18,481.37,481.56,481.75,481.91,482.13,482.39,482.62,482.79,482.87,482.92,482.95,483.00,483.07,483.09,483.13,483.19,483.19,483.26,483.31,483.35,483.39,483.42,483.46,483.50,483.54,483.59,483.66,483.69,483.71,483.78,483.78,483.84,483.88,483.89,483.93,483.90,483.92,483.94,483.89,483.86,483.82,483.78,483.73,483.66,483.65,483.65,483.64,483.61,483.60,483.57,483.54,483.54,483.51,483.47,483.44,483.44,483.44,483.38,483.35,483.35,483.33,483.26,483.25,483.25,483.23,483.16,483.15,483.15,483.15,483.15,483.15,483.12,483.08,483.05,483.04,483.04,483.04,483.04,483.04,483.01,482.97,482.94,482.94,482.94,482.94,482.94,482.94,482.94,482.94,482.94,482.94,482.90,482.86,482.85,482.85,482.85,482.85,482.85,482.87,482.90,482.90,482.94,482.94,482.94,482.94,482.94,482.94,482.94,482.94,482.95,482.98,483.00,483.01,483.04,483.04,483.04,483.04,483.04,483.04,483.04,483.09,483.15
478.52,478.58,478.58,478.59,478.63,478.68,478.69,478.69,478.70,478.70,478.71,478.76,478.79,478.80,478.81,478.87,478.89,478.90,478.92,478.97,479.00,479.00,479.00,479.01,479.07,479.10,479.10,479.12,479.17,479.19,479.20,479.21,479.27,479.30,479.30,479.32,479.38,479.40,479.40,479.43,479.49,479.50,479.50,479.50,479.52,479.59,479.60,479.60,479.60,479.62,479.68,479.70,479.70,479.70,479.70,479.77,479.80,479.80,479.81,479.88,479.90,479.90,479.92,479.99,480.13,480.28,480.43,480.59,480.74,480.90,481.05,481.21,481.35,481.38,481.35,481.29,481.29,481.28,481.24,481.21,481.27,481.28,481.33,481.35,481.31,481.29,481.23,481.19,481.17,481.12,481.09,481.05,481.00,480.98,480.92,480.89,480.86,480.80,480.78,480.73,480.69,480.67,480.60,480.53,480.49,480.46,480.40,480.39,480.33,480.29,480.27,480.22,480.21,480.22,480.24,480.30,480.31,480.37,480.41,480.43,480.50,480.51,480.55,480.61,480.62,480.69,480.71,480.74,480.80,480.81,480.82,480.89,481.03,481.20,481.41,481.59,481.75,481.94,482.22,482.48,482.75,483.02,483.12,483.15,483.19,483.26,483.32,483.34,483.40,483.45,483.46,483.53,483.60,483.64,483.66,483.72,483.74,483.78,483.84,483.86,483.92,483.94,483.97,484.04,484.05,484.09,484.11,484.10,484.09,484.03,484.00,483.98,483.92,483.91,483.86,483.81,483.78,483.72,483.71,483.70,483.68,483.62,483.62,483.61,483.60,483.58,483.53,483.51,483.51,483.51,483.49,483.43,483.41,483.41,483.40,483.33,483.31,483.31,483.29,483.23,483.21,483.21,483.21,483.21,483.20,483.15,483.12,483.11,483.11,483.11,483.11,483.11,483.09,483.03,483.01,483.01,483.01,483.01,483.01,483.01,483.01,483.01,483.01,483.00,482.98,482.92,482.91,482.91,482.91,482.91,482.91,482.91,482.92,482.92,482.92,482.97,483.00,483.00,483.01,483.01,483.01,483.01,483.01,483.01,483.01,483.01,483.03,483.09,483.10,483.10,483.11,483.11,483.11,483.11,483.15,483.21
478.50,478.52,478.53,478.56,478.61,478.63,478.63,478.67,478.70,478.70,478.70,478.72,478.76,478.80,478.80,478.82,478.87,478.90,478.90,478.92,478.97,479.00,479.00,479.00,479.07,479.10,479.10,479.10,479.12,479.17,479.20,479.20,479.23,479.27,479.30,479.31,479.33,479.38,479.40,479.40,479.44,479.49,479.50,479.50,479.52,479.59,479.60,479.60,479.60,479.61,479.68,479.70,479.70,479.70,479.70,479.77,479.80,479.80,479.81,479.88,479.90,479.90,479.92,479.99,480.13,480.28,480.43,480.59,480.74,480.90,481.05,481.20,481.30,481.28,481.24,481.23,481.22,481.17,481.14,481.13,481.15,481.15,481.20,481.26,481.29,481.24,481.21,481.17,481.12,481.10,481.05,481.01,480.98,480.93,480.90,480.86,480.82,480.79,480.74,480.71,480.67,480.62,480.59,480.52,480.46,480.42,480.39,480.34,480.31,480.27,480.22,480.21,480.25,480.27,480.30,480.37,480.38,480.43,480.47,480.49,480.56,480.57,480.62,480.68,480.69,480.75,480.77,480.80,480.87,480.88,480.92,480.97,481.05,481.25,481.43,481.59,481.78,482.05,482.31,482.58,482.88,483.17,483.36,483.45,483.48,483.51,483.53,483.58,483.66,483.72,483.77,483.80,483.86,483.91,483.92,483.99,484.00,484.04,484.11,484.12,484.18,484.20,484.23,484.30,484.30,484.27,484.22,484.16,484.11,484.08,484.04,484.00,483.97,483.97,483.92,483.85,483.80,483.78,483.77,483.74,483.69,483.68,483.68,483.63,483.60,483.60,483.58,483.57,483.57,483.56,483.50,483.48,483.47,483.47,483.46,483.39,483.38,483.38,483.36,483.29,483.27,483.27,483.27,483.27,483.22,483.19,483.18,483.18,483.18,483.18,483.18,483.16,483.11,483.08,483.07,483.07,483.07,483.07,483.07,483.07,483.07,483.07,483.07,483.04,483.00,482.98,482.97,482.97,482.97,482.97,482.97,482.97,482.97,482.97,482.97,483.00,483.00,483.02,483.07,483.07,483.07,483.07,483.07,483.07,483.07,483.07,483.08,483.10,483.10,483.14,483.18,483.18,483.18,483.18,483.22,483.27
478.47,478.50,478.50,478.53,478.57,478.60,478.60,478.63,478.66,478.67,478.69,478.70,478.73,478.77,478.80,478.80,478.83,478.87,478.90,478.90,478.94,478.98,479.00,479.00,479.04,479.08,479.10,479.10,479.10,479.13,479.17,479.20,479.20,479.27,479.30,479.30,479.31,479.38,479.40,479.40,479.42,479.49,479.50,479.50,479.51,479.56,479.59,479.60,479.60,479.61,479.65,479.69,479.70,479.70,479.70,479.74,479.78,479.80,479.81,479.88,479.90,479.90,479.92,479.99,480.13,480.28,480.43,480.59,480.74,480.88,481.01,481.15,481.24,481.21,481.14,481.12,481.12,481.08,481.06,481.06,481.06,481.06,481.09,481.15,481.21,481.21,481.17,481.14,481.09,481.06,481.02,480.98,480.94,480.90,480.87,480.83,480.79,480.75,480.71,480.67,480.63,480.59,480.56,480.51,480.45,480.39,480.36,480.31,480.27,480.25,480.24,480.25,480.31,480.34,480.37,480.43,480.44,480.50,480.54,480.55,480.62,480.64,480.69,480.74,480.75,480.81,480.84,480.87,480.93,480.94,481.00,481.04,481.09,481.27,481.44,481.63,481.87,482.14,482.41,482.70,483.00,483.27,483.53,483.69,483.78,483.80,483.80,483.84,483.89,483.95,484.02,484.08,484.14,484.18,484.21,484.25,484.29,484.33,484.37,484.40,484.42,484.42,484.43,484.44,484.40,484.34,484.26,484.19,484.15,484.14,484.11,484.07,484.04,484.01,483.97,483.90,483.84,483.84,483.81,483.77,483.74,483.74,483.71,483.67,483.64,483.64,483.64,483.61,483.60,483.59,483.55,483.54,483.52,483.50,483.49,483.45,483.44,483.44,483.42,483.35,483.34,483.34,483.33,483.30,483.25,483.24,483.24,483.24,483.24,483.24,483.22,483.19,483.15,483.14,483.14,483.14,483.14,483.14,483.14,483.14,483.14,483.14,483.11,483.07,483.04,483.04,483.04,483.04,483.04,483.04,483.04,483.04,483.04,483.04,483.04,483.04,483.04,483.06,483.10,483.10,483.12,483.14,483.14,483.14,483.14,483.14,483.14,483.14,483.14,483.19,483.24,483.24,483.24,483.24,483.28,483.34
478.42,478.48,478.50,478.50,478.53,478.58,478.60,478.60,478.61,478.62,478.68,478.70,478.70,478.72,478.78,478.80,478.80,478.84,478.89,478.90,478.90,478.94,478.99,479.00,479.00,479.05,479.09,479.10,479.10,479.10,479.14,479.19,479.20,479.26,479.29,479.30,479.31,479.37,479.39,479.40,479.41,479.48,479.50,479.50,479.50,479.51,479.56,479.59,479.60,479.60,479.61,479.66,479.70,479.70,479.70,479.71,479.75,479.80,479.81,479.88,479.90,479.90,479.92,479.99,480.13,480.28,480.43,480.58,480.73,480.85,480.96,481.10,481.17,481.13,481.06,481.00,481.00,481.00,481.00,480.99,480.99,480.99,480.99,481.02,481.09,481.16,481.12,481.09,481.07,481.01,481.00,480.95,480.90,480.88,480.82,480.80,480.76,480.71,480.69,480.63,480.60,480.57,480.51,480.50,480.44,480.37,480.31,480.30,480.25,480.25,480.31,480.31,480.38,480.41,480.43,480.50,480.50,480.56,480.61,480.62,480.69,480.70,480.75,480.81,480.81,480.88,480.91,480.94,481.00,481.00,481.06,481.11,481.14,481.28,481.45,481.70,481.97,482.22,482.52,482.83,483.10,483.36,483.66,483.90,484.05,484.11,484.12,484.13,484.13,484.16,484.24,484.36,484.40,484.44,484.50,484.52,484.58,484.60,484.62,484.66,484.61,484.59,484.56,484.49,484.41,484.34,484.27,484.21,484.20,484.20,484.19,484.17,484.10,484.03,484.00,483.96,483.91,483.89,483.84,483.81,483.80,483.78,483.73,483.71,483.70,483.69,483.69,483.64,483.61,483.61,483.61,483.60,483.55,483.51,483.51,483.50,483.50,483.50,483.48,483.42,483.41,483.40,483.38,483.32,483.31,483.31,483.31,483.31,483.31,483.30,483.26,483.21,483.20,483.20,483.20,483.20,483.20,483.20,483.20,483.20,483.20,483.19,483.14,483.11,483.11,483.11,483.11,483.11,483.11,483.11,483.11,483.11,483.11,483.11,483.11,483.11,483.11,483.11,483.11,483.11,483.16,483.19,483.20,483.20,483.20,483.20,483.20,483.20,483.20,483.25,483.30,483.31,483.31,483.31,483.34,483.40
478.41,478.43,478.48,478.50,478.51,478.54,478.59,478.60,478.60,478.61,478.63,478.68,478.70,478.71,478.74,478.78,478.80,478.83,478.89,478.90,478.90,478.91,478.95,478.99,479.00,479.01,479.05,479.10,479.10,479.10,479.14,479.19,479.20,479.22,479.26,479.30,479.30,479.32,479.37,479.40,479.40,479.43,479.47,479.50,479.50,479.50,479.52,479.56,479.60,479.60,479.60,479.66,479.70,479.70,479.70,479.75,479.78,479.80,479.81,479.88,479.90,479.90,479.92,479.99,480.13,480.28,480.42,480.53,480.68,480.81,480.95,481.08,481.07,481.04,481.00,480.93,480.93,480.93,480.93,480.92,480.87,480.86,480.86,480.89,480.97,481.04,481.04,481.03,481.02,481.00,480.95,480.91,480.88,480.83,480.81,480.76,480.72,480.69,480.64,480.61,480.57,480.52,480.50,480.45,480.41,480.37,480.31,480.30,480.28,480.30,480.37,480.38,480.44,480.47,480.50,480.56,480.57,480.63,480.67,480.69,480.75,480.77,480.81,480.87,480.88,480.94,480.97,481.00,481.06,481.07,481.13,481.17,481.19,481.30,481.53,481.79,482.06,482.35,482.65,482.93,483.19,483.48,483.79,484.08,484.28,484.39,484.44,484.45,484.45,484.46,484.49,484.53,484.58,484.65,484.72,484.77,484.80,484.77,484.73,484.70,484.68,484.63,484.57,484.49,484.41,484.38,484.32,484.27,484.27,484.27,484.24,484.19,484.16,484.08,484.03,483.99,483.96,483.91,483.88,483.87,483.85,483.81,483.77,483.77,483.75,483.70,483.70,483.68,483.67,483.67,483.67,483.62,483.59,483.57,483.57,483.57,483.53,483.50,483.50,483.48,483.47,483.44,483.39,483.37,483.37,483.37,483.37,483.37,483.37,483.33,483.29,483.27,483.27,483.27,483.27,483.27,483.27,483.27,483.27,483.27,483.26,483.21,483.18,483.17,483.17,483.17,483.17,483.17,483.17,483.17,483.17,483.17,483.17,483.17,483.17,483.17,483.17,483.17,483.17,483.17,483.19,483.20,483.21,483.26,483.27,483.27,483.27,483.27,483.27,483.29,483.32,483.37,483.37,483.37,483.38,483.41
478.37,478.40,478.45,478.48,478.50,478.51,478.55,478.56,478.58,478.60,478.61,478.64,478.68,478.70,478.71,478.75,478.79,478.82,478.86,478.87,478.89,478.90,478.91,478.96,478.99,479.00,479.02,479.06,479.09,479.10,479.13,479.17,479.19,479.20,479.23,479.27,479.30,479.30,479.35,479.40,479.40,479.40,479.46,479.50,479.50,479.50,479.50,479.55,479.60,479.60,479.60,479.64,479.68,479.70,479.70,479.77,479.80,479.80,479.81,479.88,479.90,479.90,479.92,479.99,480.10,480.25,480.38,480.50,480.64,480.80,480.94,481.04,480.99,480.95,480.91,480.87,480.87,480.84,480.83,480.82,480.77,480.76,480.76,480.78,480.84,480.91,480.95,480.97,480.97,480.96,480.92,480.88,480.85,480.80,480.77,480.73,480.69,480.65,480.61,480.58,480.54,480.49,480.47,480.41,480.38,480.34,480.31,480.33,480.34,480.38,480.43,480.44,480.50,480.53,480.56,480.63,480.63,480.69,480.74,480.75,480.82,480.84,480.88,480.94,480.94,481.01,481.05,481.09,481.13,481.13,481.19,481.24,481.25,481.34,481.61,481.89,482.16,482.47,482.75,483.02,483.30,483.61,483.91,484.20,484.44,484.63,484.72,484.74,484.74,484.74,484.74,484.74,484.78,484.83,484.88,484.93,484.91,484.85,484.78,484.74,484.71,484.64,484.57,484.50,484.44,484.44,484.41,484.37,484.37,484.34,484.28,484.23,484.19,484.15,484.07,484.03,484.02,483.95,483.94,483.92,483.89,483.84,483.84,483.81,483.78,483.74,483.74,483.74,483.72,483.70,483.69,483.65,483.63,483.63,483.60,483.60,483.56,483.53,483.53,483.53,483.51,483.47,483.44,483.44,483.44,483.44,483.44,483.43,483.41,483.36,483.34,483.34,483.34,483.34,483.34,483.34,483.34,483.34,483.34,483.32,483.29,483.24,483.24,483.24,483.24,483.24,483.24,483.24,483.24,483.24,483.24,483.24,483.24,483.24,483.24,483.24,483.24,483.24,483.24,483.24,483.24,483.24,483.25,483.29,483.30,483.31,483.34,483.34,483.34,483.34,483.37,483.43,483.44,483.44,483.44,483.45
478.32,478.38,478.40,478.45,478.49,478.49,478.50,478.51,478.54,478.59,478.60,478.61,478.64,478.69,478.70,478.71,478.76,478.80,478.81,478.81,478.86,478.89,478.90,478.91,478.97,479.00,479.00,479.02,479.08,479.10,479.10,479.12,479.19,479.20,479.20,479.23,479.29,479.30,479.35,479.39,479.40,479.40,479.46,479.50,479.50,479.50,479.50,479.55,479.59,479.60,479.60,479.61,479.64,479.69,479.70,479.77,479.80,479.80,479.81,479.88,479.90,479.90,479.92,479.99,480.07,480.19,480.34,480.49,480.64,480.79,480.92,480.98,480.92,480.85,480.80,480.80,480.79,480.74,480.71,480.71,480.70,480.70,480.70,480.70,480.72,480.78,480.86,480.89,480.89,480.90,480.89,480.85,480.81,480.78,480.73,480.70,480.66,480.61,480.59,480.54,480.50,480.48,480.42,480.40,480.35,480.32,480.32,480.38,480.40,480.44,480.50,480.51,480.57,480.60,480.63,480.69,480.70,480.75,480.80,480.81,480.88,480.90,480.94,481.00,481.01,481.08,481.15,481.19,481.20,481.21,481.26,481.30,481.31,481.40,481.66,481.97,482.27,482.57,482.82,483.11,483.41,483.72,484.02,484.28,484.56,484.82,484.94,484.97,484.97,484.97,484.97,484.97,484.97,484.98,484.98,484.99,484.94,484.86,484.80,484.78,484.72,484.64,484.57,484.51,484.50,484.50,484.50,484.49,484.48,484.42,484.34,484.27,484.21,484.19,484.13,484.10,484.07,484.01,484.00,483.96,483.91,483.90,483.89,483.84,483.81,483.80,483.79,483.79,483.76,483.71,483.71,483.69,483.69,483.67,483.62,483.61,483.61,483.60,483.59,483.58,483.53,483.51,483.50,483.50,483.50,483.50,483.50,483.49,483.43,483.41,483.40,483.40,483.40,483.40,483.40,483.40,483.40,483.40,483.39,483.36,483.31,483.30,483.30,483.30,483.30,483.30,483.30,483.30,483.30,483.30,483.30,483.30,483.29,483.29,483.29,483.29,483.29,483.30,483.30,483.30,483.30,483.30,483.30,483.31,483.31,483.35,483.40,483.40,483.40,483.40,483.43,483.49,483.50,483.50,483.50,483.52
478.31,478.34,478.38,478.42,478.44,478.44,478.49,478.50,478.51,478.55,478.59,478.60,478.62,478.65,478.69,478.70,478.75,478.80,478.80,478.80,478.82,478.86,478.90,478.91,478.97,479.00,479.00,479.01,479.08,479.10,479.10,479.12,479.19,479.20,479.20,479.22,479.29,479.30,479.32,479.36,479.39,479.40,479.42,479.46,479.50,479.50,479.50,479.52,479.55,479.60,479.60,479.60,479.63,479.69,479.70,479.77,479.80,479.80,479.81,479.88,479.90,479.90,479.92,479.99,480.06,480.18,480.33,480.49,480.64,480.76,480.85,480.87,480.84,480.78,480.74,480.73,480.68,480.65,480.63,480.63,480.63,480.63,480.60,480.57,480.58,480.65,480.74,480.77,480.78,480.83,480.83,480.82,480.78,480.74,480.71,480.66,480.62,480.59,480.55,480.51,480.47,480.43,480.40,480.35,480.35,480.37,480.38,480.44,480.47,480.50,480.56,480.57,480.63,480.67,480.69,480.75,480.76,480.82,480.87,480.88,480.95,480.97,481.00,481.06,481.07,481.14,481.22,481.26,481.27,481.32,481.35,481.37,481.37,481.41,481.63,481.92,482.23,482.54,482.82,483.13,483.43,483.73,484.00,484.27,484.59,484.89,484.99,485.00,485.00,485.00,485.00,485.00,485.00,485.00,485.00,485.00,484.97,484.92,484.85,484.79,484.72,484.64,484.59,484.56,484.56,484.56,484.56,484.55,484.50,484.43,484.35,484.29,484.26,484.21,484.18,484.14,484.09,484.07,484.06,484.02,483.97,483.96,483.91,483.88,483.87,483.86,483.81,483.80,483.79,483.76,483.76,483.72,483.70,483.69,483.67,483.67,483.67,483.64,483.60,483.60,483.57,483.56,483.56,483.56,483.56,483.56,483.56,483.55,483.48,483.47,483.47,483.47,483.47,483.47,483.47,483.47,483.47,483.47,483.43,483.39,483.37,483.37,483.37,483.37,483.37,483.37,483.37,483.37,483.37,483.37,483.37,483.37,483.34,483.30,483.30,483.30,483.33,483.37,483.37,483.37,483.37,483.37,483.37,483.37,483.37,483.40,483.47,483.47,483.47,483.47,483.50,483.56,483.56,483.56,483.56,483.58
478.30,478.31,478.35,478.39,478.40,478.41,478.46,478.49,478.50,478.51,478.56,478.59,478.60,478.62,478.69,478.70,478.74,478.78,478.80,478.80,478.80,478.84,478.90,478.91,478.95,478.99,479.00,479.01,479.06,479.09,479.10,479.11,479.16,479.19,479.20,479.22,479.26,479.29,479.30,479.33,479.39,479.40,479.40,479.43,479.48,479.50,479.50,479.50,479.53,479.59,479.60,479.60,479.63,479.69,479.70,479.77,479.80,479.80,479.81,479.88,479.90,479.90,479.92,479.99,480.06,480.17,480.30,480.46,480.62,480.73,480.79,480.77,480.75,480.70,480.66,480.63,480.58,480.57,480.57,480.57,480.57,480.55,480.50,480.48,480.48,480.53,480.60,480.65,480.68,480.74,480.76,480.78,480.75,480.70,480.68,480.63,480.59,480.56,480.51,480.48,480.44,480.40,480.39,480.35,480.38,480.43,480.44,480.51,480.52,480.56,480.63,480.63,480.70,480.72,480.75,480.82,480.82,480.88,480.93,480.94,481.01,481.02,481.07,481.14,481.16,481.21,481.28,481.32,481.34,481.39,481.42,481.43,481.43,481.44,481.60,481.86,482.17,482.48,482.78,483.10,483.40,483.70,483.96,484.26,484.60,484.90,484.99,485.00,485.00,485.00,485.00,485.00,485.00,485.00,485.00,485.00,485.00,484.97,484.91,484.85,484.76,484.69,484.66,484.66,484.63,484.63,484.63,484.61,484.53,484.45,484.38,484.32,484.31,484.25,484.22,484.20,484.13,484.13,484.11,484.07,484.02,484.00,483.95,483.93,483.92,483.89,483.84,483.82,483.82,483.80,483.80,483.75,483.72,483.72,483.72,483.70,483.70,483.68,483.63,483.63,483.61,483.60,483.61,483.63,483.63,483.63,483.62,483.59,483.54,483.52,483.52,483.52,483.52,483.52,483.52,483.52,483.52,483.50,483.46,483.43,483.43,483.43,483.43,483.43,483.43,483.43,483.43,483.43,483.43,483.43,483.43,483.41,483.37,483.33,483.32,483.32,483.36,483.40,483.40,483.42,483.43,483.43,483.43,483.43,483.43,483.48,483.52,483.52,483.52,483.52,483.56,483.62,483.63,483.63,483.63,483.65
478.30,478.30,478.31,478.36,478.40,478.40,478.41,478.46,478.50,478.50,478.51,478.57,478.60,478.62,478.69,478.70,478.71,478.74,478.79,478.80,478.80,478.84,478.90,478.90,478.91,478.96,479.00,479.00,479.01,479.06,479.10,479.10,479.12,479.17,479.20,479.20,479.22,479.28,479.30,479.33,479.39,479.40,479.40,479.40,479.43,479.49,479.50,479.50,479.53,479.59,479.60,479.60,479.64,479.69,479.70,479.77,479.80,479.80,479.81,479.88,479.90,479.90,479.92,479.99,480.06,480.14,480.25,480.40,480.55,480.69,480.77,480.71,480.64,480.61,480.57,480.52,480.51,480.50,480.50,480.50,480.49,480.44,480.41,480.40,480.41,480.42,480.48,480.55,480.60,480.62,480.67,480.70,480.70,480.69,480.63,480.60,480.57,480.51,480.49,480.44,480.41,480.40,480.41,480.40,480.44,480.50,480.51,480.58,480.60,480.63,480.69,480.70,480.76,480.79,480.81,480.89,480.90,480.95,481.00,481.01,481.08,481.10,481.13,481.21,481.27,481.29,481.34,481.39,481.39,481.40,481.45,481.49,481.50,481.50,481.58,481.80,482.10,482.41,482.72,483.03,483.34,483.65,483.95,484.26,484.58,484.85,484.98,485.00,485.00,485.00,485.00,485.00,485.00,485.00,485.00,485.00,485.00,485.00,484.99,484.96,484.83,484.79,484.78,484.77,484.71,484.70,484.69,484.67,484.59,484.51,484.44,484.40,484.38,484.31,484.29,484.25,484.19,484.19,484.13,484.10,484.07,484.01,484.00,483.99,483.96,483.91,483.90,483.89,483.86,483.81,483.81,483.80,483.79,483.79,483.78,483.72,483.70,483.70,483.69,483.69,483.63,483.61,483.62,483.68,483.69,483.69,483.66,483.61,483.60,483.60,483.60,483.60,483.60,483.60,483.60,483.60,483.58,483.52,483.50,483.50,483.50,483.50,483.50,483.50,483.50,483.50,483.50,483.50,483.50,483.50,483.49,483.44,483.40,483.40,483.40,483.40,483.40,483.41,483.42,483.47,483.49,483.49,483.50,483.50,483.50,483.53,483.59,483.60,483.60,483.60,483.62,483.69,483.69,483.69,483.69,483.71
478.30,478.30,478.30,478.35,478.40,478.40,478.40,478.46,478.50,478.50,478.50,478.57,478.60,478.61,478.64,478.69,478.70,478.71,478.75,478.79,478.80,478.84,478.90,478.90,478.90,478.95,479.00,479.00,479.00,479.06,479.10,479.10,479.11,479.17,479.20,479.20,479.21,479.28,479.30,479.31,479.35,479.39,479.40,479.40,479.42,479.49,479.50,479.50,479.53,479.59,479.60,479.64,479.67,479.70,479.70,479.77,479.80,479.80,479.81,479.88,479.90,479.90,479.92,479.99,480.06,480.14,480.24,480.39,480.54,480.64,480.67,480.63,480.56,480.55,480.50,480.45,480.44,480.44,480.42,480.38,480.38,480.35,480.34,480.34,480.34,480.34,480.37,480.42,480.48,480.49,480.56,480.61,480.64,480.64,480.61,480.56,480.53,480.49,480.45,480.41,480.40,480.41,480.45,480.45,480.51,480.56,480.57,480.64,480.66,480.69,480.75,480.76,480.83,480.86,480.88,480.95,480.95,481.01,481.06,481.07,481.14,481.16,481.20,481.26,481.30,481.34,481.38,481.40,481.41,481.45,481.49,481.52,481.56,481.56,481.63,481.79,482.04,482.35,482.70,483.02,483.33,483.64,483.95,484.26,484.57,484.84,484.98,485.00,485.00,485.00,485.00,485.00,485.00,485.00,485.00,485.00,485.00,485.00,485.00,484.99,484.94,484.88,484.86,484.85,484.82,484.78,484.74,484.68,484.60,484.53,484.48,484.44,484.40,484.36,484.32,484.29,484.26,484.25,484.19,484.16,484.13,484.06,484.06,484.03,483.99,483.96,483.95,483.92,483.88,483.86,483.86,483.86,483.83,483.80,483.80,483.76,483.75,483.74,483.70,483.70,483.67,483.66,483.67,483.70,483.70,483.70,483.69,483.66,483.66,483.66,483.66,483.66,483.66,483.66,483.66,483.64,483.60,483.56,483.56,483.56,483.56,483.56,483.56,483.56,483.56,483.56,483.56,483.56,483.56,483.55,483.51,483.48,483.45,483.45,483.45,483.45,483.45,483.45,483.46,483.49,483.50,483.52,483.56,483.56,483.56,483.58,483.61,483.65,483.66,483.66,483.67,483.70,483.75,483.75,483.75,483.76
478.30,478.30,478.32,478.36,478.40,478.40,478.42,478.47,478.50,478.50,478.50,478.57,478.60,478.60,478.61,478.68,478.70,478.70,478.72,478.78,478.81,478.86,478.90,478.90,478.92,478.96,479.00,479.00,479.02,479.07,479.10,479.10,479.13,479.18,479.20,479.20,479.23,479.28,479.30,479.31,479.33,479.39,479.40,479.40,479.42,479.49,479.50,479.50,479.53,479.59,479.60,479.66,479.70,479.70,479.70,479.77,479.80,479.80,479.81,479.88,479.90,479.90,479.92,479.99,480.06,480.14,480.23,480.37,480.52,480.57,480.57,480.55,480.49,480.47,480.43,480.38,480.38,480.36,480.32,480.28,480.28,480.28,480.28,480.27,480.26,480.26,480.26,480.29,480.36,480.38,480.43,480.50,480.56,480.57,480.57,480.53,480.49,480.46,480.41,480.42,480.43,480.44,480.51,480.52,480.58,480.63,480.64,480.70,480.72,480.76,480.82,480.83,480.90,480.93,480.94,481.01,481.02,481.08,481.13,481.14,481.21,481.22,481.26,481.32,481.33,481.38,481.40,481.40,481.43,481.49,481.51,481.55,481.60,481.63,481.68,481.78,481.97,482.29,482.67,483.00,483.32,483.64,483.95,484.26,484.57,484.84,484.98,485.00,485.00,485.00,485.00,485.00,485.00,485.00,485.00,485.00,485.00,485.00,485.00,485.00,485.00,484.96,484.93,484.93,484.92,484.86,484.78,484.70,484.63,484.55,484.51,484.48,484.43,484.43,484.37,484.32,484.32,484.30,484.25,484.21,484.18,484.13,484.13,484.07,484.02,484.02,484.00,483.95,483.93,483.92,483.90,483.90,483.86,483.82,483.82,483.82,483.81,483.77,483.72,483.72,483.72,483.72,483.72,483.72,483.72,483.72,483.72,483.72,483.72,483.72,483.72,483.72,483.72,483.72,483.71,483.68,483.63,483.63,483.63,483.63,483.63,483.63,483.63,483.63,483.63,483.63,483.63,483.63,483.62,483.59,483.54,483.52,483.52,483.52,483.52,483.52,483.52,483.52,483.52,483.52,483.52,483.56,483.62,483.63,483.63,483.63,483.65,483.71,483.72,483.72,483.72,483.74,483.79,483.81,483.82,483.82
478.30,478.31,478.37,478.39,478.40,478.41,478.47,478.49,478.50,478.50,478.50,478.57,478.60,478.60,478.61,478.68,478.70,478.70,478.72,478.79,478.85,478.89,478.90,478.91,478.96,478.99,479.00,479.01,479.07,479.09,479.10,479.12,479.17,479.20,479.20,479.22,479.28,479.30,479.30,479.33,479.38,479.40,479.40,479.40,479.42,479.49,479.50,479.50,479.53,479.59,479.60,479.66,479.70,479.70,479.70,479.77,479.80,479.80,479.81,479.88,479.90,479.90,479.92,479.99,480.06,480.14,480.22,480.31,480.46,480.51,480.49,480.43,480.42,480.36,480.32,480.31,480.31,480.25,480.22,480.22,480.22,480.22,480.21,480.18,480.13,480.13,480.13,480.16,480.24,480.30,480.32,480.37,480.45,480.50,480.51,480.50,480.47,480.41,480.41,480.46,480.49,480.51,480.58,480.59,480.64,480.69,480.70,480.77,480.78,480.83,480.88,480.89,480.95,480.99,481.01,481.08,481.09,481.15,481.19,481.20,481.27,481.28,481.33,481.38,481.39,481.40,481.40,481.43,481.48,481.50,481.55,481.59,481.62,481.68,481.70,481.75,481.91,482.23,482.60,482.94,483.28,483.65,483.96,484.26,484.57,484.84,484.98,485.00,485.00,485.00,485.00,485.00,485.00,485.00,485.00,485.00,485.00,485.00,485.00,485.00,485.00,484.99,484.99,484.99,484.98,484.93,484.84,484.76,484.69,484.62,484.54,484.50,484.49,484.49,484.43,484.38,484.37,484.31,484.29,484.25,484.20,484.19,484.19,484.13,484.09,484.07,484.01,483.99,483.99,483.97,483.91,483.90,483.89,483.88,483.88,483.88,483.84,483.79,483.78,483.78,483.78,483.78,483.78,483.78,483.78,483.78,483.78,483.78,483.78,483.78,483.78,483.78,483.78,483.78,483.74,483.70,483.69,483.69,483.69,483.69,483.69,483.69,483.69,483.69,483.69,483.69,483.69,483.69,483.66,483.61,483.59,483.59,483.59,483.59,483.59,483.59,483.59,483.59,483.59,483.59,483.59,483.63,483.68,483.69,483.69,483.69,483.71,483.77,483.78,483.78,483.78,483.79,483.80,483.86,483.88,483.88
478.31,478.35,478.39,478.40,478.42,478.45,478.49,478.50,478.50,478.50,478.50,478.57,478.60,478.60,478.61,478.68,478.70,478.70,478.72,478.79,478.86,478.90,478.91,478.95,478.99,479.00,479.01,479.05,479.09,479.10,479.12,479.16,479.19,479.20,479.22,479.26,479.30,479.30,479.33,479.37,479.40,479.40,479.44,479.45,479.46,479.49,479.50,479.52,479.56,479.60,479.60,479.66,479.70,479.70,479.70,479.73,479.77,479.80,479.81,479.88,479.90,479.90,479.92,479.99,480.10,480.19,480.26,480.30,480.40,480.44,480.42,480.36,480.34,480.29,480.25,480.24,480.20,480.16,480.14,480.14,480.14,480.14,480.12,480.08,480.05,480.05,480.05,480.07,480.11,480.18,480.20,480.24,480.32,480.39,480.39,480.42,480.45,480.45,480.46,480.52,480.56,480.58,480.64,480.66,480.70,480.75,480.76,480.84,480.86,480.89,480.95,480.96,481.02,481.06,481.08,481.14,481.16,481.21,481.25,481.26,481.29,481.34,481.38,481.41,481.45,481.45,481.45,481.48,481.55,481.56,481.62,481.66,481.67,481.74,481.75,481.80,481.91,482.12,482.49,482.94,483.42,483.88,484.12,484.39,484.67,484.92,484.99,485.00,485.00,485.00,485.00,485.00,485.00,485.00,485.00,485.00,485.00,485.00,485.00,485.00,485.00,485.00,485.00,485.00,485.00,484.94,484.86,484.78,484.71,484.67,484.61,484.56,484.55,484.51,484.47,484.44,484.39,484.36,484.36,484.30,484.25,484.25,484.21,484.18,484.13,484.09,484.06,484.06,484.03,483.99,483.96,483.95,483.95,483.94,483.90,483.90,483.87,483.86,483.85,483.81,483.84,483.86,483.86,483.86,483.86,483.86,483.86,483.86,483.86,483.86,483.86,483.86,483.85,483.81,483.78,483.75,483.75,483.75,483.75,483.75,483.75,483.75,483.75,483.75,483.75,483.75,483.75,483.73,483.69,483.66,483.66,483.66,483.66,483.66,483.66,483.66,483.66,483.66,483.66,483.66,483.66,483.67,483.71,483.75,483.75,483.75,483.76,483.80,483.84,483.86,483.86,483.86,483.86,483.88,483.92,483.95
478.33,478.39,478.40,478.41,478.44,478.50,478.50,478.51,478.51,478.50,478.50,478.57,478.60,478.60,478.61,478.68,478.70,478.70,478.72,478.79,478.86,478.90,478.92,478.99,479.00,479.01,479.04,479.09,479.10,479.11,479.15,479.20,479.20,479.21,479.25,479.30,479.30,479.31,479.36,479.40,479.40,479.42,479.47,479.50,479.50,479.50,479.50,479.55,479.60,479.60,479.60,479.66,479.70,479.70,479.70,479.70,479.74,479.80,479.81,479.88,479.90,479.90,479.92,479.99,480.13,480.24,480.30,480.29,480.34,480.36,480.34,480.29,480.27,480.22,480.18,480.15,480.10,480.08,480.08,480.08,480.07,480.06,480.02,479.99,479.99,479.99,479.99,479.99,480.02,480.09,480.11,480.17,480.24,480.29,480.31,480.38,480.44,480.50,480.52,480.59,480.62,480.63,480.70,480.72,480.76,480.81,480.83,480.88,480.91,480.95,481.00,481.02,481.07,481.11,481.14,481.19,481.21,481.26,481.31,481.31,481.32,481.38,481.42,481.44,481.50,481.51,481.52,481.56,481.61,481.62,481.68,481.72,481.74,481.80,481.81,481.87,481.94,482.05,482.44,483.03,483.67,484.20,484.40,484.58,484.81,485.00,485.00,485.00,485.00,485.00,485.00,485.00,485.00,485.00,485.00,485.00,485.00,485.00,485.00,485.00,485.00,485.00,485.00,485.00,485.00,484.95,484.88,484.80,484.73,484.70,484.66,484.62,484.61,484.53,484.51,484.48,484.42,484.42,484.40,484.36,484.31,484.29,484.24,484.22,484.19,484.12,484.12,484.11,484.07,484.01,484.01,484.00,484.00,483.98,483.92,483.92,483.91,483.90,483.89,483.83,483.88,483.90,483.90,483.90,483.90,483.90,483.90,483.92,483.92,483.92,483.91,483.90,483.89,483.84,483.81,483.81,483.81,483.81,483.81,483.81,483.81,483.81,483.81,483.81,483.81,483.80,483.80,483.76,483.72,483.72,483.72,483.72,483.72,483.72,483.72,483.72,483.72,483.72,483.73,483.72,483.72,483.72,483.73,483.79,483.81,483.81,483.81,483.83,483.88,483.90,483.90,483.92,483.92,483.92,483.95,484.00
478.39,478.40,478.40,478.44,478.49,478.50,478.50,478.55,478.55,478.50,478.50,478.57,478.60,478.60,478.61,478.68,478.70,478.70,478.72,478.79,478.86,478.90,478.92,478.99,479.00,479.04,479.09,479.10,479.10,479.15,479.19,479.20,479.20,479.26,479.29,479.30,479.31,479.36,479.39,479.40,479.41,479.47,479.49,479.50,479.50,479.50,479.50,479.55,479.60,479.60,479.60,479.66,479.70,479.70,479.70,479.70,479.74,479.80,479.81,479.88,479.90,479.90,479.92,479.99,480.13,480.24,480.28,480.23,480.23,480.24,480.23,480.21,480.15,480.12,480.09,480.03,480.02,480.01,480.01,480.00,479.94,479.94,479.92,479.91,479.91,479.91,479.91,479.95,480.02,480.09,480.16,480.23,480.29,480.31,480.37,480.44,480.49,480.51,480.58,480.65,480.69,480.70,480.77,480.78,480.79,480.83,480.88,480.90,480.95,480.99,481.01,481.07,481.10,481.14,481.19,481.20,481.27,481.29,481.33,481.38,481.39,481.44,481.49,481.50,481.57,481.59,481.63,481.67,481.68,481.69,481.75,481.78,481.80,481.87,481.88,481.93,481.99,482.07,482.58,483.33,484.06,484.60,484.83,484.91,484.96,485.00,485.00,485.00,485.00,485.00,485.00,485.00,485.00,485.00,485.00,485.00,485.00,485.00,485.00,485.00,485.00,485.00,485.00,485.00,485.00,484.99,484.94,484.87,484.79,484.72,484.69,484.69,484.67,484.60,484.59,484.54,484.49,484.48,484.43,484.39,484.37,484.31,484.29,484.28,484.25,484.19,484.18,484.13,484.09,484.09,484.08,484.02,484.00,484.00,483.99,483.99,483.93,483.90,483.90,483.89,483.89,483.90,483.90,483.90,483.90,483.90,483.93,483.98,483.99,483.99,483.95,483.90,483.90,483.89,483.88,483.88,483.88,483.88,483.88,483.88,483.88,483.88,483.88,483.88,483.87,483.81,483.80,483.79,483.78,483.78,483.78,483.78,483.78,483.78,483.78,483.78,483.78,483.80,483.85,483.80,483.78,483.78,483.79,483.80,483.86,483.88,483.88,483.88,483.90,483.90,483.93,483.98,483.99,483.99,483.99,484.01
478.40,478.40,478.44,478.47,478.50,478.51,478.54,478.58,478.58,478.54,478.51,478.57,478.60,478.60,478.61,478.68,478.70,478.70,478.72,478.79,478.86,478.92,478.96,478.99,479.00,479.05,479.10,479.11,479.14,479.18,479.20,479.21,479.24,479.28,479.30,479.31,479.35,479.39,479.40,479.42,479.45,479.49,479.50,479.50,479.50,479.50,479.53,479.57,479.60,479.60,479.60,479.66,479.70,479.70,479.70,479.73,479.75,479.76,479.80,479.84,479.88,479.90,479.92,479.99,480.13,480.20,480.20,480.16,480.15,480.13,480.10,480.10,480.06,480.03,479.99,479.96,479.96,479.96,479.96,479.94,479.91,479.94,479.94,479.94,479.95,479.98,479.99,480.01,480.06,480.14,480.22,480.27,480.31,480.36,480.43,480.48,480.51,480.56,480.63,480.68,480.72,480.76,480.80,480.84,480.85,480.88,480.94,480.95,481.01,481.04,481.06,481.13,481.15,481.19,481.25,481.25,481.33,481.35,481.38,481.44,481.45,481.51,481.54,481.56,481.64,481.65,481.70,481.75,481.75,481.75,481.80,481.85,481.87,481.93,481.94,482.00,482.04,482.10,482.42,483.26,484.18,484.82,484.98,485.00,485.00,485.00,485.00,485.00,485.00,485.00,485.00,485.00,485.00,485.00,485.00,485.00,485.00,485.00,485.00,485.00,485.00,485.00,485.00,485.00,485.00,485.00,484.96,484.89,484.85,484.77,484.75,484.74,484.69,484.66,484.62,484.58,484.55,484.54,484.48,484.44,484.43,484.36,484.35,484.32,484.28,484.25,484.21,484.17,484.15,484.14,484.10,484.06,484.04,484.04,484.04,484.01,483.97,483.94,483.94,483.94,483.94,483.94,483.94,483.94,483.94,483.94,483.97,484.00,484.00,484.00,483.98,483.94,483.94,483.94,483.94,483.94,483.94,483.94,483.94,483.94,483.94,483.94,483.92,483.90,483.89,483.85,483.85,483.85,483.85,483.85,483.85,483.85,483.85,483.85,483.85,483.88,483.90,483.92,483.98,483.92,483.87,483.85,483.85,483.85,483.88,483.90,483.91,483.94,483.94,483.94,483.97,484.00,484.04,484.04,484.04,484.06
478.42,478.42,478.48,478.50,478.50,478.52,478.58,478.60,478.60,478.58,478.52,478.57,478.60,478.60,478.61,478.68,478.70,478.70,478.72,478.79,478.86,478.94,479.00,479.00,479.01,479.06,479.10,479.11,479.18,479.20,479.20,479.23,479.29,479.30,479.31,479.33,479.39,479.40,479.41,479.44,479.50,479.50,479.50,479.50,479.50,479.50,479.57,479.60,479.60,479.60,479.60,479.66,479.70,479.70,479.70,479.77,479.76,479.74,479.79,479.80,479.85,479.90,479.92,480.00,480.12,480.15,480.10,480.09,480.08,480.03,479.99,479.99,479.99,479.94,479.90,479.90,479.90,479.90,479.91,479.92,479.94,480.00,480.03,480.03,480.04,480.10,480.11,480.11,480.14,480.21,480.27,480.31,480.34,480.41,480.48,480.51,480.54,480.62,480.69,480.71,480.75,480.80,480.82,480.88,480.92,480.94,481.01,481.01,481.08,481.12,481.13,481.20,481.22,481.26,481.31,481.33,481.39,481.42,481.44,481.51,481.51,481.57,481.61,481.63,481.69,481.71,481.76,481.80,481.81,481.81,481.88,481.92,481.93,482.00,482.01,482.06,482.12,482.13,482.20,483.05,484.11,484.88,484.99,485.00,485.00,485.00,485.00,485.00,485.00,485.00,485.00,485.00,485.00,485.00,485.00,485.00,485.00,485.00,485.00,485.00,485.00,485.00,485.00,485.00,485.00,485.00,484.97,484.91,484.89,484.83,484.81,484.77,484.72,484.71,484.65,484.62,484.61,484.60,484.54,484.51,484.48,484.42,484.42,484.36,484.31,484.30,484.23,484.22,484.21,484.18,484.13,484.12,484.11,484.10,484.09,484.03,484.01,484.01,484.01,484.01,484.01,484.01,484.01,484.01,484.01,484.01,484.01,484.01,484.01,484.01,484.01,484.01,484.01,484.01,484.01,484.01,484.01,484.01,484.01,484.01,484.00,484.00,483.94,483.92,483.92,483.92,483.92,483.92,483.92,483.92,483.92,483.92,483.93,483.93,483.94,483.99,484.02,484.05,484.10,484.05,483.96,483.92,483.92,483.92,483.92,483.92,483.93,484.00,484.01,484.01,484.01,484.03,484.09,484.11,484.12,484.12
478.47,478.48,478.50,478.50,478.52,478.57,478.60,478.60,478.60,478.58,478.52,478.57,478.60,478.60,478.61,478.68,478.70,478.70,478.72,478.79,478.86,478.94,479.00,479.00,479.06,479.09,479.10,479.11,479.18,479.20,479.23,479.28,479.30,479.30,479.34,479.38,479.40,479.40,479.44,479.49,479.50,479.50,479.50,479.50,479.50,479.50,479.57,479.60,479.60,479.60,479.60,479.66,479.70,479.70,479.70,479.77,479.79,479.78,479.80,479.80,479.85,479.90,479.92,480.05,480.10,480.12,480.09,480.02,479.97,479.94,479.93,479.93,479.93,479.91,479.90,479.90,479.90,479.90,479.93,479.99,480.05,480.13,480.16,480.16,480.16,480.17,480.18,480.21,480.26,480.27,480.29,480.34,480.40,480.47,480.50,480.54,480.61,480.68,480.70,480.75,480.79,480.81,480.88,480.95,480.97,481.00,481.07,481.08,481.13,481.18,481.19,481.26,481.27,481.33,481.38,481.39,481.45,481.47,481.51,481.57,481.57,481.59,481.63,481.68,481.70,481.76,481.79,481.82,481.87,481.88,481.94,481.97,481.99,482.06,482.07,482.13,482.18,482.19,482.25,482.83,483.71,484.61,484.94,485.00,485.00,485.00,485.00,485.00,485.00,485.00,485.00,485.00,485.00,485.00,485.00,485.00,485.00,485.00,485.00,485.00,485.00,485.00,485.00,485.00,485.00,485.00,484.99,484.96,484.90,484.88,484.84,484.79,484.78,484.77,484.72,484.68,484.66,484.61,484.58,484.54,484.50,484.48,484.47,484.43,484.38,484.36,484.29,484.27,484.25,484.20,484.18,484.18,484.14,484.10,484.10,484.08,484.07,484.07,484.07,484.07,484.07,484.07,484.07,484.07,484.07,484.07,484.07,484.07,484.07,484.07,484.07,484.07,484.07,484.07,484.07,484.07,484.07,484.07,484.07,484.05,484.00,484.00,483.99,483.97,483.97,483.97,483.97,483.97,483.97,483.97,483.98,484.02,484.05,484.05,484.06,484.07,484.12,484.16,484.18,484.22,484.08,483.97,483.97,483.97,483.97,483.97,483.98,484.00,484.06,484.07,484.07,484.08,484.10,484.15,484.18,484.18
478.50,478.50,478.50,478.52,478.56,478.60,478.60,478.63,478.65,478.63,478.56,478.58,478.60,478.60,478.61,478.68,478.70,478.70,478.72,478.79,478.86,478.94,479.01,479.04,479.08,479.10,479.11,479.14,479.19,479.20,479.24,479.30,479.30,479.33,479.37,479.40,479.40,479.43,479.47,479.50,479.51,479.54,479.54,479.54,479.54,479.55,479.58,479.60,479.60,479.61,479.64,479.67,479.70,479.70,479.70,479.77,479.80,479.80,479.80,479.80,479.83,479.87,479.92,480.03,480.06,480.04,480.01,479.96,479.88,479.85,479.87,479.90,479.90,479.90,479.90,479.91,479.94,479.94,479.97,480.02,480.10,480.18,480.20,480.21,480.24,480.28,480.28,480.30,480.34,480.35,480.35,480.39,480.47,480.53,480.54,480.60,480.68,480.74,480.75,480.80,480.85,480.87,480.94,480.99,481.02,481.07,481.14,481.15,481.20,481.25,481.26,481.33,481.35,481.39,481.44,481.45,481.49,481.52,481.56,481.61,481.64,481.65,481.69,481.75,481.75,481.81,481.85,481.87,481.94,481.94,482.00,482.04,482.06,482.13,482.15,482.19,482.25,482.25,482.32,482.60,483.37,484.50,484.92,485.00,485.00,485.00,485.00,485.00,485.00,485.00,485.00,485.00,485.00,485.00,485.00,485.00,485.00,485.00,485.00,485.00,485.00,485.00,485.00,485.00,485.00,485.00,485.00,484.98,484.91,484.90,484.87,484.83,484.80,484.80,484.76,484.73,484.69,484.65,484.65,484.59,484.54,484.54,484.51,484.47,484.43,484.39,484.35,484.35,484.30,484.25,484.24,484.21,484.17,484.15,484.14,484.11,484.10,484.10,484.10,484.10,484.10,484.10,484.10,484.10,484.13,484.15,484.15,484.15,484.15,484.15,484.15,484.15,484.15,484.15,484.15,484.15,484.14,484.11,484.10,484.08,484.04,484.04,484.04,484.04,484.04,484.04,484.04,484.04,484.05,484.08,484.09,484.12,484.15,484.15,484.18,484.19,484.21,484.25,484.29,484.37,484.24,484.08,484.00,484.00,484.03,484.04,484.04,484.05,484.09,484.12,484.15,484.15,484.15,484.18,484.21,484.24
478.50,478.50,478.51,478.55,478.60,478.61,478.61,478.66,478.69,478.68,478.61,478.60,478.60,478.60,478.61,478.68,478.70,478.70,478.72,478.79,478.86,478.94,479.00,479.07,479.10,479.11,479.14,479.19,479.20,479.21,479.25,479.30,479.31,479.37,479.40,479.40,479.42,479.48,479.50,479.50,479.52,479.58,479.60,479.60,479.60,479.60,479.60,479.60,479.60,479.62,479.68,479.70,479.70,479.70,479.70,479.77,479.80,479.80,479.80,479.80,479.80,479.83,479.90,479.98,479.99,479.95,479.90,479.89,479.84,479.81,479.84,479.91,479.91,479.91,479.91,479.93,479.98,480.00,480.01,480.03,480.11,480.18,480.21,480.24,480.30,480.38,480.40,480.40,480.41,480.42,480.42,480.46,480.53,480.59,480.60,480.67,480.74,480.79,480.81,480.87,480.90,480.93,481.00,481.01,481.06,481.13,481.20,481.21,481.26,481.31,481.33,481.39,481.41,481.45,481.50,481.50,481.51,481.56,481.61,481.63,481.69,481.70,481.75,481.81,481.81,481.88,481.91,481.94,482.00,482.00,482.06,482.10,482.12,482.18,482.20,482.25,482.30,482.31,482.38,482.43,483.06,484.33,484.89,485.00,485.00,485.00,485.00,485.00,485.00,485.00,485.00,485.00,485.00,485.00,485.00,485.00,485.00,485.00,485.00,485.00,485.00,485.00,485.00,485.00,485.00,485.00,485.00,484.98,484.92,484.90,484.90,484.87,484.81,484.80,484.80,484.76,484.71,484.70,484.69,484.65,484.60,484.58,484.53,484.51,484.48,484.42,484.41,484.40,484.36,484.30,484.29,484.24,484.21,484.20,484.19,484.13,484.11,484.11,484.11,484.11,484.11,484.11,484.11,484.12,484.18,484.19,484.19,484.19,484.19,484.20,484.20,484.20,484.20,484.20,484.20,484.19,484.19,484.13,484.11,484.11,484.11,484.11,484.11,484.11,484.11,484.12,484.12,484.12,484.14,484.20,484.21,484.22,484.22,484.23,484.29,484.31,484.32,484.34,484.42,484.50,484.41,484.23,484.04,484.02,484.07,484.10,484.11,484.11,484.11,484.16,484.20,484.20,484.20,484.21,484.25,484.30
478.50,478.50,478.55,478.59,478.62,478.67,478.68,478.69,478.70,478.69,478.62,478.60,478.60,478.60,478.61,478.68,478.70,478.70,478.72,478.79,478.86,478.91,478.95,479.02,479.08,479.14,479.18,479.20,479.20,479.24,479.28,479.30,479.31,479.37,479.40,479.41,479.46,479.49,479.50,479.52,479.57,479.60,479.60,479.60,479.60,479.60,479.60,479.60,479.62,479.67,479.69,479.70,479.70,479.70,479.70,479.77,479.80,479.80,479.80,479.80,479.80,479.81,479.84,479.91,479.88,479.84,479.83,479.83,479.86,479.88,479.90,479.96,479.97,479.97,479.97,479.98,480.00,480.05,480.07,480.10,480.16,480.19,480.24,480.28,480.31,480.38,480.44,480.47,480.49,480.53,480.54,480.55,480.58,480.61,480.65,480.73,480.78,480.81,480.86,480.89,480.93,480.99,481.06,481.07,481.13,481.20,481.26,481.27,481.34,481.38,481.39,481.46,481.47,481.52,481.57,481.57,481.57,481.63,481.68,481.69,481.76,481.77,481.81,481.88,481.88,481.94,481.97,482.00,482.06,482.07,482.09,482.13,482.17,482.20,482.25,482.28,482.31,482.38,482.45,482.47,482.74,483.50,484.73,485.00,485.00,485.00,485.00,485.00,485.00,485.00,485.00,485.00,485.00,485.00,485.00,485.00,485.00,485.00,485.00,485.00,485.00,485.00,485.00,485.00,485.00,485.00,485.00,485.00,484.97,484.92,484.90,484.89,484.87,484.81,484.80,484.79,484.76,484.71,484.70,484.69,484.65,484.61,484.58,484.57,484.54,484.48,484.47,484.43,484.39,484.36,484.31,484.28,484.27,484.25,484.20,484.18,484.18,484.18,484.18,484.18,484.18,484.18,484.18,484.18,484.19,484.20,484.20,484.20,484.20,484.25,484.27,484.27,484.27,484.27,484.24,484.20,484.20,484.18,484.18,484.18,484.18,484.18,484.18,484.18,484.19,484.24,484.24,484.24,484.25,484.28,484.33,484.35,484.35,484.35,484.37,484.42,484.45,484.47,484.54,484.62,484.61,484.45,484.20,484.09,484.09,484.13,484.18,484.18,484.18,484.19,484.22,484.27,484.27,484.27,484.28,484.31
478.53,478.54,478.58,478.62,478.66,478.69,478.70,478.72,478.74,478.72,478.65,478.61,478.60,478.60,478.61,478.68,478.70,478.71,478.75,478.79,478.84,478.88,478.92,479.00,479.07,479.15,479.20,479.20,479.23,479.27,479.30,479.31,479.34,479.38,479.42,479.45,479.49,479.50,479.52,479.56,479.60,479.60,479.60,479.60,479.60,479.60,479.60,479.62,479.66,479.69,479.70,479.70,479.70,479.71,479.74,479.78,479.80,479.80,479.80,479.83,479.84,479.83,479.81,479.85,479.85,479.84,479.84,479.84,479.90,479.94,479.95,480.00,480.00,480.02,480.03,480.03,480.04,480.08,480.11,480.15,480.19,480.23,480.29,480.34,480.35,480.42,480.47,480.51,480.55,480.60,480.63,480.63,480.65,480.68,480.72,480.77,480.81,480.85,480.92,480.94,480.98,481.05,481.10,481.13,481.19,481.26,481.30,481.33,481.37,481.41,481.45,481.50,481.53,481.56,481.61,481.63,481.63,481.69,481.74,481.75,481.79,481.82,481.86,481.91,481.94,481.98,482.02,482.06,482.10,482.13,482.13,482.18,482.24,482.24,482.30,482.34,482.36,482.43,482.49,482.52,482.61,483.01,484.23,484.82,485.00,485.00,485.00,485.00,485.00,485.00,485.00,485.00,485.00,485.00,485.00,485.00,485.00,485.00,485.00,485.00,485.00,485.00,485.00,485.00,485.00,485.00,485.00,485.00,485.00,484.96,484.92,484.90,484.89,484.85,484.81,484.80,484.79,484.75,484.71,484.70,484.69,484.64,484.61,484.60,484.58,484.53,484.51,484.46,484.44,484.42,484.35,484.34,484.32,484.28,484.24,484.24,484.24,484.24,484.24,484.24,484.24,484.24,484.24,484.24,484.24,484.24,484.24,484.24,484.24,484.27,484.30,484.30,484.30,484.30,484.27,484.24,484.24,484.24,484.24,484.24,484.24,484.24,484.26,484.27,484.28,484.33,484.34,484.36,484.37,484.38,484.43,484.44,484.45,484.47,484.47,484.52,484.55,484.60,484.67,484.72,484.76,484.64,484.38,484.17,484.13,484.16,484.21,484.23,484.24,484.24,484.26,484.30,484.33,484.34,484.34,484.36
478.59,478.59,478.61,478.65,478.69,478.70,478.71,478.76,478.79,478.77,478.71,478.64,478.61,478.60,478.61,478.68,478.70,478.73,478.79,478.80,478.81,478.85,478.92,479.00,479.07,479.15,479.20,479.22,479.27,479.30,479.30,479.32,479.38,479.40,479.44,479.50,479.50,479.51,479.55,479.60,479.60,479.60,479.61,479.61,479.61,479.61,479.61,479.65,479.69,479.70,479.70,479.70,479.70,479.72,479.78,479.80,479.80,479.80,479.81,479.87,479.89,479.87,479.81,479.82,479.87,479.90,479.90,479.91,479.97,479.99,480.00,480.01,480.01,480.05,480.09,480.09,480.10,480.11,480.15,480.20,480.22,480.28,480.35,480.39,480.41,480.48,480.50,480.54,480.60,480.61,480.67,480.69,480.72,480.78,480.80,480.81,480.84,480.91,480.98,481.00,481.04,481.10,481.12,481.18,481.25,481.31,481.32,481.38,481.41,481.44,481.50,481.51,481.58,481.61,481.63,481.69,481.70,481.75,481.79,481.80,481.81,481.87,481.91,481.93,481.99,482.01,482.06,482.11,482.12,482.18,482.20,482.24,482.30,482.31,482.37,482.40,482.43,482.50,482.51,482.56,482.64,482.85,483.53,484.46,484.95,485.00,485.00,485.00,485.00,485.00,485.00,485.00,485.00,485.00,485.00,485.00,485.00,485.00,485.00,485.00,485.00,485.00,485.00,485.00,485.00,485.00,485.00,485.00,485.00,485.00,484.95,484.90,484.90,484.89,484.84,484.80,484.80,484.79,484.73,484.70,484.70,484.69,484.62,484.60,484.60,484.58,484.51,484.50,484.49,484.48,484.41,484.39,484.35,484.31,484.30,484.29,484.29,484.29,484.29,484.29,484.29,484.29,484.30,484.30,484.30,484.30,484.30,484.30,484.30,484.31,484.31,484.31,484.31,484.31,484.31,484.30,484.30,484.30,484.30,484.30,484.30,484.31,484.37,484.40,484.40,484.41,484.41,484.45,484.50,484.50,484.50,484.50,484.54,484.60,484.60,484.61,484.65,484.72,484.78,484.80,484.86,484.80,484.56,484.28,484.20,484.20,484.23,484.28,484.30,484.30,484.31,484.32,484.38,484.40,484.40,484.42
478.60,478.61,478.65,478.68,478.70,478.71,478.75,478.79,478.80,478.79,478.76,478.70,478.64,478.60,478.61,478.68,478.70,478.73,478.80,478.80,478.80,478.84,478.92,479.00,479.07,479.15,479.22,479.26,479.29,479.30,479.33,479.37,479.39,479.40,479.44,479.50,479.51,479.55,479.59,479.60,479.60,479.60,479.64,479.67,479.67,479.67,479.67,479.68,479.70,479.70,479.70,479.70,479.72,479.77,479.80,479.80,479.80,479.81,479.87,479.89,479.90,479.89,479.87,479.87,479.93,479.97,479.97,479.97,479.99,480.03,480.06,480.06,480.06,480.09,480.10,480.11,480.16,480.17,480.21,480.26,480.27,480.34,480.38,480.42,480.46,480.49,480.54,480.58,480.61,480.66,480.69,480.73,480.77,480.81,480.85,480.87,480.90,480.96,481.00,481.04,481.11,481.17,481.18,481.24,481.31,481.37,481.38,481.45,481.47,481.50,481.56,481.57,481.63,481.67,481.69,481.75,481.76,481.79,481.82,481.86,481.87,481.93,481.97,481.99,482.05,482.06,482.12,482.17,482.18,482.25,482.26,482.30,482.37,482.37,482.44,482.47,482.49,482.55,482.56,482.62,482.70,482.80,483.07,483.89,484.62,485.00,485.00,485.00,485.00,485.00,485.00,485.00,485.00,485.00,485.00,485.00,485.00,485.00,485.00,485.00,485.00,485.00,485.00,485.00,485.00,485.00,485.00,485.00,485.00,485.00,484.95,484.90,484.90,484.90,484.84,484.80,484.80,484.80,484.73,484.70,484.70,484.69,484.62,484.60,484.60,484.58,484.51,484.50,484.50,484.49,484.46,484.42,484.38,484.37,484.36,484.31,484.30,484.30,484.30,484.30,484.30,484.33,484.37,484.37,484.37,484.37,484.37,484.37,484.37,484.37,484.37,484.37,484.37,484.37,484.37,484.37,484.37,484.37,484.41,484.43,484.43,484.43,484.45,484.49,484.53,484.53,484.53,484.55,484.59,484.63,484.63,484.63,484.65,484.68,484.72,484.73,484.75,484.79,484.87,484.92,484.95,484.93,484.80,484.52,484.33,484.26,484.27,484.30,484.35,484.37,484.37,484.38,484.45,484.47,484.47,484.47
478.61,478.63,478.68,478.70,478.71,478.74,478.79,478.80,478.80,478.80,478.80,478.73,478.67,478.63,478.61,478.68,478.70,478.73,478.80,478.80,478.80,478.84,478.92,479.00,479.07,479.15,479.23,479.29,479.30,479.32,479.36,479.40,479.40,479.42,479.46,479.50,479.51,479.58,479.60,479.61,479.63,479.63,479.67,479.70,479.70,479.70,479.70,479.70,479.70,479.70,479.70,479.72,479.76,479.80,479.80,479.80,479.81,479.85,479.89,479.90,479.90,479.91,479.93,479.93,479.97,480.00,480.01,480.02,480.03,480.06,480.10,480.10,480.13,480.13,480.13,480.14,480.19,480.22,480.26,480.31,480.34,480.38,480.42,480.45,480.50,480.53,480.60,480.63,480.64,480.69,480.72,480.76,480.81,480.84,480.89,480.92,480.97,481.03,481.03,481.10,481.18,481.23,481.24,481.30,481.37,481.41,481.44,481.49,481.52,481.56,481.61,481.63,481.70,481.73,481.75,481.79,481.83,481.83,481.87,481.93,481.93,481.98,482.01,482.05,482.12,482.13,482.19,482.23,482.24,482.31,482.33,482.36,482.40,482.43,482.50,482.53,482.55,482.62,482.63,482.69,482.76,482.83,482.86,483.37,484.15,484.85,484.98,485.00,485.00,485.00,485.00,485.00,485.00,485.00,485.00,485.00,485.00,485.00,485.00,485.00,485.00,485.00,485.00,485.00,485.00,485.00,485.00,485.00,485.00,485.00,484.96,484.92,484.90,484.90,484.86,484.82,484.80,484.80,484.75,484.72,484.70,484.69,484.65,484.61,484.60,484.59,484.54,484.51,484.50,484.50,484.50,484.43,484.40,484.40,484.39,484.35,484.33,484.33,484.33,484.33,484.33,484.36,484.40,484.40,484.40,484.40,484.40,484.40,484.40,484.42,484.43,484.43,484.43,484.43,484.43,484.43,484.44,484.45,484.50,484.53,484.53,484.53,484.55,484.59,484.63,484.64,484.65,484.66,484.68,484.73,484.73,484.75,484.76,484.77,484.82,484.83,484.85,484.88,484.93,484.99,485.00,485.00,484.95,484.72,484.45,484.33,484.33,484.34,484.38,484.42,484.43,484.44,484.49,484.52,484.53,484.53
478.62,478.68,478.70,478.70,478.73,478.78,478.80,478.80,478.81,478.81,478.80,478.74,478.70,478.67,478.62,478.68,478.70,478.73,478.80,478.80,478.80,478.84,478.92,479.00,479.07,479.15,479.23,479.29,479.31,479.36,479.39,479.40,479.41,479.46,479.49,479.50,479.51,479.58,479.60,479.63,479.69,479.69,479.70,479.70,479.70,479.70,479.70,479.70,479.70,479.70,479.70,479.75,479.79,479.80,479.80,479.81,479.84,479.89,479.90,479.90,479.90,479.93,479.98,479.99,480.00,480.00,480.02,480.08,480.10,480.10,480.11,480.12,480.18,480.19,480.19,480.20,480.21,480.26,480.29,480.32,480.38,480.40,480.45,480.50,480.52,480.58,480.65,480.69,480.70,480.71,480.77,480.80,480.83,480.89,480.90,480.96,481.02,481.09,481.10,481.16,481.24,481.29,481.30,481.37,481.40,481.43,481.49,481.50,481.56,481.60,481.62,481.69,481.76,481.79,481.80,481.81,481.88,481.90,481.93,481.99,482.00,482.00,482.04,482.12,482.18,482.19,482.24,482.29,482.30,482.37,482.39,482.40,482.42,482.49,482.56,482.59,482.62,482.69,482.69,482.75,482.83,482.89,482.90,482.98,483.60,484.51,484.92,485.00,485.00,485.00,485.00,485.00,485.00,485.00,485.00,485.00,485.00,485.00,485.00,485.00,485.00,485.00,485.00,485.00,485.00,485.00,485.00,485.00,485.00,485.00,485.00,484.96,484.90,484.90,484.89,484.85,484.80,484.80,484.79,484.75,484.70,484.70,484.69,484.64,484.61,484.60,484.59,484.53,484.50,484.50,484.50,484.43,484.40,484.40,484.40,484.40,484.39,484.39,484.39,484.39,484.39,484.40,484.41,484.41,484.41,484.41,484.41,484.41,484.41,484.46,484.49,484.49,484.49,484.49,484.49,484.50,484.50,484.56,484.59,484.59,484.60,484.60,484.65,484.69,484.69,484.70,484.76,484.78,484.78,484.79,484.80,484.85,484.88,484.88,484.89,484.90,484.94,484.98,484.99,485.00,485.00,485.00,484.98,484.88,484.56,484.40,484.39,484.40,484.40,484.45,484.49,484.50,484.50,484.55,484.59,484.60
478.67,478.69,478.70,478.73,478.77,478.80,478.80,478.84,478.86,478.86,478.86,478.79,478.74,478.68,478.62,478.68,478.70,478.73,478.80,478.80,478.80,478.84,478.92,479.00,479.07,479.15,479.23,479.30,479.35,479.38,479.40,479.41,479.45,479.49,479.50,479.51,479.56,479.59,479.60,479.63,479.69,479.70,479.70,479.70,479.70,479.70,479.70,479.70,479.70,479.71,479.75,479.78,479.80,479.80,479.80,479.84,479.88,479.90,479.90,479.90,479.90,479.91,479.95,479.99,480.04,480.06,480.06,480.10,480.14,480.16,480.16,480.17,480.19,480.24,480.26,480.26,480.26,480.29,480.33,480.37,480.40,480.44,480.51,480.56,480.57,480.65,480.69,480.72,480.76,480.77,480.83,480.86,480.88,480.95,480.96,481.01,481.07,481.11,481.15,481.23,481.28,481.31,481.36,481.44,481.46,481.49,481.55,481.56,481.62,481.66,481.68,481.75,481.83,481.86,481.86,481.87,481.94,481.96,481.97,482.01,482.05,482.06,482.11,482.17,482.20,482.24,482.28,482.32,482.36,482.39,482.44,482.46,482.48,482.55,482.59,482.63,482.69,482.75,482.76,482.81,482.90,482.96,482.96,482.96,483.28,483.95,484.71,484.95,485.00,485.00,485.00,485.00,485.00,485.00,485.00,485.00,485.00,485.00,485.00,485.00,485.00,485.00,485.00,485.00,485.00,485.00,485.00,485.00,485.00,485.00,485.00,484.97,484.90,484.90,484.90,484.86,484.81,484.80,484.80,484.78,484.75,484.70,484.70,484.68,484.64,484.60,484.60,484.57,484.53,484.50,484.50,484.47,484.43,484.40,484.41,484.45,484.43,484.40,484.40,484.40,484.40,484.43,484.46,484.46,484.46,484.46,484.46,484.46,484.46,484.49,484.50,484.50,484.50,484.50,484.53,484.56,484.56,484.59,484.60,484.62,484.66,484.66,484.69,484.73,484.76,484.76,484.79,484.80,484.82,484.86,484.86,484.89,484.90,484.91,484.95,484.96,484.98,485.00,485.00,485.00,485.00,485.00,484.99,484.95,484.75,484.53,484.41,484.45,484.46,484.48,484.52,484.56,484.56,484.59,484.63,484.66
478.70,478.70,478.72,478.76,478.80,478.80,478.82,478.87,478.90,478.90,478.89,478.83,478.76,478.70,478.64,478.69,478.70,478.73,478.80,478.80,478.80,478.84,478.92,479.00,479.07,479.15,479.23,479.30,479.38,479.40,479.41,479.44,479.49,479.50,479.51,479.54,479.59,479.60,479.61,479.65,479.69,479.70,479.70,479.70,479.70,479.70,479.70,479.70,479.70,479.73,479.78,479.80,479.80,479.80,479.81,479.87,479.90,479.90,479.90,479.90,479.90,479.90,479.91,479.97,480.03,480.10,480.13,480.13,480.18,480.20,480.20,480.22,480.22,480.27,480.31,480.32,480.32,480.32,480.37,480.43,480.44,480.50,480.56,480.61,480.64,480.69,480.72,480.75,480.80,480.83,480.88,480.91,480.94,481.00,481.02,481.08,481.13,481.14,481.22,481.29,481.32,481.35,481.42,481.48,481.51,481.55,481.62,481.63,481.69,481.72,481.74,481.81,481.88,481.91,481.93,481.94,482.00,482.02,482.02,482.04,482.11,482.13,482.17,482.22,482.24,482.30,482.32,482.36,482.42,482.43,482.49,482.52,482.54,482.61,482.64,482.69,482.75,482.81,482.82,482.88,482.95,483.02,483.02,483.04,483.14,483.49,484.32,484.81,484.98,485.00,485.00,485.00,485.00,485.00,485.00,485.00,485.00,485.00,485.00,485.00,485.00,485.00,485.00,485.00,485.00,485.00,485.00,485.00,485.00,485.00,485.00,484.98,484.93,484.90,484.90,484.87,484.82,484.80,484.80,484.80,484.78,484.71,484.70,484.70,484.67,484.61,484.60,484.60,484.56,484.50,484.50,484.50,484.46,484.43,484.44,484.49,484.45,484.43,484.43,484.43,484.43,484.46,484.50,484.50,484.50,484.50,484.50,484.50,484.50,484.50,484.51,484.52,484.52,484.52,484.56,484.60,484.60,484.62,484.63,484.65,484.70,484.72,484.72,484.76,484.80,484.80,484.82,484.82,484.85,484.89,484.90,484.92,484.93,484.94,484.99,485.00,485.00,485.00,485.00,485.02,485.02,485.01,485.00,484.99,484.90,484.69,484.48,484.50,484.52,484.52,484.55,484.60,484.62,484.63,484.66,484.70
478.70,478.71,478.76,478.79,478.80,478.81,478.87,478.89,478.90,478.91,478.90,478.83,478.79,478.76,478.70,478.70,478.70,478.73,478.80,478.80,478.80,478.84,478.92,479.00,479.07,479.15,479.23,479.30,479.38,479.40,479.43,479.49,479.50,479.50,479.54,479.59,479.60,479.60,479.65,479.69,479.70,479.70,479.70,479.70,479.70,479.70,479.70,479.70,479.73,479.78,479.80,479.80,479.80,479.80,479.81,479.87,479.90,479.90,479.90,479.90,479.90,479.90,479.90,479.91,479.98,480.08,480.18,480.19,480.20,480.20,480.22,480.28,480.29,480.30,480.33,480.38,480.38,480.39,480.44,480.49,480.50,480.56,480.59,480.63,480.68,480.70,480.75,480.79,480.82,480.88,480.90,480.94,480.99,481.01,481.07,481.15,481.19,481.20,481.28,481.36,481.38,481.41,481.48,481.50,481.55,481.62,481.68,481.69,481.75,481.79,481.81,481.88,481.90,481.94,481.99,482.00,482.06,482.09,482.09,482.11,482.17,482.19,482.23,482.28,482.29,482.37,482.39,482.42,482.48,482.49,482.55,482.59,482.61,482.68,482.75,482.78,482.81,482.88,482.89,482.94,483.02,483.09,483.09,483.15,483.20,483.30,483.69,484.50,484.89,485.00,485.00,485.00,485.00,485.00,485.00,485.00,485.00,485.00,485.00,485.00,485.00,485.00,485.00,485.00,485.00,485.00,485.00,485.00,485.00,485.00,485.00,485.00,484.98,484.92,484.90,484.90,484.88,484.81,484.80,484.80,484.78,484.71,484.70,484.70,484.67,484.61,484.60,484.60,484.56,484.50,484.50,484.50,484.50,484.49,484.49,484.50,484.50,484.49,484.49,484.49,484.49,484.50,484.50,484.50,484.50,484.50,484.50,484.50,484.50,484.50,484.54,484.59,484.59,484.59,484.60,484.61,484.62,484.67,484.69,484.70,484.72,484.77,484.78,484.79,484.81,484.81,484.87,484.88,484.90,484.91,484.91,484.95,484.99,484.99,485.00,485.00,485.00,485.00,485.01,485.07,485.09,485.05,485.00,485.00,484.98,484.84,484.63,484.53,484.57,484.59,484.60,484.62,484.67,484.69,484.70,484.72
478.75,478.76,478.79,478.80,478.81,478.86,478.89,478.90,478.92,478.95,478.95,478.88,478.83,478.78,478.71,478.70,478.70,478.73,478.80,478.80,478.80,478.84,478.92,479.00,479.07,479.15,479.23,479.30,479.38,479.44,479.47,479.50,479.50,479.53,479.57,479.60,479.61,479.64,479.68,479.70,479.71,479.75,479.75,479.75,479.75,479.75,479.75,479.75,479.76,479.80,479.80,479.80,479.80,479.81,479.85,479.88,479.90,479.90,479.90,479.90,479.90,479.90,479.90,479.90,479.93,480.02,480.16,480.24,480.25,480.25,480.26,480.31,480.34,480.36,480.37,480.40,480.40,480.44,480.48,480.51,480.55,480.59,480.63,480.67,480.70,480.75,480.78,480.82,480.86,480.90,480.94,480.98,481.01,481.06,481.13,481.18,481.22,481.27,481.34,481.38,481.42,481.48,481.54,481.56,481.61,481.67,481.70,481.75,481.81,481.86,481.87,481.94,481.95,482.00,482.06,482.06,482.09,482.13,482.16,482.17,482.24,482.25,482.27,482.31,482.36,482.43,482.45,482.49,482.55,482.56,482.62,482.66,482.67,482.75,482.83,482.86,482.88,482.94,482.95,483.01,483.09,483.15,483.16,483.22,483.25,483.28,483.44,483.99,484.55,484.92,484.99,485.00,485.00,485.00,485.00,485.00,485.00,485.00,485.00,485.00,485.00,485.00,485.00,485.00,485.00,485.00,485.00,485.00,485.00,485.00,485.00,485.00,485.00,484.96,484.92,484.90,484.89,484.86,484.82,484.80,484.79,484.75,484.71,484.70,484.69,484.65,484.61,484.60,484.58,484.54,484.51,484.54,484.56,484.56,484.56,484.56,484.56,484.56,484.56,484.56,484.56,484.56,484.56,484.56,484.56,484.56,484.56,484.56,484.56,484.56,484.57,484.60,484.61,484.64,484.66,484.66,484.66,484.69,484.73,484.75,484.76,484.79,484.80,484.83,484.86,484.86,484.89,484.93,484.95,484.95,484.95,484.98,485.02,485.06,485.06,485.06,485.06,485.06,485.06,485.09,485.10,485.06,485.00,485.00,485.00,484.94,484.81,484.63,484.60,484.63,484.66,484.66,484.69,484.74,484.75,484.76
478.80,478.80,478.80,478.81,478.84,478.89,478.90,478.91,478.95,479.00,479.00,478.93,478.86,478.79,478.73,478.70,478.70,478.73,478.80,478.80,478.80,478.84,478.92,479.00,479.07,479.15,479.23,479.30,479.38,479.46,479.50,479.50,479.52,479.57,479.60,479.60,479.63,479.68,479.70,479.70,479.73,479.79,479.80,479.80,479.80,479.80,479.80,479.80,479.80,479.80,479.80,479.80,479.81,479.83,479.89,479.90,479.90,479.90,479.90,479.90,479.90,479.90,479.90,479.90,479.90,479.97,480.10,480.25,480.31,480.32,480.32,480.33,480.38,480.41,480.42,480.42,480.42,480.48,480.51,480.54,480.61,480.62,480.68,480.72,480.73,480.80,480.82,480.86,480.92,480.93,480.98,481.01,481.04,481.12,481.18,481.21,481.25,481.33,481.39,481.41,481.47,481.53,481.60,481.61,481.67,481.72,481.73,481.80,481.88,481.92,481.94,482.01,482.02,482.06,482.11,482.12,482.12,482.18,482.22,482.24,482.30,482.32,482.32,482.34,482.42,482.48,482.51,482.54,482.60,482.62,482.68,482.72,482.74,482.81,482.89,482.92,482.94,483.01,483.04,483.08,483.15,483.21,483.22,483.28,483.32,483.32,483.35,483.58,484.14,484.68,484.91,484.99,485.00,485.00,485.00,485.00,485.00,485.00,485.00,485.00,485.00,485.00,485.00,485.00,485.00,485.00,485.00,485.00,485.00,485.00,485.00,485.00,485.00,485.00,484.95,484.91,484.90,484.89,484.84,484.81,484.80,484.79,484.74,484.71,484.70,484.69,484.63,484.61,484.60,484.59,484.54,484.57,484.60,484.61,484.62,484.62,484.61,484.60,484.60,484.60,484.60,484.60,484.60,484.60,484.60,484.60,484.60,484.60,484.60,484.61,484.62,484.62,484.63,484.68,484.70,484.70,484.72,484.72,484.77,484.80,484.80,484.82,484.82,484.86,484.90,484.92,484.92,484.96,485.00,485.00,485.01,485.02,485.05,485.10,485.10,485.10,485.10,485.10,485.10,485.10,485.10,485.06,485.00,485.00,485.00,485.00,484.94,484.76,484.65,484.66,484.70,484.72,484.72,484.77,484.81,484.82
478.80,478.80,478.80,478.84,478.89,478.90,478.90,478.95,478.99,479.00,479.00,478.93,478.89,478.86,478.79,478.72,478.70,478.73,478.80,478.80,478.80,478.84,478.92,479.00,479.07,479.15,479.23,479.30,479.38,479.46,479.50,479.51,479.57,479.60,479.60,479.62,479.68,479.70,479.70,479.73,479.78,479.80,479.80,479.80,479.80,479.80,479.80,479.80,479.80,479.80,479.80,479.80,479.83,479.88,479.90,479.90,479.90,479.90,479.90,479.90,479.90,479.90,479.90,479.90,479.90,479.91,479.98,480.19,480.34,480.38,480.38,480.39,480.40,480.45,480.49,480.49,480.49,480.50,480.53,480.61,480.68,480.69,480.74,480.78,480.80,480.87,480.88,480.93,480.98,480.99,481.00,481.04,481.11,481.18,481.20,481.25,481.32,481.38,481.40,481.46,481.52,481.59,481.61,481.66,481.74,481.78,481.80,481.87,481.94,481.99,482.00,482.07,482.09,482.09,482.12,482.18,482.19,482.24,482.28,482.30,482.37,482.38,482.38,482.40,482.48,482.50,482.54,482.59,482.61,482.67,482.75,482.78,482.80,482.88,482.95,482.99,483.01,483.08,483.15,483.18,483.22,483.28,483.29,483.35,483.38,483.38,483.40,483.49,483.71,484.10,484.65,484.94,485.00,485.00,485.00,485.00,485.00,485.00,485.00,485.00,485.00,485.00,485.00,485.00,485.00,485.00,485.00,485.00,485.00,485.00,485.00,485.00,485.00,485.00,484.99,484.95,484.90,484.90,484.89,484.84,484.80,484.80,484.79,484.74,484.70,484.70,484.68,484.63,484.60,484.60,484.59,484.60,484.60,484.63,484.68,484.69,484.63,484.60,484.60,484.60,484.60,484.60,484.60,484.60,484.60,484.60,484.60,484.60,484.60,484.65,484.69,484.69,484.69,484.69,484.70,484.72,484.78,484.78,484.79,484.80,484.81,484.87,484.88,484.89,484.92,484.98,484.99,484.99,485.00,485.01,485.07,485.09,485.09,485.10,485.10,485.10,485.10,485.10,485.10,485.10,485.10,485.06,485.00,485.00,485.00,485.00,484.97,484.87,484.73,484.69,484.73,484.78,484.78,484.79,484.83,484.88
478.81,478.85,478.85,478.88,478.90,478.91,478.94,478.98,479.00,479.00,479.00,478.97,478.93,478.88,478.81,478.76,478.72,478.73,478.80,478.80,478.80,478.84,478.92,479.00,479.07,479.15,479.23,479.30,479.38,479.46,479.52,479.55,479.59,479.60,479.62,479.66,479.69,479.70,479.73,479.76,479.80,479.80,479.80,479.80,479.80,479.80,479.80,479.80,479.80,479.80,479.80,479.83,479.87,479.90,479.90,479.90,479.90,479.90,479.90,479.90,479.90,479.90,479.90,479.90,479.90,479.90,479.94,480.09,480.25,480.35,480.41,480.44,480.45,480.48,480.52,480.55,480.55,480.55,480.60,480.66,480.70,480.74,480.78,480.81,480.85,480.89,480.93,480.97,481.01,481.04,481.05,481.10,481.18,481.24,481.25,481.30,481.37,481.40,481.44,481.51,481.57,481.61,481.65,481.73,481.80,481.85,481.86,481.93,481.98,482.02,482.06,482.14,482.15,482.15,482.18,482.24,482.25,482.30,482.35,482.37,482.43,482.45,482.45,482.47,482.54,482.59,482.65,482.71,482.75,482.79,482.86,482.90,482.91,482.95,483.02,483.05,483.08,483.15,483.23,483.25,483.28,483.35,483.35,483.42,483.45,483.46,483.50,483.53,483.60,483.79,484.21,484.72,484.94,485.00,485.00,485.00,485.00,485.00,485.00,485.00,485.00,485.00,485.00,485.00,485.00,485.00,485.00,485.00,485.00,485.00,485.00,485.00,485.00,485.00,485.00,484.96,484.90,484.90,484.90,484.85,484.80,484.80,484.80,484.75,484.70,484.70,484.69,484.64,484.62,484.65,484.65,484.65,484.65,484.66,484.69,484.70,484.67,484.65,484.65,484.65,484.65,484.65,484.65,484.65,484.65,484.65,484.65,484.65,484.65,484.68,484.70,484.71,484.74,484.75,484.75,484.76,484.80,484.80,484.83,484.85,484.86,484.90,484.94,484.95,484.96,485.00,485.00,485.02,485.05,485.05,485.09,485.13,485.15,485.15,485.15,485.15,485.13,485.10,485.10,485.10,485.10,485.08,485.04,485.01,485.00,485.00,484.99,484.94,484.80,484.75,484.76,484.81,484.84,484.85,484.87,484.91
478.83,478.89,478.90,478.90,478.90,478.93,478.98,479.00,479.01,479.01,479.01,479.00,478.96,478.89,478.82,478.80,478.75,478.74,478.80,478.80,478.80,478.84,478.92,479.00,479.07,479.15,479.23,479.30,479.38,479.46,479.53,479.58,479.60,479.61,479.65,479.70,479.70,479.71,479.76,479.80,479.80,479.80,479.80,479.80,479.80,479.80,479.80,479.81,479.81,479.81,479.80,479.86,479.90,479.90,479.90,479.90,479.90,479.90,479.90,479.90,479.90,479.90,479.90,479.90,479.90,479.91,479.94,480.01,480.14,480.28,480.42,480.49,480.51,480.51,480.54,480.60,480.61,480.62,480.65,480.70,480.72,480.78,480.81,480.84,480.90,480.91,480.97,481.01,481.03,481.09,481.11,481.16,481.23,481.29,481.31,481.36,481.40,481.43,481.50,481.57,481.61,481.63,481.71,481.79,481.86,481.90,481.93,482.00,482.01,482.05,482.13,482.19,482.21,482.22,482.24,482.30,482.31,482.37,482.42,482.43,482.50,482.51,482.51,482.53,482.62,482.71,482.80,482.88,482.95,482.97,483.03,483.08,483.09,483.10,483.15,483.20,483.25,483.32,483.40,483.42,483.43,483.45,483.44,483.48,483.51,483.53,483.60,483.62,483.62,483.65,483.82,484.42,484.83,485.00,485.00,485.00,485.00,485.00,485.00,485.00,485.00,485.00,485.00,485.00,485.00,485.00,485.00,485.00,485.00,485.00,485.00,485.00,485.00,485.00,485.00,484.97,484.92,484.90,484.90,484.86,484.81,484.80,484.80,484.75,484.71,484.70,484.70,484.65,484.65,484.70,484.71,484.72,484.72,484.72,484.72,484.72,484.72,484.72,484.72,484.72,484.72,484.72,484.71,484.70,484.70,484.70,484.70,484.70,484.70,484.71,484.72,484.73,484.79,484.80,484.80,484.80,484.81,484.81,484.87,484.90,484.92,484.92,484.97,485.01,485.01,485.01,485.01,485.06,485.11,485.12,485.12,485.17,485.20,485.20,485.20,485.20,485.16,485.11,485.10,485.10,485.10,485.10,485.08,485.01,485.00,485.00,485.00,484.99,484.87,484.82,484.81,484.83,484.88,484.91,484.92,484.93
478.88,478.90,478.90,478.90,478.92,478.98,479.00,479.00,479.03,479.07,479.07,479.02,478.99,478.95,478.88,478.82,478.79,478.79,478.80,478.80,478.80,478.84,478.92,479.00,479.07,479.15,479.23,479.30,479.38,479.46,479.51,479.53,479.59,479.65,479.69,479.70,479.71,479.76,479.79,479.80,479.80,479.80,479.80,479.80,479.80,479.80,479.80,479.84,479.88,479.87,479.81,479.86,479.90,479.90,479.90,479.90,479.90,479.90,479.90,479.90,479.90,479.90,479.90,479.90,479.90,479.93,480.00,480.07,480.11,480.22,480.37,480.49,480.56,480.57,480.59,480.61,480.67,480.68,480.69,480.72,480.77,480.79,480.84,480.89,480.91,480.96,480.99,481.03,481.08,481.10,481.16,481.23,481.28,481.31,481.36,481.39,481.43,481.49,481.56,481.59,481.63,481.70,481.77,481.86,481.89,481.93,481.99,482.06,482.07,482.12,482.18,482.20,482.25,482.27,482.30,482.37,482.38,482.44,482.47,482.49,482.56,482.57,482.57,482.60,482.69,482.87,483.03,483.15,483.22,483.28,483.35,483.42,483.47,483.47,483.48,483.64,483.81,483.84,483.91,483.93,483.86,483.70,483.58,483.57,483.57,483.60,483.67,483.68,483.68,483.70,483.80,483.97,484.60,485.00,485.00,485.00,485.00,485.00,485.00,485.00,485.00,485.00,485.00,485.00,485.00,485.00,485.00,485.00,485.00,485.00,485.00,485.00,485.00,485.00,485.00,484.99,484.97,484.91,484.90,484.89,484.86,484.81,484.80,484.79,484.75,484.70,484.70,484.69,484.69,484.72,484.77,484.77,484.77,484.77,484.77,484.77,484.77,484.77,484.77,484.77,484.77,484.77,484.76,484.71,484.70,484.70,484.70,484.70,484.70,484.75,484.77,484.78,484.80,484.80,484.80,484.82,484.87,484.88,484.89,484.93,484.97,484.98,484.99,485.03,485.07,485.07,485.07,485.09,485.13,485.17,485.18,485.19,485.20,485.20,485.20,485.20,485.19,485.16,485.11,485.10,485.10,485.10,485.08,485.01,485.00,485.00,485.00,485.00,484.97,484.92,484.88,484.88,484.90,484.95,484.97,485.00
478.90,478.90,478.93,478.94,478.96,479.00,479.00,479.02,479.06,479.10,479.10,479.06,479.02,478.98,478.90,478.86,478.82,478.80,478.80,478.80,478.80,478.84,478.92,479.00,479.07,479.15,479.22,479.26,479.33,479.42,479.47,479.51,479.59,479.67,479.70,479.71,479.75,479.79,479.80,479.81,479.84,479.85,479.85,479.85,479.85,479.85,479.85,479.87,479.90,479.89,479.86,479.88,479.90,479.90,479.90,479.90,479.90,479.90,479.90,479.90,479.90,479.90,479.90,479.90,479.93,479.99,480.05,480.10,480.13,480.22,480.34,480.46,480.57,480.63,480.65,480.65,480.69,480.70,480.72,480.76,480.84,480.85,480.90,480.94,480.95,480.99,481.03,481.06,481.11,481.14,481.22,481.27,481.31,481.35,481.39,481.43,481.48,481.55,481.63,481.65,481.69,481.76,481.84,481.89,481.92,481.98,482.04,482.09,482.13,482.18,482.24,482.25,482.31,482.35,482.37,482.44,482.44,482.50,482.54,482.56,482.63,482.65,482.66,482.71,482.83,483.02,483.19,483.34,483.47,483.55,483.66,483.75,483.82,483.86,483.86,484.09,484.37,484.43,484.48,484.47,484.35,484.13,483.97,483.87,483.76,483.69,483.74,483.75,483.75,483.77,483.84,483.86,484.38,484.84,484.99,485.00,485.00,485.00,485.00,485.00,485.00,485.00,485.00,485.00,485.00,485.00,485.00,485.00,485.00,485.00,485.00,485.00,485.00,485.00,485.00,485.00,484.99,484.95,484.91,484.90,484.89,484.85,484.81,484.80,484.78,484.75,484.75,484.75,484.75,484.75,484.79,484.80,484.82,484.85,484.85,484.85,484.82,484.80,484.80,484.80,484.80,484.80,484.78,484.71,484.70,484.72,484.75,484.75,484.75,484.78,484.80,484.81,484.84,484.85,484.85,484.86,484.90,484.94,484.94,484.97,485.01,485.04,485.04,485.09,485.15,485.15,485.15,485.15,485.18,485.24,485.25,485.25,485.25,485.25,485.24,485.21,485.20,485.19,485.15,485.15,485.12,485.10,485.09,485.05,485.04,485.02,485.00,485.00,485.00,484.97,484.94,484.94,484.94,485.00,485.04,485.06
478.91,478.92,478.97,479.00,479.00,479.00,479.01,479.06,479.10,479.10,479.11,479.10,479.06,478.99,478.92,478.90,478.85,478.81,478.80,478.80,478.80,478.84,478.92,479.00,479.06,479.14,479.19,479.22,479.28,479.37,479.44,479.51,479.59,479.67,479.71,479.73,479.78,479.80,479.81,479.84,479.89,479.89,479.89,479.89,479.89,479.89,479.89,479.90,479.90,479.90,479.90,479.90,479.90,479.90,479.90,479.90,479.90,479.90,479.90,479.90,479.90,479.90,479.90,479.91,479.98,480.04,480.10,480.12,480.18,480.26,480.34,480.42,480.55,480.64,480.69,480.70,480.71,480.71,480.75,480.83,480.88,480.90,480.95,481.00,481.00,481.01,481.07,481.11,481.13,481.20,481.27,481.31,481.34,481.39,481.41,481.47,481.54,481.62,481.68,481.70,481.75,481.81,481.88,481.91,481.97,482.03,482.09,482.11,482.17,482.24,482.30,482.31,482.38,482.41,482.44,482.50,482.50,482.56,482.61,482.62,482.69,482.70,482.75,482.86,483.01,483.17,483.33,483.51,483.70,483.80,483.94,484.06,484.14,484.22,484.25,484.51,484.83,484.94,484.97,484.92,484.79,484.60,484.46,484.26,484.04,483.87,483.86,483.83,483.82,483.85,483.90,483.91,484.19,484.61,484.97,485.00,485.00,485.00,485.00,485.00,485.00,485.00,485.00,485.00,485.00,485.00,485.00,485.00,485.00,485.00,485.00,485.00,485.00,485.00,485.00,485.00,485.00,484.99,484.93,484.90,484.90,484.88,484.82,484.80,484.80,484.80,484.80,484.80,484.81,484.81,484.81,484.81,484.86,484.89,484.89,484.89,484.85,484.81,484.80,484.80,484.80,484.80,484.78,484.72,484.71,484.76,484.80,484.80,484.80,484.81,484.81,484.83,484.88,484.89,484.90,484.91,484.92,484.98,485.00,485.01,485.03,485.10,485.11,485.15,485.20,485.20,485.20,485.20,485.23,485.29,485.31,485.31,485.31,485.31,485.29,485.24,485.21,485.21,485.20,485.20,485.15,485.11,485.11,485.11,485.10,485.06,485.01,485.01,485.01,485.01,485.00,485.00,485.01,485.07,485.11,485.13
478.97,478.97,479.00,479.00,479.00,479.01,479.06,479.09,479.10,479.11,479.16,479.13,479.09,479.05,478.98,478.91,478.88,478.85,478.81,478.80,478.80,478.84,478.92,478.99,479.02,479.07,479.15,479.21,479.28,479.36,479.44,479.51,479.59,479.67,479.73,479.78,479.80,479.80,479.84,479.88,479.90,479.90,479.90,479.90,479.90,479.90,479.90,479.90,479.90,479.90,479.90,479.90,479.90,479.90,479.90,479.90,479.90,479.90,479.90,479.90,479.90,479.90,479.91,479.96,480.03,480.09,480.11,480.17,480.25,480.32,480.38,480.41,480.50,480.58,480.68,480.77,480.77,480.77,480.81,480.88,480.90,480.95,480.99,481.00,481.01,481.06,481.13,481.18,481.19,481.26,481.29,481.34,481.38,481.40,481.46,481.53,481.61,481.67,481.70,481.75,481.78,481.82,481.90,481.95,482.02,482.08,482.11,482.16,482.24,482.28,482.31,482.37,482.44,482.47,482.50,482.56,482.57,482.63,482.68,482.69,482.76,482.77,482.85,482.99,483.15,483.35,483.52,483.69,483.85,483.99,484.14,484.28,484.42,484.55,484.67,484.82,484.96,485.00,485.00,484.99,484.94,484.89,484.84,484.69,484.49,484.28,484.17,484.00,483.95,483.95,483.97,483.97,484.10,484.43,484.86,484.98,485.00,485.00,485.00,485.00,485.00,485.00,485.00,485.00,485.00,485.00,485.00,485.00,485.00,485.00,485.00,485.00,485.00,485.00,485.00,485.00,485.00,485.00,484.93,484.90,484.90,484.89,484.82,484.80,484.80,484.80,484.80,484.85,484.88,484.88,484.88,484.88,484.89,484.90,484.90,484.90,484.88,484.85,484.80,484.80,484.80,484.80,484.79,484.78,484.77,484.79,484.80,484.80,484.80,484.85,484.88,484.88,484.90,484.90,484.94,484.97,484.98,485.00,485.04,485.07,485.09,485.16,485.18,485.19,485.22,485.27,485.27,485.27,485.28,485.31,485.36,485.38,485.38,485.36,485.31,485.28,485.27,485.27,485.26,485.21,485.19,485.18,485.18,485.17,485.13,485.09,485.07,485.07,485.07,485.07,485.07,485.07,485.07,485.13,485.18,485.19
479.00,479.00,479.00,479.02,479.03,479.04,479.09,479.10,479.11,479.15,479.19,479.16,479.12,479.09,479.03,478.96,478.92,478.87,478.81,478.80,478.80,478.84,478.91,478.96,478.99,479.05,479.13,479.20,479.28,479.36,479.44,479.51,479.59,479.67,479.75,479.80,479.80,479.83,479.87,479.90,479.90,479.90,479.90,479.90,479.90,479.90,479.90,479.90,479.90,479.90,479.90,479.90,479.90,479.90,479.90,479.90,479.90,479.90,479.90,479.90,479.90,479.91,479.95,480.02,480.08,480.11,480.15,480.23,480.31,480.37,480.41,480.45,480.51,480.60,480.68,480.77,480.83,480.84,480.87,480.91,480.94,480.99,481.02,481.03,481.05,481.12,481.18,481.21,481.25,481.29,481.33,481.38,481.44,481.45,481.51,481.60,481.66,481.70,481.74,481.78,481.81,481.86,481.93,481.99,482.05,482.11,482.15,482.22,482.27,482.31,482.36,482.43,482.50,482.53,482.56,482.63,482.63,482.69,482.74,482.75,482.82,482.86,482.98,483.15,483.31,483.51,483.68,483.84,484.02,484.18,484.33,484.50,484.68,484.80,484.90,484.97,485.00,485.00,485.00,485.00,485.00,485.00,485.00,484.92,484.80,484.66,484.53,484.34,484.21,484.13,484.07,484.04,484.10,484.33,484.69,484.95,485.00,485.00,485.00,485.00,485.00,485.00,485.00,485.00,485.00,485.00,485.00,485.00,485.00,485.00,485.00,485.00,485.00,485.00,485.00,485.00,485.00,485.00,484.96,484.92,484.90,484.89,484.85,484.81,484.81,484.84,484.84,484.88,484.90,484.91,484.94,484.99,484.98,484.93,484.90,484.90,484.90,484.88,484.83,484.81,484.80,484.80,484.80,484.80,484.80,484.80,484.81,484.84,484.84,484.88,484.90,484.91,484.93,484.94,484.99,485.03,485.03,485.03,485.10,485.13,485.15,485.22,485.24,485.24,485.26,485.33,485.34,485.34,485.34,485.35,485.42,485.44,485.42,485.39,485.35,485.34,485.34,485.33,485.29,485.25,485.24,485.24,485.23,485.20,485.16,485.13,485.13,485.13,485.13,485.13,485.13,485.13,485.14,485.20,485.24,485.25
479.00,479.00,479.01,479.05,479.10,479.10,479.10,479.11,479.14,479.19,479.20,479.19,479.15,479.11,479.08,479.01,478.95,478.88,478.81,478.80,478.80,478.84,478.90,478.91,478.97,479.05,479.13,479.20,479.28,479.36,479.44,479.51,479.59,479.67,479.75,479.80,479.82,479.88,479.90,479.90,479.90,479.90,479.90,479.90,479.90,479.90,479.90,479.90,479.90,479.90,479.90,479.90,479.90,479.90,479.90,479.90,479.90,479.90,479.90,479.90,479.91,479.94,480.01,480.08,480.11,480.15,480.22,480.29,480.37,480.40,480.44,480.50,480.59,480.65,480.70,480.75,480.87,480.89,480.90,480.93,480.99,481.00,481.05,481.10,481.12,481.18,481.20,481.24,481.29,481.31,481.38,481.44,481.50,481.51,481.59,481.65,481.70,481.72,481.78,481.81,481.85,481.92,481.98,482.00,482.06,482.14,482.20,482.27,482.31,482.35,482.42,482.50,482.57,482.60,482.63,482.69,482.70,482.76,482.81,482.82,482.89,482.98,483.13,483.34,483.49,483.66,483.82,483.99,484.20,484.37,484.52,484.71,484.90,484.97,484.99,485.00,485.00,485.00,485.00,485.00,485.00,485.00,485.00,484.99,484.98,484.95,484.87,484.73,484.55,484.38,484.24,484.16,484.18,484.28,484.50,484.90,484.99,485.00,485.00,485.00,485.00,485.00,485.00,485.00,485.00,485.00,485.00,485.00,485.00,485.00,485.00,485.00,485.00,485.00,485.00,485.00,485.00,485.00,485.00,484.95,484.91,484.90,484.89,484.85,484.84,484.89,484.90,484.91,484.93,484.95,485.03,485.15,485.10,484.98,484.91,484.90,484.90,484.90,484.88,484.81,484.80,484.80,484.81,484.81,484.81,484.81,484.84,484.89,484.89,484.91,484.91,484.93,484.99,485.00,485.05,485.10,485.11,485.11,485.16,485.20,485.22,485.28,485.30,485.31,485.32,485.38,485.40,485.41,485.41,485.42,485.49,485.50,485.47,485.41,485.41,485.41,485.40,485.37,485.31,485.31,485.31,485.30,485.28,485.22,485.20,485.20,485.20,485.20,485.20,485.20,485.20,485.20,485.20,485.26,485.31,485.32
479.00,479.00,479.05,479.09,479.10,479.10,479.10,479.14,479.18,479.20,479.20,479.20,479.19,479.15,479.10,479.02,478.98,478.94,478.86,478.81,478.80,478.84,478.90,478.91,478.97,479.05,479.13,479.20,479.28,479.36,479.44,479.51,479.59,479.67,479.75,479.81,479.87,479.89,479.90,479.90,479.90,479.90,479.90,479.90,479.90,479.90,479.90,479.90,479.90,479.90,479.90,479.90,479.90,479.90,479.90,479.90,479.90,479.90,479.90,479.90,479.94,480.00,480.06,480.09,480.14,480.20,480.28,480.36,480.39,480.43,480.50,480.57,480.65,480.69,480.73,480.79,480.88,480.90,480.93,480.97,481.00,481.05,481.09,481.12,481.17,481.19,481.24,481.28,481.31,481.37,481.44,481.48,481.51,481.57,481.65,481.69,481.72,481.77,481.80,481.84,481.91,481.97,482.00,482.05,482.12,482.18,482.21,482.28,482.34,482.40,482.49,482.56,482.59,482.63,482.69,482.76,482.76,482.83,482.87,482.88,482.96,483.12,483.30,483.47,483.63,483.83,484.01,484.17,484.35,484.50,484.69,484.87,484.97,485.00,485.00,485.00,485.00,485.00,485.00,485.00,485.00,485.00,485.00,485.00,485.00,484.99,484.97,484.92,484.86,484.75,484.59,484.41,484.31,484.29,484.41,484.74,484.94,485.00,485.00,485.00,485.00,485.00,485.00,485.00,485.00,485.00,485.00,485.00,485.00,485.00,485.00,485.00,485.00,485.00,485.00,485.00,485.00,485.00,485.00,484.99,484.95,484.91,484.90,484.88,484.88,484.91,484.96,485.01,485.09,485.19,485.26,485.27,485.17,485.02,484.91,484.90,484.90,484.90,484.88,484.81,484.80,484.83,484.87,484.87,484.87,484.87,484.88,484.90,484.90,484.94,484.97,484.99,485.05,485.06,485.08,485.12,485.16,485.17,485.23,485.26,485.27,485.30,485.34,485.37,485.37,485.40,485.45,485.47,485.47,485.48,485.55,485.56,485.52,485.47,485.47,485.47,485.44,485.39,485.37,485.37,485.37,485.34,485.29,485.27,485.26,485.26,485.26,485.26,485.26,485.26,485.26,485.26,485.27,485.33,485.37,485.38
479.03,479.04,479.08,479.10,479.10,479.10,479.13,479.17,479.20,479.21,479.23,479.24,479.22,479.19,479.13,479.05,479.01,478.97,478.90,478.85,478.81,478.84,478.90,478.91,478.97,479.05,479.13,479.20,479.28,479.36,479.44,479.51,479.59,479.67,479.75,479.82,479.89,479.90,479.90,479.90,479.90,479.90,479.90,479.90,479.90,479.90,479.90,479.90,479.90,479.90,479.90,479.90,479.90,479.90,479.90,479.90,479.90,479.90,479.90,479.93,479.99,480.05,480.10,480.13,480.19,480.27,480.35,480.40,480.42,480.48,480.55,480.61,480.68,480.72,480.76,480.84,480.89,480.92,480.96,481.01,481.03,481.09,481.12,481.15,481.20,481.23,481.27,481.31,481.35,481.43,481.48,481.51,481.55,481.61,481.68,481.72,481.76,481.80,481.83,481.90,481.96,482.01,482.04,482.11,482.17,482.21,482.24,482.31,482.40,482.46,482.51,482.59,482.62,482.68,482.75,482.80,482.83,482.89,482.94,482.98,483.08,483.27,483.45,483.61,483.79,483.99,484.15,484.29,484.44,484.60,484.79,484.94,485.00,485.00,485.00,485.00,485.00,485.00,485.00,485.00,485.00,485.00,485.00,485.00,485.00,485.00,485.00,485.00,485.00,484.96,484.85,484.70,484.54,484.44,484.43,484.59,484.81,484.94,485.00,485.00,485.00,485.00,485.00,485.00,485.00,485.00,485.00,485.00,485.00,485.00,485.00,485.00,485.00,485.00,485.00,485.00,485.00,485.00,485.00,485.00,484.99,484.94,484.91,484.93,484.97,485.01,485.11,485.19,485.31,485.44,485.46,485.37,485.24,485.09,484.97,484.91,484.90,484.90,484.89,484.84,484.84,484.86,484.90,484.90,484.90,484.90,484.91,484.93,484.94,485.00,485.03,485.05,485.10,485.12,485.13,485.16,485.23,485.24,485.27,485.31,485.34,485.34,485.40,485.44,485.44,485.44,485.51,485.53,485.53,485.55,485.62,485.61,485.57,485.53,485.53,485.53,485.49,485.44,485.44,485.44,485.44,485.41,485.37,485.36,485.34,485.34,485.34,485.34,485.34,485.35,485.37,485.37,485.37,485.41,485.44,485.45
479.09,479.09,479.10,479.10,479.11,479.12,479.18,479.20,479.20,479.22,479.28,479.29,479.25,479.20,479.18,479.11,479.04,478.98,478.91,478.89,478.83,478.84,478.90,478.91,478.97,479.05,479.13,479.20,479.28,479.36,479.44,479.51,479.59,479.67,479.75,479.82,479.89,479.90,479.90,479.90,479.90,479.90,479.90,479.90,479.90,479.90,479.90,479.90,479.90,479.90,479.90,479.90,479.90,479.90,479.90,479.90,479.90,479.91,479.91,479.98,480.04,480.10,480.12,480.19,480.26,480.33,480.39,480.41,480.47,480.54,480.60,480.62,480.69,480.76,480.83,480.89,480.91,480.96,481.00,481.02,481.08,481.10,481.15,481.19,481.22,481.27,481.30,481.34,481.41,481.48,481.50,481.54,481.60,481.62,481.68,481.75,481.79,481.82,481.89,481.96,482.00,482.02,482.09,482.17,482.20,482.23,482.30,482.38,482.45,482.50,482.52,482.60,482.67,482.74,482.79,482.81,482.88,482.95,483.03,483.11,483.26,483.42,483.57,483.74,483.96,484.13,484.24,484.35,484.50,484.66,484.82,484.94,485.00,485.00,485.00,485.00,485.00,485.00,485.00,485.00,485.00,485.00,485.00,485.00,485.00,485.00,485.00,485.00,485.00,485.00,484.98,484.96,484.84,484.70,484.58,484.49,484.64,484.84,484.98,484.99,485.00,485.00,485.00,485.00,485.00,485.00,485.00,485.00,485.00,485.00,485.00,485.00,485.00,485.00,485.00,485.00,485.00,485.00,485.00,485.00,485.00,484.99,484.95,485.03,485.13,485.22,485.35,485.45,485.56,485.66,485.59,485.46,485.30,485.17,485.07,484.95,484.91,484.90,484.90,484.89,484.89,484.89,484.90,484.90,484.91,484.91,484.94,484.99,485.00,485.05,485.09,485.10,485.11,485.17,485.19,485.23,485.29,485.29,485.30,485.34,485.40,485.40,485.47,485.50,485.50,485.50,485.58,485.60,485.60,485.61,485.68,485.64,485.60,485.60,485.60,485.59,485.54,485.50,485.50,485.50,485.50,485.49,485.48,485.48,485.43,485.41,485.41,485.41,485.41,485.45,485.48,485.48,485.48,485.49,485.50,485.51
479.10,479.10,479.10,479.13,479.17,479.17,479.19,479.20,479.22,479.26,479.29,479.30,479.28,479.25,479.20,479.12,479.08,479.03,478.96,478.91,478.84,478.84,478.90,478.91,478.97,479.05,479.13,479.20,479.28,479.36,479.44,479.51,479.59,479.67,479.75,479.82,479.89,479.90,479.90,479.90,479.90,479.90,479.90,479.90,479.90,479.90,479.90,479.90,479.90,479.90,479.90,479.90,479.90,479.90,479.90,479.90,479.93,479.97,479.97,480.03,480.08,480.12,480.17,480.25,480.33,480.38,480.41,480.46,480.53,480.58,480.62,480.67,480.75,480.82,480.88,480.91,480.95,480.99,481.03,481.07,481.10,481.14,481.18,481.22,481.26,481.29,481.34,481.40,481.46,481.50,481.54,481.58,481.61,481.66,481.69,481.76,481.82,481.88,481.95,481.99,482.03,482.07,482.11,482.18,482.23,482.29,482.37,482.44,482.49,482.52,482.58,482.65,482.74,482.78,482.81,482.87,482.94,483.02,483.10,483.19,483.34,483.49,483.65,483.81,483.99,484.15,484.28,484.40,484.51,484.67,484.82,484.94,485.00,485.00,485.00,485.00,485.00,485.00,485.00,485.00,485.00,485.00,485.00,485.00,485.00,485.00,485.00,485.00,485.00,485.00,485.00,485.00,484.95,484.90,484.82,484.68,484.64,484.69,484.80,484.93,484.99,485.00,485.00,485.00,485.00,485.00,485.00,485.00,485.00,485.00,485.00,485.00,485.00,485.00,485.00,485.00,485.00,485.00,485.00,485.00,485.01,485.07,485.18,485.25,485.34,485.46,485.57,485.69,485.78,485.79,485.67,485.56,485.43,485.28,485.16,485.05,484.95,484.90,484.90,484.90,484.90,484.90,484.90,484.91,484.95,484.97,485.00,485.06,485.06,485.09,485.13,485.16,485.17,485.24,485.26,485.29,485.36,485.37,485.37,485.40,485.46,485.47,485.53,485.56,485.56,485.57,485.64,485.67,485.67,485.67,485.69,485.68,485.67,485.67,485.66,485.62,485.58,485.56,485.56,485.56,485.56,485.56,485.56,485.56,485.54,485.52,485.52,485.52,485.52,485.54,485.56,485.56,485.56,485.56,485.56,485.58
479.11,479.12,479.13,479.16,479.20,479.20,479.20,479.22,479.25,479.30,479.30,479.30,479.30,479.28,479.22,479.15,479.11,479.07,478.99,478.94,478.87,478.86,478.90,478.91,478.97,479.05,479.13,479.20,479.28,479.36,479.44,479.51,479.59,479.67,479.75,479.82,479.89,479.90,479.90,479.90,479.90,479.90,479.90,479.90,479.90,479.90,479.90,479.90,479.90,479.90,479.90,479.90,479.90,479.90,479.90,479.92,479.96,480.00,480.03,480.09,480.11,480.15,480.23,480.29,480.36,480.41,480.44,480.52,480.58,480.61,480.65,480.73,480.80,480.87,480.91,480.94,480.99,481.02,481.06,481.11,481.13,481.18,481.21,481.25,481.30,481.33,481.39,481.45,481.50,481.53,481.58,481.61,481.65,481.69,481.72,481.78,481.85,481.91,481.99,482.02,482.06,482.11,482.13,482.20,482.28,482.35,482.41,482.48,482.51,482.56,482.64,482.69,482.77,482.81,482.85,482.93,483.00,483.07,483.15,483.25,483.38,483.53,483.69,483.84,484.00,484.15,484.30,484.43,484.52,484.67,484.82,484.94,485.00,485.00,485.00,485.00,485.00,485.00,485.00,485.00,485.00,485.00,485.00,485.00,485.00,485.00,485.00,485.00,485.00,485.00,485.00,485.00,485.00,485.00,484.98,484.87,484.75,484.69,484.72,484.86,484.93,484.98,485.00,485.00,485.00,485.00,485.01,485.02,485.02,485.02,485.02,485.02,485.02,485.02,485.02,485.02,485.02,485.02,485.02,485.02,485.05,485.17,485.39,485.47,485.54,485.69,485.79,485.92,485.96,485.89,485.76,485.66,485.54,485.40,485.25,485.15,485.02,484.94,484.90,484.90,484.90,484.91,484.93,484.94,485.00,485.02,485.06,485.12,485.13,485.13,485.17,485.22,485.23,485.30,485.32,485.35,485.40,485.42,485.43,485.47,485.52,485.53,485.57,485.61,485.63,485.64,485.70,485.72,485.72,485.72,485.72,485.72,485.72,485.72,485.70,485.65,485.63,485.63,485.63,485.63,485.63,485.63,485.63,485.63,485.63,485.63,485.63,485.63,485.63,485.63,485.63,485.63,485.63,485.63,485.63,485.65
479.12,479.18,479.19,479.19,479.20,479.20,479.20,479.25,479.29,479.30,479.31,479.31,479.31,479.30,479.28,479.21,479.14,479.07,479.01,478.99,478.93,478.89,478.90,478.91,478.97,479.05,479.13,479.20,479.28,479.36,479.44,479.51,479.59,479.67,479.75,479.83,479.89,479.90,479.90,479.90,479.90,479.90,479.90,479.90,479.90,479.90,479.90,479.90,479.90,479.90,479.90,479.90,479.90,479.90,479.91,479.96,479.99,480.02,480.08,480.10,480.15,480.22,480.28,480.30,480.37,480.44,480.51,480.58,480.60,480.65,480.72,480.79,480.87,480.90,480.93,480.99,481.01,481.06,481.09,481.12,481.18,481.20,481.25,481.29,481.31,481.38,481.45,481.49,481.52,481.58,481.60,481.64,481.69,481.72,481.77,481.85,481.89,481.92,482.00,482.06,482.09,482.12,482.19,482.26,482.34,482.39,482.42,482.49,482.55,482.63,482.69,482.71,482.77,482.84,482.91,482.99,483.07,483.10,483.16,483.29,483.39,483.53,483.69,483.84,484.00,484.15,484.30,484.43,484.52,484.67,484.82,484.94,485.00,485.00,485.00,485.00,485.00,485.00,485.00,485.00,485.00,485.00,485.00,485.00,485.00,485.00,485.00,485.00,485.00,485.00,485.00,485.00,485.00,485.00,485.00,484.98,484.96,484.91,484.86,484.82,484.82,484.92,485.00,485.00,485.00,485.00,485.04,485.09,485.09,485.09,485.09,485.09,485.09,485.09,485.09,485.09,485.09,485.09,485.09,485.09,485.14,485.29,485.52,485.64,485.74,485.89,486.03,486.13,486.10,485.98,485.88,485.75,485.64,485.53,485.38,485.23,485.13,485.02,484.91,484.91,484.91,484.94,485.00,485.00,485.07,485.10,485.12,485.18,485.19,485.19,485.24,485.29,485.30,485.36,485.39,485.40,485.42,485.48,485.50,485.52,485.59,485.60,485.60,485.64,485.69,485.70,485.76,485.79,485.79,485.79,485.79,485.79,485.79,485.77,485.72,485.70,485.69,485.69,485.69,485.69,485.69,485.69,485.69,485.69,485.69,485.69,485.69,485.69,485.69,485.69,485.69,485.70,485.70,485.70,485.70,485.72
