489.13,489.13,489.13,489.13,489.13,489.13,489.13,489.13,489.13,489.13,489.13,489.13,489.13,489.13,489.13,489.19,489.22,489.22,489.22,489.23,489.27,489.31,489.32,489.32,489.32,489.38,489.44,489.45,489.43,489.47,489.51,489.54,489.61,489.63,489.70,489.82,489.89,489.90,489.95,490.00,490.00,490.02,490.02,490.01,490.00,490.00,489.97,490.04,490.16,490.26,490.33,490.46,490.57,490.68,490.81,490.96,491.12,491.25,491.33,491.40,491.48,491.56,491.63,491.72,491.79,491.87,491.95,492.05,492.18,492.27,492.36,492.43,492.50,492.59,492.67,492.75,492.84,492.97,493.07,493.15,493.23,493.30,493.38,493.45,493.53,493.62,493.69,493.76,493.85,493.92,494.00,494.09,494.18,494.26,494.33,494.45,494.56,494.64,494.72,494.79,494.88,494.97,495.06,495.20,495.32,495.44,495.57,495.72,495.83,495.95,496.09,496.28,496.58,496.93,497.31,497.68,498.02,498.38,498.75,499.13,499.52,500.15,501.48,503.32,505.16,506.97,508.85,511.12,513.95,516.73,519.64,523.74,528.96,533.92,537.98,540.77,543.04,545.68,548.23,550.34,552.31,554.14,555.44,555.43,555.06,554.36,552.70,551.04,549.49,548.21,547.31,546.48,545.55,544.42,543.05,541.45,539.68,537.92,536.21,534.51,532.60,530.62,528.72,526.96,525.20,523.34,521.44,519.38,516.89,514.15,511.69,509.66,508.05,506.37,504.34,501.99,499.79,498.92,498.32,498.63,499.87,502.10,505.39,508.42,510.56,511.63,512.57,513.73,515.02,516.37,517.63,518.71,519.54,520.09,520.33,520.55,521.02,521.44,521.71,521.98,521.92,521.66,520.97,519.41,517.31,514.88,512.16,509.42,507.62,506.06,505.11,504.74,504.58,504.38,504.20,504.03,503.83,503.66,503.51,503.33,503.13,502.95,502.74,502.52,502.33,502.27,502.31,502.32,502.31,502.26,502.25,502.25,502.25,502.25,502.25,502.25,502.25,502.25,502.23,502.22,502.19,502.16,502.16,502.16,502.16,502.16,502.16,502.16,502.16,502.16,502.15,502.10,501.93,501.84,501.79,501.74
489.19,489.19,489.19,489.19,489.19,489.19,489.19,489.19,489.19,489.19,489.19,489.19,489.19,489.19,489.19,489.20,489.25,489.29,489.29,489.29,489.30,489.34,489.39,489.40,489.40,489.44,489.52,489.56,489.51,489.50,489.53,489.61,489.68,489.69,489.74,489.83,489.89,489.91,489.96,490.00,490.01,490.08,490.09,490.06,490.01,490.01,490.06,490.14,490.24,490.38,490.46,490.55,490.66,490.79,490.89,491.03,491.19,491.31,491.39,491.47,491.54,491.63,491.70,491.77,491.86,491.94,492.03,492.17,492.26,492.34,492.42,492.50,492.58,492.65,492.73,492.82,492.96,493.05,493.13,493.22,493.29,493.37,493.44,493.52,493.60,493.68,493.75,493.83,493.91,493.99,494.07,494.19,494.30,494.38,494.46,494.54,494.63,494.70,494.78,494.86,494.98,495.11,495.19,495.33,495.48,495.61,495.70,495.85,496.00,496.12,496.23,496.47,496.82,497.16,497.50,497.88,498.26,498.59,498.94,499.31,499.66,500.45,501.86,503.68,505.52,507.37,509.36,511.85,514.98,517.92,520.94,524.91,529.90,534.88,539.04,541.78,543.84,546.10,547.99,549.70,551.37,552.72,552.95,552.47,551.94,551.24,549.77,548.51,547.30,546.21,545.37,544.59,543.90,543.24,542.37,540.71,538.74,536.74,534.84,533.06,531.27,529.46,527.69,525.99,524.28,522.51,520.75,519.01,517.17,514.70,512.59,510.74,508.82,506.65,504.29,501.85,499.77,499.14,498.71,499.06,500.50,503.34,506.54,509.28,511.38,512.75,513.74,514.86,516.12,517.46,518.81,519.99,520.75,521.15,521.25,521.29,521.46,521.64,521.79,521.83,521.32,520.62,519.36,516.93,514.97,512.79,510.60,508.64,506.90,505.56,504.87,504.68,504.52,504.36,504.20,504.04,503.88,503.73,503.57,503.41,503.24,503.02,502.85,502.65,502.47,502.40,502.40,502.40,502.39,502.39,502.39,502.39,502.39,502.39,502.39,502.39,502.39,502.36,502.30,502.30,502.29,502.28,502.28,502.28,502.28,502.28,502.28,502.28,502.28,502.28,502.26,502.19,502.09,502.06,501.99,501.87
489.20,489.20,489.20,489.20,489.20,489.20,489.20,489.24,489.25,489.25,489.25,489.25,489.25,489.25,489.25,489.25,489.28,489.32,489.36,489.36,489.36,489.38,489.41,489.45,489.45,489.53,489.63,489.64,489.57,489.56,489.60,489.66,489.69,489.74,489.80,489.87,489.90,489.94,489.98,490.02,490.06,490.09,490.14,490.14,490.12,490.12,490.19,490.24,490.31,490.45,490.54,490.65,490.77,490.88,491.00,491.15,491.28,491.38,491.45,491.53,491.61,491.69,491.76,491.85,491.92,492.02,492.14,492.25,492.33,492.40,492.49,492.56,492.63,492.72,492.81,492.93,493.04,493.13,493.20,493.28,493.36,493.44,493.51,493.59,493.67,493.74,493.82,493.92,494.03,494.11,494.19,494.28,494.38,494.46,494.53,494.62,494.69,494.77,494.85,494.96,495.10,495.24,495.32,495.46,495.62,495.75,495.83,495.98,496.14,496.25,496.38,496.70,497.04,497.39,497.74,498.08,498.42,498.74,499.06,499.40,499.75,500.77,502.48,504.51,506.28,508.08,510.17,512.75,515.94,519.06,522.48,526.42,530.94,535.71,539.59,542.09,543.81,545.46,547.07,548.66,550.05,550.86,550.37,549.63,548.75,547.83,547.04,546.28,545.25,544.21,543.39,542.69,542.19,541.75,541.09,539.68,537.68,535.63,533.64,531.76,529.96,528.25,526.57,524.91,523.26,521.54,519.88,518.27,516.65,514.71,513.03,511.38,509.35,506.58,504.11,501.75,499.78,499.24,499.01,499.55,501.13,504.02,506.91,509.50,511.56,512.96,514.13,515.39,516.77,518.17,519.47,520.69,521.41,521.75,521.84,521.81,521.82,521.84,521.79,521.42,520.36,518.59,516.28,513.72,512.07,510.43,508.83,507.37,505.89,505.15,504.82,504.66,504.51,504.35,504.20,504.05,503.89,503.74,503.58,503.43,503.27,503.08,502.92,502.75,502.59,502.52,502.51,502.51,502.51,502.51,502.51,502.51,502.51,502.51,502.51,502.51,502.51,502.49,502.42,502.42,502.42,502.42,502.42,502.42,502.42,502.42,502.42,502.42,502.42,502.42,502.38,502.31,502.23,502.18,502.10,501.99
489.22,489.22,489.22,489.22,489.22,489.22,489.22,489.27,489.30,489.30,489.32,489.32,489.32,489.32,489.32,489.32,489.32,489.35,489.40,489.42,489.43,489.43,489.44,489.51,489.54,489.63,489.72,489.71,489.64,489.63,489.65,489.70,489.73,489.79,489.87,489.93,489.93,490.00,490.02,490.05,490.12,490.13,490.17,490.21,490.22,490.23,490.29,490.33,490.39,490.52,490.62,490.75,490.86,490.97,491.12,491.26,491.37,491.44,491.52,491.60,491.68,491.75,491.83,491.90,491.99,492.10,492.24,492.31,492.40,492.47,492.54,492.63,492.70,492.78,492.89,493.03,493.11,493.19,493.26,493.35,493.42,493.50,493.58,493.65,493.73,493.83,493.91,494.01,494.13,494.22,494.29,494.37,494.44,494.52,494.60,494.68,494.75,494.84,494.93,495.08,495.23,495.37,495.45,495.60,495.75,495.88,495.96,496.11,496.27,496.39,496.55,496.91,497.22,497.56,497.90,498.20,498.51,498.83,499.13,499.44,499.81,501.05,503.03,505.29,507.15,508.97,511.09,513.60,516.57,519.72,523.33,527.11,531.02,535.32,539.19,541.68,543.16,544.38,546.00,547.67,548.81,548.94,547.81,546.65,545.36,544.23,543.96,543.59,542.85,542.01,541.31,540.72,540.31,539.90,539.30,538.15,536.27,534.25,532.28,530.40,528.68,527.03,525.38,523.74,522.13,520.49,518.89,517.35,515.80,514.24,512.87,511.38,509.30,506.16,503.76,501.63,499.87,499.39,499.34,500.10,501.78,504.45,506.97,509.34,511.23,512.55,513.85,515.22,516.75,518.35,519.76,521.08,521.83,522.17,522.31,522.25,522.13,522.01,521.74,520.86,518.79,515.94,512.98,510.84,509.59,508.39,507.21,506.12,505.12,504.90,504.83,504.69,504.53,504.38,504.23,504.07,503.91,503.76,503.61,503.45,503.29,503.14,502.99,502.84,502.73,502.68,502.67,502.67,502.66,502.65,502.65,502.65,502.65,502.65,502.65,502.65,502.65,502.63,502.57,502.57,502.57,502.56,502.54,502.54,502.54,502.54,502.54,502.54,502.54,502.54,502.51,502.44,502.36,502.27,502.19,502.09
489.28,489.28,489.28,489.28,489.28,489.28,489.28,489.29,489.30,489.31,489.37,489.38,489.38,489.38,489.38,489.38,489.38,489.39,489.41,489.47,489.49,489.49,489.50,489.58,489.65,489.73,489.78,489.77,489.71,489.69,489.69,489.71,489.78,489.86,489.93,489.99,490.00,490.06,490.09,490.12,490.18,490.19,490.19,490.24,490.29,490.29,490.36,490.43,490.50,490.60,490.74,490.84,490.95,491.10,491.25,491.35,491.43,491.51,491.59,491.67,491.74,491.81,491.90,491.98,492.05,492.17,492.30,492.38,492.46,492.53,492.62,492.69,492.77,492.85,492.96,493.10,493.18,493.25,493.33,493.40,493.49,493.56,493.64,493.72,493.81,493.94,494.03,494.12,494.20,494.28,494.36,494.44,494.51,494.59,494.67,494.75,494.82,494.91,495.05,495.20,495.36,495.49,495.58,495.72,495.88,496.00,496.09,496.24,496.40,496.54,496.73,497.04,497.35,497.63,497.90,498.21,498.52,498.83,499.13,499.44,499.82,501.26,503.35,505.74,508.06,510.04,512.10,514.28,516.63,519.47,522.79,526.09,529.26,532.69,537.25,540.18,541.70,542.95,544.91,546.95,547.89,547.14,545.34,543.39,541.66,540.43,540.14,539.92,539.70,539.43,539.08,538.61,538.10,537.53,536.81,535.81,534.25,532.38,530.50,528.91,527.44,525.83,524.11,522.39,520.82,519.31,517.78,516.25,514.69,513.09,511.76,510.32,508.26,505.24,503.14,501.46,500.13,499.72,499.76,500.73,502.46,504.64,506.80,508.71,510.23,511.38,512.63,513.99,515.67,517.63,519.55,521.13,522.04,522.50,522.67,522.63,522.40,522.12,521.60,520.06,516.23,512.57,510.01,508.94,508.17,507.10,505.99,505.18,504.94,504.90,504.85,504.75,504.60,504.45,504.29,504.13,503.98,503.82,503.67,503.51,503.36,503.20,503.05,502.94,502.87,502.86,502.86,502.86,502.84,502.78,502.77,502.77,502.77,502.77,502.77,502.77,502.77,502.77,502.76,502.76,502.76,502.73,502.68,502.68,502.68,502.68,502.68,502.68,502.68,502.68,502.65,502.56,502.49,502.36,502.25,502.17
489.36,489.36,489.36,489.36,489.36,489.36,489.36,489.36,489.36,489.36,489.39,489.40,489.42,489.45,489.45,489.45,489.45,489.45,489.46,489.49,489.53,489.56,489.57,489.65,489.76,489.83,489.86,489.85,489.81,489.77,489.75,489.76,489.80,489.87,489.94,490.01,490.05,490.13,490.16,490.19,490.25,490.25,490.28,490.35,490.40,490.41,490.47,490.55,490.62,490.67,490.81,490.94,491.06,491.18,491.33,491.42,491.50,491.58,491.65,491.73,491.80,491.88,491.96,492.04,492.15,492.26,492.37,492.44,492.52,492.60,492.68,492.76,492.88,492.96,493.06,493.16,493.24,493.32,493.40,493.48,493.55,493.63,493.73,493.83,493.92,494.03,494.12,494.19,494.26,494.35,494.43,494.50,494.58,494.66,494.77,494.86,494.94,495.03,495.18,495.33,495.47,495.58,495.70,495.85,496.01,496.13,496.22,496.37,496.52,496.66,496.81,497.08,497.38,497.66,497.95,498.26,498.57,498.88,499.19,499.50,499.88,501.52,503.75,506.20,508.70,511.06,513.49,515.83,517.94,520.15,522.66,525.22,527.81,530.72,534.73,537.63,539.62,541.60,543.91,546.31,547.19,545.80,543.58,541.32,539.39,538.00,537.45,537.23,537.13,536.95,536.57,536.04,535.47,534.87,534.21,533.33,532.04,530.55,529.01,527.56,526.16,524.63,522.95,521.17,519.55,518.04,516.55,515.04,513.49,511.92,510.40,508.76,506.79,504.65,503.05,501.69,500.54,500.04,500.33,501.29,502.67,504.27,506.04,507.60,508.94,510.11,511.35,512.74,514.54,516.74,519.07,520.85,521.92,522.49,522.71,522.67,522.44,521.89,520.60,517.70,513.43,510.28,508.50,507.59,506.83,506.00,505.30,504.93,504.90,504.86,504.83,504.77,504.66,504.51,504.36,504.20,504.04,503.89,503.74,503.58,503.42,503.27,503.15,503.06,503.00,503.00,503.00,503.00,502.99,502.96,502.96,502.92,502.91,502.91,502.91,502.91,502.91,502.91,502.91,502.91,502.91,502.89,502.86,502.85,502.82,502.80,502.80,502.80,502.80,502.80,502.76,502.65,502.56,502.46,502.37,502.27
489.42,489.42,489.42,489.42,489.42,489.42,489.42,489.42,489.42,489.42,489.42,489.42,489.45,489.50,489.50,489.51,489.51,489.51,489.51,489.52,489.57,489.61,489.65,489.74,489.87,489.92,489.92,489.92,489.92,489.87,489.83,489.81,489.82,489.88,489.96,490.04,490.12,490.18,490.21,490.25,490.31,490.33,490.40,490.47,490.53,490.54,490.61,490.68,490.74,490.75,490.88,491.03,491.15,491.25,491.39,491.49,491.56,491.64,491.72,491.79,491.87,491.95,492.04,492.12,492.25,492.36,492.44,492.51,492.59,492.67,492.76,492.85,492.98,493.08,493.15,493.23,493.30,493.38,493.46,493.54,493.63,493.71,493.83,493.94,494.02,494.10,494.18,494.25,494.34,494.41,494.49,494.57,494.66,494.74,494.88,494.98,495.07,495.16,495.31,495.46,495.57,495.68,495.83,495.98,496.14,496.26,496.35,496.50,496.65,496.77,496.88,497.10,497.40,497.70,498.01,498.32,498.63,498.94,499.25,499.56,499.98,501.80,504.14,506.63,509.19,511.92,514.77,517.41,519.57,521.38,523.22,525.16,527.24,529.61,532.75,535.47,537.93,540.59,543.11,545.75,546.57,544.75,542.25,539.80,537.71,536.09,535.19,534.86,534.70,534.45,533.95,533.35,532.76,532.21,531.63,530.87,529.84,528.75,527.59,526.26,524.88,523.44,521.83,520.03,518.33,516.78,515.29,513.79,512.24,510.62,508.88,507.09,505.38,504.15,503.03,501.90,500.90,500.41,500.96,501.88,502.87,503.90,505.21,506.38,507.55,508.79,510.05,511.48,513.38,515.74,518.36,520.37,521.61,522.29,522.54,522.51,522.22,521.22,518.96,514.79,510.88,508.61,507.49,506.50,505.71,505.17,504.90,504.90,504.88,504.83,504.79,504.77,504.70,504.57,504.42,504.26,504.11,503.95,503.80,503.64,503.49,503.34,503.26,503.19,503.14,503.14,503.14,503.14,503.14,503.14,503.13,503.08,503.05,503.05,503.05,503.04,503.03,503.03,503.03,503.03,503.03,503.03,503.03,503.03,502.98,502.95,502.95,502.95,502.94,502.92,502.86,502.73,502.65,502.56,502.48,502.37
489.49,489.49,489.49,489.49,489.49,489.49,489.49,489.49,489.49,489.49,489.49,489.49,489.49,489.50,489.51,489.56,489.59,489.59,489.59,489.59,489.59,489.67,489.78,489.86,489.95,489.99,489.99,489.99,489.99,489.97,489.93,489.88,489.89,489.95,490.02,490.11,490.18,490.20,490.24,490.31,490.38,490.45,490.52,490.60,490.66,490.67,490.74,490.81,490.87,490.88,490.96,491.10,491.22,491.31,491.46,491.55,491.63,491.70,491.78,491.86,491.94,492.04,492.17,492.25,492.34,492.42,492.50,492.58,492.65,492.77,492.89,492.97,493.06,493.14,493.22,493.29,493.37,493.44,493.52,493.62,493.75,493.84,493.93,494.01,494.09,494.17,494.25,494.32,494.40,494.48,494.55,494.67,494.79,494.87,494.96,495.08,495.20,495.29,495.44,495.60,495.70,495.80,495.96,496.11,496.27,496.39,496.48,496.63,496.78,496.90,497.00,497.17,497.46,497.77,498.08,498.39,498.70,499.01,499.31,499.64,500.10,502.05,504.47,506.94,509.48,512.37,515.38,518.33,521.04,523.45,525.42,527.24,528.91,530.38,532.81,535.37,537.90,540.45,542.83,545.35,546.05,544.11,541.59,538.82,536.43,534.54,533.16,532.54,532.21,531.82,531.24,530.68,530.23,529.77,529.25,528.60,527.80,526.99,526.12,525.00,523.65,522.25,520.71,518.98,517.29,515.62,514.03,512.50,510.91,508.99,507.10,505.56,504.57,503.64,502.68,501.71,500.94,500.91,501.63,502.59,503.47,504.05,504.64,505.25,506.14,507.44,508.75,510.23,512.17,514.57,517.23,519.58,521.06,521.84,522.10,522.11,521.41,519.53,516.17,511.63,509.22,507.76,506.63,505.64,505.15,504.96,504.90,504.89,504.83,504.81,504.77,504.72,504.69,504.62,504.49,504.33,504.17,504.02,503.87,503.71,503.56,503.41,503.37,503.32,503.26,503.26,503.26,503.26,503.26,503.26,503.26,503.25,503.25,503.25,503.24,503.19,503.17,503.17,503.17,503.17,503.17,503.17,503.17,503.17,503.15,503.15,503.15,503.14,503.08,503.02,502.95,502.86,502.78,502.65,502.54,502.43
489.54,489.50,489.50,489.52,489.54,489.54,489.51,489.50,489.50,489.51,489.54,489.54,489.54,489.54,489.55,489.59,489.60,489.62,489.65,489.65,489.68,489.75,489.87,489.94,489.99,490.00,490.00,490.00,490.04,490.04,490.03,489.99,490.00,490.03,490.09,490.17,490.24,490.28,490.35,490.41,490.46,490.53,490.61,490.69,490.75,490.79,490.87,490.92,490.96,491.00,491.07,491.18,491.30,491.41,491.53,491.62,491.69,491.76,491.85,491.95,492.04,492.14,492.25,492.33,492.41,492.51,492.61,492.69,492.76,492.87,492.98,493.05,493.13,493.20,493.28,493.37,493.48,493.56,493.63,493.73,493.84,493.92,494.00,494.08,494.15,494.23,494.30,494.38,494.47,494.54,494.62,494.74,494.87,494.95,495.06,495.18,495.30,495.42,495.57,495.72,495.86,495.97,496.09,496.24,496.40,496.52,496.61,496.76,496.92,497.05,497.17,497.29,497.50,497.79,498.10,498.40,498.72,499.02,499.34,499.69,500.33,502.36,504.73,507.07,509.40,512.17,515.12,518.16,521.29,524.35,527.00,529.08,530.61,532.01,534.02,536.17,538.33,540.49,542.73,545.04,545.60,543.67,541.30,538.17,535.32,533.03,531.31,530.52,530.06,529.63,529.13,528.65,528.19,527.64,527.01,526.42,525.75,525.00,524.24,523.43,522.31,521.00,519.52,517.86,516.19,514.50,512.85,511.17,509.32,507.20,505.64,504.59,503.89,503.18,502.39,501.54,500.94,501.38,502.05,502.77,503.40,503.81,504.17,504.58,505.19,506.13,507.33,508.86,510.83,513.21,515.83,518.05,519.58,520.53,520.96,520.90,519.54,517.00,513.51,509.95,508.19,506.92,505.84,505.19,504.95,504.88,504.85,504.85,504.81,504.77,504.74,504.70,504.69,504.63,504.52,504.39,504.24,504.08,503.93,503.77,503.63,503.52,503.49,503.45,503.40,503.40,503.40,503.40,503.40,503.40,503.40,503.40,503.40,503.40,503.39,503.36,503.34,503.34,503.33,503.30,503.29,503.29,503.29,503.29,503.29,503.29,503.29,503.28,503.22,503.12,503.01,502.94,502.86,502.75,502.62,502.46
489.59,489.52,489.51,489.56,489.60,489.59,489.53,489.51,489.51,489.53,489.59,489.60,489.61,489.62,489.62,489.62,489.62,489.64,489.69,489.71,489.76,489.84,489.91,489.99,490.00,490.01,490.01,490.02,490.10,490.12,490.11,490.11,490.11,490.12,490.16,490.24,490.31,490.38,490.46,490.51,490.53,490.60,490.68,490.75,490.83,490.90,490.98,491.02,491.05,491.11,491.19,491.27,491.38,491.52,491.60,491.68,491.76,491.85,491.93,492.06,492.16,492.24,492.32,492.41,492.49,492.60,492.72,492.80,492.88,492.96,493.04,493.13,493.21,493.28,493.36,493.45,493.59,493.68,493.75,493.83,493.91,493.99,494.06,494.14,494.22,494.29,494.38,494.45,494.52,494.61,494.68,494.80,494.94,495.02,495.17,495.27,495.39,495.54,495.70,495.86,496.00,496.13,496.23,496.37,496.53,496.65,496.74,496.89,497.04,497.20,497.33,497.42,497.57,497.81,498.11,498.42,498.73,499.04,499.35,499.75,500.57,502.60,504.87,507.00,509.03,511.50,514.26,517.31,520.71,524.34,527.85,530.32,531.75,533.18,534.83,536.55,538.38,540.38,542.54,544.63,545.13,543.44,541.28,537.94,534.52,531.57,529.66,528.70,528.12,527.66,527.26,526.83,526.29,525.60,524.84,524.28,523.68,522.94,522.23,521.70,520.85,519.68,518.27,516.67,515.05,513.38,511.66,509.81,507.64,505.59,504.51,503.91,503.30,502.75,502.09,501.37,500.96,501.72,502.25,502.68,503.07,503.44,503.77,504.14,504.54,505.05,506.02,507.53,509.47,511.76,514.23,516.18,517.71,518.90,519.59,519.30,517.34,514.40,511.17,508.90,507.41,506.15,505.20,504.95,504.89,504.84,504.80,504.80,504.79,504.73,504.70,504.70,504.68,504.63,504.56,504.46,504.31,504.15,504.00,503.85,503.72,503.65,503.63,503.58,503.52,503.52,503.52,503.52,503.52,503.52,503.52,503.52,503.52,503.52,503.52,503.52,503.51,503.51,503.51,503.45,503.44,503.44,503.43,503.42,503.42,503.42,503.42,503.40,503.33,503.21,503.10,503.02,502.94,502.85,502.69,502.49
489.65,489.59,489.57,489.59,489.60,489.60,489.58,489.57,489.57,489.58,489.60,489.60,489.64,489.68,489.68,489.68,489.68,489.68,489.71,489.76,489.79,489.84,489.92,489.99,490.00,490.04,490.07,490.09,490.15,490.18,490.18,490.18,490.18,490.23,490.26,490.29,490.38,490.45,490.53,490.60,490.65,490.68,490.74,490.81,490.90,490.97,491.04,491.12,491.16,491.18,491.25,491.34,491.44,491.59,491.67,491.75,491.85,491.97,492.05,492.15,492.23,492.30,492.39,492.52,492.62,492.70,492.79,492.87,492.94,493.02,493.12,493.25,493.33,493.41,493.49,493.57,493.66,493.75,493.82,493.90,493.98,494.05,494.13,494.20,494.28,494.36,494.44,494.51,494.60,494.67,494.75,494.87,495.00,495.09,495.24,495.38,495.52,495.68,495.83,495.98,496.11,496.21,496.35,496.50,496.66,496.78,496.87,497.02,497.18,497.33,497.47,497.55,497.69,497.91,498.17,498.48,498.79,499.10,499.41,499.82,500.69,502.57,504.62,506.50,508.24,510.04,512.55,515.54,518.88,522.75,526.98,529.80,530.88,531.51,532.59,534.19,536.45,539.45,541.83,543.76,544.50,543.60,541.69,538.80,534.60,530.31,528.47,527.19,526.42,525.89,525.42,524.87,524.14,523.38,522.69,522.15,521.59,520.93,520.30,519.85,519.14,518.15,516.89,515.38,513.82,512.19,510.39,508.35,506.08,504.81,504.05,503.45,502.84,502.29,501.68,501.22,501.13,501.61,502.03,502.43,502.80,503.13,503.49,503.87,504.25,504.66,505.18,506.44,508.23,510.29,512.36,514.15,515.77,517.29,518.36,517.44,515.40,512.68,509.79,508.02,506.63,505.60,504.98,504.90,504.84,504.81,504.80,504.79,504.74,504.71,504.70,504.69,504.63,504.61,504.59,504.52,504.37,504.22,504.06,503.93,503.85,503.83,503.78,503.71,503.65,503.65,503.65,503.65,503.65,503.65,503.65,503.65,503.65,503.65,503.65,503.65,503.65,503.65,503.65,503.64,503.63,503.63,503.62,503.56,503.55,503.55,503.54,503.47,503.40,503.31,503.22,503.15,503.06,502.94,502.76,502.56
489.69,489.65,489.64,489.64,489.64,489.64,489.64,489.64,489.64,489.64,489.64,489.64,489.67,489.70,489.70,489.73,489.74,489.74,489.75,489.79,489.80,489.84,489.92,489.99,490.03,490.09,490.15,490.19,490.23,490.24,490.26,490.28,490.28,490.32,490.36,490.40,490.44,490.51,490.60,490.67,490.74,490.77,490.85,490.92,490.99,491.04,491.12,491.19,491.25,491.29,491.36,491.44,491.54,491.66,491.76,491.85,491.95,492.06,492.14,492.22,492.31,492.41,492.50,492.62,492.70,492.78,492.86,492.97,493.05,493.13,493.22,493.34,493.42,493.50,493.58,493.65,493.73,493.80,493.88,493.96,494.04,494.12,494.19,494.27,494.35,494.43,494.50,494.58,494.65,494.74,494.81,494.94,495.08,495.19,495.34,495.50,495.65,495.80,495.92,496.07,496.20,496.32,496.48,496.63,496.76,496.88,497.00,497.15,497.30,497.46,497.60,497.68,497.82,498.00,498.24,498.54,498.82,499.13,499.44,499.82,500.55,502.20,504.02,505.74,507.31,508.78,510.83,513.58,516.96,520.38,523.91,526.59,528.10,528.82,530.00,532.04,534.95,538.55,541.12,542.97,543.93,543.63,541.97,539.69,535.60,530.91,528.72,527.26,526.03,524.85,523.75,522.88,522.03,521.33,520.81,520.33,519.85,519.23,518.59,518.10,517.44,516.54,515.40,514.01,512.52,510.83,508.88,506.83,505.17,504.39,503.80,503.19,502.59,502.04,501.49,501.19,501.26,501.60,501.98,502.37,502.74,503.08,503.44,503.81,504.20,504.56,504.84,505.56,507.06,509.05,510.78,512.44,514.09,515.79,517.09,515.93,513.83,511.38,509.00,507.45,506.02,505.19,504.90,504.89,504.82,504.80,504.79,504.75,504.71,504.70,504.69,504.65,504.60,504.57,504.56,504.53,504.43,504.28,504.15,504.04,503.98,503.98,503.92,503.84,503.78,503.78,503.78,503.78,503.78,503.78,503.78,503.78,503.78,503.78,503.78,503.78,503.78,503.78,503.78,503.78,503.78,503.78,503.77,503.73,503.72,503.71,503.66,503.58,503.50,503.41,503.31,503.24,503.15,503.01,502.86,502.70
489.71,489.70,489.70,489.70,489.70,489.70,489.70,489.70,489.70,489.70,489.70,489.70,489.71,489.71,489.72,489.78,489.80,489.81,489.81,489.81,489.81,489.85,489.92,490.00,490.08,490.15,490.23,490.29,490.31,490.31,490.35,490.40,490.40,490.41,490.45,490.50,490.52,490.60,490.67,490.74,490.81,490.89,490.96,491.04,491.10,491.12,491.19,491.26,491.33,491.40,491.48,491.57,491.65,491.74,491.88,491.97,492.05,492.14,492.21,492.29,492.41,492.53,492.61,492.69,492.77,492.86,492.95,493.08,493.17,493.25,493.33,493.41,493.49,493.56,493.64,493.72,493.79,493.88,493.96,494.04,494.12,494.19,494.26,494.34,494.42,494.49,494.56,494.65,494.73,494.81,494.89,495.01,495.17,495.32,495.47,495.62,495.77,495.91,496.01,496.15,496.30,496.45,496.60,496.75,496.86,496.97,497.13,497.28,497.43,497.58,497.71,497.81,497.95,498.11,498.31,498.59,498.82,499.11,499.41,499.75,500.25,501.61,503.20,504.81,506.34,507.74,509.33,511.71,515.07,517.75,520.06,522.47,524.82,526.29,527.96,530.60,534.08,537.88,540.55,542.34,543.41,543.50,542.08,540.40,537.01,532.70,529.95,528.30,526.53,524.52,522.56,521.21,520.17,519.50,519.15,518.75,518.33,517.71,517.01,516.44,515.75,514.89,513.83,512.57,511.16,509.37,507.31,505.45,504.67,504.14,503.63,503.07,502.46,501.90,501.46,501.27,501.40,501.68,502.05,502.43,502.82,503.19,503.52,503.89,504.27,504.59,504.76,504.91,506.06,507.95,509.44,510.96,512.61,514.39,515.81,514.74,512.62,510.46,508.61,507.12,505.61,504.94,504.90,504.89,504.82,504.80,504.77,504.71,504.70,504.70,504.66,504.61,504.59,504.54,504.51,504.50,504.47,504.35,504.25,504.18,504.13,504.11,504.04,503.97,503.92,503.91,503.91,503.91,503.91,503.91,503.91,503.91,503.91,503.91,503.92,503.93,503.92,503.91,503.91,503.91,503.91,503.91,503.91,503.91,503.91,503.86,503.78,503.70,503.63,503.50,503.38,503.30,503.23,503.10,502.99,502.88
489.77,489.77,489.77,489.77,489.77,489.77,489.77,489.77,489.77,489.76,489.72,489.75,489.77,489.77,489.77,489.79,489.84,489.87,489.87,489.87,489.87,489.88,489.92,490.00,490.12,490.22,490.29,490.36,490.37,490.41,490.45,490.47,490.47,490.52,490.55,490.59,490.65,490.72,490.79,490.85,490.88,490.95,491.03,491.11,491.18,491.24,491.31,491.36,491.40,491.48,491.55,491.67,491.77,491.86,491.95,492.03,492.14,492.26,492.34,492.42,492.51,492.60,492.68,492.75,492.88,492.98,493.06,493.16,493.24,493.32,493.40,493.48,493.55,493.63,493.70,493.78,493.86,493.99,494.08,494.16,494.24,494.26,494.33,494.40,494.48,494.55,494.63,494.71,494.80,494.93,495.01,495.14,495.29,495.44,495.60,495.72,495.84,495.99,496.12,496.27,496.43,496.57,496.67,496.82,496.96,497.10,497.25,497.41,497.52,497.65,497.80,497.93,498.08,498.24,498.41,498.60,498.78,499.01,499.29,499.60,499.94,500.95,502.32,503.85,505.45,507.03,508.72,510.78,513.37,515.83,518.27,521.02,524.00,526.67,528.86,531.47,534.65,538.12,540.51,542.09,543.01,543.06,541.83,540.42,538.02,534.82,531.84,529.66,527.54,525.33,523.09,520.99,519.22,518.19,517.81,517.36,516.88,516.22,515.48,514.82,514.08,513.20,512.22,511.07,509.64,507.89,506.19,504.85,504.35,503.88,503.44,502.94,502.33,501.73,501.52,501.51,501.62,501.83,502.14,502.50,502.88,503.27,503.63,504.01,504.33,504.54,504.70,504.80,505.54,506.89,508.26,509.68,511.32,513.15,514.69,514.05,512.18,510.25,508.63,507.15,505.66,504.98,504.90,504.89,504.82,504.80,504.77,504.70,504.70,504.70,504.66,504.60,504.60,504.58,504.54,504.50,504.49,504.45,504.38,504.33,504.30,504.25,504.18,504.13,504.10,504.05,504.04,504.04,504.04,504.04,504.04,504.04,504.04,504.05,504.10,504.11,504.08,504.04,504.04,504.04,504.04,504.04,504.04,504.04,504.04,503.97,503.85,503.77,503.70,503.60,503.49,503.38,503.34,503.26,503.17,503.08
489.84,489.84,489.84,489.84,489.84,489.84,489.84,489.84,489.82,489.79,489.75,489.78,489.80,489.80,489.80,489.83,489.87,489.91,489.94,489.94,489.95,489.97,489.98,490.04,490.15,490.27,490.37,490.43,490.46,490.51,490.53,490.54,490.57,490.62,490.65,490.68,490.74,490.81,490.89,490.95,490.99,491.05,491.11,491.18,491.25,491.33,491.40,491.45,491.50,491.57,491.65,491.77,491.87,491.94,492.03,492.13,492.24,492.36,492.44,492.51,492.61,492.70,492.78,492.86,492.98,493.08,493.15,493.23,493.30,493.38,493.46,493.54,493.62,493.71,493.80,493.88,493.96,494.08,494.18,494.25,494.33,494.36,494.43,494.50,494.57,494.63,494.72,494.81,494.90,495.02,495.13,495.27,495.41,495.54,495.69,495.81,495.94,496.09,496.25,496.38,496.52,496.66,496.77,496.92,497.07,497.22,497.35,497.50,497.62,497.75,497.90,498.06,498.21,498.37,498.51,498.64,498.79,499.00,499.25,499.50,499.76,500.47,501.72,503.33,505.04,506.81,508.61,510.73,513.36,515.85,518.57,521.63,524.97,528.15,530.51,532.94,535.77,538.83,540.65,541.95,542.65,542.49,541.42,540.06,537.95,535.25,532.57,530.31,528.13,525.88,523.52,521.23,519.16,517.64,516.72,516.01,515.39,514.69,513.93,513.20,512.41,511.56,510.66,509.68,508.40,506.71,505.34,504.50,504.07,503.62,503.21,502.76,502.21,501.75,501.70,501.77,501.87,502.00,502.25,502.58,502.95,503.34,503.72,504.07,504.33,504.49,504.63,504.73,505.14,505.98,507.24,508.61,510.18,511.89,513.40,513.53,512.06,510.31,508.75,507.26,505.88,505.13,504.90,504.89,504.82,504.80,504.78,504.74,504.74,504.71,504.67,504.63,504.63,504.61,504.57,504.53,504.53,504.53,504.50,504.47,504.45,504.38,504.31,504.27,504.25,504.18,504.17,504.17,504.17,504.17,504.17,504.19,504.21,504.22,504.26,504.27,504.24,504.21,504.21,504.21,504.18,504.17,504.17,504.17,504.15,504.06,503.95,503.87,503.77,503.66,503.55,503.44,503.44,503.39,503.33,503.24
489.91,489.91,489.91,489.91,489.90,489.89,489.89,489.89,489.86,489.81,489.81,489.81,489.81,489.81,489.82,489.87,489.90,489.93,489.99,490.00,490.06,490.10,490.10,490.12,490.19,490.31,490.43,490.50,490.58,490.60,490.61,490.62,490.68,490.70,490.75,490.79,490.81,490.89,490.96,491.03,491.10,491.18,491.20,491.25,491.32,491.40,491.48,491.54,491.62,491.69,491.78,491.86,491.94,492.02,492.10,492.23,492.34,492.42,492.50,492.59,492.71,492.82,492.90,492.98,493.06,493.14,493.22,493.29,493.37,493.45,493.53,493.61,493.69,493.81,493.93,494.00,494.08,494.16,494.25,494.32,494.40,494.47,494.54,494.63,494.69,494.71,494.82,494.93,495.01,495.11,495.25,495.39,495.52,495.62,495.76,495.92,496.06,496.21,496.37,496.47,496.60,496.75,496.89,497.04,497.19,497.32,497.43,497.57,497.73,497.88,498.03,498.18,498.34,498.49,498.62,498.72,498.87,499.07,499.28,499.46,499.70,500.24,501.47,503.24,505.08,506.97,508.87,511.34,514.67,517.42,520.41,523.72,527.17,530.22,532.46,534.70,537.21,539.78,540.88,541.86,542.30,541.85,540.90,539.31,536.85,534.07,532.06,530.13,528.17,526.06,523.80,521.80,519.83,517.86,516.06,514.83,513.96,513.18,512.39,511.62,510.81,510.00,509.21,508.38,507.40,505.82,504.75,504.29,503.84,503.38,502.96,502.55,502.14,501.94,501.96,502.03,502.12,502.21,502.41,502.69,503.02,503.41,503.78,504.06,504.26,504.42,504.57,504.67,504.82,505.25,506.36,507.69,509.14,510.60,511.95,512.98,512.07,510.50,508.92,507.43,506.18,505.33,504.90,504.89,504.83,504.80,504.80,504.79,504.79,504.74,504.71,504.70,504.69,504.63,504.61,504.60,504.60,504.60,504.60,504.60,504.58,504.51,504.43,504.40,504.38,504.31,504.30,504.30,504.30,504.30,504.31,504.36,504.39,504.39,504.40,504.40,504.40,504.39,504.39,504.39,504.35,504.31,504.31,504.30,504.24,504.15,504.07,503.98,503.84,503.70,503.58,503.51,503.50,503.50,503.47,503.39
490.09,490.04,490.08,490.06,490.00,489.91,489.90,489.90,489.89,489.87,489.87,489.87,489.87,489.87,489.87,489.89,489.90,489.93,490.00,490.05,490.13,490.19,490.23,490.24,490.30,490.39,490.49,490.57,490.65,490.70,490.73,490.74,490.76,490.81,490.85,490.88,490.94,491.00,491.05,491.10,491.18,491.25,491.31,491.37,491.45,491.52,491.55,491.62,491.69,491.77,491.90,491.99,492.06,492.14,492.22,492.32,492.41,492.50,492.62,492.70,492.80,492.90,492.98,493.05,493.13,493.20,493.28,493.36,493.44,493.54,493.66,493.73,493.81,493.91,494.00,494.08,494.15,494.23,494.31,494.38,494.47,494.54,494.62,494.69,494.77,494.82,494.91,495.00,495.10,495.22,495.37,495.50,495.61,495.74,495.89,496.04,496.18,496.29,496.44,496.58,496.72,496.87,497.02,497.13,497.27,497.41,497.54,497.70,497.85,498.01,498.16,498.31,498.42,498.56,498.70,498.83,498.99,499.16,499.35,499.55,499.77,500.48,501.80,503.55,505.36,507.23,509.30,512.03,515.64,518.82,522.15,525.67,529.10,531.76,534.10,536.42,538.61,540.24,541.04,541.61,541.73,541.22,540.31,537.75,534.74,532.03,530.18,528.64,527.33,526.05,524.60,522.76,520.98,519.06,516.93,514.68,513.03,511.91,511.07,510.30,509.60,508.81,507.99,507.16,506.33,505.28,504.54,504.11,503.69,503.23,502.79,502.41,502.19,502.17,502.22,502.29,502.38,502.46,502.57,502.81,503.14,503.52,503.82,504.03,504.20,504.36,504.50,504.60,504.72,504.94,505.49,506.73,508.08,509.37,510.58,511.70,511.50,510.48,509.04,507.70,506.51,505.52,504.90,504.90,504.87,504.83,504.80,504.80,504.80,504.78,504.76,504.75,504.70,504.67,504.67,504.67,504.67,504.67,504.67,504.67,504.66,504.63,504.56,504.53,504.51,504.44,504.43,504.43,504.43,504.44,504.49,504.52,504.53,504.53,504.53,504.53,504.53,504.53,504.53,504.53,504.51,504.50,504.49,504.43,504.32,504.22,504.13,504.00,503.85,503.73,503.63,503.58,503.62,503.63,503.62,503.58
490.31,490.26,490.26,490.18,490.04,489.91,489.90,489.90,489.90,489.90,489.90,489.90,489.90,489.90,489.90,489.90,489.92,489.95,490.01,490.09,490.16,490.24,490.31,490.34,490.42,490.50,490.55,490.63,490.71,490.79,490.83,490.84,490.86,490.91,490.94,490.98,491.05,491.11,491.15,491.19,491.26,491.32,491.40,491.47,491.54,491.62,491.65,491.71,491.78,491.87,492.00,492.09,492.17,492.25,492.35,492.43,492.50,492.60,492.72,492.80,492.88,492.96,493.03,493.12,493.19,493.28,493.38,493.45,493.53,493.64,493.75,493.84,493.91,493.99,494.06,494.14,494.22,494.29,494.38,494.45,494.52,494.61,494.69,494.76,494.84,494.92,494.99,495.08,495.19,495.35,495.50,495.61,495.71,495.87,496.02,496.16,496.27,496.39,496.54,496.69,496.85,496.99,497.12,497.23,497.36,497.52,497.67,497.83,497.98,498.12,498.26,498.41,498.52,498.65,498.81,498.96,499.12,499.27,499.45,499.65,499.91,500.91,502.39,504.11,505.86,507.60,509.78,512.73,516.54,520.13,523.72,527.28,530.54,532.89,535.22,537.52,539.43,540.44,541.03,541.26,541.14,540.51,539.00,535.58,532.23,529.60,527.72,526.31,525.38,524.69,524.01,522.77,521.42,519.76,517.59,514.75,512.44,511.00,510.10,509.34,508.66,507.90,507.09,506.27,505.52,504.89,504.38,503.94,503.53,503.09,502.68,502.40,502.34,502.41,502.47,502.55,502.63,502.71,502.78,502.96,503.24,503.58,503.81,503.98,504.12,504.26,504.41,504.52,504.64,504.76,504.95,505.85,507.02,508.25,509.43,510.47,510.70,510.15,509.02,507.93,506.83,505.78,505.02,504.91,504.90,504.86,504.83,504.83,504.83,504.83,504.82,504.79,504.74,504.73,504.73,504.73,504.73,504.73,504.73,504.73,504.73,504.73,504.68,504.66,504.64,504.57,504.56,504.56,504.57,504.60,504.65,504.66,504.66,504.66,504.66,504.66,504.66,504.66,504.66,504.66,504.66,504.65,504.61,504.54,504.39,504.27,504.16,504.03,503.88,503.77,503.71,503.68,503.72,503.73,503.73,503.72
490.57,490.55,490.44,490.25,490.06,489.93,489.91,489.90,489.90,489.90,489.90,489.91,489.91,489.91,489.91,489.91,489.96,490.00,490.02,490.10,490.16,490.25,490.32,490.40,490.52,490.59,490.62,490.70,490.77,490.86,490.90,490.91,490.97,491.00,491.04,491.11,491.18,491.20,491.25,491.31,491.38,491.40,491.46,491.54,491.61,491.69,491.76,491.84,491.91,491.99,492.08,492.16,492.24,492.32,492.46,492.55,492.63,492.71,492.79,492.87,492.94,493.03,493.11,493.19,493.26,493.37,493.50,493.58,493.66,493.74,493.82,493.90,493.98,494.05,494.13,494.21,494.29,494.37,494.44,494.52,494.60,494.67,494.75,494.83,494.90,494.98,495.05,495.17,495.31,495.47,495.63,495.74,495.84,495.99,496.14,496.25,496.36,496.51,496.67,496.82,496.97,497.11,497.20,497.34,497.49,497.65,497.80,497.95,498.11,498.23,498.33,498.49,498.63,498.78,498.94,499.09,499.25,499.40,499.56,499.75,500.13,501.47,503.12,504.81,506.50,508.03,510.26,513.39,517.39,521.28,525.02,528.43,531.36,533.55,535.73,537.83,539.52,540.38,540.79,540.80,540.54,539.59,536.81,532.90,529.50,526.90,524.82,523.28,522.34,521.84,521.69,521.48,520.78,519.51,517.56,514.80,512.13,510.47,509.54,508.77,508.01,507.29,506.54,505.78,505.09,504.62,504.21,503.80,503.36,502.96,502.66,502.52,502.58,502.66,502.73,502.81,502.89,502.96,503.04,503.14,503.30,503.58,503.76,503.92,504.04,504.14,504.29,504.44,504.55,504.65,504.82,505.14,506.06,507.31,508.54,509.49,509.75,509.49,508.84,508.02,507.12,506.12,505.27,504.95,504.90,504.89,504.89,504.89,504.89,504.89,504.86,504.80,504.79,504.79,504.79,504.79,504.79,504.79,504.79,504.79,504.79,504.79,504.79,504.78,504.76,504.70,504.69,504.70,504.72,504.77,504.79,504.79,504.79,504.79,504.79,504.79,504.79,504.79,504.79,504.79,504.79,504.75,504.68,504.60,504.46,504.31,504.18,504.08,503.94,503.84,503.79,503.78,503.80,503.80,503.80,503.80
490.77,490.71,490.57,490.37,490.17,490.03,490.02,489.95,489.90,489.90,489.90,489.94,489.96,489.97,490.01,490.02,490.04,490.06,490.07,490.15,490.23,490.30,490.38,490.46,490.56,490.63,490.69,490.76,490.84,490.92,490.98,491.02,491.06,491.10,491.14,491.18,491.25,491.30,491.34,491.39,491.46,491.51,491.58,491.64,491.68,491.75,491.83,491.91,492.00,492.12,492.20,492.28,492.36,492.44,492.54,492.63,492.73,492.83,492.86,492.94,493.01,493.11,493.22,493.30,493.38,493.48,493.58,493.65,493.73,493.80,493.88,493.97,494.04,494.12,494.22,494.33,494.41,494.49,494.56,494.64,494.71,494.75,494.81,494.89,494.97,495.04,495.12,495.21,495.35,495.54,495.70,495.83,495.97,496.12,496.23,496.35,496.49,496.64,496.79,496.91,497.04,497.19,497.32,497.47,497.62,497.78,497.93,498.04,498.18,498.32,498.45,498.61,498.76,498.91,499.07,499.22,499.38,499.53,499.69,499.93,500.57,501.88,503.42,505.03,506.62,508.11,510.35,513.62,517.89,521.91,525.68,528.95,531.58,533.59,535.64,537.59,539.12,539.80,540.16,540.17,539.51,537.73,534.41,530.55,527.14,524.32,521.96,520.50,519.66,519.27,519.24,519.23,518.75,517.74,516.15,513.99,511.69,510.14,509.18,508.45,507.68,506.93,506.18,505.45,504.88,504.46,504.07,503.68,503.27,502.92,502.74,502.71,502.78,502.86,502.94,503.01,503.09,503.17,503.25,503.32,503.43,503.59,503.71,503.85,503.99,504.12,504.27,504.39,504.50,504.63,504.79,504.93,505.78,507.01,508.13,508.75,508.91,508.76,508.34,507.72,507.03,506.27,505.52,504.98,504.90,504.90,504.90,504.90,504.90,504.90,504.88,504.86,504.86,504.86,504.86,504.86,504.86,504.86,504.86,504.86,504.86,504.86,504.86,504.86,504.85,504.83,504.82,504.85,504.89,504.92,504.92,504.92,504.92,504.92,504.92,504.92,504.92,504.92,504.92,504.92,504.88,504.82,504.74,504.61,504.47,504.34,504.23,504.11,503.99,503.90,503.86,503.87,503.91,503.92,503.92,503.92
490.93,490.85,490.70,490.50,490.30,490.18,490.15,490.03,489.95,489.95,489.95,490.00,490.03,490.06,490.12,490.13,490.13,490.15,490.16,490.24,490.31,490.39,490.46,490.52,490.60,490.68,490.75,490.83,490.90,490.99,491.06,491.12,491.15,491.20,491.24,491.27,491.35,491.41,491.44,491.47,491.53,491.61,491.69,491.73,491.77,491.84,491.92,492.00,492.09,492.22,492.30,492.38,492.46,492.54,492.63,492.72,492.82,492.93,492.95,493.02,493.10,493.20,493.33,493.41,493.49,493.56,493.64,493.72,493.79,493.88,493.95,494.05,494.13,494.20,494.31,494.43,494.51,494.59,494.67,494.75,494.82,494.84,494.90,494.98,495.05,495.11,495.19,495.26,495.37,495.58,495.74,495.91,496.08,496.22,496.32,496.46,496.61,496.75,496.90,497.01,497.13,497.29,497.44,497.60,497.74,497.88,498.03,498.13,498.27,498.43,498.58,498.74,498.89,499.04,499.20,499.35,499.51,499.66,499.84,500.19,501.12,502.35,503.73,505.17,506.64,508.11,510.35,513.71,518.22,522.33,526.15,529.32,531.71,533.57,535.49,537.20,538.45,538.96,539.30,539.24,538.17,535.70,532.33,528.56,524.98,521.85,519.45,518.06,517.23,516.80,516.73,516.68,516.31,515.47,514.17,512.59,510.96,509.73,508.85,508.17,507.42,506.65,505.88,505.17,504.72,504.36,504.00,503.61,503.24,502.96,502.86,502.87,502.93,503.00,503.09,503.16,503.24,503.31,503.40,503.47,503.54,503.63,503.70,503.82,503.97,504.12,504.27,504.36,504.48,504.63,504.79,504.93,505.72,506.83,507.73,508.06,508.12,508.01,507.73,507.20,506.66,506.13,505.58,505.02,504.93,504.93,504.93,504.93,504.93,504.94,504.95,504.95,504.95,504.95,504.95,504.95,504.95,504.95,504.95,504.95,504.95,504.95,504.95,504.95,504.95,504.95,504.95,504.99,505.02,505.02,505.02,505.02,505.02,505.02,505.02,505.00,505.00,505.00,505.00,505.00,504.95,504.88,504.77,504.62,504.48,504.37,504.26,504.13,504.03,503.96,503.93,503.96,504.01,504.02,504.02,504.02
491.06,490.98,490.83,490.63,490.45,490.37,490.29,490.16,490.08,490.08,490.08,490.09,490.13,490.18,490.19,490.19,490.24,490.28,490.29,490.36,490.44,490.52,490.58,490.60,490.66,490.74,490.82,490.90,490.97,491.05,491.13,491.20,491.26,491.29,491.33,491.40,491.47,491.49,491.54,491.58,491.61,491.68,491.75,491.83,491.89,491.97,492.05,492.13,492.21,492.29,492.37,492.45,492.53,492.62,492.75,492.85,492.93,493.01,493.08,493.16,493.23,493.31,493.40,493.48,493.55,493.63,493.71,493.79,493.86,493.94,494.04,494.17,494.26,494.33,494.42,494.50,494.58,494.65,494.74,494.81,494.88,494.95,495.03,495.11,495.17,495.19,495.25,495.33,495.43,495.59,495.75,495.94,496.13,496.29,496.44,496.59,496.71,496.81,496.97,497.11,497.26,497.42,497.57,497.73,497.84,497.95,498.11,498.25,498.40,498.55,498.71,498.86,499.02,499.17,499.33,499.48,499.64,499.79,500.04,500.55,501.68,502.96,504.18,505.37,506.67,508.11,510.35,513.75,518.38,522.64,526.58,529.69,531.91,533.70,535.42,536.70,537.51,537.86,538.18,537.88,536.46,533.79,530.85,527.01,523.02,519.53,517.50,516.08,515.06,514.40,514.14,514.00,513.71,512.99,511.82,510.60,509.82,509.14,508.48,507.84,507.14,506.39,505.62,504.94,504.58,504.31,503.99,503.61,503.25,503.10,503.02,502.99,503.01,503.07,503.15,503.23,503.30,503.38,503.45,503.53,503.62,503.69,503.77,503.85,503.97,504.12,504.27,504.36,504.48,504.63,504.80,505.05,505.77,506.61,507.16,507.38,507.37,507.25,507.02,506.50,505.97,505.59,505.32,505.10,505.01,504.99,505.00,505.00,505.00,505.04,505.08,505.08,505.08,505.08,505.08,505.08,505.08,505.08,505.08,505.08,505.08,505.08,505.08,505.08,505.08,505.08,505.08,505.09,505.09,505.09,505.09,505.09,505.09,505.09,505.08,505.02,505.00,505.00,505.00,505.00,504.99,504.92,504.77,504.63,504.52,504.40,504.28,504.18,504.05,504.00,504.02,504.07,504.09,504.09,504.09,504.09
491.23,491.11,490.92,490.73,490.60,490.55,490.44,490.32,490.22,490.16,490.16,490.19,490.23,490.26,490.30,490.31,490.33,490.37,490.41,490.45,490.51,490.60,490.67,490.71,490.78,490.86,490.94,491.01,491.09,491.13,491.19,491.26,491.34,491.39,491.45,491.52,491.55,491.60,491.63,491.67,491.72,491.79,491.84,491.90,491.97,492.05,492.13,492.23,492.33,492.41,492.49,492.56,492.64,492.73,492.84,492.96,493.05,493.13,493.20,493.28,493.33,493.38,493.47,493.58,493.67,493.75,493.82,493.90,493.98,494.05,494.15,494.25,494.34,494.41,494.49,494.56,494.65,494.72,494.79,494.88,494.95,495.03,495.11,495.19,495.26,495.30,495.37,495.44,495.53,495.65,495.79,495.97,496.15,496.31,496.50,496.67,496.81,496.93,497.08,497.24,497.40,497.54,497.65,497.80,497.94,498.07,498.22,498.38,498.53,498.69,498.84,498.99,499.15,499.30,499.46,499.61,499.76,499.98,500.30,500.81,501.62,502.73,503.98,505.27,506.61,508.06,510.35,513.85,518.66,523.34,527.51,530.50,532.35,533.95,534.99,535.56,535.91,536.31,536.69,536.48,535.12,532.47,529.43,525.27,521.23,517.90,515.72,514.09,512.91,512.09,511.68,511.57,511.42,511.02,510.39,509.72,509.25,508.76,508.18,507.52,506.83,506.11,505.41,504.83,504.50,504.22,503.90,503.57,503.30,503.22,503.19,503.16,503.16,503.16,503.22,503.29,503.37,503.44,503.52,503.60,503.68,503.76,503.87,503.93,504.00,504.12,504.23,504.35,504.48,504.63,504.79,504.97,505.45,506.05,506.52,506.64,506.60,506.52,506.40,506.12,505.79,505.54,505.36,505.22,505.13,505.14,505.16,505.16,505.16,505.19,505.21,505.21,505.21,505.21,505.21,505.21,505.21,505.21,505.21,505.21,505.21,505.21,505.21,505.21,505.21,505.21,505.21,505.21,505.21,505.21,505.21,505.21,505.19,505.14,505.10,505.03,505.00,505.00,505.00,505.00,505.00,504.93,504.78,504.67,504.55,504.44,504.32,504.21,504.13,504.11,504.12,504.15,504.16,504.16,504.18,504.21
491.40,491.23,491.01,490.85,490.75,490.72,490.59,490.49,490.37,490.25,490.24,490.29,490.33,490.36,490.41,490.42,490.43,490.46,490.51,490.53,490.59,490.66,490.74,490.81,490.89,490.97,491.04,491.13,491.20,491.23,491.27,491.35,491.43,491.50,491.57,491.62,491.64,491.70,491.73,491.77,491.84,491.91,491.93,491.98,492.05,492.13,492.21,492.32,492.44,492.52,492.60,492.68,492.76,492.85,492.93,493.06,493.17,493.24,493.33,493.42,493.44,493.47,493.55,493.69,493.78,493.86,493.94,494.01,494.09,494.17,494.25,494.32,494.40,494.48,494.55,494.64,494.72,494.79,494.87,494.94,495.01,495.10,495.17,495.25,495.33,495.40,495.48,495.55,495.63,495.72,495.85,496.01,496.17,496.33,496.54,496.72,496.88,497.04,497.19,497.35,497.50,497.64,497.74,497.89,498.04,498.20,498.35,498.50,498.66,498.81,498.97,499.12,499.28,499.43,499.59,499.75,499.93,500.22,500.62,501.08,501.56,502.43,503.61,504.97,506.39,507.84,510.21,513.87,518.97,524.24,528.51,531.26,532.69,533.86,534.15,534.09,534.12,534.58,535.14,535.20,534.05,531.40,528.12,523.65,519.70,516.62,514.14,512.27,511.07,510.31,509.87,509.80,509.71,509.59,509.40,509.16,508.82,508.40,507.89,507.23,506.54,505.85,505.23,504.76,504.45,504.14,503.84,503.57,503.39,503.35,503.34,503.34,503.33,503.27,503.30,503.37,503.44,503.51,503.59,503.67,503.75,503.84,503.98,504.03,504.07,504.14,504.21,504.34,504.48,504.63,504.77,504.86,505.10,505.47,505.87,505.94,505.93,505.95,505.97,505.92,505.79,505.65,505.49,505.35,505.27,505.30,505.34,505.34,505.34,505.34,505.34,505.34,505.34,505.34,505.34,505.34,505.34,505.34,505.34,505.34,505.34,505.34,505.34,505.34,505.34,505.34,505.34,505.34,505.34,505.34,505.32,505.31,505.26,505.19,505.12,505.04,505.01,505.00,505.00,505.00,505.00,504.94,504.81,504.71,504.58,504.47,504.36,504.24,504.22,504.22,504.22,504.24,504.24,504.24,504.27,504.31
491.52,491.30,491.13,491.01,490.93,490.86,490.77,490.64,490.50,490.37,490.37,490.38,490.42,490.47,490.48,490.49,490.53,490.57,490.60,490.66,490.68,490.73,490.80,490.88,490.95,491.03,491.11,491.19,491.26,491.33,491.40,491.48,491.56,491.63,491.68,491.70,491.76,491.78,491.83,491.90,491.96,491.98,492.03,492.11,492.19,492.26,492.34,492.43,492.51,492.59,492.67,492.74,492.85,492.98,493.06,493.15,493.23,493.32,493.46,493.54,493.56,493.60,493.68,493.76,493.85,493.93,494.00,494.08,494.15,494.24,494.31,494.38,494.47,494.54,494.62,494.71,494.84,494.88,494.93,495.00,495.08,495.16,495.24,495.31,495.39,495.47,495.54,495.63,495.70,495.77,495.87,496.04,496.24,496.39,496.56,496.72,496.89,497.11,497.26,497.42,497.57,497.72,497.87,498.02,498.17,498.32,498.48,498.63,498.79,498.94,499.10,499.25,499.41,499.56,499.72,499.89,500.15,500.55,501.00,501.47,501.94,502.48,503.26,504.33,505.79,507.26,509.73,513.63,519.23,525.42,529.35,531.61,532.66,532.84,532.58,532.31,532.28,532.76,533.67,534.24,533.35,530.57,527.02,522.48,518.66,515.70,512.93,510.85,509.97,509.72,509.56,509.43,509.29,509.11,508.89,508.65,508.35,507.98,507.55,507.02,506.35,505.66,505.08,504.70,504.44,504.14,503.87,503.66,503.56,503.49,503.47,503.47,503.47,503.45,503.46,503.47,503.50,503.58,503.65,503.73,503.82,503.96,504.06,504.13,504.20,504.26,504.28,504.36,504.48,504.62,504.71,504.79,504.90,505.06,505.26,505.40,505.57,505.75,505.92,505.97,505.90,505.78,505.62,505.49,505.45,505.46,505.47,505.47,505.47,505.47,505.47,505.47,505.47,505.47,505.47,505.47,505.47,505.47,505.47,505.47,505.47,505.47,505.47,505.47,505.47,505.47,505.47,505.47,505.47,505.45,505.39,505.33,505.26,505.20,505.18,505.12,505.04,505.00,505.00,505.00,505.00,504.96,504.86,504.72,504.62,504.50,504.38,504.30,504.28,504.28,504.31,504.36,504.37,504.37,504.37,504.38
491.64,491.42,491.25,491.17,491.12,491.04,490.92,490.78,490.64,490.54,490.50,490.49,490.52,490.56,490.59,490.60,490.63,490.67,490.70,490.74,490.78,490.84,490.92,490.99,491.07,491.12,491.18,491.25,491.33,491.40,491.49,491.56,491.64,491.72,491.77,491.82,491.89,491.90,491.95,492.01,492.05,492.09,492.13,492.19,492.26,492.35,492.42,492.50,492.58,492.66,492.77,492.86,492.95,493.07,493.18,493.26,493.34,493.43,493.55,493.66,493.70,493.73,493.80,493.88,493.96,494.03,494.12,494.19,494.27,494.35,494.42,494.50,494.58,494.66,494.73,494.82,494.93,494.98,495.04,495.12,495.19,495.24,495.30,495.38,495.45,495.53,495.61,495.69,495.76,495.84,495.92,496.07,496.25,496.41,496.60,496.76,496.94,497.12,497.28,497.47,497.63,497.79,497.94,498.10,498.28,498.45,498.61,498.76,498.92,499.07,499.23,499.38,499.54,499.69,499.86,500.07,500.40,500.81,501.25,501.71,502.18,502.70,503.31,504.08,505.23,506.77,509.22,513.24,519.25,525.37,529.18,531.16,531.76,531.59,531.20,530.55,530.24,531.08,532.31,533.20,532.64,530.03,526.13,521.54,517.63,514.47,511.62,510.12,509.53,509.30,509.14,508.96,508.79,508.62,508.42,508.18,507.88,507.53,507.12,506.65,506.11,505.48,504.96,504.63,504.38,504.13,503.92,503.78,503.70,503.63,503.60,503.60,503.60,503.60,503.60,503.60,503.61,503.65,503.72,503.79,503.90,504.04,504.13,504.20,504.28,504.35,504.39,504.46,504.54,504.62,504.69,504.77,504.87,504.99,505.12,505.30,505.52,505.75,505.97,506.07,506.00,505.86,505.72,505.61,505.60,505.60,505.60,505.60,505.60,505.60,505.60,505.60,505.60,505.60,505.60,505.60,505.60,505.60,505.60,505.60,505.60,505.60,505.60,505.60,505.60,505.60,505.60,505.60,505.58,505.54,505.47,505.38,505.31,505.24,505.20,505.16,505.10,505.04,505.00,505.00,505.00,504.97,504.88,504.76,504.65,504.53,504.43,504.36,504.35,504.38,504.41,504.44,504.44,504.44,504.44,504.44
491.76,491.55,491.39,491.34,491.31,491.21,491.06,490.92,490.80,490.71,490.63,490.61,490.62,490.65,490.71,490.72,490.73,490.75,490.81,490.83,490.88,490.95,491.03,491.11,491.19,491.22,491.25,491.33,491.41,491.49,491.56,491.64,491.72,491.80,491.87,491.95,492.00,492.02,492.07,492.12,492.14,492.20,492.22,492.26,492.33,492.41,492.50,492.58,492.65,492.74,492.88,492.98,493.06,493.16,493.30,493.40,493.48,493.56,493.65,493.78,493.83,493.86,493.93,494.00,494.08,494.15,494.23,494.30,494.38,494.46,494.54,494.62,494.69,494.77,494.85,494.93,495.02,495.09,495.17,495.23,495.30,495.33,495.38,495.46,495.53,495.60,495.68,495.75,495.83,495.90,495.99,496.11,496.26,496.43,496.64,496.81,496.97,497.13,497.29,497.51,497.70,497.86,498.02,498.18,498.37,498.55,498.71,498.88,499.03,499.19,499.34,499.50,499.66,499.83,500.02,500.29,500.67,501.05,501.47,501.92,502.38,502.94,503.47,503.99,504.80,506.40,508.74,512.81,519.15,524.73,528.33,530.01,530.16,529.76,529.26,528.45,528.18,529.55,531.12,532.21,531.91,529.54,525.26,520.64,516.61,513.23,510.49,509.71,509.32,508.99,508.75,508.52,508.33,508.16,507.97,507.73,507.43,507.08,506.67,506.24,505.84,505.32,504.86,504.58,504.35,504.13,504.00,503.92,503.85,503.77,503.73,503.72,503.71,503.71,503.71,503.71,503.71,503.73,503.78,503.86,503.96,504.11,504.19,504.28,504.36,504.44,504.51,504.58,504.62,504.65,504.72,504.80,504.93,505.06,505.15,505.36,505.59,505.82,506.04,506.19,506.09,505.94,505.81,505.73,505.72,505.72,505.72,505.72,505.72,505.72,505.72,505.72,505.72,505.72,505.72,505.72,505.72,505.72,505.72,505.72,505.72,505.72,505.72,505.72,505.72,505.72,505.72,505.72,505.68,505.61,505.52,505.45,505.38,505.29,505.23,505.20,505.16,505.08,505.02,505.00,505.00,504.97,504.89,504.80,504.67,504.56,504.50,504.43,504.43,504.47,504.51,504.52,504.53,504.53,504.53,504.53
491.84,491.67,491.57,491.53,491.49,491.35,491.19,491.09,490.97,490.83,490.70,490.68,490.71,490.76,490.78,490.84,490.86,490.86,490.89,490.94,490.97,491.02,491.10,491.18,491.25,491.31,491.38,491.46,491.54,491.62,491.69,491.77,491.85,491.93,492.00,492.06,492.08,492.14,492.17,492.20,492.25,492.27,492.33,492.37,492.40,492.48,492.61,492.70,492.78,492.86,492.95,493.08,493.19,493.28,493.43,493.52,493.63,493.75,493.83,493.93,493.95,493.99,494.05,494.08,494.14,494.22,494.29,494.38,494.45,494.52,494.61,494.68,494.76,494.84,494.92,495.00,495.13,495.22,495.26,495.30,495.37,495.44,495.51,495.58,495.65,495.68,495.74,495.81,495.90,495.97,496.05,496.17,496.33,496.49,496.66,496.81,497.00,497.20,497.36,497.58,497.76,497.94,498.14,498.30,498.43,498.56,498.72,498.93,499.10,499.25,499.41,499.57,499.77,499.99,500.25,500.60,500.99,501.37,501.76,502.17,502.58,503.06,503.53,504.04,504.78,506.30,508.40,512.44,518.93,523.52,526.33,527.47,527.19,526.29,525.26,525.21,526.28,528.38,530.31,531.38,531.11,528.86,524.20,519.65,515.62,512.30,510.18,509.56,509.19,508.83,508.55,508.32,508.05,507.81,507.58,507.28,506.98,506.62,506.25,505.90,505.52,505.14,504.82,504.58,504.41,504.24,504.15,504.12,504.04,503.96,503.90,503.83,503.78,503.77,503.77,503.77,503.79,503.85,503.87,503.93,504.02,504.17,504.25,504.38,504.49,504.56,504.64,504.67,504.71,504.77,504.85,504.93,505.05,505.18,505.27,505.44,505.65,505.88,506.12,506.30,506.22,506.06,505.94,505.87,505.86,505.86,505.86,505.86,505.86,505.86,505.86,505.86,505.86,505.86,505.86,505.86,505.86,505.86,505.86,505.86,505.86,505.86,505.86,505.86,505.86,505.86,505.86,505.81,505.75,505.67,505.59,505.51,505.44,505.36,505.28,505.23,505.19,505.15,505.08,505.01,505.00,504.97,504.89,504.80,504.67,504.59,504.55,504.50,504.54,504.57,504.57,504.59,504.64,504.66,504.66,504.66
491.95,491.80,491.75,491.71,491.64,491.52,491.37,491.24,491.11,490.96,490.85,490.80,490.81,490.85,490.89,490.93,490.97,490.99,490.99,491.03,491.07,491.13,491.19,491.24,491.31,491.40,491.47,491.54,491.63,491.70,491.78,491.86,491.94,492.01,492.09,492.15,492.19,492.26,492.28,492.32,492.38,492.39,492.45,492.49,492.50,492.59,492.73,492.86,492.95,493.03,493.15,493.26,493.38,493.49,493.61,493.72,493.84,493.96,494.06,494.12,494.11,494.12,494.18,494.19,494.25,494.32,494.40,494.48,494.56,494.63,494.71,494.79,494.87,494.94,495.02,495.11,495.23,495.34,495.41,495.44,495.49,495.56,495.62,495.68,495.74,495.78,495.85,495.93,495.99,496.04,496.12,496.22,496.36,496.54,496.70,496.86,497.04,497.26,497.42,497.61,497.80,498.00,498.19,498.38,498.52,498.65,498.80,498.97,499.15,499.32,499.48,499.64,499.85,500.09,500.38,500.80,501.21,501.63,502.04,502.43,502.85,503.28,503.71,504.17,504.82,506.17,508.10,511.99,518.31,522.28,523.84,523.96,523.20,522.27,521.79,522.70,524.71,527.24,529.57,530.55,530.04,527.63,522.90,518.13,514.05,511.06,509.84,509.38,509.04,508.70,508.40,508.13,507.83,507.56,507.31,507.01,506.72,506.40,506.08,505.79,505.44,505.10,504.82,504.63,504.47,504.37,504.31,504.27,504.19,504.11,504.03,503.97,503.93,503.89,503.89,503.89,503.90,503.94,503.97,504.03,504.11,504.20,504.31,504.45,504.58,504.65,504.73,504.77,504.82,504.91,504.98,505.06,505.17,505.28,505.40,505.55,505.74,505.95,506.18,506.39,506.34,506.19,506.06,506.00,505.99,505.99,505.99,505.99,505.99,505.99,505.99,505.99,505.99,505.99,505.99,505.99,505.99,505.99,505.99,505.99,505.99,505.99,505.99,505.99,505.99,505.98,505.95,505.89,505.81,505.74,505.65,505.58,505.50,505.43,505.35,505.27,505.22,505.19,505.14,505.06,505.02,504.97,504.89,504.81,504.69,504.65,504.62,504.56,504.62,504.65,504.66,504.69,504.73,504.75,504.75,504.75
492.08,491.95,491.93,491.88,491.79,491.70,491.55,491.39,491.25,491.11,491.02,490.94,490.92,490.94,491.00,491.02,491.06,491.11,491.12,491.12,491.17,491.24,491.30,491.33,491.39,491.47,491.55,491.62,491.70,491.78,491.86,491.93,492.01,492.09,492.17,492.24,492.31,492.38,492.41,492.44,492.50,492.51,492.57,492.61,492.63,492.71,492.84,492.99,493.13,493.24,493.38,493.48,493.59,493.73,493.81,493.95,494.06,494.17,494.30,494.31,494.26,494.25,494.31,494.32,494.37,494.44,494.52,494.60,494.67,494.75,494.83,494.91,494.99,495.07,495.15,495.23,495.31,495.44,495.55,495.61,495.63,495.69,495.73,495.76,495.83,495.90,495.97,496.04,496.11,496.12,496.19,496.27,496.39,496.59,496.75,496.92,497.11,497.32,497.49,497.64,497.84,498.05,498.21,498.43,498.61,498.76,498.91,499.01,499.19,499.38,499.54,499.70,499.92,500.16,500.46,500.90,501.36,501.81,502.24,502.65,503.10,503.51,503.92,504.33,504.90,506.13,507.88,511.39,517.05,520.44,520.77,519.91,518.91,518.62,519.32,521.16,523.66,526.33,528.93,529.59,528.63,526.00,521.38,516.25,512.23,509.87,509.49,509.17,508.87,508.56,508.25,507.94,507.64,507.37,507.12,506.83,506.58,506.31,506.02,505.78,505.48,505.14,504.86,504.70,504.56,504.52,504.48,504.41,504.34,504.25,504.18,504.13,504.11,504.03,504.01,504.00,504.00,504.02,504.09,504.16,504.22,504.24,504.36,504.50,504.63,504.71,504.79,504.89,504.96,505.04,505.11,505.19,505.27,505.37,505.52,505.67,505.83,506.02,506.25,506.46,506.45,506.32,506.19,506.13,506.12,506.12,506.12,506.12,506.12,506.12,506.12,506.12,506.12,506.12,506.12,506.12,506.12,506.12,506.12,506.12,506.12,506.12,506.12,506.12,506.12,506.11,506.04,505.97,505.89,505.81,505.74,505.66,505.58,505.50,505.43,505.35,505.27,505.22,505.20,505.12,505.04,504.97,504.89,504.82,504.75,504.70,504.69,504.65,504.70,504.72,504.75,504.80,504.81,504.81,504.82,504.82
492.23,492.13,492.12,492.07,491.97,491.83,491.68,491.53,491.40,491.29,491.17,491.08,491.04,491.05,491.08,491.13,491.16,491.19,491.24,491.24,491.26,491.31,491.38,491.44,491.52,491.60,491.67,491.75,491.82,491.91,491.98,492.06,492.13,492.21,492.29,492.37,492.44,492.46,492.51,492.55,492.58,492.63,492.66,492.70,492.75,492.78,492.87,493.03,493.24,493.42,493.58,493.68,493.79,493.93,494.01,494.15,494.26,494.36,494.49,494.47,494.43,494.43,494.45,494.45,494.46,494.51,494.59,494.67,494.75,494.82,494.90,494.98,495.11,495.20,495.28,495.36,495.44,495.53,495.64,495.74,495.75,495.82,495.88,495.93,495.96,496.03,496.06,496.11,496.19,496.24,496.31,496.39,496.48,496.61,496.76,496.96,497.15,497.33,497.54,497.70,497.90,498.12,498.28,498.50,498.67,498.83,498.98,499.12,499.28,499.45,499.61,499.76,499.98,500.25,500.56,500.92,501.38,501.80,502.22,502.66,503.13,503.57,504.02,504.48,505.10,506.44,507.98,510.42,514.02,516.10,516.24,515.60,515.41,517.50,519.73,521.91,524.11,526.37,528.58,528.13,526.39,523.82,519.40,513.97,510.63,509.53,509.22,508.92,508.64,508.37,508.06,507.75,507.49,507.22,506.94,506.68,506.45,506.20,505.96,505.72,505.47,505.20,504.98,504.84,504.74,504.67,504.64,504.60,504.52,504.44,504.41,504.37,504.30,504.18,504.10,504.07,504.09,504.14,504.22,504.29,504.35,504.35,504.39,504.51,504.63,504.72,504.85,505.03,505.16,505.23,505.25,505.32,505.40,505.50,505.65,505.75,505.93,506.13,506.31,506.53,506.55,506.45,506.32,506.25,506.24,506.24,506.24,506.24,506.24,506.24,506.24,506.24,506.24,506.24,506.24,506.24,506.24,506.24,506.24,506.24,506.24,506.24,506.24,506.24,506.24,506.23,506.17,506.09,506.01,505.94,505.86,505.78,505.70,505.63,505.55,505.47,505.40,505.33,505.26,505.13,505.04,504.97,504.90,504.87,504.80,504.77,504.78,504.82,504.84,504.85,504.85,504.87,504.88,504.92,504.95,504.95
492.37,492.35,492.32,492.24,492.12,491.97,491.81,491.68,491.56,491.45,491.29,491.18,491.13,491.15,491.18,491.22,491.26,491.29,491.33,491.34,491.36,491.40,491.45,491.53,491.61,491.69,491.76,491.84,491.92,492.00,492.08,492.15,492.23,492.30,492.38,492.46,492.53,492.56,492.63,492.68,492.69,492.76,492.77,492.80,492.84,492.87,492.92,493.06,493.27,493.47,493.65,493.80,493.94,494.09,494.23,494.36,494.47,494.58,494.66,494.63,494.59,494.58,494.58,494.58,494.58,494.62,494.69,494.77,494.85,494.94,495.04,495.12,495.24,495.33,495.41,495.49,495.56,495.64,495.75,495.86,495.91,495.96,496.03,496.08,496.09,496.16,496.20,496.24,496.29,496.37,496.44,496.50,496.56,496.65,496.79,497.01,497.20,497.38,497.60,497.77,497.95,498.15,498.34,498.53,498.72,498.90,499.06,499.24,499.40,499.54,499.67,499.83,500.05,500.33,500.63,500.96,501.35,501.76,502.20,502.66,503.13,503.60,504.06,504.53,505.17,506.47,507.74,509.28,511.21,512.20,512.44,512.84,514.24,517.66,520.39,522.56,524.54,526.54,527.87,526.75,524.65,522.09,518.04,512.73,509.85,509.35,509.08,508.80,508.55,508.28,507.98,507.67,507.44,507.22,506.97,506.74,506.50,506.27,506.04,505.81,505.58,505.35,505.13,504.97,504.89,504.84,504.80,504.76,504.71,504.64,504.61,504.57,504.46,504.34,504.23,504.18,504.19,504.26,504.34,504.42,504.47,504.47,504.47,504.54,504.63,504.73,504.88,505.09,505.27,505.38,505.42,505.48,505.56,505.66,505.78,505.86,506.03,506.22,506.41,506.60,506.63,506.57,506.45,506.39,506.38,506.38,506.38,506.38,506.38,506.38,506.38,506.38,506.38,506.38,506.38,506.38,506.38,506.38,506.38,506.38,506.38,506.38,506.38,506.38,506.38,506.37,506.30,506.22,506.15,506.07,505.99,505.89,505.79,505.72,505.64,505.56,505.49,505.41,505.32,505.17,505.10,505.04,504.98,504.97,504.93,504.93,504.96,505.00,505.01,505.01,505.01,505.01,505.01,505.07,505.13,505.14
492.53,492.58,492.52,492.40,492.25,492.10,491.95,491.85,491.73,491.58,491.42,491.28,491.22,491.23,491.29,491.31,491.36,491.40,491.41,491.42,491.46,491.50,491.53,491.61,491.69,491.76,491.84,491.92,492.00,492.07,492.14,492.23,492.30,492.38,492.45,492.53,492.61,492.68,492.75,492.80,492.81,492.88,492.90,492.91,492.93,492.99,493.01,493.11,493.25,493.43,493.64,493.86,494.05,494.23,494.43,494.56,494.68,494.79,494.81,494.81,494.76,494.71,494.71,494.70,494.71,494.75,494.83,494.91,494.98,495.11,495.23,495.31,495.38,495.46,495.54,495.62,495.69,495.77,495.85,495.95,496.07,496.10,496.16,496.21,496.22,496.29,496.36,496.40,496.42,496.50,496.57,496.61,496.64,496.72,496.86,497.06,497.25,497.43,497.65,497.82,497.99,498.16,498.38,498.55,498.76,498.96,499.13,499.34,499.51,499.64,499.75,499.92,500.14,500.42,500.71,501.01,501.33,501.75,502.20,502.66,503.13,503.59,504.04,504.51,505.11,506.20,507.18,508.07,508.89,509.26,509.87,511.66,514.81,518.57,521.06,523.00,524.90,526.73,526.91,525.50,523.41,520.83,517.19,512.30,509.67,509.27,509.03,508.78,508.55,508.28,507.98,507.68,507.49,507.32,507.14,506.92,506.69,506.46,506.23,506.00,505.76,505.53,505.30,505.11,505.02,505.00,504.96,504.92,504.90,504.84,504.81,504.75,504.61,504.52,504.39,504.31,504.32,504.39,504.46,504.54,504.60,504.60,504.61,504.62,504.65,504.73,504.88,505.09,505.31,505.50,505.59,505.67,505.75,505.82,505.91,505.99,506.13,506.31,506.52,506.68,506.71,506.66,506.58,506.52,506.51,506.51,506.51,506.51,506.51,506.51,506.50,506.50,506.50,506.50,506.50,506.50,506.50,506.50,506.50,506.50,506.50,506.50,506.51,506.51,506.51,506.50,506.43,506.35,506.27,506.19,506.12,505.98,505.88,505.79,505.71,505.64,505.56,505.49,505.40,505.26,505.22,505.18,505.13,505.12,505.11,505.15,505.19,505.20,505.21,505.21,505.21,505.21,505.21,505.26,505.34,505.39
492.72,492.78,492.68,492.53,492.40,492.29,492.14,492.00,491.86,491.71,491.56,491.44,491.37,491.34,491.37,491.42,491.45,491.49,491.53,491.53,491.55,491.59,491.65,491.73,491.80,491.88,491.96,492.04,492.12,492.19,492.27,492.35,492.43,492.50,492.58,492.66,492.74,492.81,492.85,492.89,492.94,492.96,493.01,493.03,493.04,493.07,493.12,493.17,493.25,493.42,493.64,493.84,494.03,494.24,494.47,494.66,494.82,494.95,494.99,495.00,494.95,494.90,494.89,494.85,494.87,494.94,495.02,495.09,495.17,495.30,495.43,495.49,495.53,495.59,495.67,495.75,495.82,495.90,495.98,496.06,496.16,496.22,496.28,496.36,496.40,496.43,496.50,496.53,496.55,496.63,496.70,496.74,496.76,496.83,496.89,497.03,497.23,497.43,497.61,497.81,498.02,498.21,498.40,498.60,498.82,499.02,499.19,499.36,499.56,499.73,499.89,500.14,500.38,500.63,500.87,501.09,501.38,501.76,502.20,502.66,503.13,503.55,503.96,504.38,504.84,505.53,506.23,506.97,507.83,508.88,510.39,512.70,515.84,519.40,521.66,523.51,525.33,526.83,526.07,524.48,522.57,520.17,516.46,511.98,509.66,509.36,509.08,508.80,508.51,508.24,507.98,507.73,507.54,507.39,507.23,507.05,506.83,506.60,506.36,506.13,505.90,505.67,505.44,505.25,505.20,505.16,505.12,505.10,505.10,505.08,505.04,504.95,504.80,504.72,504.58,504.48,504.44,504.47,504.53,504.62,504.68,504.73,504.78,504.76,504.75,504.78,504.89,505.09,505.29,505.48,505.65,505.79,505.88,505.96,506.04,506.12,506.25,506.42,506.61,506.80,506.84,506.79,506.73,506.70,506.70,506.70,506.70,506.70,506.70,506.66,506.64,506.64,506.64,506.64,506.64,506.64,506.64,506.64,506.64,506.64,506.64,506.64,506.68,506.70,506.69,506.63,506.56,506.48,506.41,506.32,506.25,506.11,506.00,505.92,505.84,505.76,505.69,505.61,505.53,505.43,505.40,505.39,505.36,505.31,505.30,505.31,505.34,505.34,505.39,505.40,505.40,505.40,505.40,505.42,505.47,505.54
492.93,492.94,492.82,492.68,492.56,492.45,492.30,492.14,492.00,491.87,491.72,491.61,491.52,491.47,491.47,491.52,491.55,491.58,491.63,491.66,491.67,491.69,491.75,491.83,491.90,491.98,492.06,492.13,492.22,492.29,492.37,492.44,492.52,492.60,492.68,492.75,492.83,492.91,492.95,493.00,493.06,493.07,493.11,493.15,493.17,493.17,493.24,493.26,493.31,493.45,493.65,493.81,494.00,494.24,494.47,494.70,494.88,495.00,495.10,495.20,495.19,495.15,495.12,495.10,495.13,495.17,495.21,495.29,495.37,495.48,495.60,495.69,495.69,495.75,495.82,495.88,495.95,496.03,496.11,496.19,496.26,496.34,496.42,496.50,496.56,496.56,496.63,496.68,496.71,496.76,496.83,496.87,496.88,496.93,496.96,497.04,497.19,497.39,497.57,497.77,498.00,498.22,498.40,498.60,498.82,499.04,499.21,499.37,499.58,499.79,500.00,500.33,500.62,500.88,501.11,501.28,501.55,501.86,502.20,502.60,503.00,503.40,503.79,504.17,504.56,504.97,505.47,506.23,507.43,509.02,511.28,514.02,517.07,520.10,522.06,523.76,525.42,526.56,525.35,523.70,521.95,519.68,515.79,511.69,509.66,509.39,509.09,508.80,508.50,508.22,507.99,507.80,507.64,507.49,507.33,507.18,506.98,506.76,506.52,506.29,506.06,505.83,505.60,505.41,505.37,505.32,505.29,505.29,505.29,505.27,505.20,505.07,504.93,504.85,504.73,504.64,504.60,504.60,504.62,504.68,504.75,504.84,504.93,504.93,504.90,504.91,504.96,505.14,505.30,505.45,505.68,505.85,505.98,506.10,506.20,506.28,506.39,506.52,506.67,506.89,506.95,506.92,506.87,506.87,506.87,506.87,506.87,506.87,506.86,506.82,506.79,506.79,506.79,506.79,506.79,506.79,506.77,506.79,506.79,506.79,506.80,506.83,506.88,506.90,506.87,506.77,506.69,506.61,506.53,506.45,506.38,506.24,506.13,506.04,505.97,505.89,505.81,505.75,505.69,505.64,505.61,505.60,505.58,505.51,505.50,505.50,505.50,505.50,505.54,505.56,505.57,505.60,505.60,505.60,505.64,505.70
493.17,493.10,492.95,492.84,492.73,492.58,492.44,492.28,492.16,492.05,491.90,491.75,491.64,491.59,491.59,491.60,491.65,491.69,491.71,491.77,491.79,491.80,491.82,491.90,491.98,492.05,492.13,492.20,492.27,492.36,492.44,492.51,492.59,492.67,492.74,492.82,492.90,492.98,493.05,493.12,493.18,493.19,493.20,493.24,493.29,493.30,493.36,493.39,493.42,493.51,493.66,493.81,494.00,494.24,494.46,494.69,494.84,494.94,495.10,495.36,495.45,495.44,495.41,495.45,495.47,495.44,495.41,495.48,495.56,495.65,495.75,495.87,495.89,495.95,495.99,496.01,496.09,496.17,496.24,496.31,496.39,496.47,496.54,496.62,496.69,496.70,496.76,496.83,496.89,496.90,496.97,496.99,497.00,497.01,497.07,497.11,497.18,497.35,497.56,497.74,497.94,498.16,498.38,498.56,498.76,498.99,499.20,499.37,499.58,499.80,500.06,500.43,500.81,501.15,501.41,501.60,501.83,502.02,502.23,502.50,502.81,503.18,503.55,503.93,504.30,504.63,505.01,505.86,507.49,509.24,511.94,515.15,518.37,520.66,522.26,523.76,525.16,525.90,524.73,523.15,521.48,519.25,515.14,511.43,509.63,509.34,509.03,508.78,508.50,508.23,508.02,507.91,507.76,507.62,507.46,507.31,507.15,506.94,506.71,506.48,506.25,506.02,505.79,505.58,505.51,505.49,505.48,505.48,505.48,505.42,505.30,505.15,505.00,504.92,504.84,504.80,504.79,504.79,504.74,504.75,504.82,504.90,505.04,505.09,505.09,505.09,505.10,505.23,505.35,505.47,505.69,505.85,506.04,506.23,506.37,506.46,506.55,506.63,506.75,506.96,507.06,507.05,506.99,506.99,506.99,506.99,506.99,506.99,506.99,506.99,506.98,506.98,506.98,506.98,506.98,506.97,506.92,506.98,506.99,507.00,507.01,507.07,507.09,507.09,507.04,506.91,506.82,506.74,506.66,506.58,506.50,506.37,506.25,506.18,506.10,506.03,505.95,505.90,505.89,505.88,505.83,505.79,505.77,505.71,505.69,505.69,505.69,505.69,505.70,505.70,505.72,505.78,505.78,505.79,505.83,505.89
493.37,493.28,493.14,493.00,492.87,492.72,492.61,492.47,492.32,492.19,492.04,491.89,491.75,491.68,491.72,491.72,491.74,491.78,491.83,491.86,491.90,491.93,491.94,492.02,492.10,492.17,492.24,492.27,492.35,492.42,492.50,492.58,492.65,492.73,492.80,492.88,492.96,493.03,493.12,493.19,493.26,493.31,493.33,493.34,493.37,493.42,493.45,493.49,493.53,493.58,493.67,493.81,494.00,494.23,494.42,494.64,494.78,494.87,494.99,495.24,495.45,495.61,495.70,495.74,495.71,495.67,495.65,495.69,495.75,495.83,495.92,496.02,496.07,496.14,496.19,496.20,496.27,496.35,496.40,496.44,496.52,496.60,496.68,496.75,496.82,496.88,496.91,496.96,497.02,497.03,497.10,497.13,497.13,497.14,497.20,497.22,497.27,497.38,497.52,497.71,497.90,498.10,498.33,498.53,498.72,498.93,499.14,499.30,499.52,499.75,500.01,500.35,500.77,501.18,501.57,501.90,502.14,502.32,502.51,502.74,502.96,503.23,503.52,503.81,504.11,504.41,504.78,505.58,507.11,508.80,511.53,515.26,519.15,521.13,522.58,523.96,525.04,525.17,524.00,522.56,520.88,518.47,514.31,511.12,509.63,509.32,509.02,508.78,508.53,508.29,508.12,507.99,507.84,507.71,507.59,507.44,507.29,507.08,506.85,506.62,506.39,506.16,505.93,505.72,505.64,505.63,505.63,505.63,505.62,505.55,505.42,505.27,505.13,505.04,505.00,504.98,504.98,504.98,504.96,504.91,504.87,504.92,505.10,505.26,505.33,505.29,505.29,505.37,505.49,505.62,505.75,505.90,506.08,506.25,506.41,506.58,506.68,506.76,506.86,507.03,507.17,507.18,507.13,507.13,507.13,507.13,507.13,507.13,507.13,507.13,507.13,507.13,507.13,507.13,507.15,507.17,507.15,507.18,507.22,507.25,507.25,507.28,507.28,507.25,507.18,507.03,506.95,506.87,506.79,506.72,506.63,506.50,506.38,506.31,506.23,506.19,506.17,506.13,506.09,506.09,506.03,505.98,505.98,505.95,505.90,505.88,505.88,505.88,505.88,505.88,505.90,505.92,505.93,505.96,506.00,506.03
493.56,493.45,493.31,493.17,493.02,492.88,492.77,492.63,492.48,492.33,492.19,492.03,491.86,491.77,491.82,491.82,491.84,491.88,491.93,491.95,492.00,492.04,492.07,492.15,492.21,492.29,492.36,492.37,492.44,492.51,492.59,492.67,492.74,492.82,492.90,492.97,493.05,493.13,493.20,493.28,493.36,493.41,493.44,493.45,493.47,493.52,493.54,493.59,493.63,493.66,493.71,493.83,494.00,494.19,494.36,494.57,494.72,494.80,494.89,495.10,495.39,495.67,495.89,495.96,495.93,495.89,495.88,495.88,495.95,496.03,496.11,496.18,496.26,496.32,496.36,496.39,496.47,496.53,496.57,496.60,496.68,496.74,496.80,496.88,496.96,497.04,497.05,497.09,497.15,497.16,497.20,497.24,497.25,497.26,497.33,497.36,497.38,497.44,497.52,497.69,497.87,498.05,498.27,498.50,498.69,498.88,499.08,499.26,499.47,499.69,499.94,500.28,500.70,501.16,501.62,502.06,502.37,502.61,502.83,503.06,503.23,503.44,503.66,503.88,504.11,504.38,504.74,505.48,506.86,508.43,510.87,514.94,519.62,521.47,522.88,524.09,524.79,524.40,523.28,521.98,520.21,517.50,513.50,510.82,509.62,509.32,509.02,508.78,508.56,508.38,508.24,508.09,507.93,507.81,507.70,507.56,507.42,507.23,507.01,506.78,506.54,506.31,506.08,505.88,505.79,505.78,505.77,505.75,505.74,505.66,505.52,505.39,505.28,505.20,505.18,505.17,505.16,505.18,505.16,505.06,504.95,504.98,505.16,505.39,505.52,505.50,505.49,505.52,505.63,505.77,505.86,506.00,506.15,506.30,506.44,506.65,506.77,506.87,506.98,507.13,507.29,507.31,507.25,507.25,507.25,507.25,507.25,507.25,507.25,507.27,507.28,507.28,507.28,507.30,507.34,507.38,507.38,507.40,507.45,507.48,507.48,507.48,507.46,507.41,507.31,507.17,507.07,507.00,506.92,506.85,506.76,506.63,506.52,506.47,506.41,506.39,506.38,506.35,506.29,506.28,506.24,506.20,506.18,506.18,506.13,506.09,506.08,506.08,506.08,506.08,506.08,506.08,506.08,506.12,506.16,506.20
493.73,493.59,493.44,493.33,493.21,493.06,492.92,492.76,492.62,492.47,492.37,492.17,491.99,491.88,491.89,491.89,491.94,491.98,492.00,492.06,492.09,492.13,492.20,492.27,492.29,492.38,492.48,492.49,492.56,492.64,492.72,492.79,492.87,492.95,493.03,493.11,493.18,493.26,493.33,493.41,493.48,493.50,493.55,493.58,493.58,493.60,493.65,493.69,493.72,493.77,493.79,493.86,493.98,494.14,494.30,494.51,494.66,494.74,494.83,495.04,495.32,495.63,495.91,496.12,496.16,496.13,496.08,496.08,496.15,496.21,496.29,496.38,496.45,496.48,496.52,496.59,496.66,496.68,496.73,496.79,496.86,496.88,496.94,497.01,497.09,497.16,497.18,497.22,497.28,497.28,497.29,497.34,497.38,497.39,497.46,497.48,497.48,497.51,497.58,497.67,497.84,498.04,498.22,498.44,498.66,498.86,499.04,499.25,499.43,499.63,499.89,500.26,500.65,501.09,501.55,502.01,502.45,502.83,503.14,503.38,503.61,503.78,503.99,504.20,504.37,504.61,504.95,505.65,506.92,508.32,510.16,514.30,519.70,521.63,523.10,524.05,524.29,523.56,522.56,521.41,519.48,516.40,512.81,510.56,509.58,509.32,509.02,508.79,508.60,508.46,508.36,508.22,508.06,507.91,507.78,507.69,507.54,507.38,507.20,506.97,506.74,506.50,506.28,506.07,505.99,505.96,505.94,505.89,505.87,505.75,505.60,505.49,505.46,505.39,505.37,505.34,505.30,505.35,505.31,505.19,505.08,505.10,505.25,505.46,505.64,505.74,505.69,505.69,505.76,505.90,505.99,506.13,506.28,506.41,506.52,506.67,506.82,506.96,507.11,507.26,507.41,507.44,507.38,507.39,507.39,507.39,507.39,507.39,507.39,507.44,507.47,507.47,507.48,507.53,507.57,507.57,507.59,507.65,507.67,507.67,507.67,507.67,507.61,507.54,507.44,507.30,507.20,507.13,507.05,506.97,506.90,506.76,506.69,506.67,506.66,506.60,506.57,506.55,506.48,506.47,506.47,506.43,506.38,506.37,506.36,506.32,506.27,506.27,506.27,506.27,506.27,506.27,506.27,506.28,506.32,506.39
493.89,493.77,493.62,493.49,493.36,493.20,493.05,492.93,492.80,492.64,492.47,492.25,492.06,491.97,492.00,492.01,492.03,492.07,492.12,492.15,492.19,492.25,492.33,492.40,492.37,492.45,492.57,492.62,492.69,492.77,492.85,492.93,493.00,493.08,493.16,493.24,493.31,493.39,493.47,493.54,493.61,493.61,493.68,493.71,493.71,493.72,493.74,493.78,493.83,493.86,493.90,493.94,494.01,494.13,494.28,494.46,494.61,494.72,494.81,494.99,495.26,495.57,495.87,496.14,496.30,496.35,496.32,496.32,496.32,496.36,496.45,496.57,496.65,496.67,496.70,496.77,496.81,496.85,496.91,496.98,497.01,497.05,497.12,497.18,497.22,497.29,497.31,497.35,497.41,497.41,497.41,497.46,497.51,497.51,497.55,497.59,497.61,497.63,497.70,497.74,497.84,498.00,498.19,498.38,498.60,498.80,498.97,499.19,499.40,499.62,499.86,500.17,500.54,500.97,501.44,501.90,502.36,502.80,503.20,503.56,503.92,504.15,504.36,504.58,504.74,505.00,505.38,505.99,506.99,508.26,509.63,513.32,518.66,521.28,523.07,523.68,523.40,522.57,521.58,520.50,518.78,516.04,512.56,510.47,509.57,509.33,509.08,508.88,508.71,508.57,508.45,508.34,508.19,508.04,507.89,507.77,507.62,507.49,507.34,507.11,506.88,506.65,506.41,506.21,506.13,506.11,506.10,506.06,506.00,505.87,505.74,505.65,505.61,505.53,505.51,505.50,505.48,505.50,505.44,505.32,505.21,505.23,505.37,505.54,505.72,505.86,505.91,505.89,505.93,506.04,506.16,506.27,506.41,506.55,506.68,506.79,506.93,507.08,507.23,507.35,507.49,507.53,507.52,507.56,507.57,507.57,507.59,507.62,507.63,507.65,507.67,507.68,507.72,507.75,507.77,507.78,507.83,507.86,507.87,507.89,507.90,507.82,507.75,507.67,507.57,507.42,507.33,507.26,507.18,507.11,507.02,506.96,506.90,506.87,506.86,506.80,506.77,506.75,506.72,506.68,506.67,506.65,506.62,506.58,506.57,506.55,506.51,506.48,506.47,506.47,506.47,506.47,506.47,506.47,506.51,506.58
494.04,493.94,493.79,493.64,493.49,493.35,493.20,493.09,492.96,492.78,492.56,492.34,492.15,492.06,492.12,492.14,492.14,492.17,492.22,492.24,492.30,492.38,492.46,492.52,492.49,492.54,492.65,492.74,492.82,492.90,492.98,493.05,493.13,493.21,493.28,493.37,493.44,493.52,493.60,493.67,493.74,493.74,493.80,493.84,493.84,493.84,493.84,493.89,493.94,493.95,494.00,494.03,494.08,494.16,494.28,494.45,494.60,494.73,494.82,494.98,495.22,495.52,495.83,496.12,496.38,496.52,496.56,496.55,496.50,496.52,496.61,496.76,496.82,496.85,496.90,496.96,496.97,497.03,497.11,497.16,497.17,497.24,497.30,497.35,497.37,497.43,497.45,497.49,497.54,497.54,497.54,497.59,497.64,497.64,497.64,497.70,497.74,497.75,497.81,497.84,497.88,497.98,498.17,498.33,498.53,498.75,498.92,499.13,499.35,499.57,499.80,500.02,500.33,500.75,501.24,501.75,502.25,502.74,503.23,503.70,504.14,504.44,504.73,504.99,505.19,505.49,505.90,506.42,507.13,508.20,509.22,512.38,517.35,520.76,522.80,523.16,522.50,521.56,520.52,519.42,517.95,515.70,512.40,510.42,509.57,509.35,509.14,508.99,508.84,508.69,508.54,508.44,508.30,508.15,508.01,507.86,507.70,507.58,507.46,507.24,507.02,506.80,506.56,506.36,506.28,506.25,506.24,506.22,506.12,505.99,505.89,505.82,505.76,505.68,505.66,505.66,505.66,505.64,505.57,505.45,505.34,505.34,505.48,505.63,505.78,505.94,506.09,506.08,506.09,506.18,506.32,506.43,506.55,506.69,506.84,506.94,507.07,507.21,507.36,507.45,507.58,507.65,507.69,507.75,507.76,507.77,507.81,507.86,507.86,507.88,507.88,507.90,507.95,507.98,507.99,508.00,508.06,508.08,508.09,508.10,508.11,507.97,507.88,507.80,507.70,507.55,507.47,507.39,507.32,507.25,507.18,507.16,507.12,507.06,507.05,507.00,506.98,506.96,506.95,506.90,506.87,506.86,506.85,506.80,506.77,506.76,506.74,506.67,506.66,506.66,506.66,506.66,506.66,506.66,506.70,506.76
494.22,494.08,493.93,493.77,493.64,493.54,493.39,493.25,493.07,492.86,492.69,492.47,492.28,492.17,492.19,492.25,492.27,492.27,492.30,492.36,492.44,492.51,492.59,492.66,492.66,492.67,492.74,492.87,492.95,493.03,493.11,493.19,493.26,493.34,493.42,493.49,493.57,493.65,493.72,493.80,493.87,493.87,493.93,493.97,493.97,493.97,493.97,494.02,494.07,494.07,494.08,494.14,494.20,494.27,494.31,494.49,494.64,494.74,494.88,495.04,495.25,495.52,495.82,496.07,496.35,496.60,496.75,496.75,496.75,496.75,496.81,496.94,496.97,497.02,497.09,497.15,497.16,497.22,497.30,497.36,497.37,497.43,497.47,497.50,497.55,497.57,497.63,497.66,497.68,497.68,497.68,497.72,497.77,497.77,497.77,497.83,497.87,497.87,497.89,497.94,497.98,498.01,498.12,498.26,498.47,498.70,498.91,499.08,499.25,499.44,499.66,499.83,499.96,500.33,500.90,501.55,502.15,502.75,503.31,503.82,504.22,504.59,505.03,505.47,505.76,506.06,506.48,506.93,507.41,508.11,509.04,511.70,516.06,520.10,522.19,522.51,521.78,520.60,519.39,518.18,516.82,514.99,512.17,510.38,509.57,509.36,509.20,509.10,508.97,508.81,508.66,508.52,508.37,508.25,508.14,507.99,507.83,507.69,507.54,507.37,507.20,506.99,506.76,506.56,506.47,506.40,506.37,506.33,506.20,506.10,506.02,505.97,505.94,505.88,505.86,505.86,505.85,505.78,505.70,505.58,505.45,505.41,505.54,505.69,505.85,506.00,506.15,506.23,506.26,506.31,506.46,506.61,506.71,506.82,506.98,507.12,507.22,507.34,507.50,507.63,507.73,507.81,507.88,507.94,507.96,508.00,508.05,508.06,508.06,508.11,508.14,508.15,508.16,508.22,508.25,508.25,508.26,508.33,508.34,508.32,508.24,508.09,508.00,507.93,507.83,507.68,507.60,507.52,507.47,507.44,507.38,507.36,507.32,507.26,507.26,507.25,507.20,507.16,507.16,507.15,507.09,507.06,507.06,507.04,506.99,506.96,506.94,506.87,506.86,506.86,506.86,506.86,506.86,506.86,506.90,506.96
494.37,494.21,494.09,493.95,493.81,493.69,493.54,493.35,493.16,492.97,492.77,492.54,492.36,492.26,492.30,492.34,492.38,492.40,492.42,492.49,492.56,492.64,492.73,492.83,492.81,492.77,492.80,492.95,493.07,493.16,493.24,493.31,493.39,493.47,493.54,493.62,493.70,493.78,493.86,493.93,494.00,494.00,494.03,494.07,494.10,494.10,494.10,494.13,494.17,494.20,494.20,494.26,494.32,494.36,494.40,494.57,494.72,494.84,495.00,495.12,495.28,495.51,495.77,496.05,496.32,496.57,496.77,496.89,496.97,496.98,496.99,497.10,497.14,497.21,497.27,497.30,497.35,497.42,497.47,497.51,497.56,497.63,497.65,497.68,497.75,497.75,497.78,497.82,497.85,497.85,497.85,497.88,497.91,497.95,497.95,497.98,498.00,498.01,498.04,498.09,498.10,498.11,498.16,498.26,498.43,498.64,498.87,499.06,499.22,499.39,499.58,499.73,499.86,500.24,500.81,501.47,502.12,502.75,503.35,503.90,504.33,504.76,505.25,505.76,506.19,506.61,507.06,507.51,507.95,508.45,509.13,511.33,515.25,519.56,521.60,521.96,521.28,519.90,518.37,516.94,515.53,513.95,511.85,510.35,509.64,509.46,509.31,509.19,509.05,508.91,508.79,508.63,508.48,508.34,508.22,508.07,507.95,507.81,507.65,507.50,507.34,507.14,506.90,506.70,506.62,506.57,506.53,506.46,506.32,506.26,506.20,506.14,506.09,506.02,506.00,506.02,506.02,505.92,505.83,505.71,505.58,505.52,505.62,505.76,505.92,506.07,506.22,506.38,506.45,506.48,506.60,506.75,506.85,506.95,507.11,507.26,507.36,507.47,507.62,507.74,507.85,507.92,507.99,508.10,508.18,508.23,508.25,508.26,508.29,508.33,508.35,508.36,508.40,508.44,508.45,508.46,508.50,508.54,508.52,508.47,508.37,508.23,508.13,508.06,507.96,507.82,507.76,507.70,507.65,507.64,507.57,507.55,507.53,507.49,507.46,507.45,507.43,507.39,507.36,507.35,507.32,507.28,507.25,507.25,507.19,507.15,507.14,507.10,507.06,507.05,507.05,507.05,507.05,507.05,507.07,507.10
494.50,494.36,494.26,494.13,493.98,493.82,493.67,493.45,493.25,493.07,492.85,492.63,492.44,492.35,492.41,492.43,492.48,492.52,492.54,492.62,492.69,492.78,492.88,493.00,492.96,492.88,492.88,493.03,493.18,493.28,493.37,493.44,493.52,493.60,493.68,493.75,493.83,493.91,493.98,494.05,494.13,494.13,494.13,494.17,494.23,494.23,494.22,494.22,494.25,494.31,494.33,494.39,494.43,494.44,494.51,494.65,494.82,494.99,495.13,495.22,495.35,495.51,495.74,496.02,496.28,496.52,496.75,496.97,497.15,497.19,497.18,497.25,497.33,497.40,497.44,497.46,497.53,497.60,497.64,497.67,497.74,497.81,497.84,497.88,497.94,497.94,497.94,497.98,498.03,498.04,498.04,498.04,498.07,498.14,498.15,498.15,498.15,498.16,498.22,498.24,498.25,498.25,498.25,498.31,498.42,498.59,498.82,499.04,499.22,499.38,499.55,499.72,499.88,500.28,500.84,501.45,502.12,502.75,503.37,503.96,504.46,504.92,505.43,505.97,506.51,507.05,507.55,508.02,508.49,508.90,509.47,511.35,514.84,519.07,521.04,521.50,520.95,519.53,517.78,516.10,514.52,513.02,511.48,510.31,509.73,509.58,509.44,509.28,509.13,509.00,508.90,508.75,508.61,508.46,508.30,508.15,508.05,507.93,507.78,507.63,507.48,507.27,507.05,506.85,506.75,506.73,506.68,506.58,506.46,506.44,506.38,506.31,506.24,506.17,506.15,506.17,506.18,506.05,505.95,505.83,505.71,505.65,505.71,505.84,506.00,506.15,506.31,506.51,506.63,506.66,506.74,506.88,506.99,507.10,507.24,507.39,507.49,507.60,507.74,507.82,507.95,508.02,508.07,508.22,508.37,508.42,508.44,508.47,508.53,508.56,508.57,508.58,508.64,508.66,508.67,508.68,508.74,508.73,508.67,508.60,508.50,508.36,508.26,508.19,508.09,507.95,507.93,507.88,507.84,507.82,507.76,507.75,507.75,507.73,507.67,507.65,507.65,507.62,507.57,507.55,507.54,507.51,507.45,507.44,507.39,507.36,507.35,507.34,507.28,507.25,507.25,507.25,507.23,507.23,507.24,507.24
494.64,494.54,494.41,494.26,494.11,493.95,493.79,493.58,493.36,493.15,492.98,492.76,492.57,492.46,492.49,492.54,492.57,492.61,492.67,492.75,492.82,492.93,493.06,493.14,493.09,493.01,492.99,493.09,493.24,493.39,493.50,493.57,493.65,493.73,493.80,493.88,493.96,494.03,494.07,494.14,494.25,494.26,494.26,494.30,494.36,494.36,494.30,494.32,494.36,494.39,494.44,494.52,494.56,494.56,494.59,494.72,494.94,495.18,495.33,495.42,495.50,495.60,495.74,495.97,496.25,496.52,496.75,496.98,497.20,497.35,497.43,497.45,497.52,497.60,497.64,497.66,497.73,497.75,497.79,497.86,497.93,497.95,498.00,498.07,498.13,498.14,498.14,498.15,498.18,498.23,498.24,498.24,498.26,498.33,498.34,498.34,498.34,498.34,498.36,498.41,498.44,498.44,498.44,498.45,498.48,498.59,498.81,498.98,499.19,499.41,499.63,499.84,500.06,500.47,501.02,501.57,502.15,502.75,503.37,503.98,504.56,505.05,505.56,506.10,506.64,507.18,507.71,508.23,508.76,509.28,510.33,512.26,515.16,518.59,520.57,521.23,520.96,519.95,518.43,516.51,514.53,512.70,511.12,510.21,509.79,509.66,509.56,509.41,509.26,509.11,508.97,508.81,508.71,508.58,508.43,508.28,508.14,508.02,507.91,507.76,507.61,507.44,507.24,507.03,506.89,506.86,506.78,506.67,506.64,506.58,506.51,506.45,506.43,506.36,506.34,506.32,506.26,506.17,506.04,505.93,505.84,505.78,505.84,505.97,506.13,506.28,506.43,506.60,506.75,506.85,506.87,507.00,507.15,507.27,507.38,507.52,507.62,507.73,507.87,507.95,508.04,508.12,508.19,508.29,508.44,508.52,508.61,508.71,508.74,508.79,508.82,508.83,508.84,508.90,508.93,508.93,508.93,508.88,508.80,508.72,508.63,508.49,508.39,508.31,508.22,508.08,508.06,508.05,508.01,507.96,507.94,507.94,507.94,507.94,507.92,507.87,507.84,507.84,507.81,507.76,507.74,507.70,507.65,507.64,507.63,507.59,507.54,507.54,507.53,507.48,507.44,507.43,507.38,507.36,507.39,507.40
494.81,494.69,494.54,494.39,494.24,494.07,493.89,493.67,493.45,493.26,493.06,492.84,492.65,492.55,492.59,492.63,492.67,492.72,492.80,492.88,492.98,493.10,493.20,493.27,493.22,493.14,493.09,493.13,493.30,493.46,493.60,493.70,493.78,493.86,493.94,494.01,494.09,494.17,494.19,494.25,494.38,494.39,494.39,494.43,494.49,494.48,494.42,494.44,494.49,494.50,494.57,494.65,494.69,494.69,494.70,494.79,495.00,495.28,495.55,495.66,495.71,495.75,495.82,496.01,496.27,496.52,496.75,496.98,497.22,497.42,497.57,497.64,497.71,497.76,497.80,497.85,497.92,497.94,497.98,498.04,498.09,498.12,498.19,498.25,498.29,498.29,498.29,498.29,498.31,498.38,498.42,498.44,498.45,498.49,498.52,498.53,498.53,498.53,498.54,498.57,498.61,498.63,498.63,498.63,498.61,498.65,498.82,499.01,499.23,499.46,499.71,500.05,500.38,500.82,501.34,501.88,502.43,502.97,503.53,504.12,504.69,505.18,505.69,506.23,506.77,507.31,507.85,508.39,508.92,509.45,510.55,512.51,515.25,518.18,520.05,520.83,520.80,520.13,518.82,516.86,514.78,512.85,511.12,510.21,509.81,509.68,509.59,509.45,509.32,509.19,509.04,508.92,508.80,508.69,508.56,508.41,508.25,508.12,508.00,507.85,507.73,507.58,507.39,507.18,507.06,507.00,506.93,506.83,506.79,506.75,506.69,506.62,506.58,506.51,506.49,506.45,506.38,506.30,506.15,506.04,505.97,505.91,505.93,506.05,506.21,506.37,506.52,506.67,506.83,506.96,507.03,507.15,507.29,507.43,507.54,507.66,507.75,507.86,508.00,508.08,508.16,508.24,508.30,508.36,508.50,508.60,508.71,508.85,508.92,509.00,509.03,509.04,509.08,509.12,509.13,509.13,509.12,509.02,508.93,508.86,508.76,508.62,508.52,508.44,508.35,508.21,508.19,508.19,508.16,508.10,508.09,508.09,508.09,508.09,508.09,508.05,508.01,507.99,507.98,507.94,507.94,507.92,507.88,507.84,507.84,507.81,507.77,507.74,507.73,507.68,507.63,507.63,507.59,507.55,507.52,507.44
494.96,494.82,494.67,494.52,494.36,494.19,493.96,493.74,493.55,493.37,493.14,492.91,492.73,492.64,492.70,492.72,492.78,492.85,492.93,493.02,493.15,493.25,493.34,493.40,493.36,493.28,493.20,493.17,493.35,493.52,493.68,493.82,493.91,493.99,494.06,494.14,494.22,494.29,494.33,494.39,494.51,494.52,494.52,494.56,494.62,494.60,494.54,494.56,494.61,494.63,494.70,494.78,494.84,494.83,494.83,494.88,495.04,495.34,495.74,495.90,495.94,495.94,495.97,496.10,496.29,496.52,496.75,496.98,497.22,497.44,497.65,497.80,497.89,497.93,497.96,498.04,498.10,498.12,498.17,498.23,498.24,498.30,498.37,498.42,498.43,498.44,498.44,498.44,498.45,498.51,498.59,498.62,498.62,498.64,498.70,498.72,498.73,498.73,498.73,498.73,498.77,498.83,498.83,498.82,498.76,498.75,498.86,499.06,499.29,499.52,499.81,500.27,500.75,501.24,501.74,502.27,502.80,503.29,503.80,504.33,504.87,505.34,505.84,506.37,506.90,507.43,507.97,508.50,509.01,509.48,510.41,512.27,514.96,517.53,519.31,520.16,520.34,519.94,518.84,516.99,514.99,513.10,511.27,510.26,509.81,509.68,509.59,509.45,509.35,509.24,509.10,509.01,508.88,508.75,508.66,508.51,508.37,508.22,508.07,507.93,507.83,507.70,507.52,507.33,507.23,507.16,507.07,507.00,506.94,506.92,506.87,506.80,506.73,506.65,506.63,506.59,506.50,506.43,506.28,506.18,506.10,506.03,506.02,506.13,506.29,506.44,506.60,506.75,506.91,507.06,507.20,507.29,507.42,507.57,507.70,507.80,507.88,507.99,508.12,508.21,508.29,508.36,508.41,508.44,508.57,508.67,508.77,508.92,509.07,509.17,509.22,509.26,509.32,509.34,509.34,509.33,509.30,509.16,509.06,508.99,508.89,508.75,508.65,508.57,508.48,508.34,508.32,508.31,508.28,508.23,508.22,508.22,508.22,508.22,508.22,508.22,508.17,508.12,508.12,508.12,508.12,508.12,508.10,508.04,508.02,508.01,508.00,507.94,507.93,507.88,507.84,507.83,507.82,507.77,507.65,507.49
494.99,494.94,494.80,494.65,494.48,494.26,494.03,493.84,493.65,493.43,493.21,493.02,492.86,492.75,492.78,492.83,492.91,492.98,493.07,493.20,493.30,493.39,493.47,493.53,493.53,493.48,493.38,493.28,493.37,493.56,493.75,493.90,494.03,494.12,494.19,494.27,494.35,494.43,494.49,494.56,494.64,494.65,494.65,494.69,494.74,494.68,494.66,494.66,494.69,494.75,494.83,494.95,495.02,495.01,494.96,494.97,495.11,495.39,495.78,496.10,496.19,496.19,496.20,496.25,496.35,496.52,496.75,496.98,497.22,497.44,497.67,497.87,498.01,498.09,498.16,498.22,498.25,498.30,498.37,498.43,498.43,498.50,498.54,498.57,498.62,498.63,498.63,498.63,498.63,498.65,498.72,498.75,498.77,498.82,498.85,498.89,498.93,498.93,498.93,498.93,498.97,499.02,499.02,498.97,498.90,498.88,498.97,499.14,499.36,499.59,499.89,500.41,501.03,501.63,502.17,502.66,503.14,503.65,504.16,504.65,505.18,505.61,506.06,506.55,507.03,507.51,508.04,508.53,508.95,509.37,509.90,511.37,513.71,515.93,517.83,518.76,519.00,518.88,517.95,516.38,514.65,512.96,511.35,510.31,509.81,509.68,509.59,509.45,509.35,509.24,509.11,509.02,508.88,508.76,508.66,508.52,508.41,508.28,508.14,508.04,507.91,507.76,507.63,507.50,507.38,507.28,507.21,507.15,507.12,507.07,507.00,506.94,506.91,506.84,506.82,506.76,506.64,506.55,506.41,506.31,506.22,506.16,506.15,506.26,506.41,506.57,506.72,506.88,507.03,507.19,507.33,507.42,507.55,507.68,507.79,507.92,508.01,508.10,508.20,508.33,508.42,508.46,508.49,508.55,508.64,508.73,508.84,508.99,509.15,509.28,509.41,509.50,509.52,509.58,509.56,509.50,509.44,509.29,509.19,509.12,509.02,508.88,508.78,508.70,508.61,508.47,508.45,508.41,508.37,508.35,508.35,508.35,508.35,508.35,508.35,508.35,508.30,508.25,508.25,508.25,508.25,508.25,508.25,508.22,508.17,508.15,508.15,508.13,508.13,508.11,508.07,508.03,508.02,507.96,507.85,507.68
495.00,494.99,494.88,494.74,494.57,494.36,494.13,493.94,493.75,493.54,493.31,493.12,492.95,492.85,492.89,492.95,493.03,493.12,493.24,493.36,493.44,493.53,493.64,493.70,493.69,493.63,493.53,493.43,493.44,493.62,493.81,493.97,494.15,494.25,494.32,494.40,494.48,494.52,494.62,494.71,494.77,494.78,494.78,494.80,494.83,494.79,494.78,494.78,494.81,494.92,495.03,495.20,495.30,495.28,495.21,495.17,495.27,495.52,495.87,496.23,496.42,496.50,496.50,496.50,496.54,496.63,496.78,496.99,497.22,497.44,497.68,497.90,498.09,498.22,498.31,498.38,498.42,498.48,498.54,498.59,498.62,498.66,498.70,498.75,498.81,498.82,498.82,498.82,498.82,498.82,498.86,498.88,498.91,498.97,499.01,499.05,499.09,499.12,499.12,499.12,499.15,499.18,499.17,499.13,499.05,499.00,499.06,499.20,499.40,499.60,499.86,500.32,500.94,501.58,502.19,502.78,503.36,503.94,504.47,504.97,505.47,505.89,506.30,506.73,507.16,507.63,508.06,508.45,508.82,509.20,509.59,510.56,512.26,514.25,515.73,516.30,516.41,516.56,516.32,515.17,513.59,511.93,510.64,510.05,509.79,509.67,509.56,509.44,509.33,509.22,509.09,508.98,508.87,508.75,508.64,508.52,508.43,508.31,508.18,508.09,507.95,507.81,507.70,507.62,507.50,507.44,507.38,507.31,507.27,507.20,507.15,507.11,507.07,507.00,506.98,506.90,506.77,506.68,506.54,506.43,506.35,506.25,506.24,506.35,506.50,506.66,506.81,506.97,507.12,507.27,507.43,507.54,507.68,507.80,507.89,508.01,508.12,508.22,508.31,508.45,508.54,508.58,508.59,508.64,508.72,508.79,508.90,509.05,509.21,509.37,509.52,509.65,509.68,509.75,509.73,509.65,509.56,509.42,509.32,509.25,509.15,509.00,508.91,508.83,508.74,508.60,508.58,508.52,508.48,508.48,508.48,508.48,508.48,508.48,508.48,508.48,508.43,508.38,508.38,508.38,508.38,508.38,508.38,508.38,508.31,508.28,508.28,508.28,508.28,508.28,508.26,508.22,508.22,508.16,508.04,507.88
495.00,494.99,494.93,494.79,494.64,494.47,494.25,494.03,493.83,493.65,493.43,493.20,493.02,492.93,493.01,493.08,493.16,493.27,493.41,493.50,493.58,493.69,493.82,493.89,493.83,493.76,493.68,493.60,493.53,493.68,493.87,494.04,494.25,494.37,494.45,494.53,494.60,494.61,494.71,494.84,494.93,494.95,494.95,494.95,494.94,494.94,494.93,494.93,494.97,495.12,495.28,495.49,495.62,495.61,495.53,495.45,495.50,495.69,496.00,496.32,496.62,496.80,496.81,496.81,496.82,496.82,496.87,497.01,497.22,497.44,497.68,497.91,498.14,498.31,498.44,498.52,498.59,498.67,498.71,498.74,498.80,498.82,498.87,498.94,499.00,499.00,499.00,499.00,499.00,499.00,499.00,499.01,499.03,499.11,499.18,499.21,499.25,499.31,499.31,499.31,499.32,499.32,499.31,499.30,499.20,499.12,499.14,499.27,499.42,499.57,499.76,500.09,500.63,501.24,501.91,502.66,503.42,504.09,504.68,505.21,505.68,506.08,506.49,506.90,507.34,507.78,508.07,508.33,508.65,509.03,509.40,509.93,510.87,512.58,513.26,513.27,513.18,513.56,514.20,513.57,512.15,510.51,509.58,509.62,509.72,509.65,509.51,509.42,509.29,509.16,509.07,508.94,508.83,508.72,508.59,508.50,508.42,508.30,508.17,508.08,507.94,507.85,507.77,507.71,507.64,507.61,507.56,507.49,507.42,507.35,507.31,507.28,507.21,507.14,507.12,507.04,506.90,506.81,506.67,506.56,506.47,506.33,506.31,506.42,506.57,506.72,506.88,507.03,507.19,507.34,507.50,507.65,507.80,507.93,508.01,508.10,508.23,508.35,508.44,508.58,508.67,508.71,508.71,508.72,508.78,508.86,508.97,509.12,509.27,509.43,509.59,509.72,509.78,509.85,509.83,509.75,509.66,509.52,509.43,509.36,509.27,509.13,509.04,508.97,508.87,508.73,508.71,508.66,508.62,508.61,508.61,508.61,508.61,508.61,508.61,508.61,508.57,508.52,508.52,508.51,508.51,508.51,508.51,508.50,508.45,508.42,508.42,508.42,508.42,508.42,508.41,508.40,508.40,508.34,508.24,508.10
495.00,495.00,494.93,494.80,494.64,494.49,494.31,494.13,493.94,493.73,493.50,493.31,493.15,493.06,493.14,493.22,493.29,493.40,493.54,493.63,493.74,493.86,493.95,494.02,493.97,493.89,493.81,493.74,493.66,493.73,493.90,494.10,494.28,494.46,494.58,494.66,494.73,494.74,494.81,494.96,495.19,495.35,495.34,495.29,495.25,495.24,495.20,495.18,495.21,495.33,495.52,495.75,495.90,495.93,495.85,495.73,495.70,495.82,496.13,496.44,496.75,496.98,497.07,497.07,497.07,497.07,497.07,497.09,497.24,497.44,497.68,497.91,498.14,498.36,498.53,498.65,498.73,498.80,498.87,498.93,499.00,499.01,499.06,499.12,499.14,499.14,499.14,499.14,499.14,499.14,499.14,499.14,499.16,499.24,499.32,499.38,499.44,499.50,499.51,499.51,499.51,499.51,499.50,499.40,499.34,499.28,499.26,499.35,499.45,499.55,499.67,499.89,500.26,500.83,501.53,502.31,503.13,503.88,504.55,505.12,505.59,505.99,506.46,507.05,507.71,508.02,508.16,508.31,508.63,508.96,509.29,509.66,510.17,510.96,510.83,510.51,510.46,511.02,511.81,511.81,511.09,509.95,509.25,509.28,509.49,509.59,509.45,509.35,509.23,509.10,509.02,508.92,508.80,508.68,508.58,508.45,508.37,508.24,508.10,508.03,507.93,507.88,507.86,507.84,507.81,507.76,507.70,507.64,507.60,507.53,507.47,507.43,507.40,507.32,507.27,507.17,507.03,506.94,506.80,506.69,506.59,506.45,506.38,506.48,506.63,506.78,506.94,507.10,507.25,507.40,507.56,507.72,507.87,508.01,508.13,508.22,508.36,508.47,508.55,508.66,508.79,508.84,508.84,508.84,508.86,508.93,509.03,509.19,509.34,509.50,509.65,509.77,509.80,509.82,509.78,509.71,509.62,509.52,509.44,509.39,509.35,509.25,509.17,509.10,509.00,508.86,508.84,508.82,508.78,508.74,508.74,508.74,508.74,508.74,508.74,508.74,508.72,508.71,508.70,508.65,508.64,508.64,508.64,508.64,508.62,508.61,508.61,508.61,508.61,508.57,508.54,508.54,508.54,508.47,508.44,508.42
495.00,495.00,494.93,494.80,494.64,494.50,494.37,494.22,494.02,493.80,493.59,493.41,493.26,493.19,493.27,493.35,493.44,493.56,493.68,493.78,493.91,494.01,494.08,494.15,494.12,494.05,493.96,493.87,493.79,493.81,493.93,494.13,494.31,494.51,494.67,494.79,494.86,494.87,494.96,495.17,495.49,495.71,495.69,495.60,495.53,495.53,495.46,495.44,495.46,495.56,495.75,495.98,496.16,496.25,496.18,496.04,495.94,495.99,496.30,496.61,496.91,497.18,497.36,497.37,497.37,497.37,497.35,497.29,497.32,497.46,497.68,497.91,498.14,498.37,498.57,498.72,498.85,498.94,499.02,499.12,499.17,499.19,499.25,499.30,499.30,499.30,499.30,499.30,499.30,499.30,499.30,499.30,499.32,499.37,499.45,499.52,499.60,499.67,499.69,499.70,499.70,499.69,499.66,499.57,499.52,499.48,499.46,499.55,499.61,499.66,499.72,499.83,500.04,500.56,501.27,502.03,502.89,503.68,504.39,505.03,505.56,506.07,506.67,507.38,508.10,508.28,508.30,508.39,508.63,508.94,509.24,509.53,509.79,509.98,509.60,509.18,509.11,509.68,510.31,510.53,510.30,509.72,509.32,509.19,509.28,509.42,509.39,509.30,509.18,509.06,508.97,508.88,508.75,508.63,508.53,508.39,508.30,508.20,508.12,508.07,508.02,508.00,507.99,507.97,507.96,507.91,507.82,507.77,507.76,507.69,507.62,507.57,507.56,507.49,507.41,507.29,507.16,507.07,506.96,506.84,506.73,506.61,506.52,506.57,506.70,506.85,507.00,507.16,507.30,507.44,507.59,507.75,507.92,508.10,508.26,508.35,508.47,508.58,508.68,508.76,508.88,508.95,508.97,508.97,508.97,509.00,509.10,509.25,509.40,509.56,509.69,509.76,509.76,509.74,509.70,509.64,509.56,509.49,509.40,509.35,509.32,509.25,509.19,509.14,509.07,508.98,508.97,508.97,508.95,508.91,508.90,508.90,508.89,508.87,508.87,508.87,508.87,508.87,508.86,508.81,508.80,508.80,508.79,508.77,508.77,508.77,508.77,508.77,508.77,508.73,508.69,508.67,508.67,508.63,508.63,508.66
495.00,495.00,494.93,494.80,494.64,494.50,494.41,494.27,494.08,493.87,493.70,493.49,493.35,493.31,493.40,493.48,493.61,493.72,493.82,493.96,494.05,494.14,494.22,494.28,494.29,494.24,494.14,494.00,493.92,493.90,493.98,494.15,494.36,494.53,494.73,494.92,495.02,495.03,495.18,495.46,495.81,496.03,495.97,495.86,495.80,495.79,495.72,495.69,495.72,495.80,495.96,496.18,496.40,496.55,496.50,496.36,496.21,496.19,496.49,496.79,497.10,497.41,497.66,497.68,497.69,497.69,497.67,497.59,497.47,497.52,497.68,497.91,498.14,498.37,498.57,498.74,498.94,499.06,499.18,499.29,499.31,499.37,499.44,499.49,499.50,499.50,499.50,499.50,499.50,499.50,499.50,499.50,499.50,499.51,499.58,499.66,499.74,499.83,499.91,499.94,499.94,499.90,499.82,499.80,499.75,499.70,499.74,499.88,499.94,499.95,499.96,499.97,500.02,500.45,501.15,501.90,502.81,503.60,504.33,505.04,505.66,506.38,507.13,507.86,508.47,508.52,508.50,508.53,508.66,508.93,509.23,509.46,509.59,509.61,509.46,509.13,508.98,509.41,509.71,509.79,509.76,509.69,509.62,509.31,509.14,509.20,509.34,509.25,509.14,509.04,508.90,508.81,508.69,508.57,508.47,508.34,508.25,508.22,508.21,508.20,508.19,508.19,508.16,508.10,508.10,508.03,507.96,507.91,507.89,507.82,507.75,507.70,507.69,507.62,507.54,507.43,507.29,507.21,507.13,507.00,506.88,506.80,506.71,506.69,506.76,506.91,507.06,507.22,507.34,507.44,507.60,507.75,507.95,508.17,508.38,508.48,508.56,508.67,508.81,508.89,508.97,509.04,509.10,509.10,509.10,509.10,509.17,509.32,509.47,509.61,509.68,509.70,509.69,509.63,509.60,509.57,509.50,509.42,509.35,509.28,509.21,509.14,509.12,509.12,509.11,509.10,509.10,509.10,509.10,509.09,509.09,509.09,509.05,509.01,509.00,509.00,509.00,509.00,509.00,508.99,508.99,508.99,508.98,508.92,508.91,508.91,508.91,508.90,508.90,508.89,508.87,508.81,508.80,508.80,508.80,508.80
