508.08,508.08,508.08,508.09,508.11,508.12,508.16,508.18,508.18,508.18,508.17,508.13,508.11,508.10,508.07,508.02,508.01,508.00,507.97,507.97,507.93,507.91,507.90,507.83,507.71,507.71,507.78,507.88,507.95,508.03,508.11,508.19,508.26,508.34,508.42,508.50,508.56,508.58,508.58,508.58,508.58,508.58,508.58,508.62,508.67,508.68,508.75,508.77,508.80,508.87,508.88,508.88,508.86,508.84,508.84,508.84,508.84,508.85,508.91,509.05,509.15,509.23,509.33,509.47,509.56,509.64,509.73,509.84,510.03,510.30,510.59,510.86,511.13,511.44,511.75,512.06,512.36,512.63,512.92,513.23,513.52,513.77,513.97,514.15,514.35,514.51,514.64,514.80,515.01,515.34,516.00,516.69,517.35,517.98,518.67,519.44,520.22,520.91,521.44,521.89,522.40,522.96,523.54,524.26,525.08,525.92,526.73,527.48,528.05,528.54,528.99,529.35,529.50,529.69,529.96,530.31,530.71,530.99,531.63,533.00,535.26,537.20,538.88,541.88,548.42,553.53,558.07,562.40,566.54,570.15,571.86,572.69,573.27,574.08,575.23,576.54,577.87,579.16,580.65,581.78,582.79,583.85,585.07,586.81,589.04,591.43,593.56,595.86,597.96,599.95,601.88,603.68,605.66,608.25,611.40,614.73,619.39,624.47,628.93,631.73,633.48,633.71,633.62,634.22,636.80,641.93,647.77,653.28,657.81,663.09,669.32,675.43,680.76,686.47,689.97,691.49,691.51,690.92,690.33,689.45,688.44,687.13,683.25,678.85,674.84,671.40,668.01,664.90,661.71,659.05,658.64,660.73,664.94,670.52,677.01,683.28,689.53,696.82,705.87,717.23,728.88,739.12,747.71,754.68,761.47,767.34,771.23,772.31,770.91,768.01,764.47,761.36,760.42,761.16,762.57,764.38,766.65,769.14,771.17,773.14,774.96,775.77,776.32,776.22,775.79,775.37,774.10,772.14,768.88,763.50,755.68,747.06,739.11,732.79,729.45,727.57,731.79,739.41,747.27,753.56,757.99,761.71,764.94,767.16,768.89,770.34,771.91,773.83,774.21,774.58,774.86,774.89,775.07,775.65,777.07,779.22
508.21,508.21,508.21,508.25,508.29,508.30,508.31,508.31,508.31,508.31,508.31,508.30,508.29,508.27,508.22,508.20,508.20,508.17,508.12,508.11,508.11,508.10,508.06,507.92,507.82,507.80,507.86,508.00,508.08,508.16,508.25,508.33,508.40,508.48,508.56,508.63,508.69,508.70,508.70,508.70,508.70,508.70,508.70,508.75,508.80,508.81,508.88,508.90,508.93,509.00,509.00,509.00,508.96,508.91,508.91,508.91,508.91,508.91,508.94,509.06,509.15,509.23,509.33,509.47,509.56,509.64,509.74,509.89,510.04,510.30,510.61,510.90,511.15,511.44,511.75,512.06,512.37,512.67,512.97,513.28,513.58,513.83,514.06,514.26,514.42,514.58,514.78,515.02,515.30,515.72,516.53,517.36,518.10,518.75,519.46,520.26,521.03,521.71,522.31,522.75,523.19,523.66,524.16,524.80,525.60,526.42,527.21,528.04,528.70,529.26,529.73,530.12,530.43,530.68,530.98,531.36,531.80,532.15,533.18,535.15,537.45,539.57,541.27,543.57,548.17,553.05,557.60,561.78,565.45,568.19,569.57,570.41,571.17,572.18,573.54,575.18,576.87,578.52,580.58,582.74,584.84,586.76,588.34,590.16,592.42,594.97,597.49,599.94,601.93,603.75,605.68,607.79,610.00,613.36,617.90,622.80,627.99,634.16,639.82,642.88,644.23,643.38,642.17,641.82,643.26,647.33,651.98,656.48,660.78,665.28,671.45,678.34,685.25,692.77,697.00,698.83,699.04,698.51,697.67,696.42,694.82,692.74,689.43,684.24,679.48,675.87,671.36,667.90,664.76,662.16,661.56,664.51,668.54,673.00,678.04,683.79,690.08,697.47,706.48,717.74,729.92,740.58,749.35,756.54,764.15,769.07,772.06,773.34,772.41,770.72,767.90,764.91,763.98,764.21,764.54,764.84,765.49,767.61,769.76,771.99,774.44,777.00,779.00,779.69,779.16,777.26,773.27,770.34,767.29,762.81,756.30,749.16,743.57,739.63,736.07,730.64,729.46,733.48,741.99,748.37,752.52,755.72,758.51,761.02,763.18,765.31,767.59,770.11,772.54,775.68,778.09,778.92,779.30,779.57,780.53,782.30
508.40,508.40,508.40,508.42,508.43,508.44,508.49,508.50,508.50,508.50,508.50,508.45,508.43,508.43,508.40,508.35,508.33,508.32,508.30,508.30,508.30,508.25,508.14,508.03,507.91,507.90,507.99,508.13,508.22,508.29,508.40,508.51,508.59,508.67,508.75,508.80,508.83,508.83,508.83,508.83,508.83,508.83,508.83,508.88,508.93,508.94,509.00,509.03,509.06,509.13,509.13,509.09,509.03,508.97,508.97,508.97,509.00,509.03,509.04,509.09,509.15,509.23,509.33,509.47,509.56,509.64,509.74,509.89,510.04,510.30,510.61,510.91,511.20,511.50,511.79,512.06,512.37,512.67,512.98,513.29,513.60,513.88,514.13,514.33,514.49,514.69,514.88,515.20,515.61,516.00,516.83,517.76,518.64,519.47,520.32,521.13,521.86,522.49,523.10,523.62,524.06,524.49,524.95,525.39,526.08,526.89,527.72,528.56,529.31,530.00,530.63,531.11,531.49,531.80,532.12,532.50,532.87,533.63,534.96,536.83,538.78,540.92,542.99,545.14,548.02,552.61,557.06,560.87,563.77,565.67,566.74,567.82,569.12,570.52,572.01,573.52,575.18,577.25,579.62,582.00,584.64,587.55,590.17,592.77,595.37,598.04,600.84,603.23,605.30,607.48,610.33,614.49,618.11,621.87,626.90,634.78,640.78,646.37,651.20,654.00,654.58,652.04,649.32,647.77,647.03,650.38,655.03,659.62,663.50,667.50,673.47,681.58,691.17,698.73,702.94,705.24,706.28,706.27,705.42,703.85,701.81,699.43,696.54,692.09,687.14,682.08,676.42,672.29,668.69,665.81,665.34,668.72,672.95,677.27,681.69,686.38,690.93,697.24,705.87,716.06,728.29,738.98,747.70,755.14,763.65,768.97,771.87,773.00,772.89,771.68,769.81,768.04,767.57,767.69,767.67,767.44,767.19,767.43,768.95,771.22,773.92,776.78,779.20,780.44,780.02,777.06,771.80,768.10,764.93,761.15,756.13,750.38,747.89,747.87,745.64,739.38,733.09,730.48,734.34,740.83,745.40,748.73,751.26,753.09,755.10,758.16,761.76,765.04,768.24,771.83,775.69,779.34,781.46,782.85,784.22,785.91
508.59,508.59,508.59,508.59,508.59,508.60,508.65,508.66,508.66,508.66,508.66,508.62,508.59,508.59,508.55,508.51,508.49,508.49,508.49,508.49,508.45,508.34,508.21,508.13,507.99,508.00,508.11,508.24,508.34,508.44,508.56,508.68,508.75,508.83,508.91,508.96,508.96,508.96,508.96,508.96,508.96,508.96,508.96,509.00,509.06,509.07,509.13,509.16,509.18,509.23,509.23,509.17,509.09,509.03,509.03,509.05,509.09,509.13,509.13,509.13,509.17,509.23,509.33,509.47,509.56,509.64,509.74,509.89,510.07,510.31,510.61,510.92,511.22,511.53,511.82,512.09,512.39,512.70,513.01,513.32,513.60,513.90,514.18,514.40,514.59,514.79,515.02,515.39,515.87,516.28,517.10,518.05,519.00,519.89,520.83,521.64,522.40,523.14,523.87,524.46,524.94,525.36,525.81,526.18,526.66,527.33,528.18,529.05,529.90,530.75,531.54,532.16,532.61,532.95,533.30,533.70,534.06,534.86,536.15,537.86,539.61,541.78,544.06,546.19,548.20,552.11,556.09,559.40,561.64,562.89,564.03,565.48,567.21,568.83,570.37,571.86,573.63,575.99,578.51,581.06,584.05,587.58,591.04,594.50,597.76,600.91,604.12,606.85,609.46,612.52,616.69,622.28,627.40,631.66,636.36,644.43,650.34,655.87,660.65,663.24,663.07,659.35,655.33,652.59,650.84,653.81,658.28,662.68,666.41,670.49,676.55,685.31,696.18,703.45,707.91,710.87,712.66,713.01,712.35,710.83,708.71,706.13,703.22,699.36,694.54,688.83,682.97,677.98,673.50,670.01,669.32,673.26,678.18,682.88,687.03,690.86,693.91,698.44,705.10,713.11,724.09,734.55,743.38,750.62,759.22,765.25,769.02,771.01,772.02,771.45,770.56,769.99,770.18,770.48,770.46,770.25,769.79,768.46,768.99,770.84,773.48,776.29,778.83,780.63,780.52,776.72,771.00,766.98,763.75,760.28,756.14,752.46,752.61,754.73,752.62,746.76,738.85,732.52,731.25,734.49,737.82,741.06,744.06,745.97,747.88,750.94,754.82,758.76,763.12,767.08,771.51,776.70,780.96,783.98,786.49,788.78
508.78,508.78,508.78,508.78,508.78,508.78,508.79,508.80,508.80,508.80,508.80,508.79,508.78,508.76,508.70,508.69,508.69,508.68,508.68,508.67,508.56,508.41,508.28,508.19,508.05,508.10,508.22,508.31,508.46,508.60,508.72,508.80,508.88,508.96,509.04,509.09,509.09,509.09,509.09,509.09,509.09,509.09,509.09,509.13,509.19,509.20,509.26,509.29,509.29,509.30,509.30,509.24,509.16,509.10,509.10,509.16,509.19,509.19,509.19,509.19,509.20,509.24,509.33,509.47,509.56,509.64,509.74,509.90,510.11,510.35,510.62,510.93,511.23,511.54,511.85,512.15,512.45,512.76,513.07,513.36,513.62,513.91,514.22,514.48,514.70,514.88,515.21,515.64,516.10,516.59,517.36,518.24,519.10,519.91,520.87,521.70,522.57,523.55,524.51,525.23,525.78,526.26,526.73,527.18,527.38,527.75,528.58,529.49,530.46,531.44,532.39,533.19,533.74,534.13,534.49,534.95,535.39,535.78,536.69,538.28,540.04,542.22,544.48,546.62,548.64,551.50,554.64,557.38,559.17,560.06,561.65,563.57,565.52,567.17,568.69,570.39,572.43,574.95,577.49,580.23,583.43,587.16,591.04,595.29,599.49,603.50,607.34,610.89,614.51,618.97,624.75,630.79,637.09,641.84,645.47,650.63,655.58,661.81,667.56,670.00,669.29,665.15,660.31,656.54,655.26,658.09,661.96,665.81,669.77,674.42,680.85,689.52,699.85,706.83,711.92,715.70,718.06,718.55,718.30,717.33,715.58,712.83,709.42,705.71,701.19,695.77,690.62,684.78,679.31,675.01,673.68,678.26,684.16,689.54,693.75,697.16,699.50,701.97,705.24,709.98,718.12,727.64,736.49,743.13,750.89,757.60,763.01,766.96,769.44,769.85,769.92,770.34,771.36,772.14,772.56,772.89,772.93,770.80,770.15,771.07,773.20,775.77,778.26,780.68,781.06,776.64,771.08,767.13,763.85,760.34,756.50,755.52,757.51,759.63,756.22,751.53,745.74,739.62,734.20,731.02,731.13,733.80,737.88,740.66,742.38,744.29,747.12,751.63,757.52,762.11,766.40,771.50,777.83,782.59,786.77,790.30
508.92,508.92,508.92,508.92,508.92,508.93,508.97,508.98,508.98,508.98,508.98,508.94,508.92,508.91,508.88,508.88,508.85,508.82,508.81,508.76,508.63,508.50,508.39,508.27,508.16,508.19,508.30,508.44,508.59,508.70,508.82,508.94,509.01,509.09,509.17,509.22,509.22,509.22,509.22,509.22,509.22,509.22,509.22,509.26,509.32,509.33,509.40,509.42,509.42,509.41,509.37,509.30,509.24,509.21,509.18,509.23,509.26,509.26,509.26,509.26,509.26,509.29,509.38,509.48,509.56,509.67,509.78,509.90,510.12,510.38,510.67,510.98,511.29,511.60,511.90,512.20,512.47,512.77,513.08,513.38,513.66,513.97,514.28,514.55,514.79,515.04,515.48,515.94,516.41,516.89,517.48,518.11,518.78,519.52,520.28,521.13,522.10,523.23,524.45,525.56,526.40,527.02,527.57,528.04,528.29,528.52,528.99,529.84,530.85,531.90,532.94,533.92,534.78,535.37,535.83,536.28,536.71,536.83,537.47,538.84,540.32,542.28,544.35,546.37,548.34,550.50,552.95,555.25,557.04,558.46,560.34,562.35,564.33,566.26,568.04,569.97,572.13,574.56,577.05,579.82,583.08,586.87,590.84,595.32,600.03,604.84,609.68,614.19,619.02,624.94,632.22,639.09,644.67,648.44,651.12,655.12,660.31,666.40,671.56,673.47,672.82,669.46,665.16,661.39,660.38,662.58,665.95,669.90,674.64,679.20,685.53,693.71,702.98,709.94,715.22,719.53,722.66,723.61,724.38,724.68,723.77,720.72,716.86,713.08,708.15,701.80,696.25,691.17,686.49,682.44,680.46,684.69,690.06,695.25,700.08,704.20,707.74,710.39,712.22,714.00,717.03,721.84,728.00,734.94,741.55,747.82,753.68,758.99,763.62,765.25,766.22,767.58,769.70,771.44,773.45,775.34,776.23,774.79,773.67,773.17,773.57,775.47,777.80,780.75,781.67,776.94,771.49,766.85,762.95,759.68,757.07,757.52,760.33,762.69,759.49,755.01,750.91,746.88,742.25,737.05,733.64,734.35,738.43,740.39,740.06,739.76,741.34,746.47,751.82,756.76,761.88,767.70,774.23,779.31,784.04,788.27
509.07,509.07,509.07,509.07,509.07,509.08,509.14,509.15,509.15,509.15,509.15,509.10,509.07,509.07,509.05,509.05,509.01,508.97,508.94,508.84,508.71,508.60,508.49,508.34,508.25,508.29,508.41,508.56,508.69,508.80,508.93,509.06,509.14,509.22,509.30,509.35,509.35,509.35,509.35,509.35,509.35,509.35,509.35,509.39,509.45,509.45,509.50,509.52,509.52,509.51,509.45,509.38,509.34,509.31,509.26,509.30,509.32,509.33,509.35,509.35,509.35,509.37,509.44,509.49,509.56,509.67,509.80,509.90,510.12,510.40,510.71,511.02,511.33,511.65,511.97,512.27,512.52,512.82,513.12,513.41,513.73,514.03,514.33,514.60,514.88,515.29,515.79,516.30,516.78,517.22,517.67,518.13,518.65,519.30,519.90,520.80,521.89,523.15,524.54,525.87,526.86,527.59,528.23,528.79,529.21,529.45,529.63,530.28,531.26,532.34,533.41,534.50,535.60,536.45,537.10,537.63,538.01,537.99,538.38,539.44,540.63,542.29,544.14,546.04,547.89,549.62,551.55,553.61,555.69,557.71,559.84,561.98,564.11,566.31,568.35,570.46,572.62,574.82,577.19,579.92,583.18,586.97,590.87,595.35,600.30,605.61,611.19,616.63,623.09,630.66,638.90,645.83,650.32,653.22,655.62,659.44,664.80,670.26,674.58,676.46,676.47,674.32,670.86,667.25,666.30,667.81,671.19,675.96,681.69,686.24,691.69,698.36,705.92,712.35,717.64,722.62,726.85,728.63,730.29,731.35,731.06,728.36,724.14,720.70,716.10,709.41,702.60,697.40,693.17,689.61,687.49,691.23,695.90,700.98,706.81,712.09,716.83,720.10,721.54,721.37,720.41,720.94,723.91,729.80,734.91,740.23,745.71,751.28,756.84,759.67,761.78,764.14,767.19,770.03,773.70,777.23,779.19,778.71,777.34,775.78,774.70,775.46,777.51,780.69,781.95,777.37,772.08,767.02,762.80,759.88,758.37,759.63,762.89,765.73,763.68,759.28,755.80,752.84,749.08,743.52,738.18,738.01,742.59,743.91,741.87,739.37,738.73,742.12,746.34,751.56,757.62,764.37,771.09,776.00,780.65,785.14
509.27,509.27,509.27,509.27,509.27,509.27,509.28,509.28,509.28,509.28,509.28,509.27,509.26,509.25,509.19,509.19,509.18,509.14,509.06,508.92,508.82,508.70,508.55,508.40,508.32,508.39,508.53,508.68,508.77,508.90,509.05,509.19,509.27,509.35,509.43,509.48,509.48,509.48,509.48,509.48,509.48,509.48,509.48,509.52,509.58,509.58,509.59,509.59,509.59,509.58,509.51,509.48,509.44,509.39,509.38,509.39,509.39,509.42,509.47,509.48,509.48,509.48,509.49,509.50,509.56,509.65,509.75,509.90,510.12,510.40,510.71,511.02,511.33,511.69,512.03,512.34,512.64,512.94,513.22,513.48,513.79,514.10,514.36,514.63,515.00,515.62,516.19,516.73,517.23,517.63,518.02,518.45,518.95,519.52,520.08,521.06,522.29,523.67,525.11,526.28,527.16,527.88,528.63,529.37,530.09,530.52,530.59,530.89,531.75,532.79,533.87,534.96,536.10,537.20,538.19,538.93,539.32,539.29,539.46,540.10,541.07,542.36,543.99,545.79,547.49,549.03,550.70,552.81,555.45,557.90,560.28,562.74,565.24,567.61,569.87,572.08,574.13,575.95,578.10,580.79,584.04,587.75,591.46,595.72,600.59,605.95,611.73,618.07,626.69,636.05,644.39,650.10,653.59,656.39,659.53,664.10,669.04,673.45,677.14,679.89,681.29,680.57,677.98,674.46,673.30,674.32,678.45,684.87,691.65,696.54,700.08,703.90,708.94,713.85,719.01,724.90,730.69,733.81,735.92,736.74,736.55,735.19,730.85,728.41,725.40,719.64,710.76,703.64,698.80,695.67,694.12,697.39,701.68,707.10,714.26,720.98,726.26,730.11,732.18,731.66,729.34,727.56,727.51,730.08,733.35,737.30,741.49,745.76,750.04,753.86,757.38,760.82,764.47,768.40,773.40,778.31,781.54,781.93,780.52,778.60,776.83,775.94,777.48,780.38,781.70,777.93,772.93,768.11,764.21,761.72,760.71,762.25,765.73,769.31,769.36,765.23,760.92,756.84,752.43,747.60,742.86,743.83,749.91,751.53,749.06,744.80,740.61,738.71,741.46,746.84,753.57,761.14,768.58,773.15,777.21,781.48
509.46,509.46,509.46,509.46,509.46,509.46,509.46,509.46,509.46,509.46,509.46,509.43,509.41,509.40,509.37,509.37,509.34,509.26,509.13,508.98,508.89,508.77,508.62,508.48,508.42,508.51,508.65,508.76,508.89,509.03,509.17,509.28,509.40,509.48,509.55,509.61,509.61,509.61,509.61,509.61,509.61,509.61,509.61,509.63,509.67,509.70,509.71,509.71,509.70,509.65,509.62,509.58,509.52,509.46,509.45,509.45,509.48,509.52,509.55,509.56,509.56,509.56,509.56,509.56,509.62,509.68,509.74,509.89,510.12,510.40,510.71,511.02,511.37,511.72,512.05,512.36,512.66,512.97,513.28,513.60,513.90,514.18,514.45,514.77,515.24,515.99,516.71,517.34,517.85,518.26,518.55,518.86,519.32,520.03,520.74,521.66,522.86,524.29,525.68,526.69,527.48,528.19,528.98,529.82,530.80,531.45,531.53,531.62,532.28,533.25,534.34,535.46,536.61,537.77,538.90,539.89,540.50,540.62,540.76,541.18,541.93,542.83,544.00,545.40,546.97,548.49,549.87,551.92,555.14,558.35,561.07,563.68,566.34,568.98,571.92,574.72,576.91,578.28,580.34,583.05,586.31,590.00,593.64,597.31,601.86,607.20,613.15,620.66,630.27,640.03,647.96,652.71,656.00,659.84,664.47,668.85,672.93,677.14,681.45,685.37,687.60,687.71,685.84,682.68,681.23,683.36,688.37,695.02,701.70,706.70,709.72,712.02,714.51,717.37,721.86,727.87,734.42,739.13,741.95,742.81,742.50,741.49,738.88,736.45,733.20,727.82,719.34,711.92,706.69,703.17,700.76,702.48,707.14,713.75,721.64,728.58,734.24,738.74,741.78,742.51,740.51,737.44,735.55,737.10,739.47,742.51,745.41,747.71,749.75,752.60,756.20,760.20,764.07,768.15,773.65,779.17,783.06,784.99,784.52,782.17,779.01,777.64,778.03,780.18,781.71,779.35,774.78,770.33,766.86,764.61,763.15,764.76,768.22,772.20,774.46,771.95,767.63,762.78,757.70,752.15,747.18,747.80,753.77,757.08,755.67,751.14,745.28,740.33,740.12,744.07,749.70,755.87,762.63,768.47,773.65,778.46
509.66,509.66,509.66,509.65,509.64,509.64,509.64,509.64,509.64,509.64,509.64,509.58,509.56,509.56,509.56,509.54,509.47,509.36,509.20,509.06,508.96,508.83,508.69,508.56,508.52,508.62,508.75,508.86,509.00,509.15,509.26,509.37,509.52,509.62,509.70,509.74,509.74,509.74,509.74,509.74,509.74,509.76,509.76,509.76,509.77,509.83,509.86,509.84,509.80,509.74,509.72,509.66,509.58,509.52,509.52,509.52,509.56,509.62,509.62,509.64,509.64,509.64,509.64,509.64,509.69,509.72,509.75,509.90,510.12,510.40,510.71,511.04,511.41,511.74,512.05,512.36,512.66,512.98,513.34,513.69,513.99,514.24,514.55,514.95,515.52,516.35,517.19,517.91,518.49,518.95,519.16,519.38,519.82,520.64,521.50,522.37,523.49,524.90,526.20,527.06,527.79,528.52,529.31,530.25,531.38,532.24,532.46,532.43,532.86,533.71,534.82,535.97,537.13,538.29,539.48,540.67,541.57,541.94,542.16,542.47,543.07,543.68,544.42,545.38,546.63,548.01,549.17,551.19,554.76,558.62,561.64,564.38,567.12,570.02,573.83,577.45,580.06,581.30,583.41,586.27,589.68,593.45,596.92,600.04,604.21,609.34,615.14,623.63,633.52,642.98,650.38,654.65,658.47,663.56,669.42,673.46,677.04,681.73,687.13,692.01,694.78,695.47,694.04,691.10,689.74,692.60,697.81,704.18,710.84,715.99,719.06,720.72,721.50,722.43,725.49,730.82,737.73,744.19,748.18,749.54,749.28,748.33,747.10,744.55,740.70,735.40,728.62,721.61,715.68,710.91,707.40,707.49,712.40,719.96,728.14,734.88,740.97,746.39,750.73,752.82,751.12,747.81,745.50,746.52,748.03,750.03,751.62,752.25,752.35,753.75,756.85,760.99,764.91,768.84,774.23,779.78,784.05,787.44,788.15,785.99,782.13,780.13,779.26,780.57,782.28,781.36,777.38,773.57,770.27,767.47,765.60,767.21,770.81,775.24,778.94,777.87,773.69,768.24,762.48,756.36,751.23,751.19,756.40,761.08,761.04,757.01,750.76,744.47,741.54,742.92,746.40,750.94,756.75,763.53,770.00,775.75
509.86,509.86,509.86,509.81,509.77,509.77,509.77,509.77,509.77,509.77,509.77,509.76,509.75,509.75,509.75,509.69,509.57,509.42,509.28,509.18,509.05,508.90,508.76,508.68,508.61,508.69,508.84,508.98,509.13,509.24,509.35,509.50,509.65,509.80,509.86,509.87,509.87,509.88,509.88,509.88,509.89,509.94,509.96,509.96,509.96,509.98,510.03,509.97,509.88,509.86,509.80,509.73,509.64,509.59,509.59,509.59,509.63,509.69,509.69,509.75,509.77,509.77,509.77,509.77,509.78,509.78,509.81,509.91,510.12,510.40,510.73,511.10,511.42,511.74,512.05,512.36,512.67,513.03,513.37,513.69,514.00,514.29,514.65,515.14,515.83,516.66,517.51,518.34,519.10,519.65,519.88,520.12,520.56,521.32,522.21,523.12,524.20,525.44,526.55,527.34,528.08,528.84,529.65,530.66,531.81,532.80,533.40,533.39,533.51,534.19,535.33,536.49,537.65,538.81,540.02,541.29,542.41,543.18,543.65,543.96,544.56,545.12,545.70,546.28,546.82,547.65,548.80,550.86,554.29,558.32,561.54,564.40,567.19,570.24,575.10,579.77,583.26,585.13,587.55,590.80,594.67,598.70,601.74,604.59,608.41,612.94,617.88,626.74,636.03,644.50,651.37,656.07,661.54,667.73,673.71,677.70,681.88,688.02,694.80,700.02,703.01,704.05,702.57,699.36,698.99,700.73,704.51,710.25,717.81,723.32,726.92,729.15,730.08,729.74,730.00,733.34,740.14,748.54,754.60,757.32,757.70,756.71,754.97,752.59,748.47,742.87,739.16,733.26,725.76,718.36,714.03,712.93,717.37,724.77,732.68,739.02,745.72,752.63,758.76,761.52,759.06,757.32,757.04,757.29,757.49,757.85,758.13,758.09,757.54,757.63,759.68,763.30,767.15,770.82,775.26,779.94,784.30,788.63,790.46,789.90,787.28,783.68,781.68,782.26,783.96,784.22,781.04,778.42,774.68,769.60,768.00,769.62,773.81,779.04,782.30,781.54,777.36,771.42,765.02,759.48,754.91,754.40,758.35,762.85,763.91,761.25,756.42,751.31,747.09,744.24,744.29,748.08,753.13,759.17,766.22,773.31
510.05,510.05,510.01,509.97,509.95,509.95,509.95,509.95,509.98,510.03,510.00,509.96,509.93,509.88,509.84,509.73,509.59,509.45,509.33,509.22,509.07,508.94,508.82,508.71,508.66,508.75,508.90,509.05,509.17,509.29,509.42,509.57,509.69,509.84,509.99,510.12,510.19,510.24,510.30,510.38,510.45,510.52,510.48,510.40,510.31,510.17,510.11,510.00,509.90,509.89,509.82,509.77,509.72,509.65,509.65,509.68,509.72,509.75,509.76,509.83,509.85,509.85,509.85,509.85,509.85,509.85,509.86,509.91,510.12,510.42,510.77,511.12,511.43,511.74,512.06,512.40,512.72,513.09,513.43,513.74,514.05,514.39,514.74,515.20,515.88,516.78,517.74,518.68,519.53,520.10,520.57,521.16,521.82,522.49,523.25,524.02,524.94,525.99,526.87,527.61,528.32,529.06,529.84,530.94,532.15,533.31,534.18,534.33,534.34,534.82,535.81,537.00,538.17,539.33,540.53,541.79,542.95,543.97,544.79,545.43,546.05,546.61,547.14,547.62,547.95,548.39,549.21,550.94,553.96,557.49,560.57,563.49,566.39,569.52,574.36,579.64,584.41,587.91,590.61,594.14,598.05,601.85,604.95,607.99,611.54,615.63,620.56,628.84,637.24,645.05,651.88,656.94,664.01,670.94,676.92,682.44,687.60,693.85,700.43,705.93,709.86,711.41,710.56,708.01,706.94,707.36,709.45,713.61,720.52,726.74,731.09,733.92,735.37,735.54,735.25,737.28,742.73,751.16,757.81,761.45,762.88,762.86,761.78,759.45,754.84,748.39,744.26,739.09,732.05,724.10,717.70,714.90,719.38,727.44,735.67,742.74,749.17,755.30,761.18,766.14,766.27,765.53,765.14,765.24,765.88,766.35,766.26,765.36,763.79,762.69,762.98,764.91,768.62,772.36,776.66,781.23,785.67,789.71,791.90,791.79,789.44,785.95,784.17,784.73,786.11,786.08,784.27,782.75,779.74,774.67,771.27,772.63,776.58,781.41,785.00,784.74,780.92,774.83,767.62,761.93,757.46,757.01,760.93,765.54,768.20,766.55,762.07,757.14,751.88,747.00,744.84,746.81,750.81,756.49,763.01,769.32
510.22,510.22,510.17,510.15,510.16,510.16,510.16,510.15,510.20,510.28,510.21,510.13,510.05,509.98,509.89,509.74,509.59,509.46,509.36,509.22,509.07,508.96,508.87,508.75,508.73,508.82,508.96,509.10,509.18,509.32,509.47,509.61,509.70,509.84,510.11,510.39,510.53,510.62,510.75,510.90,511.04,511.10,510.99,510.83,510.63,510.34,510.16,510.00,509.90,509.89,509.83,509.81,509.77,509.72,509.72,509.77,509.81,509.81,509.82,509.88,509.93,509.97,510.02,510.02,510.01,510.00,509.99,509.99,510.16,510.47,510.83,511.15,511.46,511.76,512.11,512.47,512.79,513.16,513.50,513.81,514.13,514.50,514.84,515.25,515.86,516.80,517.84,518.84,519.67,520.21,520.93,521.80,522.63,523.28,523.97,524.67,525.50,526.41,527.16,527.86,528.55,529.25,530.04,531.21,532.49,533.77,534.85,535.25,535.26,535.51,536.24,537.48,538.66,539.84,541.02,542.24,543.41,544.57,545.69,546.69,547.39,548.00,548.59,549.11,549.42,549.65,550.10,551.40,553.92,556.79,559.60,562.46,565.40,568.50,572.90,578.55,584.54,589.62,592.67,596.33,600.12,603.64,606.98,610.34,613.73,617.50,622.66,630.19,637.70,645.04,652.06,657.41,665.64,673.08,679.19,686.37,692.56,698.73,705.00,711.05,716.29,718.54,718.41,716.43,714.00,713.21,713.84,716.31,721.88,728.54,733.66,737.28,739.57,740.77,740.75,741.80,745.43,752.80,759.42,763.82,766.41,767.66,767.52,765.19,760.11,752.79,747.00,741.99,735.66,727.83,719.82,715.65,720.16,728.68,737.10,744.90,750.79,755.73,760.87,767.75,771.11,771.77,771.38,771.62,772.99,773.98,773.89,772.36,769.96,767.83,766.33,766.45,770.08,773.99,778.38,783.03,787.48,790.91,793.10,792.98,790.55,787.66,786.62,787.31,788.21,787.63,787.26,786.74,784.66,780.23,774.89,775.83,779.38,783.69,787.56,787.65,784.16,778.06,770.29,764.09,759.81,759.68,763.78,768.51,772.64,771.92,767.58,762.26,756.17,750.03,746.47,747.02,749.64,754.23,759.56,764.68
510.36,510.36,510.35,510.38,510.42,510.42,510.42,510.37,510.32,510.28,510.21,510.13,510.05,509.98,509.89,509.74,509.59,509.44,509.31,509.21,509.07,508.96,508.89,508.86,508.86,508.88,508.96,509.10,509.18,509.32,509.48,509.61,509.70,509.84,510.20,510.58,510.73,510.81,510.95,511.10,511.23,511.25,511.13,510.94,510.70,510.40,510.17,510.00,509.90,509.90,509.88,509.83,509.79,509.78,509.78,509.79,509.84,509.88,509.88,509.89,510.03,510.27,510.51,510.53,510.48,510.42,510.36,510.31,510.34,510.57,510.91,511.27,511.59,511.89,512.21,512.55,512.91,513.25,513.56,513.89,514.25,514.58,514.94,515.35,515.89,516.70,517.68,518.50,519.08,519.53,520.19,520.86,521.53,522.32,523.33,524.38,525.43,526.45,527.38,528.12,528.78,529.49,530.41,531.60,532.84,534.12,535.33,536.18,536.25,536.20,536.52,537.80,539.08,540.29,541.47,542.69,543.87,545.02,546.17,547.29,548.26,549.09,549.87,550.56,550.99,551.39,551.73,552.68,554.70,557.07,559.49,562.03,564.69,567.50,571.19,576.97,583.53,589.06,592.69,596.10,599.61,603.23,606.89,610.53,614.00,617.76,622.97,630.15,637.15,644.29,651.63,657.17,665.20,672.86,679.63,687.27,694.15,701.09,708.33,715.82,722.81,726.18,726.38,723.70,719.58,718.15,718.27,719.72,723.45,729.29,734.98,739.91,743.67,745.77,746.29,746.69,748.32,753.07,759.24,764.33,768.08,770.49,770.93,768.55,763.33,755.59,747.87,741.63,734.67,726.95,720.01,716.07,720.03,727.62,735.12,742.49,747.93,752.67,757.67,763.92,769.17,773.00,775.27,775.91,777.13,778.15,778.25,777.02,774.71,771.93,769.33,768.50,772.32,776.34,780.74,785.30,789.57,792.61,794.44,793.98,791.35,788.86,788.82,789.41,789.63,789.17,789.94,790.12,788.44,784.24,778.77,778.97,782.50,787.16,790.31,790.13,786.44,780.44,773.06,766.09,762.70,763.15,766.86,771.44,776.04,776.42,772.68,766.13,759.68,752.45,748.77,750.36,750.80,751.58,754.81,759.63
510.45,510.49,510.49,510.54,510.57,510.54,510.51,510.44,510.36,510.28,510.21,510.13,510.05,509.98,509.89,509.74,509.59,509.45,509.33,509.22,509.10,509.02,508.99,508.99,508.99,508.99,509.02,509.11,509.22,509.34,509.48,509.61,509.70,509.84,510.16,510.57,510.86,511.00,511.12,511.25,511.38,511.38,511.23,511.02,510.78,510.51,510.30,510.15,510.07,510.07,510.07,510.04,510.02,510.02,510.02,510.02,510.05,510.07,510.07,510.07,510.19,510.46,510.81,510.90,510.86,510.78,510.71,510.67,510.67,510.82,511.09,511.40,511.71,512.05,512.38,512.70,513.04,513.36,513.67,514.00,514.38,514.70,515.08,515.52,516.01,516.65,517.38,518.01,518.50,518.94,519.53,520.24,521.04,521.99,523.12,524.28,525.40,526.47,527.46,528.29,529.01,529.77,530.82,532.06,533.33,534.63,535.92,536.95,537.19,537.12,537.21,538.12,539.50,540.78,541.96,543.15,544.32,545.48,546.62,547.74,548.86,549.92,550.97,551.88,552.40,552.88,553.27,554.07,555.62,557.67,559.92,562.34,564.89,567.54,571.09,576.46,582.48,587.57,591.53,594.96,598.19,601.37,604.83,609.13,613.22,617.36,622.73,629.59,636.14,642.96,650.33,656.26,664.14,672.07,679.40,686.78,694.56,702.66,710.80,718.69,726.50,730.73,731.93,730.34,726.63,724.44,723.67,724.21,726.64,732.21,737.94,743.04,747.58,752.49,753.64,753.05,752.42,754.05,759.09,764.30,768.66,771.68,772.93,770.68,765.70,758.46,750.14,742.66,735.22,727.87,721.47,716.34,719.25,726.31,733.67,740.58,745.59,750.09,755.06,761.35,767.00,772.01,776.01,778.34,779.66,780.43,780.56,779.82,778.24,775.37,772.44,771.16,774.34,778.29,782.91,787.53,791.46,794.34,796.01,795.48,793.02,791.04,791.38,791.99,792.07,791.62,792.34,793.06,792.01,788.33,783.71,783.06,785.97,790.46,792.81,791.28,787.05,781.02,773.75,767.32,765.42,766.75,770.38,774.93,778.81,779.18,775.48,767.76,761.01,753.88,751.38,754.98,755.05,753.32,753.89,757.19
510.54,510.61,510.62,510.66,510.66,510.59,510.52,510.44,510.36,510.28,510.21,510.13,510.05,509.98,509.89,509.74,509.59,509.47,509.38,509.24,509.15,509.13,509.13,509.12,509.12,509.12,509.12,509.15,509.26,509.36,509.48,509.61,509.70,509.84,510.09,510.47,510.93,511.16,511.28,511.39,511.52,511.51,511.33,511.12,510.89,510.67,510.50,510.40,510.35,510.35,510.35,510.34,510.34,510.34,510.34,510.34,510.34,510.35,510.35,510.35,510.42,510.65,511.03,511.21,511.19,511.12,511.05,511.05,511.06,511.16,511.33,511.57,511.86,512.21,512.56,512.87,513.19,513.50,513.81,514.14,514.51,514.85,515.28,515.76,516.24,516.72,517.20,517.69,518.16,518.63,519.14,519.96,520.99,522.08,523.22,524.37,525.46,526.49,527.48,528.42,529.23,530.10,531.29,532.58,533.89,535.23,536.57,537.66,538.10,538.16,538.12,538.49,539.86,541.16,542.31,543.49,544.67,545.84,546.98,548.09,549.26,550.55,551.86,553.02,553.73,554.27,554.81,555.52,556.66,558.48,560.64,563.05,565.58,568.17,571.79,576.57,581.58,585.85,589.86,593.34,596.31,598.92,601.97,606.87,611.71,616.38,621.93,628.58,634.80,641.24,648.32,654.61,662.69,671.09,678.90,685.86,694.59,703.86,712.66,720.38,728.38,733.26,735.84,736.27,734.25,731.88,730.44,730.17,731.54,736.59,741.79,746.51,751.45,758.98,760.85,759.48,756.94,755.76,759.25,764.14,768.83,772.39,774.52,772.43,767.85,761.51,753.43,745.15,737.35,730.23,723.89,717.35,718.60,724.79,732.47,739.16,743.89,748.29,753.41,759.95,765.29,770.44,775.47,779.61,781.14,781.72,781.91,781.73,780.94,778.20,775.41,774.11,776.24,779.92,784.82,789.60,793.20,796.15,797.71,797.23,795.13,793.70,794.13,794.82,795.03,794.55,794.73,795.76,795.44,792.65,789.25,787.83,789.92,793.85,794.99,791.74,786.85,780.78,773.71,768.74,768.39,770.58,774.24,778.52,781.01,780.57,776.50,768.10,761.18,754.75,753.75,759.29,760.15,757.05,754.97,756.08
510.67,510.73,510.74,510.72,510.67,510.59,510.52,510.44,510.36,510.28,510.21,510.13,510.05,509.98,509.89,509.74,509.59,509.47,509.39,509.29,509.26,509.28,509.30,509.25,509.24,509.24,509.24,509.25,509.29,509.36,509.48,509.61,509.70,509.84,510.09,510.43,510.85,511.24,511.44,511.59,511.70,511.65,511.50,511.32,511.15,510.98,510.82,510.72,510.67,510.67,510.67,510.67,510.67,510.67,510.67,510.67,510.67,510.67,510.67,510.67,510.76,510.96,511.26,511.57,511.58,511.50,511.44,511.44,511.50,511.54,511.63,511.81,512.06,512.37,512.69,513.01,513.37,513.69,514.00,514.32,514.66,515.07,515.60,516.17,516.74,517.21,517.72,518.23,518.74,519.20,519.58,520.39,521.48,522.62,523.72,524.82,525.78,526.61,527.55,528.53,529.48,530.52,531.85,533.16,534.47,535.82,537.17,538.30,538.95,539.18,539.12,539.08,539.91,540.98,542.12,543.34,544.61,545.88,547.09,548.25,549.47,550.86,552.28,553.69,554.98,555.81,556.49,557.14,557.96,559.45,561.57,564.00,566.53,569.11,572.65,577.01,581.35,584.89,588.37,591.44,594.23,596.84,599.66,604.16,609.17,614.31,619.85,626.64,632.96,639.00,645.13,651.36,660.85,670.34,678.49,685.70,695.24,704.90,713.65,721.00,728.49,733.81,737.79,740.53,741.20,741.31,740.68,739.85,740.18,742.64,746.07,750.27,755.48,761.45,764.07,763.47,760.81,759.01,760.53,764.41,769.39,774.23,777.07,775.01,770.61,765.02,757.95,750.56,742.68,734.70,727.70,721.57,719.63,722.83,731.10,738.62,743.64,748.51,754.25,760.64,765.58,770.60,775.68,779.80,781.45,782.45,783.22,783.55,782.72,779.81,777.65,777.04,778.00,781.10,786.07,791.07,794.73,798.19,799.52,799.00,797.33,796.30,796.92,797.72,798.05,797.65,797.57,798.25,798.59,797.66,795.13,793.49,795.10,797.98,796.46,791.99,786.66,780.71,774.67,772.28,772.73,775.12,778.64,781.46,782.13,779.84,774.80,767.40,760.83,755.19,754.61,760.13,762.86,760.35,756.72,755.27
510.79,510.83,510.81,510.75,510.67,510.59,510.52,510.44,510.36,510.28,510.21,510.13,510.05,509.98,509.89,509.74,509.61,509.49,509.40,509.38,509.38,509.42,509.46,509.39,509.38,509.38,509.38,509.38,509.38,509.42,509.50,509.62,509.73,509.85,510.09,510.42,510.84,511.22,511.46,511.65,511.84,511.88,511.76,511.61,511.45,511.30,511.14,511.06,511.03,511.03,511.03,511.03,511.03,511.03,511.03,511.03,511.03,511.03,511.03,511.03,511.14,511.31,511.54,511.85,511.90,511.87,511.83,511.84,511.90,511.93,511.98,512.11,512.30,512.57,512.86,513.18,513.53,513.85,514.17,514.50,514.84,515.34,515.92,516.54,517.14,517.68,518.21,518.77,519.38,520.12,520.70,521.53,522.58,523.73,524.85,525.87,526.70,527.37,528.18,529.05,529.99,531.08,532.46,533.84,535.19,536.52,537.80,538.99,539.96,540.59,540.81,540.68,541.24,542.11,543.03,543.85,544.66,545.87,547.14,548.35,549.62,551.05,552.57,554.16,555.77,556.99,557.93,558.67,559.36,560.58,562.63,565.05,567.62,570.32,573.80,577.69,581.38,584.37,587.45,590.34,593.06,595.65,598.34,602.23,606.85,611.83,617.11,623.83,630.37,636.38,641.98,648.05,658.27,668.69,677.64,685.39,695.27,704.91,713.43,720.52,727.42,733.02,737.91,742.18,745.23,747.47,747.99,747.58,748.21,749.77,751.70,754.70,759.42,764.38,767.17,766.95,764.38,762.15,762.35,765.25,770.26,776.24,779.01,777.47,773.68,768.37,761.25,753.74,745.93,738.01,730.40,724.35,720.01,720.68,728.75,737.23,742.87,747.87,753.59,760.59,765.56,770.60,775.71,779.73,781.13,782.11,783.36,784.68,784.75,783.10,782.00,781.85,782.30,784.67,788.61,792.70,795.98,799.03,800.29,800.41,799.85,799.21,800.11,801.03,801.32,800.76,800.58,801.11,801.73,801.70,800.11,798.80,799.33,800.18,797.16,792.11,786.36,780.84,776.77,776.49,777.55,779.70,782.31,783.35,782.18,778.63,773.22,766.53,760.25,755.69,755.74,761.09,765.02,763.80,759.76,756.21
510.90,510.88,510.82,510.75,510.67,510.59,510.52,510.44,510.36,510.28,510.21,510.13,510.05,509.98,509.89,509.74,509.64,509.54,509.44,509.49,509.50,509.55,509.59,509.53,509.51,509.50,509.50,509.50,509.50,509.51,509.55,509.64,509.77,509.87,510.09,510.43,510.86,511.13,511.37,511.62,511.90,512.12,512.07,511.93,511.78,511.62,511.48,511.42,511.41,511.41,511.41,511.41,511.41,511.41,511.41,511.41,511.41,511.41,511.41,511.42,511.53,511.69,511.86,512.08,512.18,512.22,512.22,512.23,512.29,512.32,512.35,512.44,512.58,512.79,513.07,513.37,513.68,513.99,514.34,514.70,515.06,515.64,516.25,516.87,517.49,518.10,518.66,519.28,520.09,521.29,522.28,523.16,524.11,525.24,526.38,527.30,528.01,528.57,529.19,529.87,530.69,531.73,533.12,534.56,535.98,537.30,538.52,539.77,541.10,542.22,542.94,543.05,543.57,544.28,544.84,545.00,545.06,545.98,547.20,548.45,549.75,551.21,552.82,554.53,556.28,557.89,559.13,560.02,560.72,561.74,563.71,566.08,568.67,571.54,574.93,578.34,581.45,584.08,586.91,589.76,592.47,595.02,597.58,600.80,604.69,609.07,613.91,620.40,627.15,633.37,638.88,644.91,655.13,666.14,676.19,684.64,694.30,703.62,711.89,718.73,725.21,730.95,736.31,741.49,746.49,750.47,752.35,753.16,755.02,757.04,758.10,759.79,763.46,767.74,770.24,770.04,767.56,764.95,764.40,766.54,771.38,778.19,780.39,779.58,776.50,771.00,763.34,755.17,747.59,740.24,732.21,725.85,720.00,718.77,725.67,734.75,741.13,746.10,751.38,759.15,764.44,769.71,774.97,778.88,779.96,780.84,782.56,785.08,786.63,787.11,787.30,787.50,787.91,789.57,791.83,794.26,796.60,798.54,799.80,800.88,801.69,801.53,802.75,803.89,804.30,803.77,803.68,804.27,804.88,804.96,804.18,803.33,802.42,800.85,797.25,792.04,786.25,781.66,780.06,781.20,782.60,784.03,785.01,784.06,781.16,776.90,771.59,765.32,759.44,756.23,757.16,762.38,767.05,767.39,763.68,758.56
511.01,510.90,510.82,510.75,510.67,510.59,510.52,510.44,510.36,510.28,510.21,510.13,510.05,509.98,509.89,509.74,509.64,509.58,509.55,509.62,509.64,509.68,509.73,509.70,509.66,509.64,509.64,509.64,509.64,509.64,509.65,509.69,509.79,509.87,510.09,510.41,510.76,511.05,511.30,511.56,511.87,512.14,512.29,512.26,512.10,511.96,511.84,511.77,511.74,511.74,511.74,511.74,511.74,511.74,511.74,511.74,511.74,511.74,511.75,511.79,511.92,512.07,512.23,512.40,512.50,512.57,512.61,512.62,512.68,512.71,512.74,512.81,512.86,513.05,513.32,513.61,513.88,514.17,514.50,514.87,515.36,515.96,516.58,517.19,517.82,518.49,519.09,519.95,521.16,522.73,524.02,524.98,525.81,526.75,527.88,528.69,529.28,529.78,530.29,530.83,531.47,532.36,533.71,535.16,536.61,538.07,539.52,540.87,542.29,543.69,544.92,545.77,546.33,546.88,547.18,546.97,546.76,546.80,547.43,548.68,549.96,551.56,553.28,555.03,556.81,558.54,559.90,560.90,561.67,562.63,564.54,566.78,569.18,571.95,575.02,578.11,581.00,583.57,586.25,589.03,591.70,594.15,596.47,599.11,602.35,606.10,610.44,616.68,623.30,629.64,635.63,642.34,651.59,662.31,673.23,682.41,690.54,699.36,707.70,713.94,720.79,726.57,731.97,737.61,743.87,749.39,753.08,755.67,758.83,761.75,763.86,765.90,768.41,770.67,772.59,772.26,769.64,766.89,766.12,768.06,772.78,779.53,781.33,780.64,777.21,770.86,763.86,756.45,749.12,741.69,733.70,726.71,720.87,718.53,722.21,730.01,736.66,742.10,747.26,753.88,759.25,765.32,771.21,774.81,776.43,778.50,781.15,784.09,786.67,788.60,789.96,790.82,791.33,792.70,793.97,794.78,795.06,795.58,796.57,797.82,799.03,799.77,801.41,803.24,804.95,806.31,806.80,807.47,807.99,807.93,806.96,805.35,803.34,800.72,796.64,791.42,787.33,785.23,785.58,786.74,787.47,787.18,785.52,782.25,778.11,773.59,768.57,762.79,758.16,756.71,758.76,764.12,769.66,771.01,767.77,762.00
511.07,510.94,510.86,510.76,510.67,510.59,510.52,510.44,510.36,510.28,510.21,510.13,510.05,509.98,509.89,509.74,509.66,509.63,509.65,509.72,509.75,509.81,509.87,509.86,509.82,509.80,509.80,509.80,509.80,509.80,509.80,509.81,509.86,509.91,510.09,510.36,510.67,510.98,511.25,511.53,511.84,512.14,512.41,512.51,512.43,512.30,512.20,512.13,512.10,512.10,512.10,512.10,512.10,512.10,512.10,512.08,512.07,512.07,512.08,512.17,512.31,512.46,512.62,512.76,512.84,512.90,512.97,513.00,513.07,513.11,513.15,513.20,513.22,513.35,513.57,513.84,514.10,514.38,514.71,515.12,515.64,516.25,516.87,517.48,518.10,518.72,519.24,520.66,522.80,524.47,525.80,526.82,527.64,528.42,529.33,529.91,530.37,530.84,531.30,531.76,532.29,533.06,534.38,535.86,537.38,538.94,540.53,541.99,543.45,544.94,546.41,547.68,548.54,549.05,549.16,548.77,548.36,547.89,548.06,549.07,550.32,551.93,553.67,555.46,557.26,559.06,560.50,561.61,562.50,563.50,565.38,567.40,569.44,571.97,574.79,577.52,580.03,582.37,584.91,587.51,590.06,592.44,594.48,596.68,599.20,602.15,606.03,612.46,619.46,626.19,632.72,640.57,649.29,658.99,669.21,678.49,685.65,693.71,701.77,708.07,714.42,720.24,726.12,732.45,739.25,745.57,751.13,756.06,760.45,763.85,766.82,769.50,771.75,773.41,774.94,774.30,771.40,768.55,767.71,770.11,774.96,780.52,782.15,781.44,778.14,772.24,766.08,759.69,752.97,745.74,737.74,730.02,723.47,719.47,719.85,724.96,731.13,736.72,741.79,747.81,753.56,760.12,766.34,770.28,772.81,775.92,779.30,782.53,785.43,788.01,790.11,791.62,792.33,793.23,793.49,792.96,791.84,791.48,792.06,793.03,794.16,795.55,798.12,801.06,804.02,806.74,808.44,809.39,809.83,809.70,808.71,806.63,804.05,801.08,797.39,793.26,790.80,790.21,791.19,791.66,790.99,788.59,784.39,779.34,774.40,769.83,765.29,760.54,757.38,757.53,760.60,766.33,772.97,775.11,772.17,765.78
511.09,511.01,510.93,510.81,510.69,510.61,510.53,510.45,510.37,510.29,510.21,510.13,510.05,509.98,509.89,509.75,509.70,509.69,509.71,509.78,509.86,509.93,510.00,510.02,510.03,510.03,510.02,510.01,510.01,510.01,510.01,510.01,510.02,510.03,510.14,510.35,510.65,510.95,511.25,511.54,511.84,512.14,512.44,512.66,512.74,512.67,512.54,512.48,512.48,512.48,512.48,512.48,512.48,512.48,512.48,512.42,512.39,512.39,512.41,512.54,512.69,512.85,513.00,513.14,513.18,513.23,513.31,513.38,513.45,513.52,513.57,513.59,513.66,513.69,513.81,514.05,514.35,514.61,514.99,515.45,515.93,516.50,517.06,517.61,518.16,518.62,518.95,521.19,524.70,526.59,527.79,528.73,529.54,530.21,530.75,531.02,531.31,531.74,532.20,532.67,533.16,533.85,535.09,536.59,538.18,539.79,541.40,542.95,544.44,545.91,547.36,548.69,550.00,550.64,550.70,550.30,549.75,549.20,549.12,549.75,550.96,552.44,554.08,555.81,557.62,559.45,560.93,562.15,563.22,564.34,566.16,567.91,569.51,571.66,574.29,576.62,578.62,580.53,582.86,585.15,587.50,589.81,591.59,593.47,595.25,597.30,600.88,607.78,615.60,623.04,630.11,639.28,647.96,656.15,664.27,672.82,679.78,686.86,694.29,701.43,706.63,712.53,719.31,726.62,733.47,739.83,747.01,754.43,760.11,763.70,767.11,770.42,773.32,775.90,777.30,776.25,773.06,770.17,769.27,772.50,777.55,781.19,782.86,782.13,779.58,775.42,770.12,764.70,758.78,752.03,744.01,735.50,727.48,721.35,718.85,720.44,725.33,730.56,735.53,741.63,748.04,754.68,760.92,765.81,769.40,773.12,776.89,780.34,782.85,785.35,787.78,789.83,790.92,791.24,790.45,788.91,787.15,786.42,786.51,786.97,787.79,789.55,793.53,797.94,801.94,805.24,808.58,809.97,810.37,810.32,809.59,807.62,805.13,802.51,800.01,797.83,796.53,796.17,796.44,795.70,793.12,788.50,782.22,776.06,770.83,766.30,762.28,758.94,757.33,758.83,762.79,769.03,776.79,779.38,776.58,769.72
511.22,511.18,511.07,510.95,510.84,510.72,510.64,510.52,510.43,510.34,510.22,510.13,510.05,509.98,509.90,509.84,509.79,509.76,509.77,509.80,509.91,510.03,510.17,510.36,510.51,510.53,510.46,510.38,510.38,510.38,510.38,510.38,510.38,510.42,510.53,510.70,510.92,511.18,511.40,511.61,511.83,512.10,512.39,512.67,512.89,512.98,512.87,512.81,512.81,512.81,512.81,512.81,512.81,512.81,512.81,512.78,512.77,512.77,512.79,512.93,513.09,513.24,513.38,513.44,513.49,513.55,513.63,513.70,513.74,513.80,513.87,513.93,514.04,514.08,514.14,514.30,514.56,514.92,515.40,515.94,516.38,516.73,516.82,516.87,517.02,517.24,517.62,520.23,524.89,529.47,531.25,531.36,531.25,531.86,532.30,532.40,532.47,532.66,533.07,533.60,534.19,534.84,535.64,536.73,538.20,539.80,541.40,543.07,544.63,546.15,547.64,549.10,550.50,551.60,552.13,551.86,551.40,550.88,550.76,551.32,552.52,553.82,555.00,556.21,557.72,559.52,561.00,562.30,563.58,564.86,566.39,567.86,569.29,571.08,573.25,575.28,577.09,578.67,580.27,582.17,584.30,586.44,588.12,589.57,590.86,592.70,596.62,602.94,611.03,619.36,627.34,636.31,644.66,652.07,658.69,665.15,672.15,678.50,685.41,694.04,700.44,706.48,713.62,722.00,729.63,735.65,742.41,750.33,758.44,763.40,767.27,770.77,774.11,777.54,778.97,777.90,775.02,772.58,771.35,773.84,778.15,781.40,783.38,783.03,781.30,778.37,773.71,768.44,762.43,755.70,748.13,739.00,730.23,723.22,719.49,719.62,722.32,726.26,731.07,736.85,743.43,750.06,756.37,761.93,765.79,769.47,773.06,776.16,777.95,780.16,782.69,785.21,787.07,787.66,786.41,784.13,781.63,780.03,779.82,780.41,781.70,784.13,789.69,795.46,800.45,804.43,808.19,809.92,810.61,810.81,810.30,809.34,808.24,807.13,806.00,804.21,802.92,801.89,800.57,798.71,794.44,788.62,781.97,775.58,770.62,766.06,761.84,758.83,758.42,761.25,766.03,772.28,779.80,781.71,779.14,773.41
511.36,511.34,511.25,511.16,511.05,510.91,510.83,510.69,510.58,510.48,510.33,510.24,510.15,510.06,509.99,509.98,509.94,509.91,509.91,509.91,510.00,510.13,510.30,510.61,510.85,510.93,510.91,510.84,510.78,510.76,510.76,510.77,510.79,510.84,510.97,511.14,511.30,511.50,511.69,511.86,512.02,512.23,512.50,512.78,513.04,513.24,513.19,513.16,513.16,513.16,513.16,513.15,513.14,513.14,513.14,513.14,513.14,513.14,513.18,513.32,513.46,513.59,513.71,513.73,513.80,513.87,513.92,514.00,514.03,514.09,514.15,514.23,514.35,514.40,514.45,514.58,514.83,515.28,515.87,516.40,516.66,516.68,516.40,516.06,515.87,515.90,516.23,518.99,524.83,532.90,535.01,534.26,533.25,533.51,533.89,533.91,533.80,533.75,534.01,534.61,535.30,535.94,536.46,537.10,538.25,539.70,541.28,542.94,544.51,546.05,547.57,549.09,550.54,551.97,553.02,553.28,553.27,552.98,552.94,553.44,554.47,555.58,556.39,557.09,558.27,559.94,561.40,562.75,564.11,565.43,566.69,567.96,569.36,571.07,573.00,574.77,576.35,577.77,578.93,580.62,582.58,584.51,586.13,587.42,588.51,590.14,593.74,599.18,606.80,615.17,623.40,631.86,639.94,647.00,652.90,658.07,664.58,670.93,678.14,687.49,695.55,702.39,709.92,718.62,726.52,732.59,739.14,747.01,756.02,761.87,766.72,771.06,774.93,778.79,780.25,779.46,777.21,775.23,773.84,775.21,778.30,781.38,783.64,783.82,782.66,780.22,775.92,770.54,764.28,757.35,749.75,740.39,731.63,724.91,721.62,721.88,723.06,725.25,728.55,732.79,738.79,744.96,751.10,757.23,761.63,765.42,768.72,771.19,772.40,774.07,776.36,779.01,781.42,782.62,781.23,778.53,776.19,776.17,777.07,778.49,780.45,783.33,788.57,794.32,799.60,803.78,807.35,809.43,810.58,811.08,811.00,810.84,810.74,810.67,810.36,808.95,807.79,806.33,803.77,800.62,795.05,788.34,781.67,776.72,773.03,768.33,763.09,759.40,759.73,763.88,769.54,775.75,782.82,784.42,782.20,777.40
511.48,511.48,511.46,511.41,511.30,511.17,511.09,510.94,510.83,510.73,510.59,510.50,510.38,510.25,510.19,510.18,510.17,510.17,510.17,510.17,510.18,510.24,510.38,510.67,510.92,511.12,511.29,511.36,511.21,511.16,511.16,511.17,511.23,511.25,511.39,511.59,511.75,511.91,512.12,512.31,512.47,512.63,512.86,513.05,513.24,513.44,513.52,513.54,513.55,513.55,513.55,513.50,513.46,513.46,513.46,513.46,513.46,513.48,513.56,513.71,513.81,513.89,513.98,514.05,514.12,514.16,514.19,514.27,514.33,514.41,514.46,514.49,514.57,514.64,514.75,514.92,515.17,515.71,516.33,516.76,516.63,516.28,515.85,515.41,515.06,515.00,515.16,518.06,525.22,536.87,538.80,537.38,535.75,535.24,535.51,535.48,535.29,535.09,535.04,535.69,536.45,537.13,537.69,537.97,538.57,539.66,541.22,542.67,544.19,545.70,547.18,548.67,550.19,551.72,553.19,554.44,555.25,555.47,555.65,556.05,556.70,557.68,558.26,558.65,559.57,560.98,562.40,563.75,565.05,566.24,567.33,568.52,570.03,572.07,574.12,575.63,576.88,578.30,579.55,581.35,583.20,584.87,586.48,588.04,589.31,590.61,592.86,597.20,603.44,610.60,618.18,626.06,633.95,641.07,647.18,652.54,657.97,665.24,673.74,682.58,692.26,700.73,708.80,716.81,724.15,730.85,737.97,745.60,753.11,758.88,765.30,771.38,775.93,779.70,781.18,780.96,779.59,777.92,776.72,776.90,778.47,781.26,783.74,784.38,783.34,780.55,776.16,770.51,764.00,756.73,748.48,739.45,731.71,726.69,725.70,727.53,728.28,728.46,728.69,729.91,734.26,739.24,744.69,751.15,756.53,760.83,763.88,765.55,766.52,767.39,769.05,771.44,773.97,775.91,774.67,772.16,771.45,776.30,780.09,782.99,785.63,788.54,791.03,794.89,799.43,803.08,805.96,808.42,810.17,811.05,811.65,811.77,811.82,811.84,811.59,810.89,810.25,808.90,805.80,801.12,794.76,787.43,780.97,779.40,778.05,773.13,766.03,760.64,761.19,766.64,773.28,779.44,786.00,788.00,786.19,781.54
511.56,511.56,511.56,511.53,511.49,511.42,511.35,511.20,511.09,511.00,510.85,510.75,510.64,510.50,510.43,510.38,510.37,510.37,510.37,510.37,510.41,510.45,510.53,510.75,510.98,511.21,511.43,511.60,511.65,511.62,511.60,511.61,511.64,511.68,511.81,512.00,512.20,512.36,512.57,512.77,512.92,513.07,513.22,513.34,513.46,513.60,513.69,513.74,513.79,513.83,513.88,513.86,513.84,513.84,513.84,513.80,513.78,513.82,513.94,514.05,514.14,514.22,514.29,514.37,514.41,514.45,514.50,514.58,514.66,514.70,514.76,514.85,514.92,515.03,515.21,515.46,515.75,516.27,516.61,516.60,516.18,515.73,515.32,514.97,514.71,514.82,515.87,520.70,529.72,540.71,542.71,540.97,538.53,537.06,537.10,536.95,536.59,536.16,535.90,536.60,537.50,538.31,538.90,539.00,539.19,539.78,540.94,542.39,543.89,545.39,546.91,548.48,550.06,551.62,553.19,554.78,556.15,557.03,557.70,558.32,559.10,559.82,560.19,560.55,561.46,562.77,564.08,565.32,566.55,567.79,568.99,570.41,572.27,574.69,576.73,578.09,579.13,580.33,581.71,583.60,585.40,586.91,588.52,590.67,592.64,594.23,595.63,598.01,602.16,608.23,615.96,622.91,629.98,636.92,643.56,649.78,656.43,664.33,672.72,681.04,691.49,700.69,709.03,716.93,724.44,731.37,738.55,745.88,752.51,758.06,764.84,771.44,776.37,780.15,782.01,782.22,781.22,779.97,779.07,778.88,779.85,782.43,785.15,784.78,782.83,779.72,774.31,768.38,761.49,754.02,746.93,739.22,734.39,732.59,733.44,734.52,734.57,734.34,734.09,733.72,734.49,736.21,739.19,743.95,748.69,753.42,757.00,758.85,760.03,760.68,762.23,764.64,766.92,768.27,767.61,767.64,771.32,778.60,783.51,786.88,789.47,791.78,793.63,796.08,798.91,801.50,804.05,806.73,809.06,810.60,811.26,811.56,811.94,812.37,812.46,811.95,811.18,809.40,805.55,799.72,793.05,786.54,781.94,782.53,781.81,777.05,769.70,763.44,764.16,770.96,778.32,783.52,788.47,789.93,787.64,782.38
511.65,511.65,511.65,511.65,511.65,511.64,511.58,511.46,511.35,511.25,511.11,511.01,510.90,510.76,510.69,510.61,510.59,510.59,510.59,510.59,510.64,510.68,510.72,510.87,511.05,511.27,511.50,511.74,511.97,512.01,512.02,512.03,512.04,512.12,512.25,512.42,512.64,512.79,512.97,513.14,513.28,513.42,513.52,513.61,513.68,513.76,513.82,513.90,513.99,514.07,514.13,514.16,514.17,514.19,514.20,514.15,514.13,514.17,514.30,514.39,514.46,514.53,514.60,514.71,514.77,514.82,514.88,514.97,515.05,515.10,515.17,515.30,515.40,515.52,515.74,516.05,516.34,516.65,516.62,516.23,515.65,515.18,514.83,514.62,514.66,515.29,518.22,525.47,536.06,545.57,547.37,545.20,541.98,539.60,538.85,538.34,537.78,537.17,536.76,537.45,538.44,539.38,540.07,540.13,540.06,540.26,541.02,542.42,543.91,545.45,547.03,548.63,550.23,551.78,553.35,554.99,556.69,558.07,559.17,560.09,561.14,561.84,562.26,562.72,563.67,564.89,566.08,567.26,568.49,569.83,571.29,573.02,575.17,577.81,579.86,581.21,582.19,583.18,584.51,586.35,588.17,589.83,591.77,594.53,597.10,599.06,600.18,601.17,603.64,608.49,615.75,621.81,628.13,634.78,641.74,649.00,656.43,664.60,672.73,680.47,691.40,700.83,709.19,717.10,724.89,731.99,739.43,746.86,752.91,758.09,764.74,771.44,776.61,780.40,782.62,783.29,782.76,781.91,781.34,781.21,782.02,784.26,786.10,784.41,781.33,777.51,771.37,765.20,758.26,751.19,745.59,739.34,737.62,739.19,741.93,742.46,742.33,742.17,741.68,739.68,737.35,735.99,736.19,738.57,741.95,746.11,749.66,751.86,753.24,754.03,755.54,757.78,759.93,761.20,761.85,764.61,771.71,780.15,785.44,788.98,791.49,793.08,794.78,796.40,798.01,799.79,802.04,804.82,807.56,809.62,810.27,810.86,811.68,812.60,813.15,812.55,811.45,809.08,804.35,797.97,791.53,786.52,784.26,786.01,785.13,780.45,773.29,766.58,767.41,774.75,782.43,787.15,790.57,791.06,787.73,781.51
511.77,511.77,511.77,511.77,511.77,511.77,511.76,511.69,511.61,511.51,511.37,511.28,511.16,511.03,510.94,510.87,510.85,510.85,510.85,510.85,510.86,510.90,510.97,511.06,511.16,511.34,511.57,511.81,512.03,512.23,512.36,512.41,512.43,512.55,512.70,512.87,513.09,513.19,513.29,513.38,513.47,513.56,513.69,513.80,513.88,513.95,513.97,514.07,514.18,514.25,514.27,514.33,514.39,514.45,514.52,514.52,514.52,514.55,514.64,514.72,514.80,514.86,514.90,515.10,515.30,515.36,515.35,515.48,515.57,515.68,515.79,515.89,516.03,516.13,516.32,516.60,516.80,516.59,516.17,515.66,515.13,514.71,514.39,514.37,514.98,516.76,523.03,532.86,544.16,552.63,553.52,550.55,546.69,543.62,541.00,539.70,538.91,538.24,537.71,538.29,539.22,540.22,541.13,541.33,541.30,541.39,541.91,543.06,544.58,546.22,547.85,549.35,550.90,552.41,553.87,555.35,557.02,558.52,559.83,561.04,562.36,563.62,564.55,565.28,566.17,567.26,568.41,569.65,571.03,572.49,574.34,576.39,578.62,581.10,583.28,584.87,586.03,586.97,587.86,589.38,591.32,593.65,596.56,599.80,602.59,604.81,606.53,607.70,609.61,613.00,618.17,623.52,629.56,635.77,642.48,650.75,657.04,664.89,673.11,680.21,691.34,700.50,708.53,716.35,724.24,731.66,740.03,748.40,754.14,758.69,764.89,771.43,776.70,780.49,782.83,784.10,784.41,783.95,783.74,784.08,785.17,786.71,785.47,782.59,778.45,773.16,767.36,761.11,754.89,749.27,744.96,739.96,740.69,745.10,750.02,751.55,752.45,752.53,750.96,746.56,743.07,740.00,737.76,737.43,738.81,740.55,742.71,745.13,746.47,747.85,749.18,750.70,753.06,755.80,758.92,763.55,770.78,779.02,784.08,787.71,790.42,791.46,792.95,794.73,796.55,798.28,800.13,802.85,805.65,807.78,808.65,809.80,811.16,812.59,813.70,812.66,811.18,808.21,802.51,796.61,791.22,788.30,788.41,789.91,788.11,783.23,776.33,769.61,770.46,776.75,784.09,789.70,792.26,791.44,786.37,778.93
511.91,511.90,511.87,511.86,511.86,511.86,511.85,511.82,511.78,511.73,511.62,511.53,511.42,511.28,511.20,511.09,511.05,511.05,511.06,511.10,511.11,511.15,511.21,511.26,511.33,511.46,511.63,511.87,512.10,512.33,512.53,512.67,512.79,512.91,513.02,513.15,513.30,513.42,513.51,513.59,513.66,513.74,513.85,513.94,514.02,514.10,514.14,514.23,514.33,514.40,514.44,514.51,514.59,514.67,514.74,514.79,514.93,515.11,515.27,515.42,515.58,515.72,515.86,516.08,516.18,516.14,516.03,516.06,516.10,516.24,516.40,516.52,516.63,516.63,516.62,516.62,516.48,516.08,515.57,515.04,514.58,514.35,514.38,514.94,516.62,520.65,530.79,544.15,557.02,563.13,562.21,558.27,553.84,550.08,546.11,543.58,541.96,540.83,539.77,539.63,540.05,540.84,541.93,542.56,542.65,542.69,543.03,543.71,545.19,546.89,548.58,550.21,551.86,553.40,554.85,556.26,557.78,559.27,560.70,562.11,563.53,564.96,566.18,567.20,568.21,569.41,570.76,572.23,573.81,575.37,577.25,579.45,581.93,584.49,586.79,588.75,590.47,591.93,592.65,593.75,595.45,597.88,601.05,604.31,608.59,612.97,615.39,617.12,619.35,621.89,624.71,628.67,633.29,638.26,644.05,651.79,658.38,665.74,673.09,679.77,690.28,699.32,706.71,713.33,721.48,729.58,739.48,749.26,754.44,758.71,764.83,771.32,776.52,780.42,782.90,784.45,785.35,785.84,786.29,786.98,787.92,788.31,784.56,780.29,775.63,770.48,765.56,760.91,756.54,752.60,749.37,745.50,745.08,748.79,755.60,758.56,761.40,761.38,757.53,751.62,748.08,744.79,741.40,738.78,738.87,741.23,744.93,749.23,752.31,753.48,753.64,753.48,753.66,753.95,756.46,760.85,766.67,773.33,778.34,782.08,785.10,788.30,791.22,793.77,795.99,797.95,799.78,802.14,804.47,806.36,807.81,809.49,811.24,813.00,814.49,813.38,811.76,809.46,805.65,800.47,795.15,792.31,792.33,792.45,789.79,784.29,777.32,771.69,773.60,779.25,785.76,791.14,792.82,790.92,785.19,778.00
512.03,512.01,511.95,511.93,511.93,511.93,511.93,511.93,511.93,511.90,511.84,511.77,511.67,511.54,511.45,511.31,511.26,511.26,511.28,511.34,511.36,511.41,511.46,511.47,511.53,511.62,511.74,511.94,512.16,512.39,512.63,512.86,513.08,513.22,513.30,513.37,513.46,513.59,513.69,513.76,513.84,513.92,514.01,514.09,514.16,514.23,514.31,514.38,514.46,514.54,514.62,514.69,514.79,514.92,515.05,515.18,515.46,515.81,516.09,516.32,516.56,516.79,517.01,517.20,517.15,516.97,516.77,516.69,516.67,516.75,516.86,516.91,516.93,516.83,516.64,516.37,515.91,515.44,514.91,514.42,514.13,514.16,514.73,516.06,519.16,526.56,540.02,555.95,569.63,573.07,570.53,565.98,561.34,557.28,552.76,549.16,546.35,544.21,542.52,541.61,541.30,541.60,542.65,543.66,543.97,544.05,544.26,544.52,545.79,547.42,549.13,550.89,552.70,554.39,555.93,557.34,558.73,560.19,561.71,563.25,564.74,566.20,567.58,568.88,570.11,571.46,572.99,574.64,576.40,578.10,580.01,582.36,585.07,587.80,590.32,592.74,595.14,597.25,598.00,598.88,600.27,602.41,605.55,609.35,615.34,621.88,625.55,628.29,631.36,633.69,634.69,636.76,639.31,642.28,646.27,652.59,659.55,666.40,672.80,679.08,688.54,697.28,704.15,709.94,718.49,727.57,738.73,749.44,754.36,758.74,764.99,771.42,776.35,780.26,782.63,784.18,785.41,786.78,787.95,789.15,790.02,789.26,783.86,778.57,773.76,769.33,765.47,762.56,759.94,757.36,754.72,751.68,749.69,751.94,759.74,764.25,768.60,768.27,762.59,756.02,752.86,750.09,746.53,742.36,741.14,744.13,749.38,755.46,760.32,761.69,761.16,759.63,757.45,754.75,755.44,758.28,761.98,766.80,771.92,776.30,780.28,785.74,790.15,793.54,796.26,798.54,800.43,802.46,804.31,805.86,807.71,809.69,811.69,813.67,815.32,814.27,812.64,811.13,809.34,804.93,799.83,796.79,796.00,794.48,791.02,784.81,777.66,773.31,776.45,781.94,787.80,792.49,792.75,789.75,784.38,778.61
512.14,512.09,512.07,512.06,512.06,512.06,512.06,512.06,512.03,511.98,511.96,511.95,511.89,511.80,511.71,511.56,511.52,511.52,511.53,511.54,511.60,511.67,511.73,511.73,511.79,511.88,511.94,512.01,512.23,512.46,512.69,512.93,513.16,513.42,513.53,513.57,513.64,513.74,513.82,513.89,513.97,514.05,514.18,514.28,514.34,514.37,514.43,514.51,514.59,514.67,514.75,514.82,515.02,515.35,515.67,516.00,516.36,516.78,517.23,517.49,517.72,517.95,518.15,518.20,518.00,517.75,517.54,517.41,517.33,517.14,516.86,516.59,516.35,516.22,516.06,515.78,515.32,514.81,514.24,513.84,513.98,514.44,515.75,518.06,523.20,536.29,550.94,565.71,577.16,578.14,575.46,571.51,567.64,564.48,561.35,557.54,553.01,548.52,546.33,544.97,543.78,543.01,543.40,544.37,545.06,545.45,545.62,545.81,546.40,547.59,549.24,550.98,552.90,555.03,556.99,558.43,559.83,561.32,562.92,564.56,566.09,567.52,568.90,570.39,572.10,573.43,574.86,576.44,578.19,580.13,582.49,585.08,587.84,590.80,593.85,596.91,599.92,602.56,603.68,605.05,606.25,607.45,610.39,616.66,623.83,630.88,637.30,642.07,646.76,650.26,651.24,650.55,650.12,649.53,649.67,653.36,659.50,666.03,672.08,677.78,685.68,693.42,700.50,707.51,716.72,727.36,738.42,748.17,753.97,759.37,766.03,772.24,776.48,780.00,781.51,782.46,783.54,784.96,786.80,789.07,790.51,789.06,784.09,779.07,774.72,771.20,768.49,766.18,764.04,761.64,758.35,755.38,753.75,755.51,761.86,767.91,771.61,770.71,765.57,760.12,757.59,756.23,754.27,750.39,747.13,748.00,752.10,758.21,763.32,766.83,767.95,766.84,763.93,760.28,758.25,757.63,758.45,761.97,767.50,774.05,780.81,786.40,790.98,794.87,798.20,800.81,802.66,804.73,806.53,807.78,809.11,810.74,812.70,814.75,816.10,815.07,813.61,812.11,810.16,806.49,802.89,800.58,799.20,796.28,792.09,785.30,777.95,774.36,778.34,784.75,790.94,794.58,791.81,787.47,784.44,782.30
512.27,512.20,512.19,512.19,512.19,512.19,512.19,512.16,512.13,512.09,512.09,512.09,512.06,512.03,511.97,511.83,511.76,511.74,511.75,511.78,511.84,511.91,511.95,511.98,512.05,512.13,512.19,512.25,512.37,512.57,512.80,513.04,513.27,513.54,513.71,513.80,513.84,513.91,513.99,514.07,514.15,514.23,514.34,514.43,514.49,514.50,514.56,514.66,514.76,514.86,515.03,515.22,515.55,516.03,516.49,516.88,517.27,517.73,518.30,518.63,518.89,519.09,519.21,519.11,518.78,518.50,518.29,518.03,517.74,517.34,516.88,516.43,516.02,515.78,515.55,515.23,514.71,514.20,513.75,513.60,514.14,515.02,516.90,521.66,531.19,545.61,561.93,574.08,580.19,580.27,578.49,575.49,572.28,569.62,567.10,563.32,558.81,554.28,550.97,548.33,546.33,544.93,544.39,545.12,545.99,546.62,546.91,547.06,547.33,548.14,549.50,551.15,553.07,555.33,557.58,559.42,561.02,562.57,564.17,565.82,567.40,568.91,570.51,572.27,574.18,575.69,577.00,578.42,580.21,582.52,585.06,587.81,590.74,593.88,597.18,600.71,604.23,607.35,609.74,612.03,613.69,614.83,617.28,623.10,630.02,637.13,644.10,649.87,656.25,661.35,662.95,660.90,658.74,656.42,654.58,655.38,659.66,665.31,671.10,676.63,683.37,690.59,698.16,706.46,716.46,727.87,738.74,747.98,754.56,760.80,767.43,772.89,775.96,778.30,779.42,780.35,781.55,783.13,785.21,787.52,788.94,787.81,784.51,780.53,776.78,773.78,771.79,770.11,768.18,765.75,762.69,760.10,759.05,760.64,765.68,771.55,774.37,773.36,769.37,765.64,763.53,762.22,760.49,757.01,752.47,751.08,753.33,758.70,763.92,768.93,772.32,773.41,771.29,767.08,763.54,760.74,758.85,759.91,764.89,771.65,778.77,784.76,790.09,795.17,799.53,802.30,804.73,807.01,808.82,810.05,811.25,812.76,814.60,816.36,816.96,815.98,814.58,813.02,811.13,808.44,805.76,803.38,800.79,796.32,791.01,784.51,778.38,775.89,780.09,786.59,792.58,795.39,791.30,788.82,787.60,785.65
512.39,512.33,512.32,512.32,512.32,512.32,512.31,512.26,512.22,512.22,512.22,512.22,512.22,512.20,512.19,512.06,511.98,511.94,511.96,512.03,512.11,512.15,512.17,512.25,512.33,512.41,512.48,512.54,512.55,512.71,512.92,513.15,513.38,513.62,513.85,514.02,514.05,514.12,514.19,514.26,514.34,514.42,514.50,514.57,514.62,514.64,514.72,514.86,515.01,515.15,515.43,515.74,516.18,516.77,517.33,517.76,518.18,518.67,519.32,519.74,520.02,520.20,520.25,520.05,519.59,519.22,518.94,518.52,518.00,517.47,516.93,516.38,515.85,515.46,515.11,514.70,514.11,513.63,513.42,513.61,514.44,515.82,518.87,526.62,540.41,555.00,571.68,580.41,581.12,580.89,580.09,577.89,575.16,572.77,570.48,566.87,563.03,559.32,555.18,551.37,548.72,546.95,545.64,545.94,546.81,547.64,548.14,548.31,548.44,548.97,550.02,551.59,553.41,555.57,557.89,560.16,562.07,563.79,565.45,567.09,568.75,570.44,572.31,574.31,576.28,578.01,579.31,580.62,582.41,584.99,587.63,590.46,593.50,596.68,600.36,604.37,608.32,611.86,615.59,618.72,620.92,622.37,624.45,628.97,635.13,641.99,648.65,655.04,662.88,669.36,671.50,669.02,666.15,663.26,660.47,658.57,660.43,664.84,670.29,675.79,681.71,688.66,696.74,706.15,716.94,728.74,739.29,748.15,755.50,762.42,768.62,772.97,774.67,775.69,776.71,777.93,779.43,781.26,783.44,785.38,786.49,786.03,784.67,782.11,779.29,776.91,775.51,774.39,772.60,770.16,767.57,765.43,765.01,766.67,770.67,775.56,777.53,776.56,773.69,771.50,769.59,767.79,765.64,762.31,756.99,753.69,754.06,758.30,763.35,769.29,774.92,778.85,778.57,774.86,770.69,766.48,762.40,760.42,763.56,769.05,775.48,782.12,788.33,794.49,799.62,802.41,805.55,808.50,810.82,812.32,813.71,815.21,816.81,818.06,817.90,817.02,815.68,814.09,812.40,810.76,808.59,805.82,801.95,795.99,789.67,783.62,778.83,777.53,781.88,788.07,793.59,796.01,792.24,792.25,791.88,788.64
512.47,512.45,512.45,512.45,512.45,512.44,512.39,512.36,512.35,512.35,512.35,512.35,512.32,512.27,512.27,512.24,512.21,512.20,512.22,512.29,512.37,512.43,512.50,512.57,512.65,512.73,512.79,512.80,512.80,512.85,512.99,513.22,513.45,513.68,513.95,514.18,514.30,514.38,514.41,514.46,514.54,514.61,514.69,514.74,514.76,514.83,514.95,515.18,515.45,515.70,516.01,516.32,516.75,517.33,517.97,518.56,519.08,519.64,520.30,520.72,521.00,521.24,521.41,521.24,520.56,519.85,519.25,518.69,518.14,517.60,517.04,516.45,515.90,515.36,514.79,514.20,513.65,513.21,513.37,513.96,514.87,516.98,523.65,534.08,548.09,565.24,576.79,581.40,581.12,580.41,579.26,576.95,574.21,571.82,569.46,566.22,562.79,559.56,556.64,553.25,550.47,548.51,547.39,546.93,547.53,548.46,549.22,549.61,549.71,550.23,551.34,552.88,554.45,556.08,557.92,560.15,562.45,564.75,566.75,568.42,570.27,572.32,574.39,576.44,578.42,580.16,581.78,583.34,584.98,587.19,589.99,592.87,595.62,598.45,603.24,608.05,612.35,616.16,620.15,623.16,625.30,627.00,629.62,634.12,639.70,645.88,652.45,659.63,667.99,674.31,675.83,674.17,672.48,670.48,667.72,664.04,663.11,665.79,670.53,675.83,681.64,688.42,696.58,706.47,717.84,729.81,739.74,747.95,756.14,763.50,768.54,771.19,771.62,771.95,773.23,774.99,777.03,779.36,781.67,783.27,784.01,783.85,783.54,782.68,781.74,780.98,780.31,779.50,778.01,775.85,773.32,771.40,771.47,773.55,777.39,781.00,782.54,781.52,778.69,776.46,774.28,772.03,769.18,764.89,759.52,755.83,755.18,758.01,762.15,767.92,774.73,781.11,784.26,784.28,780.92,776.19,771.46,766.07,764.12,766.00,771.54,779.36,786.05,791.74,796.11,798.68,802.12,807.24,811.66,814.16,816.22,817.78,818.85,819.33,818.99,818.37,817.21,815.80,814.54,813.79,811.62,808.47,804.00,796.99,790.65,784.20,779.14,778.83,784.00,789.69,794.60,797.84,797.75,797.80,795.60,790.83
512.58,512.58,512.58,512.58,512.57,512.53,512.49,512.48,512.48,512.48,512.48,512.48,512.43,512.38,512.38,512.38,512.38,512.42,512.51,512.59,512.67,512.74,512.82,512.90,512.98,513.03,513.07,513.07,513.09,513.08,513.13,513.29,513.51,513.75,514.02,514.30,514.48,514.62,514.68,514.72,514.78,514.84,514.90,514.94,515.00,515.15,515.38,515.66,515.97,516.28,516.59,516.90,517.29,517.82,518.50,519.16,519.84,520.55,521.28,521.82,522.11,522.34,522.48,522.04,521.16,520.24,519.44,518.82,518.24,517.67,517.07,516.43,515.85,515.23,514.54,513.83,513.20,513.06,513.51,514.38,515.90,519.96,529.61,541.87,555.64,572.56,580.04,581.60,580.29,578.87,577.32,574.93,572.28,570.00,567.68,564.90,561.95,559.12,556.86,554.14,551.65,549.72,548.64,547.97,548.42,549.39,550.34,550.87,551.17,551.73,552.73,554.23,555.65,557.05,558.65,560.76,563.22,565.80,568.02,569.84,571.92,574.18,576.41,578.50,580.28,581.90,583.65,585.40,587.15,589.49,592.59,595.64,598.28,600.66,605.33,610.39,615.09,619.25,623.65,627.38,630.65,633.66,636.72,640.58,645.54,651.45,658.17,665.70,673.42,679.17,681.15,680.48,679.09,676.88,673.63,669.43,666.69,667.40,670.82,676.04,681.74,688.35,696.53,706.86,719.05,730.61,740.18,748.61,757.44,763.83,767.10,768.36,768.54,769.08,770.72,772.89,775.33,777.90,779.83,780.75,780.97,780.87,780.81,780.44,780.22,780.39,780.71,780.85,780.69,779.99,778.39,776.85,776.95,778.65,781.69,784.72,786.57,786.38,784.23,781.21,777.57,774.24,770.76,766.20,761.08,757.59,756.67,758.72,762.41,767.89,774.76,781.91,787.15,790.04,788.22,784.10,779.22,771.84,766.84,765.93,769.68,777.38,783.87,788.57,791.98,794.98,799.96,806.51,811.91,814.91,817.57,819.16,819.97,820.20,819.96,819.60,818.85,817.85,816.97,817.04,815.08,811.54,806.12,797.71,791.12,784.88,780.42,781.15,786.54,792.70,798.06,801.80,803.47,803.37,799.59,793.46
512.71,512.71,512.71,512.71,512.67,512.62,512.61,512.61,512.61,512.61,512.61,512.60,512.56,512.51,512.51,512.52,512.52,512.61,512.80,512.90,512.99,513.07,513.14,513.22,513.29,513.32,513.33,513.34,513.40,513.36,513.34,513.39,513.59,513.81,514.09,514.38,514.61,514.86,515.00,515.05,515.08,515.15,515.17,515.21,515.33,515.56,515.89,516.22,516.54,516.86,517.17,517.49,517.84,518.29,518.98,519.73,520.59,521.49,522.28,522.97,523.30,523.48,523.42,522.55,521.49,520.45,519.55,518.92,518.30,517.68,517.05,516.37,515.75,515.07,514.35,513.58,512.85,513.12,513.78,514.87,517.47,524.60,536.22,549.64,563.52,577.71,581.95,581.33,578.97,576.79,574.85,572.48,570.04,567.94,565.74,563.44,561.00,558.55,556.55,554.50,552.46,550.67,549.58,549.08,549.49,550.43,551.50,552.10,552.68,553.31,554.15,555.57,556.92,558.32,559.90,561.87,564.31,566.94,569.28,571.31,573.60,575.95,578.29,580.40,581.93,583.38,585.12,587.01,589.06,591.87,595.30,598.54,601.17,603.18,606.92,611.83,616.96,621.65,626.66,631.59,636.59,641.38,644.94,648.05,652.48,658.31,665.08,672.43,678.86,683.88,686.82,687.16,685.56,682.52,678.52,674.46,670.74,669.55,671.39,676.48,681.97,688.39,696.58,707.31,720.54,731.39,740.81,749.79,758.54,763.06,764.59,765.08,765.77,767.08,769.10,771.53,774.13,776.48,777.55,777.56,777.17,777.00,776.82,776.35,776.27,776.99,778.28,779.55,780.98,782.17,782.10,781.15,781.09,782.06,784.07,786.93,789.41,790.44,789.34,785.43,779.94,775.41,771.59,767.34,762.58,759.41,758.48,760.16,763.78,768.97,775.37,782.27,788.51,793.32,793.41,790.49,785.64,777.61,771.49,768.36,769.31,775.89,781.87,785.63,788.26,791.93,798.68,805.90,811.45,814.69,817.81,819.55,820.39,820.72,820.75,820.69,820.45,819.97,819.45,820.10,818.47,814.63,808.20,798.60,791.68,786.08,782.69,784.21,789.64,796.68,802.88,806.85,808.85,808.31,803.26,796.17
512.84,512.84,512.84,512.80,512.76,512.74,512.74,512.74,512.74,512.74,512.74,512.69,512.65,512.64,512.65,512.69,512.71,512.79,512.98,513.21,513.32,513.39,513.47,513.54,513.57,513.62,513.65,513.65,513.67,513.66,513.65,513.65,513.69,513.88,514.15,514.46,514.75,515.14,515.38,515.51,515.57,515.64,515.66,515.73,515.87,516.06,516.32,516.66,517.02,517.38,517.75,518.11,518.46,518.86,519.52,520.61,521.76,522.74,523.34,524.02,524.48,524.55,524.02,522.83,521.58,520.47,519.56,518.93,518.26,517.63,516.99,516.30,515.67,515.00,514.30,513.57,512.92,513.36,514.10,515.55,519.89,531.72,543.07,556.74,573.00,581.18,582.17,580.29,577.56,575.07,572.79,570.57,568.46,566.52,564.50,562.50,560.47,558.48,556.81,554.96,553.03,551.36,550.51,550.46,550.90,551.70,552.69,553.32,554.02,554.72,555.54,556.84,558.20,559.75,561.49,563.46,565.70,568.18,570.56,572.78,575.10,577.43,579.79,581.91,583.35,584.84,586.49,588.38,590.80,594.24,597.85,601.01,603.57,605.68,608.43,612.94,618.47,624.18,630.12,636.03,642.04,647.89,652.58,656.38,660.87,666.22,672.03,678.00,683.23,687.60,690.74,691.86,690.38,687.09,682.75,678.46,674.67,672.63,673.26,677.53,682.43,688.69,696.89,707.97,722.48,732.91,742.26,750.90,756.89,759.26,760.78,762.29,764.06,766.46,768.80,771.16,773.25,774.03,773.41,772.36,771.51,771.29,771.25,771.46,772.24,773.68,775.30,776.66,778.22,779.96,781.47,781.87,782.03,782.77,784.68,787.28,789.83,791.38,791.11,787.79,781.79,777.30,774.19,770.82,766.13,762.39,760.84,762.23,766.02,771.24,777.48,784.17,790.36,795.79,797.45,795.58,790.53,783.92,779.16,773.89,769.84,774.38,780.36,784.55,787.52,791.24,797.27,803.88,809.35,813.00,816.19,818.72,820.10,820.63,821.06,821.50,821.66,821.60,821.48,821.77,820.39,816.62,810.09,801.25,794.51,789.63,786.81,787.67,794.20,801.20,807.11,811.17,812.75,810.65,804.65,797.93
512.97,512.97,512.97,512.92,512.87,512.87,512.87,512.87,512.87,512.86,512.84,512.79,512.77,512.78,512.81,512.86,512.89,512.96,513.12,513.41,513.60,513.70,513.75,513.83,513.86,513.91,513.93,513.93,513.93,513.93,513.93,513.93,513.89,514.01,514.25,514.56,514.89,515.34,515.71,515.96,516.09,516.16,516.20,516.28,516.42,516.57,516.77,517.10,517.48,517.84,518.22,518.61,518.98,519.43,520.25,521.59,523.02,524.15,524.65,525.25,525.59,525.33,524.31,522.94,521.60,520.42,519.47,518.80,518.13,517.50,516.86,516.20,515.58,514.92,514.24,513.58,513.12,513.63,514.52,517.15,524.76,538.34,550.53,564.20,578.98,583.10,581.91,579.23,576.41,573.77,571.34,569.31,567.50,565.69,563.85,562.04,560.24,558.50,556.98,555.27,553.50,552.07,551.67,551.95,552.45,553.12,554.00,554.91,555.82,556.55,557.20,558.18,559.61,561.33,563.20,565.18,567.25,569.54,571.87,574.16,576.49,578.80,581.18,583.34,584.81,586.27,587.85,589.86,592.66,596.28,599.90,603.12,605.82,608.12,610.81,614.99,620.30,626.28,632.73,639.63,646.85,653.93,659.57,663.92,668.30,673.01,677.87,682.63,687.00,691.01,694.40,696.15,695.23,692.02,687.31,682.69,678.74,676.24,676.00,679.05,683.34,689.27,697.39,708.77,724.05,734.06,742.99,750.86,754.48,755.66,757.61,760.18,762.87,765.84,768.48,770.62,771.75,770.84,769.01,767.48,766.56,766.36,766.47,767.06,768.29,770.21,772.21,773.67,775.17,776.88,778.69,779.84,780.61,781.84,784.17,786.96,789.77,791.95,792.57,789.80,784.77,781.11,778.67,775.90,771.39,766.66,763.85,764.32,767.83,773.25,779.83,786.72,792.63,797.99,800.18,798.83,793.91,788.35,782.87,777.39,773.64,776.19,779.84,782.87,785.63,789.32,794.56,800.75,806.42,810.76,814.24,817.00,818.74,819.72,820.63,821.32,821.68,821.91,822.24,822.85,821.84,818.55,812.76,805.16,797.92,792.69,789.70,789.93,796.37,803.35,809.60,814.42,816.24,813.25,807.08,800.95
513.10,513.10,513.10,513.04,513.00,513.00,513.00,513.00,513.00,512.98,512.92,512.90,512.90,512.93,512.99,513.01,513.06,513.13,513.26,513.54,513.84,513.98,514.02,514.10,514.17,514.19,514.20,514.20,514.20,514.20,514.20,514.20,514.20,514.21,514.39,514.69,515.01,515.46,515.96,516.36,516.58,516.68,516.75,516.84,516.94,517.09,517.25,517.55,517.90,518.24,518.61,519.00,519.44,520.09,521.19,522.70,524.31,525.62,526.18,526.64,526.60,525.83,524.36,522.93,521.54,520.32,519.32,518.57,517.91,517.29,516.67,516.04,515.43,514.81,514.16,513.57,513.38,513.91,515.10,519.66,531.72,544.68,558.69,571.92,581.66,583.72,581.38,578.30,575.53,572.86,570.44,568.62,567.04,565.34,563.62,561.91,560.22,558.58,557.05,555.49,553.93,552.86,553.04,553.53,554.07,554.65,555.44,556.73,557.96,558.75,559.16,559.73,561.25,563.08,565.00,566.98,568.93,571.06,573.27,575.52,577.82,580.14,582.53,584.75,586.35,587.76,589.38,591.63,594.76,598.14,601.63,604.98,608.00,610.61,613.97,617.93,622.51,628.00,634.49,642.26,650.74,659.10,665.42,670.08,674.25,678.35,682.48,686.47,690.39,694.37,698.13,700.36,700.29,697.48,692.58,687.75,683.46,680.65,679.67,681.20,684.76,690.19,698.13,709.64,724.88,734.33,742.38,749.09,751.35,752.53,755.24,758.73,762.08,765.09,767.84,769.48,769.36,766.94,764.57,763.12,762.47,762.37,762.61,763.22,764.49,766.58,769.04,770.74,772.15,773.48,774.70,776.16,777.78,779.93,782.94,786.24,789.44,792.33,793.88,791.80,788.80,786.47,784.52,781.89,777.62,771.84,767.49,766.57,769.15,774.75,781.99,789.39,794.96,799.82,801.82,800.54,795.91,790.65,783.22,779.38,780.22,781.15,780.90,781.45,783.38,786.90,791.20,797.01,802.98,808.11,812.06,814.56,816.43,818.04,819.43,820.16,820.57,821.00,821.81,823.47,823.02,820.46,815.87,809.50,801.24,795.10,791.77,791.70,796.77,803.54,810.51,816.52,819.25,816.33,810.80,805.46
513.23,513.23,513.18,513.14,513.13,513.13,513.13,513.13,513.11,513.06,513.03,513.03,513.06,513.12,513.18,513.19,513.25,513.33,513.43,513.63,513.92,514.17,514.34,514.41,514.45,514.45,514.48,514.51,514.52,514.52,514.52,514.52,514.52,514.48,514.56,514.76,515.09,515.53,516.05,516.54,516.93,517.17,517.28,517.39,517.50,517.62,517.76,518.00,518.32,518.67,519.01,519.38,520.07,521.18,522.65,524.21,525.65,526.86,527.66,527.97,527.40,526.19,524.50,522.87,521.38,520.16,519.18,518.37,517.63,516.98,516.36,515.75,515.18,514.61,514.00,513.52,513.64,514.19,516.23,523.06,538.95,553.49,567.91,578.90,583.68,583.57,580.73,577.63,574.90,572.25,569.97,568.24,566.73,565.11,563.42,561.76,560.23,558.83,557.42,555.90,554.50,553.76,554.41,555.10,555.69,556.30,557.07,558.09,559.72,560.99,561.64,562.11,563.57,565.25,566.99,568.86,570.79,572.89,575.04,577.20,579.42,581.76,584.05,586.17,588.02,589.75,591.96,594.59,597.59,600.72,603.88,607.06,610.30,613.77,617.45,621.14,625.08,629.82,635.85,643.57,652.10,660.55,667.36,672.40,676.88,681.24,685.49,689.68,693.97,698.38,702.57,705.13,705.44,703.59,700.10,696.17,691.41,687.60,685.31,685.07,686.98,691.87,699.57,710.35,723.52,731.72,737.82,742.75,746.07,749.51,753.66,757.93,761.63,764.50,766.10,766.27,764.90,762.13,760.03,759.14,758.95,758.91,759.22,759.96,761.07,762.79,765.73,767.72,768.99,770.07,771.88,774.78,776.95,779.05,781.96,785.39,788.50,791.53,794.01,794.38,793.01,791.65,789.88,786.41,781.98,776.37,771.91,770.07,770.37,775.24,782.60,790.29,795.66,800.50,802.95,801.81,796.36,790.31,785.64,784.74,787.06,787.90,786.65,785.90,786.69,789.26,790.61,794.56,799.73,804.87,809.22,811.63,813.58,815.49,817.06,818.01,818.61,819.30,820.71,823.52,824.07,821.99,817.38,810.93,802.15,797.39,796.40,797.18,800.00,804.64,810.53,816.78,820.50,819.26,815.64,811.88
513.35,513.33,513.28,513.26,513.26,513.26,513.26,513.24,513.20,513.16,513.18,513.19,513.24,513.31,513.36,513.38,513.44,513.52,513.62,513.77,514.03,514.33,514.60,514.73,514.81,514.83,514.86,514.90,514.90,514.90,514.88,514.85,514.85,514.82,514.84,514.96,515.27,515.69,516.19,516.72,517.22,517.58,517.77,517.92,518.06,518.16,518.31,518.49,518.74,519.13,519.51,520.08,521.04,522.44,524.14,525.77,527.17,528.33,529.11,529.07,528.08,526.57,524.79,523.00,521.30,519.98,519.02,518.20,517.41,516.70,516.04,515.43,514.93,514.41,513.91,513.61,513.96,514.66,519.03,529.33,547.50,563.50,575.88,583.39,584.98,583.18,580.14,577.16,574.50,571.85,569.66,567.96,566.45,564.89,563.24,561.63,560.20,558.96,557.70,556.27,555.15,554.79,555.70,556.53,557.24,557.97,558.80,559.62,561.45,563.16,564.29,564.99,566.35,567.77,569.19,570.75,572.50,574.55,576.72,578.93,581.23,583.57,585.78,587.89,590.04,592.31,595.08,598.04,600.95,603.88,606.77,609.74,612.97,616.79,620.84,624.71,628.53,632.75,637.95,644.68,652.22,659.92,666.66,672.17,677.00,681.56,686.21,691.16,696.24,701.51,706.63,709.97,711.14,710.66,709.01,706.77,703.13,699.76,697.05,695.05,693.66,695.83,701.54,710.58,720.88,727.35,732.32,737.14,742.59,748.02,753.13,757.68,761.26,763.39,763.61,762.37,760.02,757.16,755.56,755.26,755.55,755.87,756.72,757.97,759.25,760.85,763.94,765.92,767.02,768.06,770.50,774.36,777.04,779.19,781.80,784.84,787.62,790.52,793.46,795.61,796.03,796.00,794.83,790.98,786.14,780.87,776.90,774.80,772.86,776.09,782.94,790.77,795.88,800.79,804.25,804.46,799.81,793.02,790.14,790.77,793.24,793.69,792.26,791.20,791.46,793.16,792.88,794.88,798.51,802.92,807.19,809.75,811.81,813.75,815.30,816.56,817.51,818.59,820.46,823.88,825.22,823.28,818.18,811.81,804.04,801.05,801.86,803.33,804.90,807.74,812.14,817.63,821.37,821.56,819.78,817.57
513.47,513.41,513.39,513.39,513.39,513.39,513.39,513.33,513.30,513.31,513.37,513.38,513.43,513.48,513.50,513.56,513.63,513.72,513.80,513.96,514.17,514.45,514.75,515.02,515.25,515.33,515.35,515.36,515.36,515.36,515.29,515.18,515.18,515.23,515.26,515.35,515.60,515.97,516.42,516.92,517.45,517.89,518.21,518.43,518.58,518.73,518.88,519.00,519.21,519.63,520.18,521.18,522.41,523.82,525.55,527.30,528.87,530.05,530.49,529.93,528.64,527.00,525.19,523.32,521.28,519.78,518.84,518.06,517.28,516.48,515.73,515.14,514.71,514.26,513.94,513.89,514.38,515.70,524.15,539.13,557.66,573.94,581.82,584.95,585.39,582.59,579.62,576.88,574.29,571.67,569.55,567.86,566.35,564.81,563.24,561.65,560.20,558.95,557.84,556.57,555.86,555.91,556.84,557.75,558.67,559.63,560.62,561.47,563.26,565.24,566.96,568.18,569.44,570.54,571.55,572.64,574.03,575.94,578.17,580.63,583.19,585.52,587.75,589.99,592.43,595.37,598.57,601.75,604.74,607.62,610.40,613.24,616.32,620.03,624.64,629.12,633.29,637.20,641.13,645.91,651.49,657.63,663.62,669.63,674.71,679.24,684.41,690.50,696.71,703.27,709.97,714.65,717.34,718.66,719.09,719.17,718.43,717.30,715.45,711.92,705.92,702.85,704.27,710.25,717.24,721.67,726.73,733.46,741.70,748.26,753.43,757.61,760.55,761.40,760.32,758.06,755.12,752.36,751.36,751.61,752.45,753.58,755.50,757.67,759.65,761.57,764.35,765.88,766.77,767.91,770.67,774.68,777.85,780.38,782.70,784.93,787.21,789.75,792.52,795.12,797.44,799.11,799.09,795.83,790.55,785.63,782.48,780.74,776.99,777.86,783.47,791.04,795.87,800.92,805.81,808.64,806.93,799.99,796.78,796.89,798.51,797.95,796.69,796.25,796.79,797.89,797.98,798.36,799.91,803.00,806.65,809.52,811.73,813.43,814.81,816.35,817.79,819.34,821.45,824.77,826.57,824.60,818.94,812.94,807.80,806.51,807.87,809.56,811.17,813.02,815.83,819.59,822.17,823.11,822.74,821.86
513.55,513.52,513.52,513.52,513.52,513.52,513.52,513.46,513.44,513.48,513.51,513.56,513.62,513.68,513.69,513.75,513.80,513.87,513.99,514.11,514.27,514.53,514.82,515.09,515.37,515.58,515.75,515.85,515.82,515.78,515.68,515.57,515.61,515.64,515.71,515.83,516.03,516.31,516.73,517.23,517.75,518.21,518.59,518.84,518.99,519.14,519.30,519.46,519.78,520.41,521.37,522.55,523.87,525.29,526.81,528.53,530.10,531.28,531.63,530.63,529.05,527.19,525.13,523.05,520.98,519.55,518.69,517.88,517.10,516.30,515.55,514.93,514.51,514.17,514.05,514.24,515.01,519.96,533.11,551.29,568.41,579.68,584.94,586.13,584.25,581.25,578.88,576.51,574.00,571.70,570.15,568.98,567.80,566.34,564.61,562.70,560.78,559.12,558.22,557.29,556.66,556.65,557.59,558.55,559.77,561.16,562.56,563.75,565.37,567.22,568.98,570.25,571.45,572.54,573.55,574.58,575.70,577.37,579.50,582.02,584.71,587.15,589.64,592.23,594.90,597.87,601.26,604.68,607.96,611.35,614.46,617.96,622.36,628.13,633.68,638.06,641.24,643.31,645.32,648.16,651.90,656.42,661.21,667.03,672.10,676.61,681.91,688.25,695.46,703.58,712.09,718.28,722.31,725.62,728.44,730.03,730.71,731.05,730.37,727.25,721.30,714.03,709.40,709.72,714.40,718.32,723.36,730.66,740.64,747.46,751.43,754.20,756.45,757.19,756.04,753.69,750.82,748.77,748.64,749.77,751.76,754.46,756.88,760.05,763.35,766.14,767.77,768.40,768.75,769.40,771.25,775.23,778.91,782.07,784.85,787.42,789.52,791.46,793.33,795.12,797.42,799.66,800.90,799.75,795.97,791.71,788.68,786.56,781.70,782.21,785.72,790.65,796.16,801.66,806.87,810.63,811.20,807.14,803.95,802.84,803.14,802.20,800.84,800.68,801.48,802.35,802.59,802.38,803.39,806.31,809.26,811.83,813.95,815.63,816.85,818.01,819.48,821.15,823.12,826.33,828.63,828.31,824.43,817.23,813.31,813.04,814.65,816.03,816.90,817.84,819.33,821.43,823.19,824.40,824.77,824.58
513.65,513.65,513.65,513.65,513.65,513.64,513.63,513.59,513.61,513.67,513.67,513.74,513.81,513.86,513.88,513.93,513.96,514.03,514.16,514.26,514.40,514.63,514.91,515.14,515.44,515.75,516.03,516.22,516.24,516.18,516.07,515.96,516.03,516.06,516.16,516.32,516.50,516.70,517.06,517.52,518.05,518.53,518.94,519.22,519.41,519.61,519.87,520.16,520.64,521.52,522.73,523.96,525.28,526.69,528.08,529.79,531.36,532.43,532.45,531.04,529.17,527.10,524.84,522.59,520.62,519.32,518.53,517.71,516.91,516.13,515.40,514.78,514.37,514.18,514.25,514.89,517.36,527.12,543.96,563.41,578.53,584.36,586.70,586.14,582.72,579.94,578.07,576.10,573.93,572.18,571.14,570.37,569.50,568.23,566.47,564.25,561.92,559.89,558.93,558.20,557.61,557.47,558.27,559.36,560.90,562.66,564.40,565.91,567.46,569.11,570.74,571.99,573.16,574.29,575.38,576.45,577.44,578.98,581.02,583.51,586.19,588.71,591.39,594.22,597.06,600.21,603.76,607.45,611.13,615.09,619.12,623.94,629.93,637.14,643.48,647.84,650.05,650.13,650.34,651.93,654.24,656.96,660.29,665.39,670.47,675.35,680.70,686.63,694.51,704.00,714.07,721.41,727.03,732.26,736.88,739.14,740.03,740.86,740.90,738.53,733.72,724.67,716.29,712.08,713.68,716.16,720.33,727.04,736.96,743.39,746.35,748.24,750.43,751.50,750.70,748.81,746.80,746.35,747.54,749.65,752.55,756.22,759.22,763.21,767.27,770.35,771.31,771.56,771.83,772.29,773.18,776.18,779.80,783.37,786.67,789.86,792.25,793.98,795.17,796.04,797.78,800.08,802.26,803.12,801.05,798.05,795.41,792.78,787.72,788.57,790.36,792.45,797.41,803.18,808.31,812.36,814.48,812.95,810.17,808.14,807.13,805.81,804.60,804.64,805.55,806.50,806.96,806.59,807.23,809.70,812.08,814.36,816.53,818.48,819.92,820.82,822.06,823.45,824.94,827.78,830.07,831.05,829.38,822.90,819.84,819.51,820.35,820.89,821.10,821.50,822.18,823.19,824.44,825.73,826.49,826.69
513.77,513.77,513.77,513.77,513.77,513.77,513.71,513.74,513.80,513.86,513.87,513.93,513.97,514.00,514.06,514.07,514.13,514.20,514.30,514.44,514.60,514.80,515.03,515.27,515.57,515.88,516.16,516.39,516.58,516.57,516.46,516.35,516.42,516.49,516.62,516.79,517.00,517.17,517.41,517.79,518.32,518.84,519.27,519.61,519.91,520.24,520.75,521.28,521.99,523.08,524.19,525.35,526.60,527.95,529.42,531.20,532.81,533.61,532.76,530.97,528.86,526.63,524.32,522.04,520.29,519.13,518.35,517.58,516.77,515.98,515.27,514.71,514.31,514.35,514.64,516.27,522.93,538.15,556.58,574.43,587.12,588.88,587.13,584.32,581.19,578.99,577.26,575.69,574.30,573.35,572.53,571.75,570.99,570.09,568.63,566.27,563.79,561.64,560.15,559.30,558.78,558.58,559.06,560.37,562.23,564.17,566.00,567.73,569.36,570.89,572.31,573.60,574.78,575.94,577.08,578.18,579.33,580.94,582.95,585.31,587.80,590.27,592.92,595.72,598.69,602.44,606.26,610.20,614.43,618.88,624.65,631.57,638.99,645.75,652.39,657.14,659.03,657.47,656.41,657.95,659.49,660.17,661.84,665.57,670.82,676.67,682.05,686.85,694.88,705.30,716.27,724.10,731.74,738.69,743.95,745.85,745.47,745.43,745.24,743.36,739.69,732.59,725.18,719.51,716.48,715.40,717.19,721.85,728.99,734.17,736.87,739.22,742.39,744.13,743.91,743.12,743.05,745.56,748.68,751.85,754.99,758.28,762.16,766.52,770.10,772.28,773.73,774.67,775.77,776.86,777.27,777.81,780.35,783.87,787.42,791.25,794.56,796.92,798.13,798.41,799.39,801.34,803.83,805.91,805.13,804.26,802.71,799.72,795.75,797.25,798.34,798.31,800.36,805.87,810.70,814.53,817.14,816.39,814.50,812.37,810.28,808.44,807.92,808.12,808.88,810.25,811.09,810.86,810.86,811.96,814.02,816.29,818.83,821.50,823.79,824.86,825.60,826.17,826.80,828.78,830.22,831.22,831.40,829.44,827.18,825.26,823.78,822.85,822.85,823.31,823.99,824.87,826.02,827.25,828.02,828.34
513.90,513.90,513.90,513.90,513.90,513.90,513.87,513.92,513.98,514.01,514.06,514.13,514.16,514.18,514.25,514.26,514.32,514.39,514.49,514.64,514.79,514.99,515.21,515.41,515.70,516.01,516.31,516.57,516.80,516.90,516.85,516.74,516.82,516.93,517.09,517.29,517.47,517.67,517.86,518.15,518.59,519.12,519.64,520.24,520.90,521.49,522.08,522.65,523.42,524.50,525.62,526.76,527.96,529.27,530.87,532.67,534.13,534.40,532.54,530.52,528.45,526.27,523.96,521.67,520.06,518.96,518.22,517.72,517.44,516.81,515.83,514.77,514.38,514.54,516.72,522.66,534.86,551.27,568.88,584.07,591.47,589.85,586.63,583.43,580.54,578.77,577.30,576.11,575.20,574.50,573.78,573.02,572.27,571.47,570.11,567.88,565.46,563.22,561.34,560.44,559.94,559.83,560.54,561.89,563.70,565.63,567.50,569.29,570.94,572.42,573.77,575.12,576.38,577.59,578.92,580.50,582.11,583.75,585.58,587.63,589.78,592.05,594.51,597.18,600.30,604.57,608.68,612.75,617.34,623.50,631.15,638.85,646.02,652.56,659.11,664.01,665.80,663.64,663.27,664.34,665.02,664.91,665.64,668.45,673.77,680.00,684.68,690.07,698.40,708.54,718.91,726.78,735.57,743.46,749.20,751.72,751.86,751.65,750.67,747.66,743.42,737.19,731.25,726.76,723.08,719.09,718.18,720.32,723.76,726.32,728.23,730.66,734.04,735.91,736.54,737.81,740.79,746.09,750.82,754.92,758.19,760.56,763.99,766.96,769.43,771.47,773.17,774.94,777.19,779.42,780.41,780.64,782.35,785.04,788.20,792.20,796.43,799.53,801.12,801.69,802.20,803.67,805.89,808.10,808.75,809.13,808.48,806.15,803.06,803.66,804.38,804.63,806.17,810.40,814.43,817.55,819.39,819.55,818.02,815.86,813.85,812.97,813.14,813.30,813.41,813.87,814.56,814.27,813.93,814.39,816.03,818.29,821.22,824.59,827.60,828.43,828.68,828.83,829.14,830.41,831.63,832.09,831.62,830.56,829.12,827.49,825.87,824.64,824.60,825.05,825.76,826.67,827.65,828.61,829.26,829.63
514.04,514.04,514.04,514.04,514.04,514.04,514.06,514.11,514.15,514.17,514.25,514.31,514.34,514.37,514.43,514.45,514.51,514.59,514.68,514.83,514.98,515.18,515.39,515.56,515.84,516.14,516.45,516.75,516.98,517.18,517.22,517.15,517.23,517.38,517.58,517.78,517.96,518.18,518.36,518.57,518.90,519.40,520.10,521.01,522.04,522.89,523.51,524.12,524.86,525.89,527.03,528.21,529.41,530.71,532.37,534.16,535.37,535.08,532.34,530.04,528.03,525.98,523.73,521.52,519.98,518.97,518.38,518.27,518.93,518.99,518.26,517.05,516.71,517.66,522.24,532.15,547.93,564.38,580.36,592.30,594.36,589.96,586.17,583.19,580.54,578.95,577.71,576.85,576.26,575.66,574.98,574.25,573.49,572.62,571.16,569.09,566.87,564.67,562.63,561.75,561.44,561.63,562.61,563.89,565.47,567.20,569.00,570.75,572.39,573.88,575.24,576.62,578.00,579.47,581.17,583.21,585.22,586.83,588.40,590.12,591.91,593.95,596.18,598.75,602.08,606.61,610.86,614.98,619.98,628.18,637.30,645.36,652.18,658.70,664.92,669.93,671.90,669.67,670.22,670.79,670.77,670.35,670.57,672.80,677.80,683.79,688.07,694.52,702.94,712.27,721.56,729.40,738.59,746.81,752.91,756.40,757.63,757.48,755.69,751.45,746.40,740.85,736.40,733.45,729.96,724.08,721.34,721.67,722.17,722.44,723.71,725.98,728.76,730.07,730.83,733.39,738.65,746.22,752.30,757.09,760.39,761.87,764.15,765.39,766.63,768.50,770.64,773.40,776.74,780.06,782.11,782.92,784.30,786.35,789.12,793.22,798.01,801.73,803.88,805.09,805.49,806.51,808.24,810.30,812.03,813.27,813.50,812.32,810.19,809.67,810.02,810.88,812.46,815.11,817.96,820.14,821.09,821.72,820.48,818.67,817.30,817.43,818.01,818.08,817.69,817.30,817.66,817.29,816.81,816.92,818.18,820.47,823.62,827.22,830.31,830.84,830.84,830.89,831.14,831.75,832.67,832.49,831.08,830.01,829.19,828.20,827.09,826.24,826.33,826.77,827.49,828.42,829.22,829.89,830.39,830.76
514.16,514.16,514.16,514.16,514.16,514.17,514.24,514.31,514.35,514.37,514.43,514.46,514.50,514.55,514.57,514.63,514.70,514.78,514.88,515.02,515.18,515.38,515.59,515.75,515.98,516.27,516.58,516.88,517.12,517.38,517.55,517.60,517.68,517.88,518.07,518.25,518.47,518.70,518.88,519.07,519.33,519.71,520.73,521.99,523.23,524.18,524.95,525.57,526.29,527.32,528.46,529.72,531.04,532.43,534.00,535.65,536.50,535.74,532.59,529.80,527.68,525.76,523.76,521.79,520.23,519.40,519.25,519.68,521.93,523.91,524.98,524.95,524.72,528.19,535.33,545.94,559.28,575.94,589.94,597.95,596.54,590.44,586.52,583.93,581.54,579.63,578.50,577.81,577.32,576.81,576.14,575.44,574.65,573.53,571.61,569.61,567.70,565.90,564.18,563.50,563.81,564.68,565.69,566.81,567.91,569.10,570.50,572.13,573.75,575.32,576.78,578.14,579.73,581.92,584.33,586.50,588.53,589.90,591.20,592.67,594.22,596.00,598.01,600.57,604.30,608.50,612.43,616.54,622.22,632.42,641.87,650.14,657.53,664.44,669.99,675.16,677.87,676.16,676.82,677.14,676.89,676.41,676.76,678.89,682.64,687.33,692.47,699.96,707.86,715.84,723.92,731.84,740.20,747.75,753.97,758.63,761.11,761.09,758.85,754.36,749.06,744.51,741.25,738.84,734.78,729.17,727.02,727.75,727.92,727.69,729.10,730.87,731.53,730.93,729.82,730.97,735.76,744.40,751.34,756.35,759.48,760.50,760.85,760.77,760.90,762.00,765.27,769.31,773.35,777.22,780.84,782.90,785.09,787.54,790.39,794.71,799.18,803.05,806.06,808.14,809.12,809.86,810.98,812.94,814.83,816.48,817.72,818.19,817.37,816.35,816.05,816.63,817.92,818.94,820.02,821.03,821.63,821.53,820.83,820.26,820.11,820.32,820.57,820.59,820.46,820.30,820.27,819.93,819.58,819.59,820.59,823.06,825.94,828.58,830.29,830.63,830.97,831.47,831.90,831.91,831.83,831.13,829.90,829.12,828.39,827.60,827.10,827.47,827.98,828.52,829.17,829.95,830.55,831.02,831.43,831.80
514.25,514.29,514.29,514.32,514.34,514.36,514.43,514.47,514.51,514.55,514.59,514.63,514.67,514.71,514.75,514.78,514.83,514.91,515.06,515.22,515.40,515.60,515.78,515.94,516.16,516.42,516.71,517.00,517.25,517.54,517.77,517.92,518.08,518.26,518.43,518.61,518.84,519.04,519.23,519.42,519.69,520.26,521.48,522.83,524.13,525.32,526.25,526.98,527.75,528.77,530.05,531.44,532.85,534.25,535.73,537.30,538.13,537.53,534.75,531.47,528.75,526.47,524.45,522.54,521.42,521.06,521.74,524.16,527.39,532.93,537.53,538.11,538.06,540.38,545.90,555.11,567.90,583.24,594.67,600.23,598.39,591.34,587.21,584.81,582.63,580.74,579.51,578.77,578.33,577.91,577.26,576.64,575.73,574.09,571.82,569.79,568.00,566.47,565.35,565.26,566.00,567.14,568.26,569.41,570.25,571.07,572.15,573.66,575.20,576.75,578.35,580.14,582.32,584.93,587.46,589.40,591.11,592.53,593.89,595.27,596.61,598.18,600.09,602.59,606.13,609.95,613.83,618.58,625.27,634.77,644.24,652.64,660.20,667.81,673.03,677.88,681.54,682.60,683.84,684.49,684.42,683.74,683.25,684.43,687.53,692.21,698.21,705.06,712.25,719.11,725.43,732.29,740.04,746.97,752.93,758.94,762.51,763.06,760.98,756.59,752.05,748.46,745.41,742.25,737.72,733.11,732.19,734.00,735.03,735.14,736.16,737.19,737.08,735.50,733.15,731.87,733.64,741.10,747.69,752.47,755.35,756.07,756.09,756.35,756.88,757.96,760.53,763.72,767.94,772.77,777.17,780.84,784.06,787.25,790.86,795.41,799.90,803.96,807.40,809.99,811.58,812.67,813.87,815.68,817.47,818.66,819.51,820.04,819.80,819.20,818.97,819.27,819.95,820.29,820.72,821.29,821.79,821.61,821.35,821.33,821.57,821.83,822.04,822.13,822.15,822.13,822.03,821.75,821.42,821.25,821.75,824.01,826.64,828.74,829.51,829.68,829.88,830.20,830.54,830.63,830.33,829.54,828.50,828.03,827.54,827.30,827.52,828.32,829.05,829.73,830.40,831.07,831.62,832.07,832.47,832.85
514.33,514.38,514.41,514.45,514.50,514.51,514.57,514.60,514.63,514.70,514.71,514.77,514.80,514.83,514.89,514.91,514.93,515.05,515.25,515.43,515.63,515.82,515.98,516.15,516.36,516.59,516.84,517.13,517.38,517.67,517.94,518.17,518.40,518.57,518.73,518.90,519.12,519.28,519.48,519.68,520.01,520.94,522.33,523.70,525.00,526.39,527.47,528.41,529.34,530.40,531.76,533.25,534.72,536.10,537.50,539.15,540.24,540.02,537.56,533.75,530.27,527.52,525.55,523.84,523.19,523.34,524.82,529.00,532.86,540.71,547.95,549.75,550.38,551.19,554.49,562.13,575.51,588.59,597.30,601.25,599.99,592.76,588.32,585.81,583.81,582.12,580.83,579.98,579.48,579.10,578.45,577.84,576.74,574.55,572.08,569.99,568.25,566.98,566.54,567.05,568.10,569.36,570.62,571.86,572.58,573.12,573.90,575.22,576.68,578.36,580.38,582.84,585.50,588.11,590.38,592.04,593.39,594.93,596.48,597.88,599.12,600.52,602.31,604.62,607.72,611.28,615.30,620.63,627.92,635.99,645.13,653.54,661.21,669.33,674.48,679.03,683.54,687.52,689.75,691.29,691.84,691.16,689.87,690.09,692.89,697.88,704.24,709.97,716.35,722.32,727.25,732.98,739.93,746.02,751.52,758.68,763.12,764.60,763.35,759.40,755.38,752.40,749.12,744.84,740.06,736.66,737.14,740.17,742.31,743.03,743.81,744.31,743.71,741.58,738.12,734.43,732.79,737.53,743.02,747.40,750.24,751.35,752.03,753.28,754.64,755.92,757.45,759.76,763.96,769.21,773.57,778.45,782.66,786.74,791.34,796.29,800.76,804.82,808.44,811.26,813.37,815.00,816.51,818.12,819.56,820.09,820.27,820.43,820.45,820.44,820.48,820.56,820.66,820.76,820.95,821.34,821.84,821.77,821.83,822.02,822.27,822.49,822.66,822.80,822.90,822.94,822.91,822.80,822.64,822.49,822.58,824.46,826.65,828.21,828.36,828.39,828.34,828.35,828.54,828.87,828.57,827.80,826.91,826.67,826.52,826.98,827.90,828.91,829.85,830.67,831.39,832.02,832.57,832.97,833.30,833.60
514.38,514.40,514.46,514.49,514.50,514.51,514.58,514.60,514.64,514.71,514.77,514.79,514.84,514.88,514.90,514.96,515.11,515.28,515.46,515.67,515.86,516.02,516.18,516.40,516.58,516.75,516.97,517.26,517.50,517.80,518.07,518.31,518.59,518.77,518.93,519.09,519.25,519.41,519.58,519.79,520.30,521.74,523.36,524.85,526.19,527.46,528.61,529.93,531.33,532.63,533.71,535.09,536.53,537.90,539.25,541.53,543.39,543.48,540.21,535.85,531.62,528.61,527.26,526.33,525.80,526.23,527.93,531.36,535.36,539.45,544.30,550.01,552.94,555.37,559.40,567.50,582.87,592.45,598.62,602.03,601.16,595.43,590.44,587.07,585.24,583.96,582.91,581.98,581.17,580.61,579.93,579.04,577.56,575.18,572.81,570.63,568.95,568.07,568.32,568.95,570.07,571.48,572.88,574.13,574.88,575.35,575.84,576.75,578.15,580.61,583.97,587.29,589.64,591.21,592.63,594.30,595.56,597.12,598.80,600.44,601.90,603.23,604.67,606.45,608.97,612.78,617.18,622.22,628.27,635.63,643.65,651.79,659.84,667.48,673.04,677.91,682.69,687.42,691.46,695.03,697.13,697.31,696.55,696.82,699.75,704.59,709.64,714.65,720.12,725.67,731.10,736.88,742.06,746.53,751.37,758.77,763.49,766.67,767.73,764.99,759.51,755.93,752.12,747.07,742.68,740.34,741.89,745.80,748.58,749.70,751.47,752.31,750.70,748.25,743.43,738.60,735.24,734.91,738.14,742.03,745.76,749.25,752.02,754.49,756.38,757.65,759.20,763.09,767.22,770.61,773.03,777.39,782.16,787.20,792.80,798.71,802.54,806.00,809.48,812.05,814.25,816.31,818.15,819.42,820.02,820.27,820.45,820.64,820.76,820.84,820.90,820.99,821.07,821.20,821.21,821.40,821.91,821.94,821.96,822.01,822.03,821.87,821.74,821.70,821.70,821.63,821.76,822.22,822.86,823.47,823.83,825.15,826.26,826.80,826.84,826.84,826.75,826.72,826.89,827.13,826.67,825.85,824.99,824.59,825.04,826.18,827.67,829.11,830.40,831.36,832.16,832.87,833.45,833.52,833.44,833.35
514.44,514.45,514.51,514.54,514.55,514.59,514.63,514.64,514.66,514.72,514.78,514.80,514.85,514.91,514.96,515.09,515.29,515.49,515.66,515.88,516.06,516.23,516.42,516.62,516.77,516.93,517.13,517.40,517.63,517.92,518.21,518.48,518.75,518.95,519.12,519.27,519.43,519.58,519.90,520.53,521.58,523.00,524.62,526.09,527.38,528.73,530.50,532.39,534.15,535.53,536.51,537.77,538.95,539.91,541.00,543.66,546.17,546.72,543.22,538.09,533.79,530.82,529.28,528.55,528.27,528.83,530.25,532.45,535.26,537.57,540.65,545.75,550.33,554.80,562.48,574.40,587.75,594.86,599.69,602.83,602.40,597.92,592.50,588.59,587.14,586.21,585.24,584.21,583.22,582.43,581.40,580.16,578.45,576.02,573.63,571.62,570.29,569.89,570.46,571.21,572.36,573.76,575.14,576.37,577.14,577.57,577.84,578.41,580.46,583.89,588.01,591.26,593.42,594.62,595.53,596.71,597.81,599.36,601.12,602.91,604.52,605.96,607.34,608.90,611.25,615.09,619.14,623.36,628.20,634.56,642.08,649.81,657.33,664.42,670.20,675.21,679.97,684.77,689.49,695.49,700.54,703.36,704.44,705.25,707.57,711.17,715.17,720.50,725.20,730.00,735.80,742.31,746.61,750.14,754.20,760.18,764.59,768.19,770.16,768.73,764.08,760.00,755.29,749.63,745.36,743.80,745.73,750.05,754.47,756.67,758.56,758.75,756.18,754.08,749.21,743.73,738.81,735.40,737.25,741.97,747.34,751.64,755.13,757.99,760.17,761.92,764.67,769.22,772.75,774.84,776.51,780.20,784.48,789.34,794.89,799.81,802.81,805.60,808.69,811.39,813.71,815.93,817.75,818.67,819.44,820.02,820.41,820.64,820.82,820.95,821.06,821.19,821.40,821.59,821.55,821.62,821.99,822.00,821.77,821.56,821.37,821.02,820.79,820.69,820.64,820.58,820.72,821.32,822.22,823.18,823.90,824.82,825.28,825.28,825.28,825.28,825.20,825.16,825.26,825.41,824.81,823.90,823.01,822.59,823.76,825.64,827.76,829.78,831.24,832.14,832.79,833.25,833.36,833.12,832.83,832.56
514.50,514.51,514.58,514.61,514.64,514.69,514.71,514.71,514.71,514.73,514.79,514.80,514.85,514.92,515.03,515.25,515.48,515.68,515.86,516.08,516.26,516.45,516.65,516.81,516.97,517.13,517.32,517.55,517.78,518.06,518.36,518.65,518.89,519.13,519.32,519.48,519.66,519.99,520.68,521.87,523.48,524.71,526.17,527.57,528.89,530.52,533.04,535.58,537.71,539.17,540.16,541.29,542.02,542.29,542.81,545.49,548.39,549.45,546.20,540.21,536.14,533.41,531.45,530.67,530.66,531.23,532.17,533.20,534.41,536.09,537.98,540.47,546.02,552.91,565.29,581.66,591.12,596.45,600.63,603.66,603.63,600.10,594.73,590.68,589.45,588.63,587.54,586.34,585.17,584.11,582.61,581.06,579.24,576.87,574.52,572.96,572.24,572.35,572.99,573.82,574.90,576.16,577.46,578.60,579.37,579.83,580.08,580.49,583.39,587.64,592.01,594.83,596.96,598.21,598.94,599.52,600.43,601.87,603.56,605.36,607.08,608.77,610.27,611.86,614.22,617.87,621.25,624.51,628.29,633.68,640.83,647.95,654.51,660.90,666.60,671.65,676.36,681.02,685.95,694.17,702.41,708.63,712.22,713.98,715.63,717.82,721.15,727.28,731.32,734.94,740.31,747.47,751.70,754.97,758.43,762.42,766.25,769.52,771.51,771.01,768.08,763.74,758.30,752.36,748.09,747.04,749.00,753.45,759.63,763.16,764.88,764.24,761.10,759.32,754.87,749.09,742.91,737.59,738.44,744.35,751.46,756.00,759.48,762.34,764.75,767.23,771.34,775.88,778.81,780.36,782.13,785.08,788.29,792.07,796.48,799.52,801.78,804.12,806.85,809.87,812.33,814.43,815.91,816.51,817.93,819.25,820.13,820.49,820.78,820.91,821.02,821.21,821.57,821.82,821.86,821.89,822.09,822.02,821.50,821.00,820.65,820.24,820.02,819.92,819.86,819.85,819.92,820.40,821.22,822.28,823.26,823.90,824.02,823.83,823.78,823.74,823.67,823.62,823.62,823.67,823.02,822.07,821.20,821.01,822.87,825.40,828.12,830.74,832.06,832.76,833.16,833.21,832.70,832.21,831.83,831.50
