563.90,563.97,564.15,564.34,564.53,564.78,565.06,565.32,565.59,565.88,566.19,566.48,566.54,566.49,566.58,566.86,567.17,567.48,567.76,567.96,568.08,568.13,568.11,568.10,568.38,568.75,569.06,569.29,569.50,569.69,569.90,570.18,570.49,570.80,571.11,571.42,571.74,572.11,572.44,572.75,573.07,573.43,573.71,573.94,574.13,574.26,574.40,574.43,574.46,574.61,574.90,575.24,575.65,576.13,576.55,576.47,576.22,576.02,576.05,576.10,576.32,576.59,576.83,577.13,577.43,577.69,577.92,578.15,578.38,578.58,578.81,579.14,579.51,579.88,580.24,580.54,580.83,580.79,580.46,580.05,579.78,579.39,579.01,578.86,579.01,579.17,579.33,579.48,579.51,579.26,579.03,579.13,579.39,579.58,579.67,579.57,579.63,579.95,580.39,580.83,581.26,581.77,582.49,583.24,583.98,584.60,585.03,585.42,585.76,586.15,586.65,587.34,588.16,588.98,589.85,590.87,591.90,592.34,592.27,591.87,591.50,591.41,592.04,593.23,594.58,595.44,596.16,596.87,597.62,598.43,599.22,599.84,600.33,600.88,601.57,602.36,602.88,602.80,602.80,602.46,602.21,602.26,602.41,602.64,603.20,604.12,605.35,606.58,607.83,609.17,610.79,612.99,615.21,617.47,620.06,623.60,627.07,629.38,630.89,632.36,634.58,636.25,637.40,638.31,639.78,643.30,647.10,650.39,652.77,654.84,656.90,659.25,662.20,665.86,669.82,673.45,676.64,679.76,683.51,686.84,689.38,690.90,691.85,694.11,701.27,714.42,728.34,739.18,745.94,749.36,750.82,752.65,756.61,761.12,764.60,766.88,767.72,769.32,772.61,777.61,783.25,789.38,796.00,803.28,811.04,816.11,819.41,821.53,822.70,822.52,820.48,816.36,809.68,801.50,791.66,782.35,775.90,772.87,773.12,774.24,776.09,780.85,789.24,798.34,808.18,819.24,826.31,831.96,836.73,840.20,841.52,840.87,839.10,836.45,832.85,829.79,827.26,825.05,823.10,821.71,819.46,817.47,816.28,815.56,814.90,814.73,815.26,816.61,817.97,819.62,821.65,824.03,826.17,827.88,829.33,830.83
564.18,564.17,564.29,564.49,564.70,564.95,565.25,565.50,565.77,566.07,566.35,566.66,566.78,566.82,566.93,567.21,567.52,567.78,567.95,568.04,568.06,568.04,568.01,568.04,568.37,568.75,569.09,569.35,569.59,569.78,570.03,570.34,570.68,570.99,571.30,571.62,571.96,572.32,572.64,572.95,573.27,573.64,573.91,574.14,574.36,574.54,574.73,574.84,574.89,574.97,575.23,575.53,575.88,576.31,576.78,576.85,576.67,576.46,576.45,576.57,576.83,577.12,577.38,577.66,577.97,578.25,578.50,578.73,578.94,579.09,579.29,579.64,580.02,580.40,580.77,581.11,581.38,581.26,580.95,580.57,580.17,579.72,579.37,579.25,579.45,579.64,579.90,580.08,580.04,579.62,579.42,579.55,579.83,580.09,580.16,580.06,580.07,580.32,580.77,581.24,581.67,582.14,582.75,583.40,584.13,584.81,585.32,585.80,586.20,586.57,586.99,587.50,588.13,588.87,589.68,590.63,591.93,592.85,593.38,593.53,593.33,593.33,593.85,594.80,595.97,596.97,597.68,598.26,598.85,599.40,600.03,600.65,601.26,601.91,602.60,603.34,603.90,604.03,604.07,603.91,603.81,603.88,603.91,604.01,604.29,604.78,605.47,606.41,607.59,608.90,610.39,612.29,614.64,617.25,620.28,624.24,628.06,630.76,632.80,634.90,637.41,639.37,640.64,641.55,643.37,646.63,649.83,652.47,654.53,656.60,658.90,661.64,665.03,669.00,672.87,676.41,679.78,683.55,687.96,691.73,694.69,696.87,698.44,703.23,713.67,728.99,740.60,748.60,753.64,756.37,757.11,756.75,758.93,762.64,766.45,769.59,771.80,773.89,776.58,780.90,786.19,792.30,799.00,806.30,814.66,821.22,825.25,826.71,827.20,826.11,823.06,818.31,812.30,805.67,797.39,789.33,783.39,779.36,779.38,780.47,782.43,788.13,796.56,805.51,814.50,823.23,829.07,834.18,838.38,841.16,842.68,842.69,841.50,839.24,835.87,832.63,829.84,827.50,825.53,823.23,820.56,818.73,817.99,817.35,816.59,815.92,815.75,816.69,818.21,820.20,822.63,825.41,827.95,830.44,832.35,833.71
564.50,564.44,564.43,564.63,564.89,565.13,565.42,565.68,565.95,566.25,566.50,566.80,567.01,567.14,567.25,567.52,567.80,567.97,567.98,567.99,567.99,567.95,567.92,568.03,568.37,568.76,569.12,569.42,569.65,569.88,570.15,570.47,570.85,571.17,571.49,571.83,572.20,572.52,572.83,573.15,573.47,573.84,574.11,574.35,574.58,574.82,575.06,575.23,575.32,575.37,575.59,575.88,576.19,576.53,576.95,577.16,577.09,576.91,576.88,577.07,577.35,577.66,577.95,578.19,578.49,578.79,579.09,579.34,579.53,579.62,579.78,580.14,580.53,580.92,581.30,581.67,581.94,581.77,581.51,581.19,580.69,580.19,579.86,579.76,579.92,580.16,580.55,580.74,580.54,579.95,579.83,579.98,580.26,580.58,580.62,580.50,580.50,580.72,581.17,581.63,582.09,582.57,583.04,583.52,584.18,584.86,585.44,586.04,586.55,586.99,587.38,587.73,588.13,588.74,589.47,590.27,591.57,592.89,594.13,595.06,595.22,595.43,595.90,596.60,597.43,598.48,599.19,599.73,600.23,600.58,601.03,601.62,602.30,602.98,603.67,604.33,604.89,605.23,605.34,605.36,605.40,605.51,605.59,605.74,605.85,605.86,605.84,606.31,607.27,608.42,609.60,610.94,613.43,616.51,620.01,624.00,627.78,630.87,633.63,636.54,639.29,641.69,643.50,644.97,647.40,649.83,651.97,653.92,655.93,658.07,660.76,663.92,667.53,671.55,675.49,679.25,683.05,687.52,692.10,695.95,699.19,702.18,705.67,714.10,727.11,742.11,750.81,756.37,759.93,761.83,761.75,760.13,760.84,763.43,767.00,770.60,775.31,778.76,780.88,784.42,789.60,795.78,802.57,810.08,819.16,825.75,829.36,830.22,830.26,828.39,824.49,819.44,814.74,809.88,803.49,797.33,792.92,788.58,788.15,789.07,791.49,798.65,806.21,813.94,820.84,825.63,830.45,834.77,838.43,841.25,843.24,843.99,843.41,841.68,839.04,835.75,832.56,829.95,827.94,824.73,821.99,820.51,820.11,819.30,818.32,817.50,817.02,817.22,818.54,820.59,823.20,826.25,829.24,832.91,835.69,837.07
564.82,564.75,564.69,564.81,565.02,565.26,565.51,565.79,566.09,566.39,566.68,566.99,567.26,567.47,567.57,567.80,567.90,567.94,567.94,567.93,567.88,567.85,567.87,568.02,568.37,568.79,569.20,569.53,569.73,569.95,570.22,570.54,570.92,571.29,571.65,572.02,572.40,572.72,573.03,573.36,573.72,574.05,574.35,574.60,574.86,575.19,575.53,575.68,575.73,575.81,576.03,576.32,576.60,576.87,577.17,577.48,577.51,577.37,577.38,577.58,577.87,578.18,578.47,578.71,579.00,579.31,579.65,580.08,580.37,580.34,580.32,580.61,580.99,581.37,581.76,582.14,582.47,582.32,582.11,581.89,581.56,581.23,580.83,580.60,580.74,581.01,581.39,581.37,580.92,580.42,580.25,580.43,580.75,580.99,581.07,580.92,580.91,581.16,581.56,582.01,582.51,583.01,583.48,583.94,584.43,584.92,585.41,586.01,586.64,587.22,587.74,588.14,588.49,588.93,589.49,590.21,591.38,592.65,593.94,595.15,596.06,596.87,597.60,598.27,598.95,599.78,600.37,600.84,601.26,601.63,602.07,602.62,603.26,603.91,604.60,605.28,605.91,606.39,606.57,606.68,606.89,607.18,607.28,607.55,607.69,607.62,607.38,607.28,607.43,607.95,608.90,609.88,612.35,615.51,618.98,622.67,626.19,629.35,632.40,635.64,639.00,642.00,644.60,646.88,649.26,651.30,653.14,654.91,656.81,658.97,661.99,665.43,669.14,673.76,678.07,682.20,686.43,691.13,695.85,700.06,703.84,708.15,716.95,728.25,740.41,751.65,758.37,762.46,764.96,766.31,766.38,764.74,764.74,766.04,768.00,770.80,776.26,781.05,784.42,788.33,793.26,799.36,806.47,814.35,821.79,827.26,830.50,831.44,831.37,829.94,826.65,822.43,819.17,815.50,811.22,807.34,804.72,802.35,801.98,803.16,805.87,810.42,815.17,819.43,823.01,825.95,829.66,833.66,837.43,840.58,842.87,844.89,845.87,845.44,843.23,839.85,836.41,833.38,830.99,828.70,826.64,825.11,823.87,821.93,820.25,819.17,818.53,818.17,818.83,820.63,823.25,826.45,829.76,834.33,837.97,839.84
565.14,565.04,564.96,565.02,565.19,565.41,565.63,565.91,566.22,566.53,566.84,567.14,567.45,567.69,567.77,567.90,567.90,567.87,567.86,567.84,567.79,567.76,567.82,568.04,568.40,568.82,569.24,569.60,569.82,570.05,570.32,570.64,571.00,571.36,571.75,572.15,572.53,572.87,573.20,573.57,573.94,574.25,574.56,574.86,575.18,575.61,576.00,576.13,576.16,576.26,576.48,576.77,577.05,577.28,577.51,577.81,577.87,577.80,577.81,578.03,578.32,578.63,578.93,579.20,579.55,579.95,580.40,580.92,581.33,581.27,581.05,581.07,581.44,581.83,582.23,582.63,582.99,583.00,582.96,582.90,582.75,582.54,582.14,581.89,581.96,582.11,582.18,581.87,581.28,580.88,580.67,580.85,581.19,581.42,581.51,581.38,581.35,581.58,581.99,582.44,582.93,583.43,583.90,584.38,584.80,585.19,585.60,586.11,586.76,587.42,588.01,588.49,588.87,589.25,589.75,590.55,591.60,592.74,593.90,595.11,596.38,597.57,598.54,599.33,600.06,600.80,601.39,601.85,602.24,602.63,603.09,603.63,604.24,604.86,605.54,606.22,606.86,607.39,607.75,607.93,608.20,608.60,608.84,609.18,609.37,609.29,608.87,608.39,608.04,608.12,608.81,609.59,611.85,614.79,617.98,621.25,624.52,627.69,630.89,634.30,637.93,641.36,644.61,647.60,650.12,652.07,653.84,655.60,657.42,659.58,662.79,666.48,670.40,675.65,680.46,685.02,689.61,694.60,700.23,705.34,710.16,716.36,728.62,740.46,750.80,759.22,765.03,768.91,770.94,771.62,771.44,769.60,769.01,769.50,770.59,772.21,776.71,781.57,786.00,790.78,795.57,801.54,808.72,816.57,822.82,827.58,830.69,832.01,832.40,831.44,829.12,826.20,823.95,821.07,818.28,816.02,814.59,813.53,813.48,814.68,816.91,819.05,821.03,822.95,824.91,827.02,829.70,833.11,836.62,839.82,842.53,845.38,847.55,848.40,846.97,843.73,840.19,836.83,833.97,832.37,830.73,829.02,827.08,824.43,822.58,821.36,820.38,819.45,819.35,821.10,823.86,827.13,830.68,835.66,839.61,841.72
565.45,565.32,565.22,565.25,565.39,565.60,565.77,566.04,566.35,566.66,566.97,567.27,567.58,567.83,567.90,567.86,567.82,567.80,567.78,567.72,567.71,567.71,567.78,568.09,568.46,568.85,569.24,569.62,569.92,570.17,570.45,570.76,571.07,571.38,571.78,572.21,572.60,572.98,573.36,573.74,574.12,574.43,574.75,575.09,575.49,576.01,576.43,576.57,576.62,576.72,576.93,577.23,577.50,577.72,577.94,578.13,578.19,578.17,578.14,578.39,578.70,579.01,579.33,579.66,580.15,580.72,581.30,581.85,582.37,582.37,581.97,581.53,581.90,582.30,582.71,583.14,583.53,583.75,583.95,584.11,584.13,583.96,583.67,583.47,583.43,583.28,582.84,582.23,581.64,581.32,581.09,581.24,581.59,581.86,581.96,581.86,581.81,581.98,582.42,582.88,583.35,583.82,584.29,584.81,585.24,585.63,586.01,586.38,586.97,587.62,588.21,588.75,589.21,589.63,590.22,591.19,592.14,593.15,594.15,595.17,596.39,597.66,598.80,599.81,600.70,601.55,602.25,602.80,603.21,603.61,604.11,604.65,605.21,605.83,606.51,607.15,607.72,608.23,608.86,609.11,609.35,609.75,610.22,610.59,610.82,610.76,610.17,609.51,609.04,608.92,609.31,610.02,611.94,614.44,617.16,619.95,623.05,626.21,629.46,632.91,636.43,640.03,643.70,647.24,650.15,652.25,654.13,655.98,657.82,659.96,663.26,667.14,671.45,677.29,682.74,687.74,692.62,698.18,705.35,711.72,718.00,726.51,739.58,749.83,758.09,765.17,771.04,775.62,777.68,777.71,776.83,774.53,773.41,773.60,774.63,774.99,777.17,780.95,786.03,791.82,796.55,802.36,809.36,816.72,822.45,826.97,830.22,832.12,833.43,832.98,831.80,830.34,828.63,826.30,824.34,822.92,822.06,821.38,821.67,822.61,823.79,824.45,824.13,825.05,826.99,828.96,830.85,833.40,836.26,839.22,842.41,845.56,848.37,850.29,849.99,847.13,843.64,840.05,836.78,835.36,833.78,831.87,829.57,826.79,825.29,823.99,822.53,821.00,820.31,822.19,825.19,828.44,832.11,837.00,840.71,842.79
565.78,565.63,565.54,565.53,565.62,565.80,565.96,566.19,566.48,566.79,567.10,567.40,567.71,568.00,568.16,568.03,567.85,567.72,567.67,567.64,567.63,567.63,567.73,568.09,568.47,568.86,569.26,569.67,569.99,570.28,570.58,570.87,571.14,571.44,571.81,572.21,572.61,573.04,573.44,573.83,574.21,574.56,574.88,575.21,575.61,576.18,576.64,576.92,577.07,577.17,577.39,577.68,577.93,578.11,578.29,578.45,578.55,578.56,578.52,578.74,579.03,579.36,579.76,580.30,580.92,581.57,582.22,582.81,583.36,583.44,582.95,582.10,582.50,582.89,583.24,583.62,584.04,584.31,584.54,584.75,584.90,584.89,584.74,584.51,584.24,583.85,583.23,582.60,582.09,581.82,581.59,581.65,581.94,582.25,582.36,582.26,582.22,582.36,582.77,583.26,583.75,584.21,584.67,585.12,585.59,586.03,586.43,586.83,587.27,587.81,588.42,589.00,589.48,589.99,590.66,591.63,592.64,593.66,594.65,595.66,596.79,597.91,599.01,600.04,600.97,601.92,602.81,603.58,604.17,604.63,605.14,605.66,606.17,606.75,607.42,608.01,608.53,609.07,609.79,610.22,610.51,610.79,611.27,611.74,612.05,612.04,611.40,610.72,610.17,609.88,610.02,610.74,612.45,614.56,616.85,619.43,622.38,625.49,628.69,631.96,635.13,638.55,642.17,645.84,649.22,651.66,653.77,655.82,657.87,660.18,663.55,667.63,672.46,679.10,685.39,690.74,695.85,702.95,711.08,718.09,725.61,736.07,746.58,755.21,762.80,769.81,776.15,780.45,782.56,782.90,781.84,779.38,778.06,778.05,778.84,778.69,778.75,781.65,787.38,792.86,797.18,803.00,809.88,816.28,821.26,825.38,828.77,831.35,833.23,834.47,834.44,833.34,831.88,830.65,829.19,827.98,827.42,826.86,826.56,827.04,828.16,828.81,827.70,827.57,828.69,830.52,832.45,834.53,836.90,839.66,842.85,845.99,848.84,851.08,851.79,849.49,846.13,842.56,839.38,837.67,835.94,834.12,832.11,829.65,828.09,826.47,824.55,822.71,822.67,824.59,827.38,830.47,833.89,838.01,841.24,843.42
566.10,565.95,565.87,565.82,565.87,566.02,566.18,566.38,566.62,566.89,567.20,567.53,567.84,568.15,568.41,568.37,568.10,567.81,567.63,567.58,567.56,567.57,567.69,568.09,568.49,568.91,569.36,569.79,570.12,570.40,570.70,571.00,571.24,571.53,571.86,572.21,572.61,573.02,573.42,573.80,574.16,574.55,574.87,575.18,575.57,576.20,576.72,577.16,577.47,577.62,577.82,578.09,578.31,578.47,578.62,578.76,578.87,578.92,578.90,579.10,579.42,579.81,580.32,581.06,581.80,582.50,583.13,583.74,584.24,584.30,583.71,582.65,583.10,583.54,583.88,584.20,584.57,584.81,585.03,585.26,585.45,585.52,585.40,585.14,584.74,584.23,583.59,583.00,582.55,582.33,582.11,582.10,582.30,582.64,582.77,582.66,582.59,582.72,583.12,583.61,584.08,584.54,584.97,585.37,585.86,586.36,586.79,587.25,587.63,588.08,588.64,589.23,589.74,590.33,591.07,591.98,593.04,594.07,595.07,596.09,597.16,598.18,599.18,600.16,601.12,602.13,603.14,604.12,604.99,605.60,606.15,606.66,607.16,607.71,608.35,608.85,609.30,609.87,610.61,611.23,611.63,611.88,612.32,612.82,613.20,613.25,612.69,612.07,611.52,611.11,611.00,611.55,613.13,615.02,617.02,619.34,622.14,625.19,628.29,631.32,634.21,637.38,640.77,644.35,647.96,650.76,653.13,655.31,657.55,660.12,663.73,668.13,673.54,681.22,688.14,693.72,699.24,708.03,716.35,723.16,731.11,742.87,751.70,759.55,766.83,773.48,779.47,783.59,786.24,787.47,786.65,784.34,782.96,782.66,782.98,782.53,781.49,783.63,789.06,793.76,797.63,803.25,809.77,815.29,819.87,823.74,827.15,830.10,832.46,834.97,836.18,836.01,835.22,835.00,834.26,833.43,833.02,832.36,831.60,831.61,832.39,832.79,831.50,830.88,831.50,833.32,834.90,836.14,837.80,840.28,843.22,846.24,849.02,851.48,853.16,851.55,848.53,845.23,842.37,840.59,838.85,837.07,835.14,832.78,830.59,828.32,826.04,824.37,825.08,827.17,830.04,833.36,836.41,839.47,842.09,844.32
566.42,566.29,566.19,566.12,566.13,566.28,566.43,566.60,566.77,566.97,567.27,567.63,567.97,568.28,568.58,568.84,568.60,568.15,567.73,567.56,567.46,567.50,567.70,568.10,568.55,569.05,569.54,569.98,570.30,570.56,570.84,571.12,571.37,571.66,571.94,572.23,572.61,572.94,573.31,573.65,573.98,574.36,574.68,574.99,575.39,576.07,576.68,577.27,577.75,578.04,578.22,578.44,578.64,578.79,578.94,579.04,579.16,579.26,579.28,579.49,579.88,580.40,581.06,581.93,582.78,583.47,584.04,584.61,584.98,584.86,584.17,583.18,583.69,584.23,584.64,584.92,585.10,585.27,585.47,585.69,585.84,585.87,585.67,585.36,585.01,584.54,583.95,583.42,583.03,582.86,582.63,582.55,582.69,583.04,583.22,583.08,582.96,583.06,583.49,583.91,584.35,584.78,585.18,585.57,586.06,586.59,587.10,587.57,588.02,588.45,588.90,589.44,589.98,590.66,591.42,592.25,593.30,594.32,595.32,596.35,597.41,598.42,599.32,600.18,601.18,602.25,603.28,604.40,605.59,606.49,607.11,607.65,608.19,608.73,609.28,609.69,610.07,610.57,611.31,612.12,612.70,613.03,613.42,613.88,614.30,614.47,614.07,613.59,613.11,612.65,612.32,612.45,613.93,615.79,617.66,619.60,622.30,625.26,628.22,631.03,633.77,636.68,639.75,643.03,646.54,649.67,652.25,654.49,656.83,659.73,663.78,668.64,674.71,683.70,690.90,696.70,702.99,713.25,720.88,726.61,733.95,746.00,755.12,763.41,770.62,776.29,780.77,785.03,788.77,791.32,791.30,789.46,788.07,787.33,786.95,786.31,785.54,787.08,791.00,794.62,798.07,803.13,808.89,813.74,818.44,822.30,825.60,828.56,831.38,834.33,836.77,838.39,838.88,839.42,839.69,839.67,839.34,838.44,837.60,837.15,837.01,836.54,835.53,835.17,835.93,837.81,838.37,838.25,838.87,840.90,843.41,846.21,848.95,851.66,854.24,853.51,851.14,848.37,845.98,844.48,842.89,840.98,838.68,836.00,832.54,829.31,826.84,825.94,827.27,829.71,833.11,837.12,839.78,841.65,843.57,845.71
566.76,566.65,566.57,566.50,566.47,566.55,566.69,566.86,567.03,567.22,567.41,567.72,568.07,568.41,568.72,569.03,569.01,568.69,568.19,567.85,567.54,567.51,567.77,568.25,568.72,569.20,569.67,570.07,570.39,570.67,570.94,571.21,571.49,571.79,572.08,572.38,572.72,573.03,573.32,573.61,573.89,574.22,574.50,574.79,575.20,575.89,576.55,577.22,577.83,578.32,578.59,578.79,578.96,579.12,579.26,579.36,579.45,579.55,579.62,579.87,580.43,581.14,581.91,582.75,583.63,584.33,584.84,585.21,585.39,585.15,584.52,583.80,584.45,584.93,585.20,585.36,585.48,585.62,585.82,586.03,586.18,586.32,586.08,585.69,585.28,584.86,584.32,583.90,583.65,583.51,583.15,582.98,583.06,583.40,583.69,583.55,583.38,583.43,583.84,584.26,584.66,585.04,585.42,585.77,586.24,586.79,587.33,587.84,588.34,588.78,589.20,589.70,590.32,591.03,591.79,592.56,593.57,594.59,595.59,596.60,597.63,598.52,599.34,600.19,601.24,602.32,603.50,604.79,606.13,607.17,607.88,608.53,609.16,609.61,610.07,610.43,610.76,611.20,611.97,612.81,613.55,614.13,614.53,614.98,615.42,615.72,615.60,615.19,614.73,614.26,613.83,613.57,614.52,616.11,617.95,619.86,622.54,625.41,628.24,630.97,633.68,636.39,639.19,642.16,645.43,648.74,651.48,653.84,656.43,659.33,663.48,668.77,675.73,685.74,693.58,700.88,708.97,718.65,725.74,731.20,737.65,747.49,756.40,766.25,774.70,780.21,783.62,787.22,790.90,794.14,795.73,794.63,792.73,791.22,790.61,789.99,790.14,791.66,794.38,797.13,800.11,803.87,808.06,812.27,816.99,821.13,824.77,828.12,831.51,834.99,837.75,839.64,840.84,842.15,843.01,843.77,844.54,844.32,843.25,842.11,841.20,840.46,839.95,840.07,840.83,841.97,841.84,840.97,840.69,841.78,843.95,846.51,849.18,852.04,855.06,855.93,854.71,852.48,850.14,848.48,846.28,843.73,840.90,837.62,833.29,829.67,827.61,827.92,829.84,832.57,835.96,839.75,842.53,844.35,845.88,847.41
567.12,567.04,566.96,566.88,566.82,566.82,566.95,567.11,567.31,567.53,567.65,567.86,568.16,568.50,568.83,569.15,569.34,569.22,568.77,568.36,567.95,567.83,568.05,568.46,568.91,569.38,569.80,570.16,570.48,570.78,571.07,571.32,571.62,571.92,572.23,572.54,572.85,573.16,573.42,573.67,573.93,574.22,574.48,574.80,575.28,576.00,576.58,577.19,577.85,578.49,578.90,579.12,579.29,579.44,579.57,579.67,579.77,579.86,579.98,580.23,580.89,581.73,582.58,583.40,584.29,584.99,585.45,585.68,585.69,585.36,584.79,584.31,585.02,585.42,585.62,585.72,585.80,585.95,586.15,586.36,586.52,586.72,586.53,586.11,585.66,585.25,584.75,584.44,584.31,584.13,583.65,583.39,583.42,583.76,584.12,584.00,583.82,583.82,584.19,584.62,584.98,585.30,585.65,585.97,586.43,586.96,587.50,588.04,588.59,589.07,589.50,590.04,590.68,591.42,592.17,592.90,593.85,594.84,595.84,596.82,597.76,598.57,599.35,600.23,601.35,602.51,603.85,605.27,606.67,607.83,608.60,609.29,609.95,610.37,610.77,611.12,611.43,611.81,612.59,613.43,614.28,615.06,615.59,616.07,616.54,616.93,617.06,616.78,616.35,615.88,615.39,614.89,615.23,616.34,618.00,619.93,622.57,625.36,628.14,630.90,633.58,636.16,638.77,641.53,644.60,647.90,650.76,653.32,656.13,658.96,663.14,668.80,676.51,687.34,695.88,704.32,713.34,721.78,728.11,733.28,739.16,747.68,756.79,767.98,777.56,783.38,786.61,789.64,792.97,796.42,799.10,798.75,796.74,794.85,794.12,793.70,794.87,796.73,798.83,801.01,803.77,806.53,809.50,813.21,817.28,821.07,824.70,828.36,832.31,836.19,839.01,840.86,842.48,844.31,845.51,846.66,848.15,848.63,847.78,846.52,845.36,844.73,844.71,845.19,845.83,846.12,845.56,844.34,843.37,843.39,844.75,846.87,849.40,852.35,855.72,857.93,857.85,856.20,853.72,851.14,848.23,845.19,842.00,838.34,833.70,830.15,828.62,829.92,832.39,835.42,838.70,842.04,844.92,847.01,848.41,849.46
567.51,567.43,567.35,567.27,567.17,567.09,567.22,567.37,567.60,567.88,568.07,568.09,568.24,568.52,568.89,569.27,569.58,569.65,569.43,569.17,568.91,568.74,568.67,568.73,569.11,569.57,569.98,570.29,570.61,570.91,571.22,571.50,571.75,572.05,572.36,572.67,572.98,573.29,573.59,573.89,574.17,574.42,574.72,575.20,575.89,576.65,576.93,577.32,577.88,578.54,579.11,579.42,579.61,579.75,579.85,579.98,580.13,580.27,580.41,580.59,581.14,581.94,582.85,583.75,584.62,585.27,585.72,586.04,585.93,585.53,584.98,584.60,585.13,585.57,585.86,586.05,586.13,586.27,586.47,586.68,586.84,587.00,586.96,586.70,586.23,585.78,585.31,585.07,584.96,584.61,584.11,583.77,583.77,584.14,584.46,584.41,584.24,584.21,584.58,584.97,585.28,585.54,585.86,586.17,586.59,587.09,587.63,588.17,588.72,589.25,589.80,590.46,591.09,591.81,592.56,593.28,594.13,595.10,596.07,596.98,597.80,598.57,599.38,600.33,601.57,602.96,604.40,605.84,607.23,608.55,609.30,609.87,610.42,610.94,611.40,611.76,612.07,612.45,613.18,614.01,614.87,615.72,616.55,617.14,617.64,618.06,618.32,618.30,617.96,617.48,616.96,616.49,616.27,616.66,617.78,619.65,622.17,624.91,627.75,630.66,633.28,635.83,638.42,641.13,644.13,647.15,650.11,653.01,655.85,658.65,662.91,668.79,676.88,688.22,697.38,705.62,713.47,720.37,725.53,730.05,736.17,746.10,756.40,767.97,777.93,784.63,789.12,792.12,795.06,798.12,800.52,800.84,799.70,798.29,797.46,797.53,799.57,802.15,804.58,806.73,809.70,812.40,815.19,818.65,820.87,823.05,825.80,829.42,833.83,837.80,840.61,842.49,844.25,846.10,847.28,848.18,849.17,850.00,850.27,850.02,849.52,849.42,849.78,850.32,850.65,850.33,849.73,848.59,847.31,846.27,845.94,847.21,849.47,852.48,856.21,858.95,859.69,858.68,855.88,851.25,847.79,844.77,841.64,838.12,834.05,831.16,830.18,831.79,834.74,838.08,841.29,844.16,846.90,849.34,850.92,851.97
567.94,567.87,567.79,567.69,567.54,567.40,567.49,567.63,567.86,568.17,568.46,568.51,568.54,568.64,568.93,569.34,569.73,570.01,570.08,569.95,569.80,569.64,569.50,569.41,569.47,569.76,570.12,570.43,570.74,571.04,571.35,571.65,571.93,572.23,572.54,572.85,573.16,573.47,573.78,574.09,574.38,574.63,575.08,575.75,576.58,577.39,577.89,578.40,578.77,578.88,579.30,579.71,579.99,580.13,580.26,580.44,580.58,580.70,580.82,580.97,581.36,582.02,582.90,583.75,584.56,585.19,585.66,586.13,586.25,585.91,585.42,585.10,585.29,585.65,586.01,586.32,586.45,586.60,586.77,586.97,587.15,587.31,587.39,587.23,586.76,586.30,585.84,585.53,585.32,584.93,584.44,584.16,584.20,584.58,584.97,584.86,584.66,584.64,584.97,585.28,585.57,585.84,586.11,586.41,586.81,587.28,587.82,588.40,588.95,589.51,590.12,590.81,591.51,592.23,592.95,593.65,594.41,595.30,596.21,597.09,597.94,598.72,599.54,600.54,601.95,603.45,604.92,606.38,607.81,609.22,609.99,610.50,610.98,611.47,611.91,612.31,612.70,613.13,613.75,614.58,615.45,616.32,617.23,617.97,618.63,619.21,619.63,619.65,619.41,618.99,618.48,618.09,617.88,617.92,618.31,619.41,621.60,624.37,627.36,630.31,632.91,635.43,637.94,640.55,643.58,646.63,649.66,652.63,655.43,658.18,662.27,668.24,676.58,686.47,694.59,701.74,708.36,714.49,719.76,725.13,732.18,742.66,753.79,765.82,776.74,785.05,790.30,793.41,796.35,799.28,801.28,802.24,801.79,800.90,800.51,801.14,803.35,806.11,808.90,811.48,814.47,817.26,819.99,822.83,824.58,826.21,828.40,831.58,835.72,839.19,841.75,843.63,845.14,845.78,846.06,846.59,847.74,848.79,849.43,849.58,849.43,849.52,849.88,850.78,851.73,852.07,852.63,851.92,850.50,848.96,848.01,848.42,850.36,853.66,857.75,859.72,860.23,859.32,856.39,851.28,847.63,844.55,841.48,838.33,835.23,833.39,833.05,834.34,836.47,839.48,842.64,845.55,848.33,850.78,852.70,854.23
568.40,568.32,568.25,568.11,567.91,567.73,567.76,567.90,568.13,568.47,568.83,568.98,568.93,568.87,569.01,569.40,569.86,570.32,570.66,570.67,570.61,570.49,570.33,570.17,569.95,570.05,570.32,570.59,570.87,571.17,571.48,571.79,572.10,572.41,572.72,573.03,573.34,573.65,573.95,574.26,574.57,574.90,575.54,576.38,577.28,578.12,578.91,579.55,579.73,579.34,579.56,580.01,580.37,580.56,580.72,580.93,581.07,581.14,581.23,581.36,581.61,582.09,582.82,583.56,584.32,584.96,585.50,586.11,586.53,586.37,585.95,585.65,585.50,585.75,586.15,586.54,586.76,586.92,587.08,587.25,587.46,587.64,587.79,587.71,587.25,586.71,586.21,585.82,585.50,585.19,584.74,584.57,584.71,585.11,585.53,585.33,585.08,585.07,585.35,585.60,585.88,586.17,586.41,586.71,587.06,587.47,587.97,588.54,589.10,589.66,590.27,590.96,591.74,592.50,593.23,593.97,594.71,595.54,596.39,597.25,598.14,598.93,599.78,600.86,602.38,603.90,605.40,606.88,608.35,609.78,610.66,611.20,611.60,612.06,612.46,612.88,613.34,613.81,614.30,615.12,616.02,616.89,617.82,618.69,619.53,620.31,620.90,620.94,620.76,620.44,620.00,619.77,619.73,619.58,619.38,619.62,621.18,623.76,626.81,629.80,632.42,634.89,637.30,639.82,642.88,646.17,649.33,652.28,654.99,657.68,661.51,667.24,675.14,682.91,689.51,695.36,700.81,706.37,712.22,718.64,726.50,737.07,749.07,761.60,773.81,784.38,790.66,793.80,796.60,799.48,801.47,803.07,803.41,803.26,803.48,804.59,806.68,809.53,812.78,815.74,818.62,821.47,824.19,826.55,828.33,829.86,831.73,834.33,837.70,840.41,842.63,844.37,845.20,844.53,843.87,844.00,845.23,846.38,847.16,847.52,847.59,847.77,848.07,849.22,850.70,851.81,853.64,853.90,853.11,851.89,851.06,850.95,852.30,855.19,859.06,860.18,860.34,859.44,856.59,851.63,847.91,844.76,841.76,839.07,836.90,836.05,836.30,837.22,838.30,840.75,843.77,846.77,849.55,851.90,854.11,856.17
568.86,568.77,568.70,568.53,568.30,568.10,568.04,568.20,568.46,568.78,569.15,569.39,569.42,569.32,569.28,569.50,569.96,570.51,571.02,571.27,571.25,571.13,570.98,570.82,570.60,570.60,570.72,570.85,571.02,571.30,571.61,571.92,572.23,572.54,572.85,573.16,573.47,573.78,574.09,574.39,574.76,575.36,576.19,577.06,577.92,578.77,579.61,580.10,580.16,579.90,580.03,580.35,580.72,581.07,581.24,581.40,581.52,581.60,581.68,581.76,581.97,582.23,582.57,583.13,583.86,584.61,585.32,586.00,586.68,586.82,586.56,586.14,585.81,585.97,586.30,586.65,587.04,587.25,587.40,587.56,587.73,587.95,588.12,588.07,587.63,586.78,586.17,585.73,585.45,585.45,585.02,585.02,585.38,585.80,586.09,585.81,585.51,585.45,585.68,585.97,586.27,586.56,586.80,587.10,587.41,587.70,587.96,588.38,588.94,589.46,589.93,590.59,591.44,592.33,593.22,594.11,595.05,595.93,596.78,597.62,598.41,599.20,600.16,601.35,602.77,604.25,605.76,607.27,608.72,610.13,611.26,611.98,612.38,612.83,613.24,613.63,614.05,614.50,614.86,615.64,616.56,617.48,618.40,619.32,620.26,621.21,622.04,622.16,622.00,621.77,621.61,621.70,621.74,621.61,621.35,621.07,621.30,623.00,625.77,628.94,631.62,634.04,636.35,638.78,641.88,645.69,649.17,652.08,654.56,657.18,660.76,665.43,671.10,676.50,681.58,686.27,690.76,695.75,702.35,709.20,716.87,726.98,740.22,753.35,767.31,781.30,789.77,792.56,794.58,797.36,800.62,802.84,804.44,805.62,806.48,807.74,809.55,812.64,816.60,819.39,821.98,824.68,827.45,830.06,832.08,833.90,835.84,837.89,839.59,841.33,843.15,844.40,843.65,842.40,841.47,841.18,841.74,842.77,843.65,844.15,844.36,844.65,845.00,845.81,846.86,848.01,850.41,852.85,854.70,855.66,856.07,856.50,856.53,856.82,858.84,859.98,860.31,859.64,857.35,852.97,849.21,845.97,843.17,840.96,839.25,838.87,839.53,840.53,840.93,842.73,845.31,848.10,850.64,852.90,855.13,857.37
569.23,569.21,569.12,568.92,568.69,568.48,568.33,568.47,568.76,569.10,569.45,569.79,569.90,569.80,569.62,569.67,570.09,570.66,571.25,571.73,571.85,571.78,571.62,571.43,571.20,571.15,571.22,571.34,571.49,571.65,571.85,572.10,572.41,572.72,573.02,573.34,573.64,573.95,574.26,574.60,575.07,575.92,576.87,577.81,578.70,579.45,580.08,580.56,580.72,580.51,580.59,580.83,581.14,581.48,581.73,581.88,581.98,582.06,582.16,582.21,582.39,582.60,582.83,583.18,583.64,584.26,585.00,585.78,586.64,587.09,587.08,586.64,586.19,586.26,586.53,586.87,587.27,587.54,587.72,587.88,588.04,588.23,588.42,588.50,588.27,587.46,586.68,586.06,585.69,585.67,585.49,585.64,586.03,586.44,586.60,586.33,586.00,585.84,586.06,586.35,586.66,586.96,587.23,587.53,587.84,588.10,588.31,588.58,588.96,589.39,589.90,590.61,591.44,592.24,593.06,593.96,594.89,595.89,596.90,597.87,598.72,599.63,600.70,601.93,603.26,604.68,606.16,607.57,608.81,609.99,611.12,612.16,613.03,613.60,614.01,614.42,614.84,615.22,615.53,616.14,616.95,617.88,618.84,619.81,620.82,621.86,622.86,623.32,623.33,623.25,623.35,623.59,623.68,623.73,623.71,623.45,623.34,624.05,625.49,627.56,630.50,632.90,635.06,637.31,640.11,643.86,647.61,650.75,652.78,654.98,658.53,662.85,667.19,670.77,674.31,677.97,681.97,686.90,693.24,700.24,708.17,718.00,730.16,743.04,755.85,768.47,781.09,787.00,790.50,793.91,798.21,801.32,803.25,804.69,806.25,808.50,811.60,815.47,819.46,821.89,824.08,826.56,829.27,831.95,834.45,836.71,838.60,839.98,841.01,841.81,842.52,842.73,841.52,839.88,838.72,838.17,838.38,839.30,840.27,840.77,840.87,841.24,841.59,842.05,842.73,843.94,846.41,849.89,852.48,853.26,853.66,853.91,853.82,854.02,856.01,858.47,859.76,859.66,857.86,854.19,850.61,847.52,844.99,842.92,841.72,841.65,842.39,843.44,844.09,845.59,847.83,850.63,853.69,856.59,858.22,859.03
569.59,569.66,569.56,569.36,569.14,568.93,568.72,568.80,569.06,569.39,569.71,570.16,570.38,570.31,570.03,569.90,570.26,570.82,571.45,572.10,572.40,572.41,572.25,572.02,571.79,571.74,571.82,571.97,572.13,572.15,572.18,572.32,572.60,572.89,573.21,573.52,573.84,574.15,574.45,574.86,575.50,576.53,577.56,578.55,579.45,580.08,580.46,580.95,581.26,581.14,581.19,581.39,581.63,581.89,582.22,582.37,582.45,582.55,582.68,582.69,582.85,583.09,583.31,583.48,583.67,584.07,584.72,585.58,586.56,587.29,587.53,587.12,586.62,586.59,586.79,587.12,587.49,587.82,588.03,588.19,588.35,588.51,588.71,588.91,588.92,588.36,587.49,586.74,586.27,586.10,586.12,586.33,586.67,587.07,587.11,586.87,586.52,586.27,586.45,586.74,587.05,587.36,587.67,587.97,588.28,588.56,588.79,588.97,589.11,589.44,590.02,590.76,591.52,592.18,592.87,593.73,594.60,595.72,596.91,598.05,599.02,600.10,601.29,602.52,603.73,605.04,606.42,607.67,608.67,609.62,610.67,612.00,613.40,614.20,614.76,615.23,615.62,615.93,616.23,616.65,617.30,618.22,619.24,620.25,621.31,622.41,623.52,624.38,624.66,624.81,625.13,625.44,625.59,625.85,626.16,626.17,626.15,626.10,626.13,626.73,629.26,631.55,633.61,635.72,638.17,641.51,645.26,648.53,650.08,651.82,655.14,659.22,663.02,665.59,668.12,670.99,674.46,679.02,684.69,691.71,699.91,709.36,719.98,732.11,743.13,753.38,768.42,778.30,784.76,789.70,794.66,798.74,800.81,802.27,804.56,808.11,812.73,817.23,820.79,822.69,824.45,826.75,829.52,832.52,835.52,838.22,840.10,840.98,841.71,841.75,841.20,840.24,838.93,837.07,835.75,835.06,835.09,835.94,837.03,837.49,837.32,837.55,837.78,837.97,838.44,839.76,842.12,845.95,848.50,848.58,848.66,848.59,848.75,849.63,852.10,855.74,857.94,858.48,857.33,854.72,851.86,849.25,846.99,845.00,844.28,844.43,845.13,846.21,847.45,848.79,850.69,853.52,857.06,860.37,861.35,860.79
569.95,570.16,570.12,569.97,569.82,569.69,569.47,569.41,569.45,569.58,569.86,570.43,570.83,570.89,570.58,570.33,570.61,571.12,571.69,572.32,572.81,572.96,572.84,572.66,572.44,572.48,572.65,572.81,573.02,572.93,572.74,572.62,572.75,573.03,573.34,573.67,574.03,574.34,574.65,575.20,576.11,577.18,578.25,579.22,580.00,580.45,580.83,581.25,581.60,581.75,581.79,582.01,582.27,582.50,582.71,582.91,583.04,583.13,583.25,583.17,583.34,583.60,583.82,583.99,584.28,584.46,584.70,585.57,586.60,587.52,587.92,587.53,587.11,586.95,587.05,587.36,587.69,588.05,588.30,588.45,588.61,588.82,589.00,589.19,589.34,589.18,588.59,588.05,587.68,587.35,587.03,587.04,587.32,587.71,587.70,587.41,587.06,586.81,586.87,587.13,587.44,587.75,588.05,588.36,588.67,588.97,589.25,589.46,589.50,589.73,590.25,590.90,591.56,592.12,592.76,593.66,594.57,595.64,596.85,598.14,599.26,600.50,601.77,602.99,603.99,605.02,606.11,607.18,608.17,609.11,610.11,611.41,612.92,614.25,615.38,616.01,616.32,616.58,616.88,617.22,617.75,618.57,619.67,620.75,621.85,622.98,624.08,625.15,625.88,626.42,626.87,627.19,627.46,627.88,628.41,628.84,629.05,629.13,628.97,628.48,628.12,629.81,632.11,634.28,636.67,639.19,642.04,644.66,646.01,647.62,649.75,653.06,657.71,661.43,664.86,667.61,669.71,672.06,677.04,684.01,691.93,700.41,711.03,721.80,732.86,743.74,752.36,764.55,776.02,784.66,789.25,794.19,796.96,799.06,802.24,806.90,811.75,815.59,817.99,819.08,820.53,822.83,826.20,830.63,833.88,836.83,839.07,840.24,840.59,840.35,839.09,837.20,835.60,833.75,832.48,831.83,831.86,832.74,834.07,834.54,833.92,833.26,833.04,833.26,834.01,835.62,837.88,841.14,843.57,844.30,844.77,844.80,844.93,845.73,847.92,850.45,852.28,853.33,853.52,853.01,852.48,851.17,849.06,847.35,846.98,847.31,848.00,849.02,850.77,851.94,853.45,855.97,858.89,860.77,861.76,862.22
570.45,570.72,570.70,570.57,570.43,570.31,570.11,570.01,569.97,570.02,570.24,570.80,571.29,571.47,571.16,570.83,571.00,571.45,572.03,572.61,573.16,573.47,573.50,573.31,573.03,573.13,573.41,573.68,573.85,573.66,573.36,573.10,573.04,573.23,573.51,573.84,574.22,574.57,575.05,575.78,576.80,577.87,578.92,579.76,580.36,580.75,581.16,581.56,581.93,582.23,582.35,582.59,582.82,583.02,583.17,583.37,583.55,583.72,583.83,583.68,583.80,584.06,584.32,584.61,584.97,585.06,585.08,585.76,586.69,587.64,588.17,587.94,587.55,587.28,587.31,587.62,587.93,588.27,588.53,588.71,588.88,589.10,589.27,589.46,589.67,589.79,589.64,589.38,589.04,588.53,587.98,587.77,587.94,588.34,588.26,587.93,587.57,587.30,587.31,587.56,587.87,588.17,588.49,588.79,589.08,589.38,589.72,590.00,589.95,590.10,590.51,591.01,591.56,592.07,592.69,593.53,594.25,595.12,596.22,597.60,599.12,600.44,601.63,602.70,603.63,604.59,605.60,606.61,607.58,608.54,609.56,610.83,612.34,613.97,615.53,616.57,617.17,617.47,617.75,618.02,618.44,619.15,620.25,621.37,622.49,623.61,624.72,625.85,626.80,627.57,628.14,628.60,629.21,629.99,630.86,631.60,631.92,632.06,631.88,631.05,629.54,629.84,631.16,633.04,635.39,637.55,639.63,641.45,642.63,644.80,647.29,650.89,655.95,659.88,662.77,664.98,666.72,668.34,671.89,677.71,684.96,693.15,703.30,713.75,724.65,735.32,742.94,753.85,765.43,775.25,780.66,786.36,790.50,793.87,797.78,803.79,809.19,812.71,814.19,814.65,815.84,818.61,822.69,827.49,831.34,834.29,836.37,837.43,837.60,837.10,835.69,833.67,831.69,829.52,827.85,827.13,827.79,829.30,830.98,831.61,830.94,829.89,829.18,829.22,830.05,831.79,834.00,836.68,838.80,839.83,840.48,840.50,840.91,842.14,844.39,846.24,847.79,848.99,849.69,850.03,850.61,850.81,850.52,850.32,850.18,850.86,852.04,853.17,854.63,855.42,856.44,858.21,860.05,861.09,862.02,862.80
571.06,571.30,571.28,571.14,570.99,570.83,570.68,570.60,570.60,570.66,570.84,571.30,571.80,572.05,571.73,571.36,571.41,571.79,572.38,572.93,573.47,573.92,574.16,573.94,573.58,573.71,574.12,574.48,574.58,574.32,573.97,573.66,573.39,573.48,573.73,574.07,574.45,574.89,575.61,576.51,577.53,578.60,579.55,580.20,580.61,581.00,581.44,581.86,582.25,582.61,582.87,583.10,583.30,583.47,583.63,583.78,584.02,584.27,584.38,584.21,584.26,584.49,584.83,585.24,585.63,585.72,585.69,586.13,586.92,587.80,588.38,588.36,587.95,587.61,587.58,587.88,588.18,588.50,588.76,588.97,589.13,589.36,589.54,589.74,590.00,590.29,590.55,590.54,590.20,589.55,588.91,588.52,588.55,588.96,588.80,588.44,588.06,587.75,587.74,588.00,588.31,588.63,588.94,589.25,589.51,589.81,590.19,590.56,590.50,590.56,590.88,591.22,591.66,592.13,592.71,593.41,593.90,594.59,595.53,596.85,598.66,600.05,601.09,601.99,602.93,603.94,605.00,606.03,606.99,608.00,609.07,610.31,611.79,613.57,615.38,616.92,618.00,618.45,618.73,618.97,619.29,619.87,620.88,622.02,623.15,624.27,625.41,626.52,627.55,628.45,629.18,629.91,630.99,632.22,633.45,634.40,634.77,634.91,634.75,633.97,632.46,631.37,631.31,632.53,634.57,636.52,638.06,639.22,640.51,643.54,647.20,651.61,656.66,660.05,661.69,663.21,665.02,666.65,668.60,672.68,678.93,687.25,696.58,707.27,717.81,727.55,737.20,745.26,754.29,763.61,770.34,776.61,782.19,787.04,791.74,799.14,805.16,808.50,809.40,809.78,811.17,814.75,819.50,824.03,828.37,831.13,832.73,833.42,833.47,832.74,831.42,829.63,827.29,824.75,822.63,821.95,823.51,825.79,827.71,828.45,827.91,826.88,825.85,825.65,826.41,828.14,830.32,832.49,834.22,835.24,835.84,835.93,836.89,838.90,841.27,842.76,844.10,845.26,846.01,846.56,847.53,849.10,851.10,852.79,853.17,854.51,856.47,857.74,858.46,858.73,859.20,860.11,860.83,861.47,862.28,862.93
571.79,571.91,571.87,571.70,571.51,571.36,571.20,571.24,571.41,571.64,571.77,572.11,572.44,572.57,572.26,571.93,571.85,572.10,572.66,573.20,573.74,574.25,574.61,574.50,574.12,574.29,574.72,574.97,575.01,574.77,574.42,574.06,573.73,573.79,574.07,574.43,574.82,575.53,576.40,577.34,578.37,579.42,580.00,580.42,580.81,581.20,581.60,582.03,582.45,582.84,583.23,583.50,583.72,583.92,584.08,584.23,584.44,584.69,584.85,584.72,584.78,585.02,585.38,585.73,586.07,586.31,586.49,586.82,587.63,588.34,588.75,588.75,588.39,588.02,587.92,588.14,588.45,588.75,589.02,589.23,589.39,589.62,589.83,590.09,590.44,590.80,591.07,591.02,590.64,590.17,589.69,589.27,589.17,589.54,589.28,588.90,588.52,588.19,588.10,588.37,588.74,589.08,589.39,589.70,589.99,590.32,590.72,591.14,591.18,591.31,591.63,592.00,592.35,592.61,592.94,593.52,594.21,595.08,595.94,596.79,597.85,599.23,600.33,601.23,602.28,603.33,604.44,605.54,606.58,607.64,608.76,610.02,611.52,613.34,615.14,616.86,618.31,619.27,619.73,619.96,620.20,620.60,621.40,622.54,623.74,624.92,626.07,627.16,628.26,629.32,630.36,631.72,633.22,634.71,636.07,637.17,637.61,637.76,637.57,636.72,635.56,635.02,634.78,634.76,635.30,636.53,637.91,639.51,641.98,645.50,649.82,654.62,659.17,661.26,662.54,663.75,664.92,665.75,667.37,669.82,674.45,682.90,691.38,702.14,712.05,720.27,730.46,737.64,745.07,753.12,760.15,766.35,772.26,778.01,784.13,792.51,798.33,801.22,802.28,804.50,807.93,812.63,817.69,821.95,825.47,827.79,828.94,829.05,828.88,827.94,826.46,824.51,822.06,819.81,818.33,818.34,820.34,822.65,824.06,824.28,823.59,823.07,822.47,822.33,822.89,824.47,826.62,828.49,829.89,830.67,830.85,831.55,833.62,836.45,838.29,839.51,840.62,841.67,842.65,843.89,845.35,847.17,849.34,851.60,853.93,856.90,859.71,860.90,860.87,860.42,860.35,860.93,861.45,862.00,862.65,863.18
572.55,572.51,572.39,572.22,572.03,571.88,571.81,572.02,572.36,572.67,572.75,572.99,573.14,573.09,572.78,572.50,572.32,572.45,572.92,573.46,574.00,574.53,574.92,574.94,574.66,574.84,575.19,575.37,575.43,575.19,574.83,574.44,574.06,574.12,574.39,574.79,575.31,576.14,577.09,578.09,579.09,579.94,580.30,580.62,581.00,581.38,581.77,582.21,582.64,583.04,583.50,583.83,584.09,584.31,584.50,584.68,584.95,585.22,585.28,585.16,585.22,585.46,585.82,586.15,586.49,586.81,587.11,587.45,588.13,588.70,589.07,589.17,588.84,588.45,588.28,588.40,588.71,589.01,589.28,589.49,589.65,589.90,590.18,590.51,590.89,591.24,591.48,591.38,590.99,590.61,590.24,589.89,589.78,590.03,589.76,589.37,588.96,588.60,588.47,588.75,589.14,589.51,589.85,590.18,590.52,590.88,591.27,591.69,591.88,592.12,592.49,592.87,593.19,593.35,593.49,593.84,594.61,595.52,596.36,597.06,597.79,598.93,599.97,600.91,602.05,603.18,604.34,605.46,606.55,607.63,608.73,610.01,611.57,613.49,615.38,617.21,618.82,620.01,620.71,620.99,621.15,621.40,621.95,623.00,624.21,625.43,626.61,627.76,628.97,630.28,631.78,633.57,635.38,637.03,638.43,639.48,640.02,640.31,640.23,639.54,638.82,638.54,638.08,637.27,636.99,637.54,638.95,641.20,644.50,648.43,653.18,657.81,661.27,662.73,663.88,664.95,665.82,666.29,667.35,668.60,671.87,679.47,687.30,697.36,706.39,713.35,721.48,727.55,734.60,742.85,750.71,757.96,764.78,771.13,777.37,785.38,791.71,795.27,797.00,800.38,804.83,809.76,814.62,818.85,822.53,824.60,825.31,824.95,824.40,822.88,821.28,819.64,817.47,815.54,814.61,815.16,817.42,819.50,820.56,820.64,820.11,819.89,819.70,819.72,820.20,821.53,823.45,825.15,826.40,827.17,827.88,829.24,831.46,833.97,835.46,836.55,837.72,838.96,840.25,841.83,843.62,845.59,847.75,850.25,854.26,858.19,861.11,862.14,861.91,861.31,861.12,861.61,862.07,862.49,862.80,862.94
573.33,573.12,572.90,572.71,572.55,572.43,572.51,572.92,573.38,573.68,573.71,573.88,573.84,573.61,573.32,573.07,572.85,572.85,573.18,573.71,574.25,574.76,575.15,575.28,575.22,575.34,575.56,575.72,575.86,575.61,575.23,574.82,574.40,574.44,574.71,575.18,575.93,576.71,577.68,578.73,579.68,580.20,580.50,580.81,581.20,581.58,581.97,582.41,582.84,583.25,583.70,584.10,584.41,584.65,584.89,585.11,585.50,585.83,585.70,585.54,585.62,585.84,586.16,586.54,586.91,587.25,587.59,587.97,588.44,588.92,589.35,589.59,589.29,588.90,588.66,588.68,588.97,589.28,589.54,589.76,589.95,590.24,590.59,590.96,591.33,591.65,591.83,591.70,591.33,590.96,590.64,590.42,590.36,590.48,590.26,589.84,589.37,588.98,588.87,589.16,589.54,589.92,590.30,590.68,591.06,591.45,591.84,592.22,592.53,592.91,593.34,593.73,594.06,594.22,594.25,594.33,595.00,595.82,596.66,597.50,598.33,599.11,599.99,601.00,602.21,603.43,604.61,605.74,606.81,607.89,608.93,610.23,611.92,613.97,616.02,617.91,619.51,620.69,621.63,621.99,622.14,622.27,622.56,623.44,624.58,625.80,627.02,628.24,629.56,631.19,633.25,635.30,637.31,639.07,640.45,641.36,642.02,642.53,642.72,642.40,642.13,641.82,641.11,640.06,639.58,639.59,641.09,643.96,647.73,651.99,656.80,660.78,662.87,664.34,665.49,666.52,667.43,668.07,668.45,668.97,671.25,677.27,684.45,692.99,700.91,707.04,711.73,716.60,724.06,733.47,742.56,751.67,759.84,766.48,771.63,778.13,785.31,790.30,793.10,796.86,801.25,805.63,809.91,814.21,818.95,821.12,821.49,820.75,819.71,817.55,816.00,815.04,813.47,811.90,811.40,812.32,814.65,816.36,817.30,817.61,817.50,817.38,817.47,817.74,818.28,819.35,820.92,822.51,823.76,824.76,826.63,828.50,830.11,831.52,832.88,833.99,835.44,837.08,838.69,840.36,842.38,844.57,846.81,849.30,854.61,858.77,861.11,861.99,861.95,861.69,861.73,862.23,862.62,862.81,862.67,862.28
573.99,573.76,573.53,573.29,573.06,572.99,573.28,573.81,574.28,574.54,574.55,574.53,574.38,574.14,573.89,573.65,573.46,573.34,573.40,573.91,574.45,575.00,575.49,575.72,575.68,575.75,575.90,576.10,576.25,576.07,575.71,575.26,574.79,574.74,575.13,575.81,576.62,577.40,578.28,579.19,579.98,580.42,580.69,581.00,581.39,581.77,582.16,582.60,583.05,583.49,583.95,584.36,584.72,585.04,585.32,585.56,585.95,586.25,586.09,585.89,586.01,586.26,586.55,586.92,587.27,587.62,587.98,588.38,588.78,589.23,589.64,589.88,589.66,589.30,589.03,589.00,589.28,589.55,589.83,590.10,590.37,590.71,591.06,591.39,591.73,592.08,592.20,592.05,591.73,591.44,591.18,591.02,590.99,591.04,590.79,590.22,589.65,589.30,589.39,589.68,590.02,590.37,590.75,591.14,591.53,591.93,592.35,592.69,593.05,593.47,593.92,594.36,594.77,594.87,594.80,594.82,595.32,596.02,596.82,597.67,598.52,599.37,600.32,601.38,602.57,603.81,604.96,606.05,607.13,608.21,609.27,610.73,612.63,614.66,616.69,618.60,620.19,621.31,622.30,622.86,623.14,623.26,623.42,623.91,624.83,626.00,627.14,628.32,629.61,631.39,633.89,636.39,638.59,640.37,641.73,642.82,643.69,644.32,644.78,645.10,645.11,645.32,645.13,644.35,643.70,643.43,644.77,647.72,651.82,656.17,659.81,662.55,664.42,666.07,667.21,668.14,669.19,670.65,671.34,671.89,673.80,678.68,684.18,690.04,696.47,703.00,707.73,712.99,720.07,728.80,738.44,748.44,757.18,763.50,767.09,771.71,777.84,783.19,787.23,791.06,794.80,798.57,802.30,806.19,811.95,815.18,815.81,814.39,813.04,811.71,810.84,810.31,809.62,808.74,808.93,810.17,812.14,813.58,814.50,815.03,815.20,815.18,815.50,816.15,817.05,818.17,819.55,820.94,822.24,823.57,825.48,827.17,828.54,829.69,830.91,832.37,834.07,835.87,837.72,839.69,842.29,845.09,847.65,849.69,856.02,859.91,861.20,861.98,862.04,862.10,862.35,862.73,862.63,862.40,862.04,861.58
574.59,574.38,574.19,573.96,573.73,573.63,573.94,574.44,574.87,575.13,575.16,575.02,574.82,574.63,574.44,574.23,574.04,573.85,573.76,574.13,574.64,575.19,575.68,575.99,576.09,576.15,576.26,576.46,576.61,576.52,576.23,575.77,575.29,575.18,575.57,576.29,577.19,578.05,578.89,579.64,580.22,580.60,580.89,581.22,581.59,581.97,582.38,582.82,583.29,583.75,584.19,584.61,585.01,585.41,585.74,586.01,586.37,586.63,586.47,586.25,586.38,586.66,586.93,587.31,587.64,587.99,588.37,588.76,589.15,589.57,589.97,590.20,589.96,589.66,589.47,589.46,589.71,589.92,590.19,590.50,590.82,591.18,591.52,591.84,592.16,592.53,592.61,592.46,592.20,591.98,591.75,591.63,591.56,591.47,591.12,590.50,589.94,589.68,589.91,590.21,590.52,590.85,591.24,591.63,592.01,592.41,592.81,593.15,593.52,593.95,594.41,594.88,595.34,595.41,595.29,595.32,595.75,596.34,597.03,597.80,598.62,599.49,600.52,601.73,603.09,604.48,605.72,606.77,607.65,608.70,609.98,611.63,613.59,615.56,617.54,619.33,620.80,621.87,622.91,623.70,624.14,624.27,624.38,624.61,625.20,626.12,627.21,628.34,629.59,631.48,634.28,637.09,639.40,641.21,642.61,643.93,645.06,645.91,646.66,647.46,647.90,648.71,649.22,649.09,648.85,648.71,649.60,651.85,655.70,659.52,662.28,664.37,666.21,667.97,669.71,671.29,672.90,675.09,676.26,677.29,679.27,683.17,687.34,691.88,697.69,704.63,710.19,715.47,721.74,729.27,738.13,747.66,756.84,763.33,765.70,768.27,772.18,776.55,780.91,784.91,788.51,792.26,795.96,799.49,804.91,808.60,809.68,808.37,807.33,806.77,806.40,806.19,806.21,805.99,806.74,808.18,809.81,811.04,812.02,812.87,813.59,814.17,814.94,815.99,817.13,818.18,819.42,820.50,821.65,823.04,824.62,826.02,827.21,828.32,829.64,831.38,833.44,835.60,837.73,839.94,842.91,846.07,849.02,851.75,857.56,860.65,861.36,862.08,862.28,862.41,862.60,862.70,862.28,861.82,861.36,860.86
575.11,574.95,574.85,574.71,574.53,574.37,574.46,574.78,575.13,575.41,575.51,575.35,575.16,575.03,574.92,574.77,574.57,574.38,574.29,574.40,574.85,575.30,575.70,576.08,576.42,576.55,576.63,576.78,576.94,576.96,576.77,576.36,575.94,575.81,576.02,576.60,577.57,578.61,579.47,580.08,580.44,580.75,581.10,581.44,581.77,582.17,582.62,583.08,583.54,584.00,584.40,584.84,585.30,585.73,586.11,586.43,586.79,587.02,586.86,586.63,586.74,587.00,587.32,587.70,588.03,588.38,588.76,589.15,589.54,589.93,590.32,590.57,590.22,590.03,590.00,590.08,590.24,590.40,590.65,590.95,591.26,591.57,591.93,592.29,592.61,592.98,593.06,592.94,592.73,592.55,592.34,592.19,592.03,591.72,591.23,590.69,590.28,590.15,590.43,590.73,591.05,591.37,591.75,592.14,592.52,592.88,593.22,593.60,593.98,594.40,594.87,595.33,595.79,595.87,595.77,595.84,596.31,596.81,597.34,597.95,598.71,599.48,600.57,602.01,603.73,605.46,606.95,607.96,608.48,609.47,611.12,612.97,614.83,616.70,618.61,620.13,621.36,622.44,623.52,624.55,625.15,625.26,625.40,625.56,625.79,626.26,627.30,628.35,629.60,631.56,634.53,637.44,639.80,641.66,643.20,644.70,646.13,647.31,648.37,649.44,650.44,651.81,653.02,653.86,654.62,655.05,655.27,656.14,659.04,661.72,664.18,666.39,668.32,670.22,673.32,676.38,679.04,681.68,683.34,685.15,687.56,690.75,694.32,699.39,705.67,712.70,719.04,723.66,728.81,734.92,741.64,749.59,759.08,766.25,768.13,768.81,769.73,771.84,775.23,779.17,782.93,787.20,791.48,795.02,798.70,801.92,803.51,803.21,803.10,802.95,802.84,802.95,803.54,803.99,805.11,806.54,807.89,809.03,810.16,811.45,812.94,814.57,815.99,817.42,818.69,819.52,820.66,821.34,822.06,823.12,824.21,825.32,826.38,827.53,829.14,831.04,833.57,836.30,838.79,841.10,844.13,847.24,850.58,855.19,858.94,860.84,861.58,862.25,862.60,862.56,862.36,862.09,861.64,861.17,860.68,860.09
575.52,575.38,575.33,575.25,575.13,575.01,575.03,575.20,575.45,575.70,575.75,575.57,575.39,575.26,575.17,575.07,574.94,574.85,574.84,574.84,575.08,575.40,575.76,576.14,576.53,576.81,577.00,577.12,577.26,577.37,577.25,576.94,576.72,576.65,576.71,577.01,577.82,578.83,579.74,580.39,580.73,581.00,581.32,581.62,581.93,582.36,582.82,583.29,583.74,584.20,584.64,585.10,585.54,585.96,586.38,586.75,587.16,587.41,587.24,586.98,587.10,587.39,587.70,588.04,588.39,588.76,589.15,589.54,590.01,590.43,590.78,590.97,590.67,590.52,590.54,590.65,590.77,590.92,591.11,591.35,591.66,591.97,592.33,592.68,593.01,593.38,593.50,593.42,593.24,593.09,592.90,592.64,592.30,591.88,591.35,590.99,590.75,590.71,591.00,591.31,591.62,591.93,592.28,592.62,592.99,593.34,593.66,594.05,594.43,594.86,595.32,595.78,596.25,596.35,596.28,596.35,596.79,597.30,597.80,598.33,598.95,599.59,600.82,602.57,604.48,606.36,608.12,609.39,610.05,611.09,612.75,614.53,616.28,618.11,619.76,621.07,622.21,623.34,624.47,625.49,626.13,626.33,626.44,626.59,626.77,627.06,627.62,628.38,629.66,631.72,634.68,637.61,640.20,642.28,643.92,645.43,646.94,648.33,649.67,651.06,652.34,653.77,655.31,656.88,658.25,659.02,659.25,659.61,661.16,663.10,665.43,668.01,670.84,674.15,678.84,683.38,687.04,689.68,691.62,693.72,696.36,699.92,704.43,710.67,717.50,723.81,728.14,732.36,736.90,741.68,746.90,755.70,764.14,770.66,774.26,775.47,775.51,775.63,776.13,776.64,777.58,780.66,785.65,791.44,794.64,797.08,798.47,798.67,798.91,798.96,799.62,801.04,803.06,804.98,806.35,807.38,808.36,809.60,811.32,812.90,814.26,815.98,817.46,819.27,821.04,822.13,823.40,823.58,823.58,824.08,824.99,825.98,826.95,827.97,829.26,831.39,834.23,837.35,840.27,842.33,845.08,848.00,851.32,856.17,859.34,860.94,861.74,862.38,862.40,862.15,861.84,861.50,861.04,860.58,859.82,858.75
575.89,575.77,575.75,575.69,575.63,575.58,575.58,575.60,575.77,576.01,576.00,575.80,575.60,575.45,575.37,575.30,575.26,575.30,575.38,575.32,575.36,575.53,575.82,576.21,576.59,576.98,577.27,577.41,577.59,577.74,577.72,577.54,577.48,577.47,577.42,577.52,578.08,578.92,579.80,580.50,580.94,581.29,581.62,581.91,582.19,582.58,582.97,583.40,583.87,584.33,584.81,585.28,585.73,586.17,586.64,587.08,587.52,587.80,587.61,587.33,587.47,587.78,588.08,588.38,588.74,589.13,589.51,589.91,590.42,590.85,591.19,591.38,591.16,591.05,591.09,591.21,591.29,591.42,591.57,591.76,592.07,592.38,592.73,593.07,593.40,593.77,593.91,593.87,593.71,593.55,593.35,592.97,592.51,592.03,591.61,591.38,591.27,591.29,591.59,591.91,592.23,592.53,592.85,593.19,593.54,593.86,594.16,594.53,594.91,595.34,595.80,596.26,596.73,596.84,596.77,596.84,597.26,597.78,598.28,598.76,599.31,599.99,601.32,603.18,605.18,607.12,609.08,610.72,611.86,613.07,614.64,616.28,617.92,619.62,621.07,622.21,623.25,624.41,625.57,626.49,627.09,627.38,627.48,627.64,627.85,628.07,628.28,628.79,630.01,632.03,634.83,637.63,640.33,642.66,644.59,646.26,647.83,649.35,650.89,652.49,653.94,655.36,657.03,658.94,660.46,661.45,661.95,662.25,662.88,664.40,666.49,669.24,673.01,678.05,684.35,690.02,694.36,697.43,699.75,702.31,705.32,709.05,714.38,721.54,728.51,733.78,736.58,740.65,745.89,751.39,756.25,763.99,769.85,774.89,780.13,782.96,783.23,782.37,780.86,778.69,776.53,777.18,780.72,786.12,788.92,791.39,793.22,794.05,794.53,795.40,797.56,800.71,803.90,807.01,809.15,810.36,810.88,811.90,813.76,815.34,816.49,818.12,819.63,821.76,823.98,825.40,826.41,826.09,825.49,825.37,826.03,826.88,827.80,828.76,830.03,832.48,835.52,838.93,842.41,844.55,846.63,849.02,852.18,856.73,859.60,861.07,861.85,862.45,862.17,861.70,861.27,860.89,860.31,859.63,858.57,857.14
576.23,576.15,576.14,576.09,576.04,576.03,576.02,575.98,576.10,576.34,576.32,576.08,575.82,575.64,575.57,575.50,575.57,575.73,575.88,575.83,575.72,575.72,575.90,576.27,576.66,577.04,577.39,577.66,577.89,578.06,578.16,578.17,578.18,578.18,578.13,578.15,578.42,578.97,579.65,580.33,580.98,581.60,582.04,582.38,582.66,582.86,583.06,583.42,583.87,584.34,584.87,585.36,585.86,586.38,586.90,587.43,587.92,588.17,587.95,587.71,587.86,588.17,588.46,588.72,589.07,589.45,589.84,590.23,590.69,591.11,591.49,591.77,591.66,591.61,591.64,591.73,591.81,591.89,592.02,592.22,592.52,592.83,593.15,593.46,593.79,594.15,594.30,594.26,594.10,593.92,593.60,593.17,592.69,592.23,592.06,591.91,591.82,591.87,592.17,592.54,592.88,593.18,593.51,593.92,594.24,594.49,594.75,595.06,595.43,595.86,596.32,596.78,597.25,597.32,597.23,597.29,597.71,598.23,598.74,599.22,599.81,600.84,602.17,603.77,605.76,607.70,609.72,611.78,613.74,615.29,616.75,618.25,619.78,621.24,622.64,623.63,624.51,625.64,626.80,627.53,628.02,628.35,628.53,628.74,628.98,629.21,629.45,629.83,630.80,632.52,634.98,637.43,639.96,642.53,645.05,647.24,648.92,650.51,652.13,653.73,655.27,656.75,658.36,660.01,661.14,662.19,663.10,663.81,664.36,665.81,667.47,670.02,674.52,681.35,689.15,695.49,700.11,704.59,707.58,711.14,714.84,717.99,723.33,730.60,736.98,741.13,744.26,748.58,756.21,765.33,771.28,774.17,775.54,778.34,784.22,789.40,790.99,790.70,789.33,786.88,782.44,779.48,778.25,778.36,780.27,783.97,787.31,789.11,790.05,792.89,797.45,802.55,806.26,809.80,813.47,815.85,815.87,816.10,817.22,818.44,819.60,821.17,822.84,825.15,827.62,829.25,829.37,828.64,827.70,826.98,827.08,827.74,828.62,829.77,831.70,834.53,837.68,841.36,845.54,848.36,849.36,850.77,853.60,857.53,860.00,861.25,861.90,862.41,862.04,861.34,860.71,860.22,859.30,858.09,856.72,855.26
576.62,576.58,576.54,576.50,576.48,576.48,576.43,576.40,576.49,576.66,576.60,576.34,576.05,575.84,575.78,575.81,575.97,576.18,576.37,576.38,576.26,576.16,576.17,576.37,576.72,577.08,577.43,577.77,578.05,578.33,578.51,578.60,578.72,578.81,578.80,578.82,579.07,579.43,579.86,580.35,580.94,581.62,582.21,582.72,583.14,583.37,583.50,583.70,584.00,584.42,585.02,585.65,586.24,586.78,587.32,587.86,588.33,588.56,588.33,588.09,588.25,588.55,588.85,589.09,589.41,589.75,590.11,590.50,590.92,591.32,591.70,592.03,592.12,592.13,592.17,592.25,592.33,592.40,592.52,592.70,592.94,593.23,593.54,593.85,594.17,594.50,594.71,594.68,594.46,594.17,593.80,593.34,592.91,592.67,592.69,592.62,592.50,592.47,592.80,593.18,593.55,593.88,594.18,594.37,594.75,595.14,595.38,595.69,596.06,596.46,596.89,597.35,597.74,597.78,597.66,597.71,598.15,598.65,599.14,599.69,600.61,601.82,603.16,604.62,606.28,608.18,610.24,612.45,614.71,616.74,618.39,619.94,621.48,622.94,624.35,625.44,626.24,626.93,627.99,628.55,628.93,629.33,629.77,630.11,630.43,630.75,631.02,631.08,631.43,632.64,634.92,637.04,639.19,641.78,644.77,647.68,649.82,651.65,653.35,654.93,656.51,658.11,659.56,660.78,661.80,662.83,663.85,664.78,665.53,666.84,668.26,671.12,676.90,685.15,694.05,702.33,709.80,716.96,722.17,727.60,732.28,734.61,737.61,742.86,748.56,753.76,758.84,764.39,770.54,776.50,780.38,781.13,780.67,782.28,787.81,792.77,795.30,795.74,794.50,792.38,789.27,786.70,784.58,782.50,780.98,781.15,782.39,784.83,789.59,795.00,800.62,806.08,810.76,814.91,817.99,819.79,820.18,820.15,821.04,822.49,824.19,825.79,827.17,829.11,831.22,832.57,832.79,832.20,831.00,829.44,828.61,829.14,830.23,831.76,834.17,837.04,840.80,845.12,849.50,852.80,854.14,855.31,857.08,859.24,860.81,861.70,862.05,861.89,861.37,860.65,859.92,859.13,857.86,856.40,854.88,853.39
577.03,577.01,576.95,576.93,576.93,576.91,576.85,576.84,576.89,576.97,576.87,576.60,576.29,576.06,576.04,576.20,576.42,576.65,576.86,576.95,576.86,576.71,576.58,576.57,576.80,577.12,577.46,577.82,578.15,578.51,578.76,578.92,579.15,579.33,579.42,579.52,579.75,579.99,580.21,580.51,580.97,581.60,582.28,582.94,583.51,583.85,584.03,584.13,584.26,584.56,585.20,585.94,586.62,587.20,587.75,588.29,588.74,588.95,588.71,588.48,588.63,588.94,589.24,589.49,589.76,590.04,590.35,590.72,591.10,591.49,591.88,592.26,592.55,592.64,592.69,592.77,592.84,592.92,593.03,593.16,593.35,593.64,593.94,594.25,594.57,594.88,595.10,595.06,594.76,594.38,593.98,593.54,593.23,593.24,593.37,593.34,593.19,593.08,593.42,593.80,594.18,594.54,594.82,594.78,595.18,595.69,596.00,596.32,596.69,597.07,597.47,597.91,598.24,598.25,598.12,598.12,598.59,599.06,599.59,600.32,601.56,602.87,604.21,605.57,606.96,608.70,610.78,613.04,615.43,617.80,619.72,621.40,623.00,624.57,626.05,627.31,628.13,628.47,629.35,629.80,630.15,630.63,631.30,631.72,632.09,632.46,632.70,632.48,632.30,632.92,634.73,636.55,638.39,640.86,644.07,647.57,650.28,652.44,654.36,656.17,657.83,659.39,660.62,661.48,662.46,663.47,664.50,665.53,666.47,667.63,668.87,672.13,679.28,689.18,699.81,711.19,722.83,732.87,739.65,745.68,750.24,751.62,752.53,756.11,761.21,767.00,772.89,778.59,782.53,784.94,786.72,786.50,785.17,785.96,790.84,795.13,798.36,799.57,798.77,797.19,795.63,794.02,792.07,789.25,785.03,781.40,779.91,782.27,790.03,797.27,803.57,809.39,815.21,819.30,821.22,822.14,822.84,823.02,823.97,825.69,827.84,829.46,830.46,831.94,833.68,834.98,835.93,836.02,835.10,833.28,831.77,831.82,832.74,834.38,837.14,840.32,844.65,849.40,853.67,856.92,858.58,859.56,860.28,860.88,861.58,862.00,861.90,861.14,860.47,859.74,858.92,857.89,856.39,854.81,853.34,852.02
577.47,577.41,577.39,577.38,577.36,577.31,577.29,577.28,577.30,577.29,577.14,576.86,576.55,576.35,576.43,576.70,576.94,577.17,577.38,577.53,577.48,577.36,577.19,577.01,576.92,577.15,577.50,577.83,578.20,578.53,578.86,579.17,579.41,579.63,579.99,580.29,580.31,580.51,580.69,580.90,581.20,581.64,582.28,582.97,583.62,584.17,584.54,584.70,584.75,584.84,585.41,586.10,586.82,587.53,588.13,588.69,589.13,589.34,589.10,588.87,589.02,589.33,589.64,589.93,590.13,590.32,590.53,590.86,591.23,591.62,592.03,592.47,592.90,593.10,593.21,593.29,593.36,593.44,593.49,593.57,593.80,594.10,594.36,594.65,595.02,595.33,595.47,595.33,594.97,594.57,594.13,593.83,593.75,593.93,594.09,594.02,593.83,593.72,594.02,594.34,594.70,595.08,595.39,595.32,595.53,596.00,596.56,596.90,597.27,597.65,598.04,598.44,598.76,598.77,598.63,598.57,598.99,599.45,600.18,601.29,602.64,603.97,605.28,606.62,608.01,609.42,611.43,613.74,616.08,618.46,620.57,622.48,624.25,625.93,627.64,629.09,630.10,630.59,631.14,631.61,632.10,632.70,633.37,633.71,634.04,634.34,634.36,634.10,633.82,633.79,634.38,635.99,637.77,639.96,642.82,646.50,649.82,652.43,654.87,657.56,659.37,660.54,661.44,662.25,663.19,664.18,665.19,666.17,667.05,668.06,669.16,672.69,681.07,693.46,707.55,723.97,741.18,753.75,759.57,762.66,764.27,764.51,765.49,769.60,774.35,778.23,781.19,783.81,786.32,788.67,790.37,790.17,788.53,788.69,792.85,797.08,800.65,802.68,803.00,802.13,800.31,798.40,796.57,794.44,790.88,785.96,782.59,783.39,789.99,796.88,803.85,811.09,818.20,820.40,821.24,821.69,822.04,823.20,824.53,826.28,828.32,829.78,830.55,831.72,833.43,835.57,838.09,839.78,840.39,839.82,838.47,837.17,836.82,837.84,840.78,845.10,849.64,854.04,857.88,859.85,860.82,861.31,861.51,861.69,862.00,861.72,861.00,860.22,859.41,858.50,857.58,856.60,855.10,853.60,852.52,851.83
577.88,577.80,577.79,577.79,577.78,577.74,577.70,577.69,577.69,577.64,577.41,577.12,576.78,576.57,576.70,577.08,577.39,577.64,577.87,578.09,578.11,578.02,577.87,577.60,577.37,577.40,577.60,577.88,578.22,578.54,578.88,579.26,579.60,580.28,581.06,581.56,581.40,581.35,581.31,581.39,581.63,581.95,582.42,583.02,583.70,584.31,584.86,585.17,585.29,585.35,585.67,586.28,587.03,587.83,588.55,589.12,589.55,589.71,589.46,589.29,589.49,589.80,590.06,590.30,590.47,590.63,590.80,591.04,591.34,591.73,592.16,592.63,593.09,593.40,593.60,593.71,593.83,593.94,593.99,594.05,594.25,594.51,594.78,595.07,595.38,595.68,595.84,595.67,595.25,594.87,594.45,594.27,594.33,594.60,594.87,594.62,594.34,594.31,594.60,594.88,595.19,595.56,595.93,595.91,596.05,596.41,596.94,597.40,597.81,598.19,598.58,598.96,599.25,599.25,599.09,599.03,599.43,600.06,600.98,602.21,603.55,604.84,606.13,607.45,608.83,610.60,612.82,614.99,616.87,619.01,621.06,623.03,624.94,626.79,628.64,630.48,632.06,633.02,633.58,634.05,634.46,634.88,635.49,635.68,635.91,636.14,636.00,635.72,635.36,635.02,634.97,635.87,637.41,639.17,641.40,644.99,648.80,652.14,655.32,658.52,660.31,661.36,662.19,663.02,663.91,664.89,665.83,666.72,667.57,668.52,670.56,675.49,685.64,701.85,721.68,740.43,755.65,765.46,771.14,774.58,776.39,776.58,777.26,779.28,781.81,784.26,786.24,788.32,790.67,792.96,794.14,792.97,790.85,790.61,794.04,797.97,801.56,804.53,806.64,807.42,805.81,803.35,800.99,799.13,796.59,792.16,788.10,786.47,788.93,794.56,801.36,808.52,815.22,817.63,818.47,818.78,819.00,820.11,821.77,823.75,825.64,826.59,827.11,828.56,830.94,833.90,837.07,839.84,842.20,843.69,843.17,842.17,841.97,843.13,846.22,850.35,854.39,857.80,860.17,861.46,862.29,862.72,862.69,862.29,861.85,861.16,860.30,859.43,858.64,857.73,856.90,856.24,855.43,854.60,854.01,853.56
578.24,578.18,578.17,578.16,578.15,578.14,578.08,578.07,578.06,577.99,577.69,577.37,577.01,576.78,576.89,577.37,577.76,578.06,578.34,578.63,578.73,578.69,578.54,578.24,577.93,577.76,577.77,577.99,578.25,578.54,578.90,579.34,579.93,581.23,582.39,582.96,582.60,582.24,581.96,581.93,582.17,582.40,582.65,583.12,583.77,584.42,585.09,585.54,585.79,585.90,586.01,586.50,587.22,588.05,588.88,589.50,589.93,590.09,589.82,589.72,589.96,590.26,590.48,590.64,590.80,590.95,591.11,591.27,591.49,591.84,592.28,592.75,593.22,593.63,593.92,594.09,594.25,594.40,594.48,594.54,594.70,594.93,595.20,595.48,595.72,596.01,596.21,596.05,595.61,595.23,594.86,594.77,594.94,595.26,595.61,595.21,594.86,594.91,595.19,595.42,595.70,596.04,596.44,596.53,596.64,596.88,597.29,597.85,598.30,598.69,599.09,599.50,599.83,599.81,599.61,599.55,599.98,600.79,601.84,603.06,604.37,605.62,606.89,608.19,609.63,611.96,614.50,616.59,618.01,619.77,621.64,623.58,625.55,627.52,629.50,631.77,633.95,635.47,636.20,636.72,637.03,637.22,637.69,637.73,637.81,637.90,637.64,637.32,636.89,636.40,635.98,636.10,637.23,638.52,640.14,643.33,647.35,651.28,655.25,659.20,660.93,661.93,662.80,663.68,664.60,665.56,666.44,667.25,668.11,669.06,672.30,679.13,691.84,712.75,737.16,756.06,767.11,773.45,779.19,783.77,786.59,787.07,787.53,787.30,787.51,788.76,790.52,793.01,795.54,797.45,797.50,795.21,792.65,792.12,795.01,798.51,802.06,805.80,809.55,812.24,811.27,808.50,805.80,804.54,803.05,799.14,794.45,790.45,788.61,792.29,798.14,804.42,809.90,812.84,814.05,814.53,814.94,815.85,817.81,819.92,821.55,822.06,822.42,824.23,827.38,831.28,834.97,838.64,842.51,845.99,846.86,846.93,847.44,849.01,852.18,855.49,858.55,860.78,861.72,862.65,863.51,863.93,863.67,862.72,861.59,860.63,859.81,858.96,858.28,857.45,856.81,856.57,856.54,856.45,856.27,855.92
578.51,578.50,578.49,578.45,578.41,578.41,578.40,578.39,578.37,578.25,577.94,577.58,577.24,577.00,577.03,577.50,577.97,578.39,578.78,579.10,579.36,579.36,579.13,578.82,578.51,578.27,578.17,578.23,578.35,578.57,578.94,579.60,580.83,582.82,584.00,584.19,583.57,582.96,582.58,582.53,582.81,583.04,583.09,583.34,583.88,584.65,585.26,585.74,586.11,586.36,586.57,586.82,587.30,588.06,588.89,589.64,590.19,590.44,590.26,590.17,590.34,590.59,590.80,590.97,591.12,591.27,591.43,591.59,591.81,592.03,592.36,592.88,593.35,593.80,594.16,594.41,594.57,594.73,594.86,595.00,595.16,595.38,595.62,595.87,596.10,596.35,596.62,596.51,596.06,595.69,595.40,595.36,595.54,595.89,596.16,595.84,595.57,595.60,595.78,596.01,596.25,596.54,596.92,597.13,597.25,597.44,597.78,598.21,598.70,599.15,599.58,600.15,600.79,600.75,600.37,600.28,600.84,601.70,602.68,603.79,605.08,606.33,607.58,608.91,610.62,613.42,616.36,618.70,620.13,621.32,622.93,624.72,626.55,628.40,630.52,633.03,635.58,637.66,638.77,639.41,639.79,639.98,640.10,640.01,639.85,639.63,639.26,638.85,638.35,637.82,637.32,637.01,637.34,638.19,639.54,641.66,645.09,648.89,653.61,659.38,661.08,662.05,662.99,664.00,665.18,666.08,666.94,667.83,668.71,669.78,673.96,683.16,700.38,727.40,750.16,765.01,772.96,779.23,784.79,789.48,792.58,793.27,794.27,794.07,793.64,793.91,795.81,799.05,801.53,802.04,799.35,796.64,793.89,793.23,796.13,799.12,802.70,806.54,810.67,815.17,815.71,813.71,811.97,812.88,812.12,806.84,800.46,795.21,791.77,792.20,795.51,800.03,803.37,805.70,807.32,808.65,809.95,811.29,813.46,815.23,816.23,816.96,817.46,819.26,822.76,827.97,832.82,837.29,841.71,846.01,849.37,851.29,852.86,854.86,857.91,859.75,861.08,862.16,863.02,863.89,864.75,864.88,864.11,862.90,861.63,860.54,859.76,859.41,858.91,858.28,857.92,858.08,858.45,858.66,858.61,858.22
578.82,578.81,578.79,578.75,578.72,578.71,578.68,578.67,578.65,578.54,578.20,577.83,577.47,577.20,577.17,577.60,578.11,578.60,579.08,579.49,579.82,579.85,579.61,579.24,578.92,578.73,578.67,578.73,578.75,578.88,579.32,580.36,582.38,584.08,584.84,584.79,584.18,583.47,583.09,583.09,583.41,583.64,583.65,583.75,584.11,584.86,585.41,585.89,586.32,586.69,586.99,587.18,587.51,588.07,588.76,589.54,590.18,590.60,590.72,590.67,590.74,590.91,591.14,591.33,591.49,591.64,591.80,591.96,592.15,592.34,592.58,592.93,593.36,593.84,594.29,594.66,594.93,595.16,595.32,595.44,595.57,595.79,596.02,596.25,596.49,596.72,596.99,596.93,596.56,596.19,595.90,595.92,596.17,596.52,596.74,596.57,596.43,596.47,596.55,596.68,596.87,597.11,597.41,597.74,597.89,598.05,598.34,598.72,599.14,599.61,600.17,600.95,601.76,601.75,601.41,601.41,601.97,602.72,603.61,604.64,605.78,607.00,608.26,609.79,612.12,615.11,617.98,620.30,621.83,623.00,624.44,626.09,627.88,629.86,632.19,634.81,637.43,639.65,641.11,642.06,642.72,643.09,643.11,643.04,642.90,642.63,642.06,641.41,640.83,639.97,638.74,638.21,638.03,638.39,639.45,641.42,644.72,648.50,653.12,658.62,660.78,662.13,663.38,664.66,665.97,666.69,667.41,668.23,669.17,670.97,676.17,688.04,710.16,740.43,759.17,770.37,777.48,783.56,789.04,793.88,797.18,798.04,799.63,800.27,800.17,800.18,802.56,806.11,807.43,805.50,800.36,797.46,794.96,794.26,796.71,799.38,802.99,807.04,811.66,817.38,819.57,819.21,818.55,819.32,817.68,810.69,803.01,797.57,794.39,793.19,794.48,797.20,799.06,800.62,801.98,803.30,804.71,806.42,808.53,810.42,812.17,814.70,816.95,819.10,821.61,825.22,830.00,835.06,840.25,845.42,850.00,852.99,855.58,858.16,860.49,861.75,862.77,863.71,864.50,865.31,866.10,866.17,865.33,864.03,862.72,861.60,860.83,860.60,860.08,859.45,859.13,859.40,860.07,860.64,860.87,860.61
579.14,579.13,579.07,579.04,579.04,579.02,578.96,578.94,578.94,578.85,578.47,578.09,577.70,577.38,577.30,577.70,578.22,578.76,579.30,579.83,580.20,580.26,580.02,579.60,579.27,579.16,579.22,579.34,579.27,579.31,579.95,581.52,584.03,585.05,585.27,585.08,584.58,583.86,583.55,583.62,583.97,584.22,584.27,584.27,584.43,585.06,585.54,586.01,586.48,586.93,587.32,587.56,587.82,588.17,588.64,589.37,590.05,590.63,591.09,591.15,591.16,591.26,591.48,591.69,591.87,592.02,592.17,592.33,592.49,592.69,592.88,593.05,593.37,593.83,594.35,594.86,595.22,595.56,595.77,595.88,595.98,596.19,596.41,596.64,596.88,597.11,597.34,597.34,597.07,596.70,596.38,596.47,596.81,597.16,597.37,597.37,597.38,597.43,597.44,597.42,597.53,597.73,597.91,598.31,598.51,598.66,598.91,599.30,599.67,600.16,600.86,601.78,602.65,602.76,602.57,602.73,603.23,603.84,604.61,605.56,606.53,607.68,608.99,610.81,613.78,616.80,619.42,621.57,623.23,624.65,626.02,627.59,629.45,631.69,634.23,636.85,639.35,641.50,643.25,644.58,645.64,646.36,646.52,646.54,646.53,646.35,645.69,644.89,644.27,643.09,641.09,640.11,639.22,639.01,639.89,642.23,645.62,649.47,653.66,657.98,660.60,662.40,663.99,665.53,666.83,667.35,667.87,668.59,669.65,672.51,679.25,694.27,720.97,751.31,765.58,773.98,781.18,787.00,792.61,797.64,801.17,802.33,804.38,806.14,806.91,807.24,810.05,813.27,812.70,808.01,801.10,798.06,795.92,795.26,797.09,799.51,803.13,807.42,812.51,818.92,822.54,824.08,824.61,824.43,821.37,813.14,804.79,799.41,796.76,794.78,794.51,795.55,796.59,797.58,798.73,799.98,801.39,803.39,805.30,807.38,810.24,814.90,819.17,821.81,823.12,824.16,827.75,832.71,838.35,844.20,849.25,852.82,856.21,859.31,860.99,862.25,863.71,865.06,865.92,866.73,867.48,867.62,866.93,865.65,864.32,863.21,862.46,862.11,861.46,860.77,860.43,860.70,861.55,862.47,863.07,863.05
579.45,579.40,579.37,579.37,579.35,579.29,579.27,579.26,579.24,579.11,578.73,578.35,577.96,577.61,577.45,577.88,578.41,578.95,579.50,580.09,580.55,580.62,580.38,580.03,579.72,579.65,579.76,579.90,579.70,579.70,580.99,583.35,584.84,585.44,585.51,585.30,584.86,584.23,584.01,584.12,584.46,584.78,584.86,584.80,584.82,585.23,585.63,586.11,586.61,587.07,587.52,587.91,588.26,588.57,588.88,589.34,589.92,590.53,591.10,591.51,591.62,591.68,591.86,592.03,592.19,592.35,592.50,592.66,592.81,593.01,593.27,593.55,593.67,593.89,594.33,594.90,595.21,595.65,596.05,596.34,596.42,596.59,596.80,597.03,597.26,597.50,597.73,597.77,597.60,597.22,596.89,597.02,597.39,597.77,598.10,598.29,598.41,598.47,598.46,598.27,598.28,598.40,598.44,598.78,599.04,599.23,599.45,599.88,600.44,601.07,601.74,602.43,603.30,603.64,603.73,604.01,604.53,605.08,605.71,606.49,607.47,608.47,609.91,612.04,615.11,618.17,620.60,622.59,624.32,625.94,627.46,629.22,631.38,633.93,636.50,638.90,641.13,643.16,645.01,646.67,648.23,649.58,650.32,650.46,650.46,650.45,650.36,649.95,649.50,648.68,646.98,644.20,641.29,640.24,641.50,644.40,647.87,651.84,656.00,659.71,661.82,663.47,665.06,666.57,667.61,668.02,668.45,669.13,670.47,674.50,684.66,704.23,733.56,757.01,769.43,777.44,783.97,789.68,795.97,801.35,805.24,807.32,809.17,811.67,813.76,815.24,817.76,818.89,815.65,809.00,802.35,798.93,796.84,796.27,797.78,799.75,803.40,807.85,812.97,819.12,823.01,825.90,827.93,828.07,824.63,817.67,810.21,803.96,799.31,796.82,795.60,795.51,797.02,798.45,800.87,803.66,806.13,808.35,809.87,811.52,814.26,819.38,823.52,826.53,828.33,828.72,829.08,831.63,835.99,841.55,846.62,850.47,853.84,856.92,859.38,861.26,863.25,865.22,866.81,867.82,868.71,869.01,868.50,867.26,865.82,864.82,864.16,863.51,862.73,862.04,861.83,862.33,863.18,864.18,865.09,865.52
579.71,579.69,579.69,579.67,579.63,579.60,579.59,579.59,579.54,579.37,578.99,578.58,578.16,577.81,577.68,578.11,578.64,579.20,579.77,580.38,580.93,581.02,580.75,580.48,580.20,580.14,580.27,580.46,580.16,580.49,582.15,584.53,585.30,585.69,585.76,585.57,585.13,584.59,584.42,584.57,584.92,585.29,585.49,585.46,585.38,585.64,585.95,586.32,586.73,587.17,587.63,588.12,588.55,588.89,589.17,589.50,589.99,590.53,591.06,591.57,591.87,592.05,592.21,592.36,592.52,592.69,592.87,593.02,593.17,593.38,593.66,594.00,594.12,594.19,594.43,594.82,595.11,595.65,596.22,596.66,596.83,597.01,597.23,597.45,597.65,597.88,598.09,598.18,598.08,597.73,597.41,597.57,597.97,598.36,598.72,599.00,599.24,599.40,599.31,598.99,598.95,599.03,598.94,599.28,599.60,599.85,600.09,600.57,601.22,601.91,602.59,603.24,604.05,604.57,604.91,605.34,605.87,606.41,606.96,607.61,608.48,609.63,611.34,613.62,616.45,619.33,621.59,623.52,625.37,627.11,628.88,631.01,633.55,636.22,638.68,640.80,642.76,644.73,646.65,648.66,650.81,652.91,654.32,655.04,655.50,655.86,656.06,655.71,654.99,653.93,652.20,648.89,645.00,643.24,644.27,647.14,650.51,654.40,658.32,661.51,663.38,664.76,666.18,667.61,668.38,668.69,669.29,670.74,674.43,683.30,698.69,719.71,744.00,760.98,771.69,779.33,785.33,790.89,797.62,803.56,808.31,811.74,814.11,817.07,819.70,821.67,823.99,822.83,817.69,810.35,804.13,800.05,797.87,797.31,798.35,799.96,803.62,808.09,813.02,818.67,823.01,826.83,829.73,830.37,827.76,822.13,815.41,808.66,802.49,798.93,796.86,796.21,798.04,801.00,805.17,809.55,813.00,814.87,815.71,816.62,818.61,823.03,827.04,830.74,833.55,834.42,834.15,835.07,837.46,841.31,845.80,848.95,852.05,855.52,859.02,861.42,863.88,866.11,867.56,868.67,869.54,869.90,869.58,868.64,867.30,866.27,865.50,864.67,863.82,863.28,863.23,863.79,864.65,865.76,866.90,867.70
579.93,580.01,580.01,579.97,579.93,579.93,579.93,579.92,579.83,579.61,579.22,578.76,578.30,577.97,577.99,578.40,578.92,579.48,580.09,580.70,581.31,581.44,581.18,580.94,580.71,580.64,580.78,581.00,580.67,581.55,583.27,585.08,585.50,585.84,586.00,585.89,585.45,584.99,584.83,584.97,585.34,585.73,586.10,586.17,586.07,586.24,586.47,586.66,586.91,587.28,587.70,588.21,588.71,589.14,589.47,589.79,590.19,590.64,591.05,591.51,591.99,592.35,592.53,592.70,592.85,593.04,593.24,593.40,593.55,593.76,594.04,594.41,594.68,594.67,594.64,594.73,595.05,595.64,596.31,596.88,597.20,597.44,597.67,597.87,598.05,598.26,598.45,598.56,598.54,598.23,597.93,598.12,598.55,598.93,599.28,599.61,599.99,600.27,600.02,599.62,599.59,599.70,599.50,599.83,600.22,600.53,600.82,601.34,602.00,602.70,603.41,604.15,604.87,605.50,606.07,606.61,607.16,607.71,608.28,608.88,609.62,611.04,613.00,615.31,617.77,620.31,622.45,624.43,626.38,628.21,630.36,632.96,635.86,638.50,640.79,642.64,644.35,646.26,648.35,650.90,653.69,656.40,658.42,660.00,661.21,662.05,662.34,661.86,660.63,658.97,656.88,653.91,649.88,647.54,647.80,650.22,653.36,657.02,660.59,663.35,665.20,666.30,667.46,668.83,669.52,670.01,671.68,675.50,683.63,698.72,718.52,737.69,752.39,763.84,772.78,779.88,785.59,790.93,797.90,804.44,810.30,815.46,818.96,822.22,824.80,826.63,828.65,825.43,819.17,811.99,806.10,801.37,799.09,798.47,798.94,800.29,803.87,808.21,812.84,818.00,822.94,827.32,830.60,831.74,830.53,826.12,820.02,813.05,805.81,800.93,798.16,797.36,799.27,804.36,810.28,815.90,820.22,821.69,821.87,821.94,822.85,825.94,829.98,834.45,838.28,840.13,840.98,841.28,841.85,843.51,847.07,849.12,851.85,855.75,859.98,862.74,865.48,867.55,868.22,869.33,870.05,870.36,870.24,869.71,868.64,867.55,866.56,865.66,864.84,864.52,864.62,865.11,865.99,867.20,868.44,869.45
580.16,580.37,580.36,580.32,580.32,580.37,580.37,580.29,580.09,579.75,579.31,578.80,578.32,578.07,578.34,578.78,579.26,579.78,580.36,580.97,581.55,581.78,581.68,581.46,581.27,581.24,581.34,581.46,581.32,582.51,583.89,584.85,585.29,585.75,586.15,586.31,585.99,585.59,585.33,585.32,585.64,586.06,586.46,586.68,586.78,586.94,587.12,587.28,587.44,587.62,587.82,588.28,588.79,589.25,589.71,590.09,590.48,590.88,591.28,591.68,592.12,592.52,592.86,593.07,593.23,593.40,593.57,593.73,593.88,594.09,594.38,594.78,595.31,595.23,595.02,595.01,595.31,595.81,596.41,597.03,597.56,597.84,598.03,598.22,598.42,598.61,598.81,598.97,599.00,598.70,598.43,598.63,599.08,599.48,599.99,600.50,600.95,601.12,600.62,600.23,600.36,600.65,600.50,600.65,600.94,601.26,601.59,602.12,602.82,603.54,604.24,604.95,605.61,606.24,606.86,607.50,608.10,608.73,609.44,610.29,611.27,612.50,614.19,616.32,618.76,621.11,623.28,625.34,627.34,629.35,632.13,635.16,638.10,640.63,642.95,644.71,646.19,647.89,650.55,654.61,658.12,660.32,662.38,664.54,666.36,667.63,668.08,667.91,666.79,664.90,662.29,659.08,655.14,652.20,651.33,653.40,656.26,659.73,663.21,665.92,667.55,668.40,669.42,670.93,672.57,674.65,681.13,692.57,708.25,723.40,737.47,749.55,758.70,765.80,772.78,779.32,785.09,790.15,797.32,803.88,810.43,817.96,822.84,826.50,828.89,830.01,830.75,826.93,820.50,813.27,807.28,802.89,800.93,800.23,800.12,801.31,804.52,808.48,812.87,818.18,823.41,827.95,831.35,832.78,831.77,828.52,823.32,816.11,807.74,802.23,799.37,798.64,800.34,807.00,813.20,818.71,823.88,826.86,827.46,827.11,827.06,829.22,833.62,838.06,841.55,843.39,844.24,845.53,847.16,849.15,851.92,854.22,856.75,859.65,862.71,865.33,867.61,868.86,868.74,869.84,870.34,870.47,870.39,870.01,869.33,868.47,867.56,866.72,866.09,865.90,866.03,866.45,867.25,868.38,869.34,869.96
580.39,580.73,580.74,580.73,580.75,580.77,580.66,580.45,580.13,579.71,579.25,578.78,578.38,578.22,578.53,578.98,579.52,580.10,580.65,581.28,581.81,582.12,582.17,581.98,581.86,581.88,581.95,582.02,582.04,583.09,584.05,584.56,585.06,585.61,586.19,586.57,586.46,586.13,585.79,585.64,585.81,586.25,586.70,587.06,587.36,587.60,587.77,587.92,588.04,588.10,588.15,588.44,588.86,589.37,589.92,590.34,590.72,591.11,591.50,591.88,592.29,592.71,593.11,593.36,593.54,593.72,593.87,594.05,594.23,594.43,594.74,595.25,595.92,595.84,595.57,595.49,595.77,596.15,596.63,597.19,597.82,598.17,598.39,598.58,598.78,598.97,599.16,599.36,599.43,599.18,598.94,599.14,599.57,600.00,600.58,601.21,601.75,601.95,601.41,601.07,601.25,601.61,601.57,601.63,601.80,602.03,602.37,602.92,603.61,604.32,605.01,605.67,606.29,606.93,607.59,608.27,608.90,609.60,610.45,611.50,612.74,613.96,615.45,617.30,619.53,621.78,623.97,626.10,628.24,630.74,634.02,637.28,640.20,642.70,645.11,647.12,648.97,651.14,654.36,658.53,661.89,663.91,666.01,668.37,670.47,672.04,672.74,672.87,671.93,670.09,667.35,663.90,659.87,656.44,654.80,656.68,659.76,663.33,666.76,669.44,671.10,672.23,674.08,677.40,682.23,688.80,700.71,716.48,731.48,742.45,750.83,757.74,763.54,768.56,774.05,779.65,784.94,789.57,796.51,803.55,810.98,819.39,825.40,829.32,831.74,832.64,831.90,827.82,821.36,814.02,808.15,804.49,802.89,802.15,801.67,802.23,804.89,808.37,812.53,818.25,823.77,828.36,831.81,833.55,832.75,830.35,825.91,818.76,809.54,803.99,801.23,800.60,802.50,808.72,814.62,820.18,825.93,830.49,832.48,832.65,832.09,833.24,837.09,841.07,844.26,846.25,847.08,848.77,851.03,853.49,855.90,858.60,861.18,863.53,865.66,867.69,869.13,869.66,869.31,870.06,870.29,870.31,870.26,870.04,869.63,869.04,868.34,867.65,867.38,867.32,867.43,867.80,868.52,869.32,869.86,870.12
580.61,581.07,581.17,581.18,581.17,581.09,580.76,580.39,579.99,579.55,579.11,578.78,578.52,578.42,578.58,579.03,579.74,580.43,580.99,581.65,582.10,582.44,582.63,582.50,582.47,582.51,582.59,582.67,582.80,583.33,583.89,584.38,584.90,585.50,586.14,586.67,586.81,586.56,586.20,585.93,585.92,586.33,586.84,587.32,587.76,588.18,588.40,588.56,588.67,588.68,588.69,588.72,588.99,589.53,590.10,590.53,590.92,591.31,591.70,592.09,592.52,592.95,593.32,593.55,593.78,593.97,594.14,594.36,594.59,594.80,595.16,595.82,596.51,596.50,596.27,596.14,596.36,596.67,597.00,597.41,597.99,598.45,598.74,598.94,599.12,599.34,599.53,599.74,599.88,599.69,599.47,599.63,600.04,600.51,601.04,601.70,602.35,602.74,602.42,602.16,602.25,602.53,602.65,602.74,602.78,602.89,603.18,603.74,604.36,605.02,605.70,606.33,606.95,607.61,608.30,608.99,609.63,610.36,611.29,612.49,613.91,615.35,616.77,618.28,620.08,622.32,624.55,626.72,629.08,632.34,635.96,639.28,642.13,644.70,647.27,649.87,652.65,655.85,659.44,662.32,664.79,667.06,669.32,671.53,673.61,675.37,676.43,676.80,676.02,674.33,671.75,668.15,663.90,660.31,658.55,660.44,664.16,667.98,671.40,674.25,676.56,678.81,682.52,688.89,698.56,711.20,727.39,742.79,749.34,753.64,758.26,762.95,767.32,772.40,777.04,781.45,785.66,789.63,795.78,803.57,811.93,819.79,826.62,830.82,833.56,834.73,832.43,828.14,821.67,814.31,808.85,806.16,804.93,804.18,803.49,803.01,804.98,807.93,811.81,818.01,823.81,828.44,831.96,834.04,833.71,831.79,827.84,821.03,811.46,806.27,803.68,803.15,805.67,809.83,815.19,821.08,827.08,832.92,836.95,838.45,837.93,837.99,840.38,843.56,846.68,849.06,850.04,851.40,853.46,856.09,858.57,861.60,864.43,866.74,868.38,869.44,869.81,869.80,869.71,869.81,869.80,869.81,869.85,869.80,869.53,869.20,868.81,868.39,868.55,868.63,868.75,869.07,869.69,869.97,870.06,870.04
580.69,581.16,581.52,581.60,581.48,581.21,580.74,580.26,579.88,579.61,579.34,579.12,578.83,578.62,578.83,579.46,580.17,580.81,581.36,581.94,582.34,582.68,582.97,583.05,583.06,583.08,583.11,583.15,583.25,583.65,584.13,584.60,585.10,585.62,586.21,586.79,587.12,586.90,586.57,586.29,586.18,586.48,586.97,587.47,587.95,588.45,588.86,589.13,589.27,589.32,589.32,589.25,589.39,589.80,590.27,590.71,591.12,591.52,591.94,592.34,592.78,593.21,593.56,593.75,593.98,594.20,594.39,594.59,594.85,595.26,595.81,596.46,597.15,597.22,597.03,596.88,597.01,597.29,597.60,597.92,598.27,598.76,599.07,599.27,599.44,599.67,600.00,600.36,600.57,600.28,600.04,600.17,600.54,600.97,601.45,602.13,602.84,603.38,603.43,603.26,603.34,603.62,603.80,603.89,603.92,603.96,604.10,604.51,605.09,605.72,606.36,606.98,607.64,608.29,608.97,609.71,610.43,611.18,612.13,613.36,614.81,616.28,617.62,618.90,620.38,622.61,624.97,627.28,629.84,633.68,637.68,641.09,643.88,646.56,649.52,652.90,656.39,659.62,662.62,665.10,667.46,669.92,672.51,674.76,676.81,678.70,680.26,680.98,680.25,678.16,674.76,671.00,667.28,664.97,664.80,667.20,670.60,673.88,677.53,682.40,687.60,693.47,699.39,706.23,717.33,728.00,739.29,749.33,753.93,757.91,762.30,767.02,771.98,777.46,782.20,786.21,789.51,792.19,796.41,802.86,810.80,819.28,826.66,832.26,836.06,836.98,832.70,827.54,821.26,814.66,809.88,808.08,807.23,806.41,805.35,804.18,805.60,807.97,811.29,817.22,822.96,827.94,831.91,834.29,834.90,832.96,828.77,822.21,813.78,808.31,805.56,805.28,807.91,812.48,818.16,824.05,829.75,836.06,840.72,843.28,843.74,843.03,844.18,846.64,849.55,851.98,853.41,854.81,856.56,858.83,861.60,864.86,867.40,868.95,869.62,869.92,869.43,868.68,868.20,868.19,868.25,868.53,868.95,868.95,868.74,868.56,868.49,868.57,868.93,869.22,869.47,869.76,870.11,870.17,870.06,869.70
580.75,581.26,581.80,581.90,581.67,581.22,580.71,580.22,579.99,579.96,579.80,579.54,579.13,578.87,579.23,580.05,580.73,581.30,581.82,582.24,582.59,582.94,583.30,583.52,583.56,583.56,583.56,583.58,583.67,584.01,584.46,584.92,585.36,585.82,586.35,586.92,587.38,587.21,586.93,586.65,586.48,586.62,587.08,587.59,588.09,588.63,589.16,589.55,589.79,589.89,589.87,589.76,589.82,590.11,590.47,590.90,591.32,591.74,592.18,592.59,593.02,593.45,593.81,593.99,594.18,594.40,594.63,594.87,595.23,595.82,596.49,597.12,597.80,597.94,597.82,597.64,597.66,597.93,598.26,598.55,598.77,599.12,599.38,599.60,599.83,600.10,600.52,600.98,601.25,601.00,600.74,600.81,601.08,601.43,601.88,602.56,603.28,603.92,604.34,604.33,604.45,604.72,604.91,605.03,605.05,605.05,605.07,605.25,605.80,606.46,607.09,607.71,608.38,609.01,609.69,610.46,611.23,612.02,612.98,614.19,615.58,616.91,618.11,619.22,620.55,622.82,625.28,627.74,630.56,634.98,639.16,642.58,645.37,648.21,651.78,655.77,659.61,662.71,665.30,667.75,670.26,672.92,675.75,678.35,680.68,682.81,684.74,685.87,685.50,683.63,680.52,678.07,675.80,675.10,676.44,679.59,682.94,685.83,689.05,693.78,699.42,706.10,712.39,718.83,729.27,737.27,744.16,750.15,754.54,759.42,764.88,770.66,776.64,782.75,787.89,791.71,794.25,796.15,799.26,803.86,810.24,818.65,826.45,833.24,837.87,838.61,833.51,828.23,822.29,816.31,812.30,811.11,810.09,808.74,807.15,805.58,806.33,808.10,810.92,816.25,821.60,826.82,831.36,834.31,836.12,834.11,829.71,823.73,816.79,810.73,807.39,807.24,810.74,816.61,822.76,828.47,833.72,839.51,844.22,847.55,848.99,847.85,848.06,849.88,852.51,854.97,856.90,858.43,859.95,861.89,864.83,867.65,869.42,870.07,869.95,869.72,868.70,867.38,866.39,866.31,866.44,866.92,867.64,867.87,867.86,867.88,868.05,868.41,868.81,869.19,869.62,870.07,870.24,870.21,869.92,869.17
580.86,581.45,582.00,582.04,581.71,581.20,580.73,580.37,580.39,580.65,580.46,579.95,579.38,579.17,579.81,580.76,581.44,581.98,582.42,582.57,582.89,583.27,583.64,583.90,583.95,583.95,583.95,583.98,584.11,584.39,584.79,585.23,585.63,586.08,586.56,587.08,587.58,587.50,587.29,587.02,586.77,586.74,587.15,587.68,588.21,588.75,589.29,589.76,590.15,590.37,590.28,590.19,590.23,590.43,590.75,591.13,591.55,591.98,592.39,592.83,593.25,593.67,594.06,594.24,594.40,594.61,594.88,595.27,595.82,596.47,597.13,597.76,598.44,598.67,598.59,598.38,598.27,598.56,598.93,599.29,599.55,599.59,599.70,599.93,600.29,600.66,601.10,601.53,601.84,601.84,601.60,601.56,601.69,601.91,602.33,602.97,603.67,604.37,605.05,605.35,605.58,605.80,605.96,606.11,606.16,606.13,606.05,605.97,606.53,607.25,607.92,608.54,609.18,609.81,610.48,611.25,612.02,612.85,613.82,614.98,616.22,617.26,618.23,619.27,620.66,623.00,625.48,628.06,631.23,636.22,640.35,643.69,646.55,649.58,653.97,658.29,662.07,665.12,667.81,670.49,673.30,676.29,679.26,682.53,685.50,688.06,690.18,691.81,692.32,691.83,690.94,691.71,691.89,692.81,695.15,698.97,702.55,705.13,706.83,708.08,710.31,713.38,717.40,722.95,730.80,737.37,743.11,748.30,753.12,758.89,766.17,773.80,780.92,787.96,793.69,797.44,799.55,801.60,805.00,807.75,811.40,818.44,826.37,833.64,838.52,839.33,835.10,830.89,825.45,819.69,816.53,815.53,813.66,811.16,808.84,807.16,807.09,808.22,810.69,815.19,819.78,824.99,830.12,834.05,837.28,835.37,831.07,826.08,820.58,813.76,809.33,809.05,814.59,822.27,828.86,834.31,839.00,843.18,847.48,851.24,853.37,852.28,851.94,853.20,855.51,858.04,860.44,862.12,863.55,865.31,868.11,869.62,870.11,869.92,869.39,868.88,867.77,866.22,864.73,864.47,864.56,865.05,865.89,866.63,867.00,867.26,867.53,867.84,868.10,868.43,869.05,869.91,870.16,870.14,869.66,868.51
581.09,581.69,582.25,582.30,582.00,581.50,581.00,580.78,580.98,581.27,580.66,579.96,579.55,579.68,580.64,581.79,582.57,583.01,583.14,583.04,583.28,583.65,584.00,584.25,584.32,584.34,584.34,584.37,584.51,584.78,585.12,585.51,585.93,586.36,586.81,587.29,587.75,587.79,587.62,587.37,587.13,586.98,587.27,587.75,588.29,588.83,589.33,589.83,590.32,590.67,590.66,590.65,590.70,590.86,591.16,591.50,591.86,592.24,592.64,593.09,593.50,593.90,594.27,594.44,594.60,594.89,595.34,595.94,596.52,597.12,597.73,598.35,599.00,599.35,599.35,599.08,598.88,599.11,599.53,599.99,600.37,600.32,600.30,600.43,600.75,601.17,601.63,602.06,602.41,602.62,602.43,602.36,602.42,602.55,602.83,603.39,604.06,604.77,605.53,606.11,606.52,606.79,606.95,607.14,607.21,607.16,607.00,606.72,607.21,607.95,608.67,609.34,610.08,610.80,611.53,612.29,613.03,613.81,614.64,615.54,616.63,617.62,618.59,619.70,621.24,623.38,625.78,628.46,631.88,637.07,641.12,644.46,647.57,651.09,655.85,660.31,664.11,667.31,670.43,673.47,676.81,680.62,684.60,687.86,690.82,693.73,696.73,699.46,701.56,703.78,706.49,708.63,709.95,712.45,715.87,717.44,716.42,714.58,713.28,713.67,715.24,717.15,719.85,724.03,730.26,735.87,740.89,745.71,751.07,757.53,765.56,774.52,783.85,792.69,798.95,803.29,806.39,809.36,812.85,814.87,817.07,822.08,828.52,834.79,839.21,840.15,836.34,832.31,827.49,822.68,820.12,818.92,816.75,813.70,810.46,808.46,807.96,808.70,810.73,814.26,818.19,823.22,828.64,833.36,838.01,837.43,833.96,829.15,823.53,816.91,811.78,810.78,817.94,826.38,833.51,839.07,843.17,846.73,850.58,854.34,857.06,856.86,856.25,856.91,858.76,861.32,863.91,865.71,867.08,868.33,869.73,870.13,869.88,869.29,868.56,867.91,866.88,865.40,863.67,862.76,862.67,863.24,864.32,865.50,865.59,865.51,865.60,865.86,866.13,866.75,867.74,869.00,869.89,870.06,869.65,868.56
581.36,581.96,582.52,582.59,582.31,581.84,581.33,581.27,581.62,581.83,580.69,579.88,579.77,580.35,581.60,582.90,583.73,584.05,583.88,583.57,583.71,584.04,584.38,584.59,584.73,584.77,584.78,584.84,585.00,585.28,585.59,585.92,586.32,586.67,587.08,587.53,587.96,588.10,587.96,587.73,587.50,587.29,587.41,587.81,588.35,588.87,589.32,589.82,590.37,590.88,591.04,591.12,591.18,591.32,591.61,591.91,592.21,592.54,592.94,593.36,593.76,594.14,594.49,594.68,594.92,595.33,595.94,596.67,597.28,597.82,598.37,598.95,599.57,600.03,600.11,599.81,599.53,599.73,600.16,600.69,601.15,601.08,600.98,601.01,601.24,601.67,602.13,602.56,602.96,603.30,603.23,603.18,603.21,603.29,603.43,603.84,604.44,605.18,605.95,606.72,607.31,607.67,607.88,608.14,608.25,608.19,607.95,607.53,607.95,608.67,609.41,610.14,610.98,611.80,612.59,613.37,614.09,614.84,615.55,616.24,617.11,618.07,619.09,620.28,621.93,623.91,626.18,628.90,632.53,637.80,641.72,645.04,648.37,652.34,657.29,661.90,665.92,669.46,673.00,676.74,681.03,685.86,690.35,693.40,696.28,699.54,703.33,706.83,710.14,714.20,719.03,721.57,723.37,726.75,730.75,730.62,726.30,721.08,717.36,717.16,719.03,721.04,723.31,726.40,731.02,735.62,740.10,744.80,750.45,757.30,765.31,774.87,786.07,796.36,803.05,808.01,812.22,816.14,819.96,822.35,824.41,827.83,832.02,836.59,840.12,841.02,837.50,833.45,829.19,825.42,823.61,822.38,819.92,816.36,812.41,809.96,809.07,809.53,811.27,814.03,817.27,821.87,827.31,832.80,838.42,839.38,836.81,831.70,825.72,819.86,814.87,813.31,820.15,828.44,835.99,842.01,846.14,849.68,853.17,856.73,859.75,860.57,860.20,860.63,862.23,864.78,867.11,868.65,869.70,870.35,870.45,870.01,869.32,868.52,867.68,866.93,865.94,864.44,862.43,861.06,861.01,861.76,863.03,864.43,864.21,863.73,863.48,863.59,863.94,864.88,866.20,867.74,869.20,869.82,869.74,869.00
581.67,582.23,582.83,582.88,582.57,582.11,581.65,581.79,582.26,582.33,580.63,579.83,580.14,581.20,582.67,584.00,584.72,584.88,584.57,584.17,584.17,584.43,584.76,584.94,585.20,585.29,585.35,585.49,585.70,585.99,586.30,586.60,586.86,587.06,587.37,587.81,588.28,588.48,588.35,588.12,587.89,587.66,587.60,587.88,588.40,588.87,589.28,589.73,590.30,590.99,591.47,591.59,591.64,591.77,592.06,592.32,592.60,592.94,593.31,593.65,594.02,594.41,594.78,595.03,595.51,596.08,596.71,597.41,598.08,598.63,599.11,599.61,600.22,600.75,600.89,600.59,600.32,600.51,600.91,601.40,601.86,601.80,601.69,601.66,601.76,602.13,602.58,603.04,603.48,603.84,603.99,604.02,604.05,604.13,604.21,604.36,604.82,605.62,606.41,607.18,607.84,608.36,608.72,609.08,609.28,609.25,608.92,608.45,608.83,609.50,610.21,610.98,611.87,612.74,613.58,614.40,615.17,615.95,616.68,617.32,617.84,618.68,619.73,620.99,622.60,624.60,626.71,629.36,633.16,638.49,642.24,645.43,648.82,653.02,658.03,662.93,667.50,671.61,675.40,680.47,686.46,692.41,696.01,698.78,701.81,705.40,709.43,712.72,716.12,719.66,722.94,724.87,726.44,729.32,732.84,733.64,731.02,726.57,722.37,720.86,723.56,726.92,730.06,732.84,735.45,738.72,742.86,747.70,753.12,759.82,766.79,775.70,787.52,798.13,804.99,810.31,815.11,819.69,824.39,828.78,832.68,835.75,837.08,839.34,841.49,841.95,838.68,834.71,830.83,827.88,827.21,826.50,823.44,819.17,815.08,812.00,810.60,810.90,812.68,815.11,817.61,821.34,826.43,832.69,838.41,840.71,838.80,832.88,826.85,822.40,819.04,817.51,820.36,827.13,834.78,841.73,847.14,851.43,854.79,857.91,860.75,862.44,863.13,864.16,865.96,868.43,869.74,870.27,870.51,870.56,870.20,869.39,868.51,867.67,866.82,865.96,864.83,863.02,860.53,859.34,859.81,860.92,862.22,863.43,863.17,862.43,861.72,861.43,861.93,863.12,864.58,866.14,867.74,869.27,869.94,869.81
582.00,582.54,583.11,583.15,582.85,582.42,582.02,582.33,582.91,582.91,580.94,580.01,580.72,582.30,583.76,584.75,585.35,585.46,585.10,584.70,584.67,584.92,585.27,585.51,585.81,585.99,586.11,586.25,586.54,586.83,587.12,587.41,587.62,587.59,587.74,588.11,588.57,588.76,588.67,588.46,588.23,588.00,587.83,587.96,588.36,588.82,589.25,589.68,590.21,590.92,591.51,591.89,592.10,592.22,592.48,592.75,593.04,593.35,593.66,594.01,594.35,594.96,595.84,596.31,596.83,597.22,597.56,598.18,598.83,599.39,599.86,600.30,600.83,601.37,601.63,601.50,601.24,601.37,601.69,602.12,602.58,602.55,602.40,602.31,602.36,602.62,603.04,603.50,603.94,604.32,604.65,604.81,604.89,604.97,605.05,605.15,605.37,605.82,606.69,607.55,608.31,608.94,609.41,609.91,610.25,610.30,610.00,609.79,610.13,610.67,611.27,611.94,612.75,613.63,614.50,615.35,616.16,617.01,617.78,618.42,618.89,619.65,620.68,621.91,623.39,625.22,627.16,629.70,633.52,638.89,642.63,645.82,649.34,654.05,659.24,664.24,668.96,673.37,677.36,684.32,691.96,698.40,701.99,704.90,707.92,711.12,714.27,717.27,720.99,724.83,727.84,728.80,730.37,733.38,736.93,738.08,735.65,731.52,727.47,725.48,727.36,730.64,734.19,737.61,740.81,744.32,748.17,752.44,757.48,763.20,769.47,777.43,787.83,798.19,804.72,809.73,814.33,818.80,824.30,830.52,836.13,839.30,840.15,841.78,843.10,842.86,840.23,836.78,833.13,830.33,829.99,829.19,825.69,821.13,817.20,814.32,812.32,812.21,813.93,815.95,817.96,821.29,826.16,832.37,837.95,841.74,841.19,835.62,829.94,827.17,825.26,823.41,822.17,825.64,831.53,838.37,845.11,849.75,853.08,856.35,859.64,862.10,863.80,865.57,867.58,869.59,870.49,870.73,870.72,870.51,869.76,868.71,867.67,866.72,865.72,863.86,862.16,860.45,858.71,858.51,859.51,860.71,861.71,862.35,861.98,861.23,860.43,859.94,860.39,861.61,863.16,864.85,866.66,868.48,869.61,870.00
582.34,582.87,583.40,583.43,583.15,582.77,582.43,582.90,583.57,583.60,581.78,580.82,581.72,583.49,584.73,585.35,585.82,585.94,585.60,585.26,585.25,585.50,585.85,586.16,586.47,586.73,586.91,587.04,587.40,587.68,587.95,588.23,588.38,588.14,588.14,588.41,588.82,589.01,588.95,588.76,588.54,588.32,588.09,588.09,588.36,588.81,589.25,589.65,590.14,590.80,591.42,592.05,592.45,592.64,592.89,593.19,593.49,593.77,594.03,594.38,594.90,595.90,597.30,597.95,598.38,598.50,598.51,598.98,599.53,600.08,600.57,600.99,601.45,601.97,602.35,602.47,602.21,602.29,602.52,602.87,603.30,603.31,603.12,602.98,603.00,603.12,603.50,603.96,604.40,604.81,605.26,605.55,605.71,605.81,605.89,606.03,606.05,606.13,606.90,607.81,608.67,609.44,610.06,610.72,611.21,611.35,611.15,611.22,611.53,611.95,612.43,612.99,613.69,614.52,615.39,616.25,617.11,618.01,618.87,619.61,620.21,620.94,621.92,623.11,624.42,625.91,627.60,629.98,633.74,639.14,642.91,646.10,649.73,655.00,660.51,665.63,670.47,675.21,679.75,688.20,697.17,704.29,708.33,711.55,714.56,717.28,719.44,722.23,726.37,730.64,733.64,734.31,736.09,739.03,742.09,742.76,739.98,736.07,732.55,730.82,731.81,734.47,737.91,741.86,746.10,750.16,753.70,757.15,761.43,766.07,771.88,779.11,788.04,798.00,804.09,808.73,813.12,817.56,823.36,830.55,837.25,840.93,842.08,843.63,844.56,843.94,841.87,839.04,835.80,833.15,832.69,831.31,827.42,822.72,818.90,816.43,814.06,813.52,815.00,816.66,818.33,821.45,826.11,832.01,837.37,842.36,843.38,839.00,834.12,832.66,831.87,829.87,825.59,825.71,829.41,835.41,842.47,847.24,850.74,854.34,858.17,861.25,863.79,866.13,868.25,869.87,870.60,870.78,870.71,870.35,869.26,868.00,866.77,865.56,864.10,861.50,859.49,858.04,857.13,857.83,859.19,860.38,861.07,861.18,860.73,860.05,859.31,858.77,859.18,860.32,861.89,863.74,865.75,867.68,869.18,870.04
582.73,583.26,583.75,583.79,583.54,583.18,582.99,583.52,584.21,584.55,583.95,583.31,583.76,584.73,585.26,585.75,586.18,586.37,586.25,585.96,586.01,586.25,586.57,586.88,587.18,587.44,587.64,587.82,588.18,588.50,588.77,588.97,588.99,588.64,588.53,588.71,589.03,589.26,589.22,589.03,588.81,588.63,588.41,588.36,588.54,588.93,589.28,589.65,590.11,590.68,591.30,591.91,592.52,593.03,593.33,593.64,593.91,594.17,594.46,594.73,596.04,597.78,599.28,599.85,600.02,599.89,599.66,599.80,600.17,600.64,601.13,601.63,602.10,602.57,603.08,603.42,603.19,603.30,603.50,603.73,604.04,604.08,603.87,603.69,603.68,603.67,603.98,604.41,604.87,605.32,605.78,606.17,606.46,606.64,606.73,606.87,606.97,606.99,607.05,607.81,608.79,609.78,610.69,611.57,612.18,612.47,612.43,612.51,612.83,613.22,613.67,614.26,614.80,615.46,616.24,617.10,618.00,618.88,619.87,620.99,622.06,622.84,623.77,624.89,626.03,626.91,628.10,630.18,633.82,639.21,642.94,646.05,649.70,655.37,661.45,666.98,672.22,677.73,683.86,692.07,701.46,710.42,715.52,719.11,722.26,724.95,726.77,729.68,734.33,738.63,741.26,744.00,746.44,748.16,748.62,746.88,743.45,739.91,737.51,737.46,738.93,740.60,742.81,746.01,750.35,754.40,757.59,760.08,762.58,766.64,772.37,779.78,788.98,798.65,804.43,809.10,814.00,819.32,824.07,829.73,835.83,840.81,842.39,843.99,845.37,845.60,843.49,841.10,838.93,837.18,835.86,833.01,828.73,824.00,819.90,817.72,815.66,814.88,815.70,817.20,818.76,821.75,826.18,831.70,836.79,842.00,844.53,842.90,839.71,838.25,837.68,836.42,832.41,830.69,832.59,836.45,840.89,845.47,849.53,853.54,857.52,860.96,863.88,866.12,868.00,869.82,870.50,870.68,870.60,870.12,868.79,867.27,865.74,863.88,861.17,859.48,858.26,857.13,856.20,856.76,858.01,859.11,859.70,859.78,859.44,858.85,858.23,857.96,858.50,859.46,860.91,862.89,864.96,867.11,868.96,870.17
583.12,583.64,584.05,584.08,583.87,583.60,583.53,584.06,584.79,585.38,585.36,585.11,585.21,585.50,585.67,586.10,586.51,586.80,586.91,586.74,586.82,587.02,587.28,587.59,587.90,588.16,588.37,588.59,588.92,589.24,589.50,589.63,589.50,589.07,588.88,588.97,589.24,589.51,589.50,589.33,589.11,588.91,588.72,588.63,588.72,589.03,589.34,589.68,590.10,590.64,591.25,591.90,592.58,593.21,593.63,593.92,594.20,594.46,594.88,596.10,597.83,599.46,600.59,601.12,601.11,600.84,600.52,600.46,600.74,601.16,601.64,602.15,602.65,603.15,603.68,604.13,604.11,604.29,604.47,604.65,604.86,604.83,604.61,604.42,604.35,604.32,604.50,604.86,605.33,605.79,606.25,606.69,607.07,607.36,607.59,607.73,607.88,607.97,607.80,608.08,608.79,609.71,610.60,611.67,612.60,613.30,613.70,613.81,614.13,614.51,614.94,615.48,615.99,616.54,617.21,618.03,618.88,619.89,621.06,622.37,623.69,624.68,625.66,626.71,627.71,628.36,629.32,631.22,634.64,639.42,642.93,645.97,649.56,655.26,662.18,668.69,675.03,681.92,689.09,697.01,706.39,716.43,723.16,728.06,731.82,734.65,736.74,740.27,745.87,750.37,751.80,753.39,754.73,755.27,754.69,752.76,749.76,746.85,745.05,745.33,746.61,747.74,749.37,752.20,756.52,759.70,762.08,763.68,764.35,766.39,771.13,778.38,787.94,797.93,803.94,808.86,814.09,819.66,823.76,828.85,834.56,839.28,841.31,842.99,844.78,846.26,846.02,844.12,842.07,840.35,838.69,835.36,830.68,825.75,821.59,818.94,817.01,816.14,816.51,818.00,820.12,823.57,827.93,832.52,837.02,842.14,845.91,846.86,845.28,843.30,842.54,842.09,839.21,835.70,836.46,839.90,843.98,847.54,850.79,854.39,858.36,861.93,865.19,867.47,869.00,870.12,870.55,870.67,870.47,869.69,868.01,866.19,864.19,861.95,859.58,858.32,857.28,856.19,855.24,855.54,856.44,857.30,857.86,858.06,857.81,857.34,857.02,857.37,858.26,859.36,861.07,863.62,866.17,868.15,869.55,870.35
