719.36,725.91,732.67,738.79,744.16,748.85,753.70,759.06,765.43,772.37,778.91,793.50,805.48,813.41,818.71,823.25,827.09,830.04,831.66,831.51,830.93,830.29,830.28,832.35,835.75,839.07,841.30,841.67,840.71,839.85,839.52,840.14,842.44,845.74,850.28,854.96,858.23,860.45,863.22,865.86,867.76,869.01,869.39,869.29,869.67,872.30,875.97,880.35,885.37,890.79,894.88,897.75,899.18,899.11,898.13,896.41,893.59,889.92,885.73,881.57,879.17,877.72,876.99,877.91,879.52,882.23,885.82,889.44,892.44,893.68,892.89,890.01,887.42,887.88,889.78,892.46,896.07,899.22,901.26,901.19,897.56,893.40,891.59,891.00,890.50,889.21,888.12,887.36,887.14,887.96,889.64,892.61,896.45,900.59,903.86,907.02,909.69,911.66,913.19,914.96,915.17,913.52,910.28,907.67,905.16,902.78,900.68,899.13,898.05,897.30,896.51,894.89,892.14,890.05,888.81,888.26,888.06,887.90,887.56,886.90,885.74,884.07,882.22,880.66,879.90,878.67,877.22,875.67,874.25,873.71,873.68,874.40,875.96,878.28,880.76,882.75,884.32,886.00,889.28,891.59,893.21,893.95,892.74,892.44,892.44,892.51,892.75,893.63,895.88,898.34,899.86,899.97,898.86,896.45,893.14,890.24,889.11,888.80,888.74,888.62,888.48,888.35,888.05,887.49,886.78,885.93,885.11,884.71,885.28,885.60,885.84,886.08,886.46,887.33,888.52,890.10,892.20,894.95,897.48,898.83,899.49,900.06,899.74,897.97,895.59,893.07,890.56,888.35,884.39,879.96,878.53,877.38,876.12,874.72,873.33,872.22,871.20,870.33,869.70,869.50,869.38,869.30,869.16,868.93,868.66,868.38,868.09,867.78,867.50,867.42,867.56,867.84,868.08,868.33,868.48,868.48,868.15,867.10,866.13,865.62,865.73,866.41,866.47,866.22,866.00,866.30,867.98,869.95,872.01,873.52,872.53,870.55,868.70,867.77,868.78,870.46,871.72,871.95,870.88,869.96,869.28,868.99,869.16,869.79,870.45,871.00,871.39,871.46,870.92,870.07,868.73,866.82,864.95,863.34,862.16,861.30
721.11,727.08,733.59,739.66,745.34,750.58,754.75,758.98,764.54,771.23,777.99,792.10,803.50,810.92,815.74,819.92,823.27,825.77,827.11,826.80,826.41,826.19,826.65,828.91,832.37,835.77,837.54,836.74,835.78,834.34,833.62,834.67,838.69,842.82,846.69,850.59,854.70,857.37,861.19,865.96,870.76,873.44,874.60,874.89,875.29,877.36,879.94,883.38,887.33,891.50,895.72,898.92,900.55,900.64,900.00,897.77,894.50,890.67,886.68,883.07,880.60,878.94,878.23,879.22,881.41,884.43,887.94,891.34,894.30,895.45,894.41,891.38,889.91,890.70,892.73,895.50,898.55,901.01,902.41,902.35,900.00,895.83,893.68,892.89,892.48,891.51,890.68,889.98,889.59,890.14,891.77,894.70,898.25,901.77,904.94,907.94,910.26,911.68,912.76,914.38,915.58,914.97,910.96,908.02,905.43,902.89,900.48,898.67,897.36,896.05,894.71,893.57,892.12,890.77,889.97,890.07,890.16,890.12,889.90,889.32,888.00,886.30,884.36,882.65,881.81,880.74,879.26,877.74,876.59,876.25,876.19,876.74,878.17,880.86,884.29,886.54,887.65,888.31,890.49,892.26,893.52,894.06,893.38,893.70,893.97,893.96,893.97,894.68,896.22,898.13,899.78,899.97,899.45,897.28,893.73,890.68,889.64,889.58,889.73,889.63,889.62,889.58,889.29,888.66,887.81,886.74,885.96,885.81,886.58,886.99,887.25,887.41,887.52,887.80,888.68,890.17,892.36,895.38,898.12,899.68,900.60,901.34,900.40,897.63,894.28,890.97,887.60,884.43,881.22,878.50,877.46,876.41,875.33,874.15,872.88,871.78,870.69,869.94,869.58,869.36,869.18,869.07,868.95,868.73,868.51,868.29,868.13,868.03,867.90,867.97,868.24,868.58,868.84,869.20,869.51,869.66,869.37,868.16,866.97,866.53,867.03,867.94,868.19,867.95,867.41,867.00,868.31,870.23,872.50,874.55,874.31,872.61,870.97,870.10,870.66,872.36,873.71,874.05,873.09,872.11,871.37,871.01,871.02,871.22,871.47,871.73,871.80,871.38,870.68,869.29,866.98,863.95,861.92,860.49,859.65,859.19
725.19,730.79,736.40,742.13,747.56,751.86,753.89,756.29,759.75,765.17,774.39,786.47,797.51,806.04,811.17,815.16,818.40,820.90,822.36,822.46,822.32,822.35,823.24,826.32,829.93,832.32,832.40,830.04,829.50,829.18,829.20,830.62,835.63,841.03,845.28,848.88,852.81,856.54,861.16,866.63,872.25,875.90,877.93,879.14,880.13,881.55,883.62,886.48,889.68,892.93,896.43,898.85,900.14,900.45,900.15,898.65,895.75,892.06,888.41,885.17,882.55,880.62,879.77,880.80,883.10,886.06,889.61,893.84,896.98,898.05,896.90,893.91,892.91,893.26,894.71,896.96,899.00,899.97,900.22,899.66,897.69,894.43,892.71,892.13,892.13,892.28,892.48,892.32,892.16,893.09,894.79,897.62,900.71,903.06,904.55,906.30,907.82,908.95,910.19,912.01,914.01,914.45,911.00,908.07,905.54,903.17,900.96,899.39,898.50,897.49,896.28,895.32,894.52,893.46,892.87,893.48,893.82,893.87,893.55,892.61,890.71,888.53,886.40,884.66,883.65,882.49,881.13,879.91,879.12,878.84,878.71,879.30,881.04,884.31,888.20,890.04,890.44,890.75,892.28,893.48,894.06,893.93,893.23,892.85,892.58,892.31,892.07,892.57,894.26,896.77,899.34,899.91,899.83,898.18,895.11,892.21,890.77,890.98,891.57,891.33,891.39,891.49,890.87,889.46,888.46,887.35,886.77,886.91,887.72,888.30,888.59,888.67,888.62,888.74,889.39,890.95,893.41,896.22,898.86,900.74,902.16,903.05,900.94,897.67,894.25,890.85,887.03,882.86,879.95,878.36,877.38,876.20,875.11,874.01,872.83,871.74,870.57,869.85,869.63,869.40,869.18,869.02,868.89,868.77,868.64,868.52,868.46,868.48,868.45,868.56,868.81,869.14,869.53,870.26,870.96,871.32,870.88,869.25,867.83,867.54,868.44,869.44,869.87,869.40,868.47,867.91,868.90,870.85,873.31,875.76,876.80,875.91,874.72,874.04,874.40,875.44,876.25,876.40,875.69,874.82,874.19,873.78,873.52,873.25,872.76,872.20,871.61,871.00,870.29,868.23,865.29,862.16,860.20,859.06,858.35,857.87
728.58,734.52,739.53,743.89,747.55,750.08,751.03,752.57,754.88,758.90,766.88,776.14,786.91,797.15,804.01,808.89,812.87,815.78,817.36,818.13,818.42,819.11,820.87,824.35,827.15,828.21,826.87,823.42,822.89,823.75,825.26,828.06,834.08,840.25,845.14,849.16,853.20,857.30,862.06,867.48,873.10,877.16,879.69,881.44,882.81,884.08,885.99,888.42,890.98,893.39,895.85,897.59,898.68,899.30,899.80,899.36,897.16,893.88,890.59,887.59,885.01,883.01,882.01,882.79,884.93,887.77,891.44,896.44,899.04,899.80,898.96,896.80,896.12,895.97,896.25,896.89,897.49,897.30,896.78,895.88,894.14,891.49,890.12,889.69,889.89,890.61,891.77,892.54,893.11,894.67,896.69,899.07,901.05,901.90,902.03,902.81,903.81,904.97,906.79,909.13,911.89,913.45,911.31,908.53,906.16,904.03,902.08,900.75,900.14,899.42,898.43,897.51,897.10,896.46,896.20,896.99,897.38,897.47,897.13,896.04,893.65,891.03,888.62,886.68,885.50,884.39,883.44,882.72,882.34,882.26,882.15,882.77,884.55,887.78,891.09,892.33,892.32,892.43,893.07,893.41,893.31,892.75,891.92,890.88,890.03,889.39,888.94,889.62,891.86,895.12,898.51,899.76,900.00,899.09,897.13,894.78,893.28,893.36,893.89,893.64,893.70,893.48,892.23,890.05,888.88,887.83,887.54,887.98,888.84,889.82,890.50,890.65,890.31,890.60,891.52,893.19,895.49,897.93,900.13,901.97,903.31,903.51,901.05,897.95,894.84,891.71,888.14,883.98,880.98,879.21,877.90,876.56,875.41,874.31,873.13,871.99,870.78,869.99,869.69,869.46,869.23,869.09,869.01,868.94,868.89,868.84,868.86,868.97,868.99,869.11,869.38,869.83,870.60,871.68,872.68,872.95,871.86,869.89,868.58,868.51,869.58,870.74,871.37,870.73,869.50,868.90,869.80,871.93,874.61,877.25,878.84,878.70,878.11,877.70,877.85,878.21,878.42,878.12,877.04,875.95,875.21,874.56,873.88,873.23,872.53,871.77,871.00,870.24,869.26,866.93,863.95,861.09,859.35,858.33,857.56,856.87
731.25,737.70,742.18,744.40,745.32,745.68,746.47,747.95,750.04,752.81,756.63,762.64,772.57,784.08,793.71,800.73,806.44,810.27,812.05,813.68,814.63,816.41,819.28,822.62,823.82,823.28,820.91,817.13,816.26,818.31,821.93,826.98,834.01,840.52,846.09,850.99,855.43,859.24,863.56,868.41,873.39,877.30,879.95,881.81,883.29,884.87,886.86,889.00,891.04,892.77,894.12,895.41,896.47,897.43,898.99,899.70,898.46,895.87,892.94,890.14,887.81,885.95,884.85,885.15,886.99,889.73,893.54,898.84,900.36,900.66,900.39,899.59,899.13,898.45,897.22,895.61,894.59,893.53,892.49,891.38,889.86,887.50,886.31,885.96,886.14,886.83,888.83,890.81,892.57,894.79,897.23,898.83,899.31,898.62,897.96,898.20,899.01,900.43,903.00,906.01,909.44,912.11,911.90,909.39,907.21,905.38,903.72,902.64,902.19,901.67,900.89,899.98,899.75,899.61,899.74,900.39,900.63,900.59,900.25,899.20,896.54,893.62,890.88,888.66,887.39,886.50,886.15,886.06,886.11,886.33,886.35,886.96,888.47,890.74,892.51,893.04,892.94,892.88,892.58,891.94,891.20,890.40,889.40,887.91,886.61,885.61,885.04,886.25,889.33,893.38,897.41,899.55,900.01,899.89,899.36,897.88,896.72,896.42,896.48,896.35,896.34,895.53,893.49,890.62,889.17,888.29,888.33,889.06,890.06,891.57,892.89,893.32,892.77,893.44,894.89,896.56,898.31,900.24,901.74,903.12,903.78,902.75,900.67,898.21,895.61,892.92,890.12,886.79,883.47,880.62,878.78,877.35,876.13,874.95,873.72,872.49,871.26,870.32,869.78,869.53,869.31,869.26,869.28,869.22,869.20,869.19,869.29,869.48,869.55,869.74,870.11,870.81,872.13,873.47,874.61,874.53,872.45,870.24,869.29,869.47,870.52,871.89,872.73,872.08,870.71,870.15,871.09,873.44,876.29,878.91,880.36,880.74,880.68,880.49,880.31,880.01,879.62,878.65,876.78,875.31,874.31,873.33,872.26,871.34,870.85,870.43,869.89,869.02,867.60,865.41,862.88,860.51,859.11,858.06,857.09,856.15
734.62,738.98,741.35,742.08,741.86,741.15,740.88,741.62,743.33,745.87,748.81,752.21,757.35,765.22,776.74,788.21,797.28,803.19,806.00,808.38,810.74,813.80,817.23,819.65,819.43,816.88,813.67,811.24,810.47,814.50,820.71,827.85,835.50,842.38,848.24,853.34,857.76,861.22,865.14,869.19,872.90,875.89,878.13,879.87,881.41,883.18,885.22,887.37,889.43,891.14,892.18,893.15,894.12,895.23,896.85,898.37,898.41,896.97,894.43,892.22,890.34,888.78,887.75,887.75,889.40,892.31,896.06,899.79,900.80,900.98,900.89,900.56,900.08,898.50,896.35,894.12,892.37,889.85,887.60,885.93,884.78,882.99,881.99,881.66,881.79,882.27,885.01,888.42,891.58,893.83,895.81,896.64,896.42,895.44,894.69,894.94,895.90,897.51,899.82,903.02,906.60,910.05,912.24,910.24,908.29,906.71,905.43,905.17,905.16,904.85,904.27,903.88,903.48,903.25,903.28,903.51,903.31,902.58,901.66,900.44,898.15,895.23,892.53,890.45,889.35,888.93,888.99,889.30,889.72,889.99,890.14,890.88,891.72,891.02,890.61,890.29,890.09,890.06,889.89,889.02,887.81,886.46,885.03,883.42,882.22,881.44,881.22,883.04,887.06,891.92,896.41,899.35,900.04,900.06,899.94,899.41,898.97,898.81,898.77,898.72,898.71,897.88,895.51,891.92,889.76,889.08,889.40,890.40,891.88,893.59,895.16,896.26,896.78,897.60,898.57,899.58,900.64,901.86,902.69,902.95,902.59,901.43,899.53,897.29,894.86,892.32,889.92,886.97,883.84,881.03,879.29,878.06,876.87,875.65,874.41,873.18,871.94,870.81,869.96,869.67,869.51,869.51,869.57,869.58,869.53,869.52,869.64,869.96,870.40,871.05,871.87,872.90,874.28,875.58,876.61,876.27,873.80,871.29,870.34,870.61,871.75,873.10,874.28,874.02,873.00,872.60,873.35,875.32,877.82,880.22,881.62,881.56,881.05,880.39,879.43,878.24,877.00,875.49,873.63,872.42,871.63,870.92,870.13,869.22,868.63,868.16,867.60,866.66,865.35,863.52,861.53,859.76,858.64,857.67,856.71,855.77
734.31,736.97,737.89,737.90,737.35,736.38,735.60,735.97,737.53,739.95,742.35,744.53,746.77,751.31,761.11,772.98,785.45,794.91,799.80,803.05,806.71,810.71,814.27,815.62,814.03,810.35,806.84,805.54,806.81,813.29,821.38,829.40,837.07,844.35,850.34,855.27,859.41,862.31,865.55,868.74,871.50,873.94,875.73,876.88,878.02,880.34,882.86,885.12,887.14,888.87,889.90,890.64,891.54,892.83,894.57,896.65,897.99,897.97,896.12,894.30,892.75,891.41,890.44,890.47,891.98,894.90,898.36,900.48,901.13,901.25,901.20,900.99,900.34,898.01,895.18,892.36,889.40,885.71,882.78,880.96,880.19,879.09,878.37,878.05,878.18,879.12,882.21,886.30,890.21,892.32,893.72,893.98,893.44,892.49,891.73,892.04,893.13,894.80,896.88,900.16,903.85,907.80,911.56,911.18,909.69,908.24,907.34,907.57,907.80,907.69,907.37,907.29,906.76,905.93,905.11,904.52,903.63,902.56,901.43,900.16,898.47,896.14,893.88,892.06,891.14,891.00,891.26,891.82,892.43,892.19,892.11,892.11,891.51,888.96,887.53,886.74,886.24,885.93,885.71,884.86,883.62,882.16,880.71,879.25,878.37,878.22,879.05,881.44,885.71,890.73,895.40,898.48,899.43,899.79,900.06,900.07,900.09,900.08,900.07,900.09,900.13,899.59,897.77,894.70,892.07,890.99,891.22,892.33,894.00,895.68,897.28,898.70,899.84,900.67,901.20,901.61,902.00,902.43,902.55,901.93,900.80,899.41,897.63,895.60,893.38,891.05,888.83,886.34,883.91,881.73,880.00,878.75,877.53,876.26,874.98,873.72,872.46,871.22,870.18,869.84,869.70,869.78,870.06,870.40,870.48,870.46,870.53,870.87,871.63,872.70,873.91,875.20,876.58,877.87,878.64,878.06,875.53,872.90,872.04,872.41,873.50,874.63,875.80,876.04,875.65,875.40,875.94,877.50,879.57,881.50,881.97,881.23,879.96,878.45,876.75,875.01,873.54,872.15,870.75,869.91,869.35,868.87,868.32,867.47,866.59,865.83,865.10,864.17,862.96,861.64,860.33,859.14,858.24,857.32,856.40,855.51
729.30,731.38,732.03,732.13,731.85,731.19,730.69,731.33,733.05,735.34,737.03,739.56,742.00,744.75,749.10,756.31,771.24,785.20,793.22,797.63,802.34,806.80,810.05,810.30,807.51,803.91,800.90,800.38,805.86,814.98,823.86,831.36,838.45,845.95,851.79,856.21,859.83,862.01,864.27,866.63,868.99,871.43,872.87,873.01,873.23,876.39,879.91,882.43,884.30,885.95,887.18,887.84,888.76,890.31,892.42,894.88,897.38,898.94,898.15,896.45,895.06,893.82,892.87,893.26,894.67,897.29,900.14,901.10,901.47,901.56,901.47,901.08,900.03,897.23,893.85,890.12,885.38,881.14,878.35,876.88,876.42,876.03,875.69,875.43,875.71,877.91,880.93,884.72,888.46,890.24,891.04,891.03,890.54,889.79,889.00,889.38,890.47,892.04,894.09,897.40,901.28,905.48,909.67,912.01,911.33,909.93,909.39,909.54,909.69,909.74,909.65,909.40,908.83,906.94,904.60,902.79,901.04,900.13,899.28,898.20,897.29,896.18,894.77,893.38,892.62,892.50,892.75,893.33,893.87,892.59,891.70,889.95,887.19,884.61,883.65,882.87,881.94,881.00,880.33,879.60,878.75,877.80,876.85,875.81,875.58,876.54,879.04,881.92,885.52,889.82,894.27,896.64,897.77,898.73,899.60,899.77,900.00,900.13,900.19,900.27,900.39,900.33,899.94,898.81,896.25,894.27,893.96,894.96,896.35,897.79,899.19,900.39,901.25,901.91,902.25,902.31,902.12,901.72,901.03,899.96,898.47,896.59,894.93,893.20,891.32,889.25,887.03,885.11,883.82,882.71,880.88,879.37,878.02,876.70,875.35,874.04,872.73,871.47,870.43,870.06,869.88,870.16,870.88,871.83,872.23,872.23,872.19,872.42,873.24,874.61,876.08,877.53,878.94,880.32,880.72,879.84,877.56,875.01,874.44,874.88,875.72,876.49,877.25,877.98,878.43,878.39,878.76,879.96,881.52,882.55,881.13,879.55,877.41,874.88,872.73,871.00,870.08,869.49,868.84,868.35,867.93,867.51,866.99,866.23,864.93,863.69,862.68,861.84,860.65,859.94,859.40,858.72,857.95,857.06,856.17,855.30
723.43,726.10,727.05,727.25,726.49,724.71,724.17,725.09,727.13,729.67,731.49,734.53,736.86,739.13,742.97,748.36,759.88,772.67,783.17,789.89,796.15,800.90,803.49,802.89,800.03,797.30,796.30,799.03,807.66,817.19,825.72,833.05,840.08,845.72,850.16,853.81,856.80,859.02,860.87,862.73,864.85,867.14,868.34,868.22,868.04,870.54,874.61,878.16,880.82,882.59,883.84,884.94,886.36,888.28,890.65,893.57,896.65,899.00,899.39,898.49,897.28,896.10,895.32,895.83,897.24,899.01,900.63,901.29,901.71,901.84,901.56,900.56,898.42,895.13,890.92,886.09,881.44,877.99,875.48,873.79,873.07,872.76,872.70,872.97,874.09,877.14,880.37,883.71,886.38,886.57,886.48,886.80,887.15,887.01,886.61,887.22,888.26,889.52,891.26,894.48,898.59,903.14,907.61,910.87,911.53,911.04,910.50,910.34,910.18,909.86,909.10,907.47,906.45,904.40,901.79,899.38,897.02,895.54,894.55,894.00,894.13,894.06,893.74,893.44,893.47,893.51,893.51,893.52,893.31,891.80,889.23,886.06,882.76,880.18,879.12,878.55,877.97,877.14,876.34,875.52,874.60,873.63,872.89,872.60,874.48,877.77,880.60,883.43,885.97,888.91,892.22,893.40,893.70,894.30,895.52,897.19,899.23,900.09,900.15,900.18,900.20,900.17,900.13,899.93,899.12,897.97,897.54,897.90,898.71,899.61,900.57,901.19,901.22,901.31,901.31,901.17,900.74,899.55,897.73,896.06,894.56,893.10,891.77,890.55,888.92,886.66,884.21,882.41,881.58,881.19,880.26,879.23,878.07,876.82,875.52,874.20,872.89,871.66,870.71,870.45,870.40,871.16,872.46,873.77,874.65,874.83,874.79,874.80,875.02,876.38,878.12,879.88,881.56,882.96,882.89,881.57,879.29,876.93,876.28,876.47,877.04,877.73,878.42,879.45,880.59,881.38,881.82,882.22,882.21,881.22,878.61,876.02,873.58,871.47,870.12,869.12,868.52,868.04,867.51,866.99,866.57,866.14,865.64,864.94,863.68,862.25,861.04,860.35,859.60,859.15,858.75,858.19,857.55,856.80,855.95,855.05
718.02,721.16,722.34,722.40,721.02,718.29,717.55,718.56,720.79,723.61,725.92,729.37,731.59,733.71,737.89,742.96,751.21,762.00,773.89,782.81,790.06,794.56,796.21,795.00,792.15,790.70,792.31,798.62,809.24,818.15,826.01,833.31,839.73,843.33,846.23,849.19,852.31,854.96,856.78,858.48,860.38,862.27,863.29,863.32,863.24,865.13,869.56,873.69,876.67,878.35,879.95,882.02,884.19,886.39,888.99,892.18,895.50,898.38,899.96,899.93,899.17,898.28,897.73,898.18,899.30,900.25,900.88,901.43,901.84,901.77,901.03,899.27,896.34,892.37,887.43,882.11,878.24,875.55,873.17,871.14,869.97,869.64,869.80,870.62,872.55,876.10,879.37,882.19,883.80,882.63,881.87,882.58,883.74,884.16,884.22,885.04,886.12,887.30,888.98,892.12,896.30,900.95,905.51,909.39,911.17,911.48,910.88,910.16,908.98,907.58,905.86,903.49,902.30,900.57,898.18,895.38,892.59,890.63,889.52,889.39,890.37,891.20,891.98,892.75,893.37,893.51,893.28,893.05,892.62,890.42,886.10,881.88,878.51,875.83,874.54,874.12,873.93,873.40,872.48,871.22,869.84,868.78,868.95,870.32,874.09,878.73,881.25,883.37,884.72,886.29,888.38,888.87,888.88,889.45,891.06,894.03,897.74,899.63,899.97,899.63,899.23,898.97,899.00,899.42,900.22,900.26,900.13,900.12,900.46,900.88,901.26,901.16,900.32,899.63,899.07,898.60,897.91,896.25,893.93,892.04,890.71,889.76,888.82,888.06,886.71,884.40,881.83,880.23,879.65,879.63,879.36,878.78,877.85,876.73,875.50,874.23,872.95,871.84,871.10,871.00,871.05,872.11,873.82,875.49,876.94,877.47,877.47,877.21,876.92,878.01,879.98,882.33,884.47,885.78,885.21,883.45,881.15,879.03,878.25,878.16,878.46,879.05,879.83,881.11,882.52,883.41,883.35,882.75,881.31,878.69,875.36,872.48,870.32,868.89,868.23,867.81,867.37,866.88,866.33,865.70,865.22,864.78,864.28,863.61,862.48,861.12,859.93,859.34,858.91,858.56,858.15,857.62,857.08,856.46,855.71,854.87
713.72,716.69,717.75,717.21,715.31,712.51,711.40,712.21,714.33,717.28,720.35,723.93,726.25,728.39,732.48,738.67,746.22,755.85,767.45,777.81,784.87,788.28,788.75,787.13,784.11,784.38,788.99,798.32,809.29,816.68,823.71,830.96,835.71,837.88,839.52,842.14,846.69,850.08,852.38,854.28,855.99,857.20,858.07,858.65,859.36,861.33,865.88,869.50,871.63,872.79,875.33,879.03,882.20,884.54,887.33,890.43,893.70,896.95,899.66,900.36,900.48,900.31,899.98,900.16,900.53,900.89,901.23,901.61,901.81,901.12,899.48,896.90,893.88,888.95,883.57,878.93,876.30,873.78,871.21,868.83,867.16,866.82,867.22,868.45,870.86,874.45,877.31,879.51,880.49,878.90,877.93,878.85,880.38,881.14,881.66,882.64,883.95,885.58,887.76,890.89,894.79,899.11,903.46,908.11,910.43,910.99,910.30,908.71,905.37,901.92,899.16,897.58,896.86,895.89,894.06,891.04,888.01,886.02,884.97,885.00,886.30,887.84,889.59,891.15,891.81,891.92,891.56,891.83,892.33,888.44,882.64,877.90,874.64,871.73,870.23,869.76,869.74,869.53,868.37,866.16,863.90,862.85,865.23,869.53,874.15,877.95,879.61,880.13,880.28,880.77,881.90,882.71,883.77,885.26,887.45,890.89,895.33,898.46,899.55,898.32,897.05,896.31,896.35,897.28,898.77,899.94,900.62,900.94,901.13,901.27,900.98,900.08,898.50,896.83,895.43,894.32,893.25,891.67,890.04,888.66,887.62,887.00,886.44,885.93,884.91,883.05,880.64,879.52,879.14,878.99,878.56,878.07,877.36,876.41,875.25,874.08,872.91,872.05,871.66,871.74,871.83,872.77,874.47,876.61,878.71,879.80,879.92,879.34,879.05,879.53,881.67,884.96,887.71,888.75,887.68,885.58,883.36,881.51,880.69,880.41,880.46,880.80,881.79,883.20,884.22,883.73,882.09,880.36,878.14,875.06,871.60,869.75,868.58,867.67,867.06,866.64,866.20,865.71,865.15,864.48,863.92,863.42,862.91,862.21,861.25,860.26,859.41,858.82,858.34,857.94,857.53,857.04,856.52,856.03,855.46,854.86
709.96,712.06,712.78,711.66,709.37,706.82,706.17,706.91,708.77,711.40,714.02,717.42,721.28,725.68,731.11,737.76,744.88,753.76,764.41,773.23,779.70,782.99,783.20,780.68,778.60,781.17,788.02,798.15,807.76,813.92,818.82,823.61,828.54,831.13,833.05,836.26,842.10,845.09,847.55,850.00,852.27,853.69,854.72,855.69,856.92,859.09,862.60,865.13,866.55,867.52,870.22,874.67,878.90,882.16,884.85,888.56,892.19,895.57,898.65,900.34,900.98,901.10,900.94,900.92,901.01,901.21,901.47,901.62,901.18,899.66,897.32,894.31,890.58,885.02,880.04,876.68,874.45,872.11,869.34,866.58,864.69,864.11,865.16,867.15,869.73,872.61,874.70,876.10,876.61,875.60,874.52,874.58,875.43,876.61,878.17,880.35,882.70,885.07,887.65,890.92,894.61,898.53,902.60,906.82,909.46,910.34,909.11,905.67,900.83,896.65,893.87,892.62,892.06,891.24,889.64,886.92,883.90,881.77,880.67,880.70,881.67,883.01,885.15,887.58,889.08,889.38,888.69,888.76,889.35,884.89,879.42,874.80,871.46,869.22,867.74,867.03,866.81,866.66,865.75,863.42,861.14,860.60,864.27,868.56,872.13,874.62,875.68,875.86,875.81,876.06,876.91,878.19,879.91,882.08,885.11,889.77,893.93,896.87,897.83,896.07,894.35,893.56,893.87,895.24,897.03,898.91,900.19,900.84,901.05,901.08,900.69,899.65,897.61,894.65,892.62,891.15,889.95,888.80,887.72,886.55,885.41,884.57,884.04,883.70,883.12,881.95,880.06,879.06,878.57,878.24,877.78,877.31,876.70,875.91,874.93,873.79,872.88,872.38,872.28,872.42,872.54,873.35,874.94,877.26,879.59,881.30,882.05,881.84,881.83,882.84,885.13,887.86,889.25,889.72,889.10,887.69,885.86,884.52,883.84,883.52,883.47,883.65,884.35,884.54,883.93,882.34,879.90,877.34,874.64,871.88,869.62,868.33,867.35,866.49,865.89,865.47,865.06,864.58,863.99,863.34,862.68,862.07,861.51,860.90,860.27,859.63,859.01,858.43,857.88,857.42,857.02,856.66,856.40,856.18,855.90,855.56
705.99,707.00,707.19,705.67,703.34,701.32,701.25,701.99,703.55,705.82,708.33,712.04,717.69,724.44,731.22,738.06,744.69,752.35,761.00,767.60,773.34,776.77,777.29,774.63,774.57,779.42,787.63,797.26,804.85,809.55,812.25,814.57,819.62,823.24,825.94,829.88,836.86,840.55,843.19,845.71,848.09,849.57,851.34,853.05,854.81,857.02,859.14,860.66,861.72,862.88,865.89,870.71,875.62,879.64,882.46,886.77,890.82,894.41,897.78,900.28,901.28,901.54,901.54,901.43,901.36,901.45,901.58,901.28,900.03,897.77,894.89,891.45,886.59,880.96,876.76,874.46,872.26,869.78,866.90,864.03,861.90,860.90,862.74,865.54,868.00,869.96,871.20,871.83,871.91,871.48,870.69,870.07,870.32,872.17,874.94,878.29,881.60,884.64,887.57,891.04,894.57,898.12,901.84,905.50,908.32,909.29,907.32,902.44,896.42,891.86,889.33,888.20,887.57,886.63,885.10,882.82,880.03,877.79,876.59,876.57,877.17,878.16,880.32,883.06,885.01,885.39,884.76,884.94,885.79,881.98,877.32,872.84,869.20,867.38,865.82,864.78,864.24,864.03,863.43,860.84,858.63,858.93,863.47,867.00,869.28,870.63,871.36,871.68,871.76,872.01,872.85,874.54,876.77,879.63,883.59,889.36,893.05,895.23,895.59,893.47,891.50,890.88,891.58,893.39,895.42,897.80,899.56,900.51,900.76,900.76,900.46,899.46,897.07,892.76,890.24,888.57,887.30,886.48,885.78,884.79,883.58,882.42,881.87,881.65,881.44,880.90,879.61,878.67,878.01,877.51,877.02,876.54,875.97,875.30,874.52,873.56,873.00,872.83,872.93,873.09,873.24,873.90,875.32,877.65,879.99,882.18,883.65,884.22,884.79,886.32,888.34,890.00,890.00,890.00,889.65,888.79,887.48,886.62,886.08,885.73,885.55,885.52,885.66,884.62,882.62,880.20,877.25,874.27,871.55,869.44,868.35,867.32,866.27,865.34,864.73,864.31,863.92,863.45,862.83,862.22,861.51,860.87,860.33,859.86,859.50,859.11,858.63,858.10,857.59,857.17,856.84,856.64,856.62,856.62,856.58,856.45
701.08,700.94,700.36,698.88,697.24,696.26,696.47,697.26,698.53,700.69,704.80,710.29,717.35,725.03,732.19,738.99,744.77,749.71,754.15,759.02,763.90,767.49,769.08,768.57,772.46,779.17,786.99,794.45,799.58,802.00,803.29,804.82,808.51,813.39,817.11,821.38,829.18,837.21,840.39,841.49,842.28,842.78,846.49,850.02,852.46,854.25,854.96,856.05,857.55,859.63,863.84,868.77,873.30,877.16,880.90,885.32,889.63,893.78,897.78,900.50,901.64,902.04,902.13,902.11,901.90,901.74,901.42,900.22,897.99,895.33,892.25,888.09,881.44,876.88,873.87,871.66,869.13,865.69,862.98,860.69,858.00,856.36,859.02,862.51,864.41,865.37,865.88,865.90,865.49,864.93,865.45,865.34,865.95,869.05,873.02,876.75,880.23,883.54,886.81,890.45,893.90,897.15,900.49,904.13,906.92,907.36,904.44,899.84,893.02,888.01,885.62,884.46,883.40,882.06,880.46,878.63,876.39,874.21,872.92,872.80,873.35,874.38,875.96,877.59,878.41,878.45,879.00,880.58,882.66,881.84,877.90,873.11,868.81,866.13,864.04,862.56,861.65,861.29,860.81,856.94,854.47,856.09,861.07,864.13,865.82,866.82,867.65,868.50,868.77,869.06,870.03,871.96,874.60,878.26,883.20,889.32,892.75,893.79,893.00,890.70,888.61,888.44,889.71,891.94,894.33,896.98,899.04,900.23,900.46,900.54,900.37,899.42,896.71,891.14,888.33,886.67,885.32,884.37,883.69,882.99,882.05,880.81,880.25,880.10,880.03,879.78,879.04,878.26,877.54,876.90,876.32,875.78,875.19,874.56,873.96,873.56,873.45,873.50,873.64,873.80,873.95,874.43,875.57,877.72,879.85,882.09,884.18,886.00,887.74,888.93,889.65,890.00,890.00,890.00,888.76,887.31,886.65,886.00,885.49,885.02,884.56,884.09,883.34,882.05,880.13,877.40,874.11,871.53,869.72,868.59,867.57,866.41,865.25,864.22,863.57,863.14,862.75,862.29,861.66,861.04,860.46,860.02,859.72,859.43,859.07,858.68,858.24,857.75,857.60,857.51,857.44,857.40,857.40,857.40,857.36,857.30
696.93,696.33,695.23,693.76,692.47,691.93,692.17,693.04,695.00,698.52,704.20,711.14,718.61,726.07,733.02,739.30,743.19,745.33,746.57,748.95,753.52,758.31,762.18,764.66,770.54,777.81,784.93,790.57,793.62,795.27,796.47,797.94,800.86,806.41,812.35,818.65,826.02,832.57,834.63,834.85,835.02,835.91,841.61,846.44,848.98,850.30,851.49,854.11,857.43,860.79,865.00,869.42,873.57,877.35,881.11,885.01,889.28,893.92,898.52,901.01,901.94,902.24,902.33,902.30,902.08,901.20,899.68,897.77,895.23,892.35,888.74,883.62,876.48,872.11,869.15,866.63,863.81,860.30,857.00,853.99,851.32,850.27,853.38,857.32,859.63,860.14,860.16,859.82,859.20,858.77,859.89,861.42,863.84,867.88,871.98,875.55,878.94,882.31,885.72,889.34,892.74,895.96,899.25,902.90,905.15,904.87,901.57,897.56,890.89,885.37,882.17,880.73,879.47,878.11,876.50,874.49,872.22,870.13,868.87,868.64,868.93,870.15,871.53,872.63,873.06,872.93,873.38,875.24,878.48,880.20,877.45,873.38,869.53,866.45,863.31,860.68,858.65,857.30,856.57,853.27,851.25,852.89,857.87,861.16,862.67,863.38,864.59,865.69,866.41,867.21,868.51,870.39,873.49,877.73,882.90,888.33,891.33,891.74,890.39,887.98,885.66,886.13,888.22,891.05,893.72,896.51,898.77,900.15,900.32,900.36,900.23,899.23,896.44,891.52,888.60,886.47,884.49,882.71,881.76,881.24,880.72,879.91,879.47,879.26,879.14,878.97,878.44,877.75,877.16,876.66,876.13,875.62,875.06,874.50,874.05,874.07,874.40,874.63,874.67,874.72,874.76,875.01,875.85,877.67,879.47,881.53,883.79,886.20,888.64,889.70,890.00,890.00,889.88,888.87,886.87,885.05,884.27,883.40,882.81,882.33,881.87,881.37,880.13,878.49,876.41,873.78,871.53,869.87,868.70,867.87,866.81,865.72,865.00,864.61,864.29,863.80,863.29,862.64,861.70,860.66,860.05,859.66,859.38,859.17,858.95,858.68,858.39,858.08,858.03,858.06,858.08,858.08,858.08,858.17,858.18,858.13
692.98,692.22,691.02,689.67,688.62,688.29,688.75,689.92,692.81,697.84,704.78,712.62,720.03,726.95,733.42,738.63,740.44,740.06,738.69,738.70,742.79,748.58,754.68,760.45,767.84,775.42,781.98,786.26,787.63,788.57,789.95,792.08,795.22,801.52,809.72,818.04,824.31,827.46,827.87,827.81,828.60,830.66,837.48,842.97,845.72,847.15,849.68,854.13,859.26,863.80,867.48,871.16,874.87,878.54,882.04,885.34,889.50,894.46,899.37,901.41,902.06,902.24,902.21,901.85,901.35,899.69,897.12,894.74,892.07,888.95,884.76,878.75,871.75,867.28,863.99,861.01,857.87,854.23,850.17,846.36,844.03,843.80,847.16,851.35,854.15,854.43,854.18,853.58,852.97,853.27,855.38,858.87,863.21,867.88,871.64,874.88,878.04,881.34,884.90,888.46,891.83,895.12,898.50,902.08,903.47,902.32,898.83,895.32,889.12,883.29,879.23,877.39,875.91,874.51,872.81,870.48,868.07,865.98,864.74,864.44,864.47,865.69,866.86,867.64,868.02,868.03,868.27,870.07,874.06,877.71,876.62,873.78,870.61,867.34,863.24,859.46,856.18,853.47,851.85,849.42,848.25,849.92,854.69,858.22,859.76,860.41,862.01,863.25,864.43,865.81,867.53,869.32,872.76,877.33,882.35,886.57,888.77,888.61,886.98,884.80,882.75,884.03,886.97,890.38,893.29,896.11,898.46,899.99,900.21,900.13,899.86,898.74,896.12,892.46,889.55,886.91,884.25,881.62,880.32,879.85,879.65,879.34,879.02,878.72,878.50,878.33,877.93,877.38,876.95,876.62,876.17,875.72,875.22,874.71,874.39,874.75,875.42,875.84,875.87,875.83,875.76,875.79,876.26,877.57,879.00,880.82,883.08,885.84,888.76,889.78,890.00,889.93,889.40,887.17,884.58,882.56,881.52,880.47,879.72,879.18,878.76,878.24,876.65,874.75,872.68,870.50,869.52,868.73,867.98,867.21,866.26,865.45,865.30,865.62,865.70,865.21,864.62,863.87,862.72,861.19,860.18,859.57,859.27,859.12,859.03,858.92,858.80,858.66,858.65,858.68,858.72,858.73,858.75,858.96,859.12,859.15
688.77,688.13,687.83,687.10,686.26,686.07,687.66,689.85,693.33,698.65,705.97,713.15,720.14,726.83,732.54,735.46,735.72,733.84,730.71,729.63,732.01,736.84,743.66,752.70,762.36,770.89,777.68,781.79,782.38,780.99,781.92,786.26,792.23,800.32,809.49,817.70,822.12,822.37,821.26,822.31,826.69,830.95,835.87,840.49,844.49,848.00,852.61,857.67,862.90,867.77,870.61,873.48,876.63,879.99,883.30,886.50,890.63,895.40,899.65,901.09,901.63,901.82,901.47,899.87,898.05,895.96,893.68,891.38,888.35,884.83,880.19,873.86,867.51,863.09,859.48,856.05,852.39,847.45,842.93,839.57,837.98,837.88,841.32,845.36,847.72,847.88,847.70,847.01,846.76,849.54,854.67,859.91,864.90,869.53,872.73,875.54,878.33,881.42,885.36,888.95,892.33,895.69,899.16,902.42,902.49,900.23,896.58,892.88,887.09,881.71,877.73,875.27,873.32,871.36,869.22,866.87,864.62,862.22,860.76,860.55,860.55,860.96,861.41,861.89,862.62,863.59,864.71,866.67,870.03,874.12,875.77,874.66,871.57,868.25,864.11,860.02,855.94,851.60,847.37,844.75,844.88,848.13,852.56,855.52,857.24,858.55,860.34,861.64,862.98,864.68,866.81,868.80,872.07,876.38,880.82,883.38,883.75,882.53,880.90,879.99,880.06,882.52,886.07,889.80,892.86,895.51,897.73,899.35,899.93,899.70,898.79,897.41,895.55,892.99,890.22,887.44,884.66,881.89,880.32,879.59,879.25,879.00,878.70,878.39,878.10,877.86,877.69,877.59,877.25,876.77,876.42,876.02,875.57,875.10,874.82,875.40,876.11,876.76,877.24,877.34,877.30,877.18,877.11,877.38,878.58,880.14,882.39,885.48,888.66,889.76,890.00,889.61,887.88,884.88,882.16,880.28,879.41,878.70,877.67,876.81,876.18,875.24,873.29,871.59,870.35,869.42,868.73,868.04,867.31,866.64,866.36,866.34,866.59,866.98,867.15,866.95,866.61,866.23,865.60,863.88,861.33,859.79,859.64,859.49,859.45,859.46,859.45,859.37,859.36,859.33,859.32,859.39,859.46,859.84,860.38,860.77
684.22,684.13,684.51,684.33,684.17,684.92,686.95,689.19,692.96,698.69,705.83,712.89,719.63,725.57,729.64,730.68,729.50,726.87,723.73,722.77,724.25,729.27,737.29,746.97,756.76,764.94,771.21,774.81,774.68,773.87,776.09,782.31,790.80,799.79,808.22,814.51,816.51,816.02,817.36,822.09,829.88,835.97,840.38,843.68,846.44,849.66,855.49,860.55,865.04,869.33,871.75,874.35,877.20,880.26,883.60,887.01,891.05,895.42,899.15,900.40,900.48,899.98,898.88,896.82,894.52,892.27,890.10,887.79,884.62,880.64,875.62,869.36,863.22,858.65,854.60,850.42,845.72,840.18,835.92,833.06,831.35,830.81,833.68,837.38,839.71,839.64,839.26,840.43,843.57,848.62,855.51,861.84,867.15,871.34,874.34,877.05,879.72,882.76,886.93,890.29,893.39,896.48,899.52,901.88,901.02,898.13,894.32,890.71,886.03,881.33,877.30,874.56,871.93,869.60,867.34,864.93,862.59,860.29,858.72,858.17,858.14,858.24,858.39,858.66,859.26,860.22,861.39,863.32,866.65,871.39,874.30,874.37,872.12,869.24,865.36,861.39,856.76,850.75,845.06,841.74,842.05,846.06,850.70,853.27,854.96,856.53,858.43,859.97,861.50,863.38,865.75,868.09,871.18,874.99,878.66,880.00,879.17,877.55,876.41,876.94,878.78,881.76,885.40,889.18,891.92,894.20,896.34,898.27,899.48,898.62,897.05,895.46,894.02,892.12,889.77,887.30,884.82,882.40,880.55,879.60,879.18,878.85,878.51,878.33,878.21,878.08,878.00,878.02,877.72,877.18,876.76,876.29,875.86,875.47,875.25,875.86,876.63,877.43,878.15,878.56,878.79,878.66,878.33,878.12,878.63,879.77,882.02,885.50,888.88,889.88,890.02,889.36,886.69,883.24,880.62,878.96,878.05,877.20,876.11,875.16,874.38,873.21,871.51,870.22,869.42,868.93,868.44,867.97,867.48,867.10,867.19,867.47,867.88,868.33,868.64,868.78,868.68,868.49,868.18,867.09,865.04,863.62,863.22,862.87,862.97,863.21,863.46,863.64,863.81,863.94,864.04,864.11,864.17,864.39,864.76,865.12
679.88,680.41,681.34,681.76,682.56,684.50,686.57,688.43,692.18,698.17,704.86,712.00,718.38,723.23,725.45,725.10,722.77,719.86,717.50,717.27,718.76,724.59,733.68,742.68,751.20,758.08,763.28,766.32,766.40,767.76,772.07,779.80,790.24,799.17,805.70,809.37,809.63,810.32,816.06,825.20,835.59,843.07,847.76,849.85,850.44,852.05,857.76,862.28,865.79,869.16,871.49,874.15,876.93,879.82,883.33,887.15,891.13,895.06,898.35,899.36,898.77,897.37,895.44,893.23,890.82,888.56,886.41,884.00,880.70,876.31,871.06,865.09,858.94,853.98,849.31,844.25,838.40,832.95,829.30,826.87,824.68,823.57,825.69,828.92,831.25,830.88,830.44,834.19,841.58,848.68,856.76,863.75,869.18,872.87,875.95,878.77,881.45,884.38,888.46,891.49,894.20,896.88,899.37,900.82,899.38,896.20,892.27,888.86,885.38,881.41,877.36,874.41,871.18,868.66,866.47,864.00,861.50,859.48,857.86,856.78,856.55,856.57,856.63,856.74,857.03,857.58,858.45,860.22,863.67,869.04,872.42,873.34,872.16,869.79,866.20,862.40,857.47,850.33,843.96,839.75,839.60,843.80,848.68,851.11,852.73,854.38,856.39,858.23,860.01,862.10,864.71,867.47,870.48,873.70,876.36,876.57,874.99,873.38,873.02,875.05,878.34,881.47,884.86,888.36,890.58,892.55,894.74,897.12,898.94,897.23,895.02,893.24,892.00,890.47,888.63,886.62,884.56,882.65,880.71,879.69,879.24,878.81,878.47,878.48,878.59,878.64,878.60,878.58,878.27,877.73,877.18,876.59,876.15,875.82,875.69,876.22,877.06,877.93,878.74,879.46,880.10,880.19,879.87,879.41,879.08,879.78,882.03,885.78,889.23,890.05,890.06,889.20,885.95,882.31,879.87,878.39,877.42,876.35,875.34,874.47,873.63,872.42,871.15,870.17,869.44,868.88,868.54,868.35,868.19,868.13,868.43,868.78,869.27,869.86,870.37,870.83,870.94,870.83,870.66,870.47,869.80,869.00,868.27,867.76,868.04,868.51,868.99,869.43,869.77,870.08,870.25,870.24,870.18,870.13,870.13,870.24
677.08,677.73,679.12,680.62,682.47,684.84,686.95,688.71,691.97,697.16,703.34,710.15,715.40,718.79,720.14,719.54,717.03,714.14,712.15,712.63,716.14,722.66,731.16,739.75,745.88,750.41,753.95,757.01,761.06,764.81,770.55,779.29,790.07,796.98,800.44,802.36,804.99,809.95,819.62,830.77,841.05,848.99,853.94,856.08,856.23,855.94,858.02,861.06,864.21,867.08,869.80,872.74,875.75,878.94,882.77,887.20,891.41,895.15,897.91,897.60,896.29,894.57,892.41,889.55,886.74,884.49,882.52,879.82,876.08,871.52,866.49,861.04,854.90,848.93,843.14,837.32,831.07,826.83,823.88,821.47,819.21,818.17,820.07,822.77,824.33,823.49,824.34,829.44,838.00,846.96,856.67,863.98,869.19,873.09,876.58,879.72,882.27,884.47,887.50,890.32,892.88,895.35,897.82,899.63,898.21,894.96,891.12,887.65,884.34,880.82,877.17,873.74,870.52,868.13,866.05,863.64,861.26,859.40,857.75,856.24,855.12,854.86,854.80,854.80,855.07,855.62,856.63,858.21,860.98,866.26,870.20,871.78,871.02,868.43,864.63,860.41,855.61,849.67,843.16,838.24,837.55,841.48,845.58,848.33,850.34,852.17,854.38,856.46,858.66,861.26,864.41,867.67,871.00,873.64,874.77,873.25,871.27,869.96,870.46,873.97,878.31,881.62,884.38,886.80,888.66,891.02,893.76,896.55,898.34,895.97,893.24,891.18,889.90,888.58,886.96,885.12,883.17,881.38,880.19,879.57,879.20,878.84,878.75,878.85,879.02,879.19,879.27,879.20,878.85,878.30,877.71,877.14,876.56,876.16,876.17,876.63,877.42,878.25,879.00,879.65,880.76,881.70,881.92,880.95,880.17,880.74,882.90,886.43,889.38,890.07,890.06,889.26,886.24,882.90,880.40,878.84,878.16,877.68,876.93,876.20,875.55,874.70,873.23,871.72,870.42,869.58,869.30,869.25,869.26,869.37,869.88,870.45,871.25,872.20,873.03,873.60,873.76,873.70,873.58,873.62,873.39,872.95,872.47,872.37,872.86,873.31,873.59,873.78,873.90,873.89,873.68,873.27,872.94,872.76,872.76,872.66
675.34,676.64,678.49,680.68,683.14,685.77,687.98,689.97,693.06,697.57,702.86,708.22,711.70,713.72,714.96,714.67,712.26,709.23,707.41,709.81,714.91,721.61,729.12,736.18,739.80,742.31,744.72,748.25,756.15,762.19,769.08,777.99,787.54,792.33,794.45,797.00,803.22,811.53,823.10,834.75,844.58,852.78,857.85,860.47,861.24,860.75,861.19,863.01,865.38,867.69,870.40,873.24,876.21,879.51,883.64,887.97,891.92,895.09,896.67,895.55,893.90,891.65,888.55,885.12,882.29,880.00,877.83,874.88,870.61,865.95,861.02,855.69,850.27,844.17,837.79,831.27,824.78,821.29,818.76,816.36,814.11,813.17,814.33,816.09,817.43,818.38,821.12,826.93,835.32,844.67,855.11,862.73,868.06,872.19,875.65,878.65,880.90,882.64,885.27,888.19,890.94,893.50,895.98,898.22,897.36,894.47,890.63,887.13,883.69,880.20,876.58,872.87,869.86,867.61,865.59,863.34,861.24,859.52,857.89,856.25,854.74,853.78,853.17,852.87,853.13,853.88,855.23,856.91,859.26,863.69,868.25,870.27,869.24,866.12,862.25,858.13,853.72,848.66,842.42,837.18,835.57,838.17,841.69,844.68,847.91,851.17,853.71,856.20,858.74,861.66,865.18,868.71,871.60,872.98,872.49,870.09,867.74,867.54,869.58,873.61,877.90,880.87,883.00,884.78,886.89,889.78,892.96,896.05,897.98,895.31,892.16,889.75,888.25,886.83,885.23,883.49,881.74,880.41,879.77,879.45,879.22,879.03,879.06,879.22,879.44,879.74,880.14,879.77,879.20,878.61,877.97,877.36,876.82,876.51,876.65,876.98,877.60,878.31,878.99,879.59,880.78,882.47,883.67,883.26,882.63,883.34,885.27,887.90,889.64,890.07,890.06,889.55,887.66,885.04,882.56,880.71,879.84,879.65,878.95,878.21,877.64,876.99,875.66,874.03,872.52,871.60,871.26,871.32,871.48,871.73,872.35,873.03,873.88,874.86,875.77,876.39,876.61,876.59,876.45,876.23,875.85,875.45,875.15,875.02,874.93,874.67,874.30,874.03,873.86,873.70,873.52,873.36,873.30,873.04,872.68,872.07
674.52,676.80,679.02,681.55,684.27,687.02,689.38,691.69,694.72,698.61,702.72,705.89,707.34,708.19,709.69,710.02,707.90,704.79,703.17,708.05,713.96,720.25,726.44,731.38,732.88,734.00,735.90,740.38,751.80,759.97,767.65,775.96,783.12,786.12,788.75,793.76,803.46,813.99,825.94,837.13,846.29,854.29,859.29,862.68,864.92,865.80,866.52,867.54,868.92,870.70,873.07,875.59,878.38,881.69,885.78,889.37,892.59,894.83,894.85,893.40,891.51,888.48,884.13,880.40,877.85,875.45,872.72,869.24,864.21,859.53,854.82,849.57,845.27,839.72,833.14,826.05,819.66,816.32,813.88,811.52,809.38,808.65,809.02,809.92,811.61,815.51,820.12,826.05,833.60,842.99,853.03,860.63,866.18,870.40,873.46,876.01,877.96,879.67,882.52,885.74,888.81,891.61,894.11,896.72,896.73,894.46,890.56,887.01,883.35,879.60,875.77,872.02,869.29,867.19,865.27,863.26,861.47,859.87,858.29,856.70,855.20,853.36,851.90,851.10,851.24,852.29,853.99,855.93,858.18,861.52,866.51,868.61,866.88,863.23,859.46,855.76,851.87,847.24,841.53,836.25,833.52,834.32,837.55,840.99,846.01,851.36,854.28,857.19,859.94,863.00,866.64,870.12,871.85,871.54,869.52,866.88,864.41,865.80,869.62,873.48,876.90,879.20,880.89,882.58,885.39,888.82,892.29,895.55,897.79,895.22,891.87,889.13,887.31,885.63,883.98,882.24,880.65,879.88,879.55,879.40,879.34,879.34,879.45,879.71,880.05,880.47,880.98,880.19,879.32,878.69,878.00,877.34,876.99,876.93,877.14,877.33,877.73,878.25,878.82,879.40,880.43,882.69,885.09,886.00,885.94,886.87,888.35,889.70,889.97,890.07,890.06,889.96,889.58,887.97,885.79,883.73,882.40,882.05,881.15,880.29,879.69,879.10,878.14,876.80,875.44,874.63,874.21,874.32,874.61,874.95,875.56,876.21,876.88,877.59,878.34,878.90,879.09,878.96,878.52,877.68,876.82,876.28,876.05,875.61,874.55,873.30,872.13,871.36,870.95,870.78,870.92,871.38,871.94,871.55,870.62,869.37
674.96,677.49,679.86,682.48,685.25,688.00,690.43,692.30,694.42,697.10,700.08,701.44,701.76,702.01,703.00,703.75,702.24,700.03,699.56,705.04,710.12,714.61,718.87,723.00,724.59,725.90,728.42,734.70,749.72,759.60,767.22,773.87,778.18,780.96,786.56,794.57,803.62,815.14,827.43,838.14,845.94,851.66,856.22,860.70,865.23,869.07,870.99,872.08,873.31,875.19,877.19,879.66,882.86,886.40,888.98,891.17,893.24,894.37,893.27,891.66,888.46,884.36,880.17,877.27,874.89,872.20,868.52,862.79,856.02,851.55,848.29,844.66,840.72,835.51,828.77,821.45,816.60,812.51,809.41,807.12,805.64,805.83,807.37,809.45,811.97,815.99,820.46,825.46,832.94,846.19,853.66,859.29,864.14,867.88,870.41,872.68,875.12,877.89,881.10,884.49,887.46,890.08,892.66,895.59,896.11,894.24,890.44,886.65,882.80,879.05,875.39,871.87,869.26,867.47,865.97,864.27,862.43,860.85,859.32,857.69,855.85,853.93,851.82,850.03,849.68,850.85,852.43,854.26,856.69,860.53,864.84,865.92,863.56,860.35,856.79,853.17,849.37,845.01,839.78,834.25,830.99,831.39,834.86,840.31,846.91,852.96,856.10,858.87,861.54,864.52,867.85,870.38,870.45,868.72,865.83,862.82,861.49,863.90,868.20,871.92,874.41,876.39,878.51,881.15,884.53,888.17,891.69,895.05,897.66,895.88,893.06,890.44,888.40,886.72,885.23,883.28,881.10,879.96,879.70,879.65,879.65,879.75,880.15,880.93,881.77,882.12,880.85,879.92,879.20,878.54,877.91,877.40,877.35,877.55,877.77,877.94,878.17,878.45,878.80,879.34,880.49,882.99,885.99,888.03,888.56,889.01,889.55,890.03,890.06,890.09,890.09,890.05,889.94,889.39,888.60,887.63,886.43,884.92,883.49,882.47,881.86,881.25,880.45,879.47,878.59,878.10,877.79,877.93,878.19,878.41,878.69,879.06,879.45,879.79,880.00,879.99,879.68,878.65,876.63,874.92,873.89,873.39,873.21,872.90,871.92,870.81,869.80,869.08,868.70,868.58,868.72,869.16,869.72,869.01,867.86,866.54
675.74,678.41,680.89,683.52,686.02,688.08,689.95,691.22,692.59,694.54,697.26,697.60,697.00,696.40,696.42,696.76,695.91,695.14,696.16,701.24,705.07,707.87,710.44,713.59,715.51,717.49,721.15,729.69,748.50,759.91,768.30,775.20,778.10,780.46,786.79,795.30,803.27,815.28,826.70,836.01,842.53,846.84,851.85,858.10,864.98,870.84,874.14,875.92,877.45,879.42,881.33,883.68,886.58,889.53,890.99,892.09,893.00,893.15,891.53,888.93,884.85,880.55,877.01,874.55,871.73,867.78,862.50,855.79,848.33,843.59,840.48,837.44,834.13,829.71,823.73,817.05,812.80,808.40,805.00,802.89,802.54,804.81,808.33,811.57,814.15,817.75,821.74,826.06,833.60,849.29,854.92,858.74,862.62,866.04,868.29,870.45,873.21,876.67,880.10,883.39,886.24,888.81,891.53,894.74,895.60,894.01,890.33,886.59,882.72,879.04,875.65,872.57,870.18,868.59,867.36,866.06,864.66,863.48,862.10,860.28,858.09,855.80,852.79,849.81,848.53,849.07,850.36,852.25,855.13,859.59,862.97,863.25,860.74,857.64,854.17,850.46,846.54,842.26,837.24,832.14,829.28,830.24,835.22,842.06,849.01,854.82,858.09,860.62,863.06,865.57,867.92,869.16,868.14,865.74,862.55,859.42,858.90,861.67,865.95,869.68,872.26,874.83,877.68,880.92,884.64,888.28,891.68,894.75,897.00,896.50,894.69,892.45,890.24,888.58,887.16,885.30,883.15,881.82,881.40,881.17,881.08,881.39,882.00,882.72,883.04,882.46,880.46,879.58,879.00,878.39,877.87,877.64,877.84,878.19,878.45,878.61,878.75,878.88,879.06,879.53,881.08,883.79,886.89,889.26,889.92,890.05,890.08,890.10,890.10,890.08,890.07,890.05,890.01,890.00,890.00,889.79,889.03,887.40,885.85,884.74,884.05,883.34,882.53,881.74,881.16,880.97,880.77,880.84,880.97,880.99,880.84,880.76,880.72,880.63,880.28,879.67,878.64,876.76,873.91,872.00,871.02,870.59,870.43,870.25,869.49,868.60,867.77,867.13,866.77,866.65,866.69,866.91,867.18,866.21,864.94,863.67
676.81,679.56,682.00,684.44,686.31,687.13,687.90,688.67,689.72,691.57,694.76,694.82,693.42,691.75,690.56,689.77,689.56,690.45,692.93,696.85,699.39,701.02,702.38,704.24,706.35,709.22,714.57,725.95,748.11,760.81,770.93,780.14,783.20,784.75,789.19,795.68,802.83,814.65,824.02,831.19,836.77,841.10,847.47,855.92,864.90,871.41,876.02,878.86,880.86,882.67,884.65,886.71,888.67,890.32,891.36,891.81,891.65,890.95,889.27,885.00,880.70,877.09,874.24,871.50,867.58,861.53,854.32,848.29,841.61,836.19,831.73,827.90,825.41,822.15,817.78,812.61,807.89,803.78,800.58,798.91,800.33,805.67,811.60,815.75,817.66,820.76,824.48,828.72,836.27,851.72,856.64,859.26,862.17,865.46,867.66,869.79,872.53,875.95,879.41,882.38,885.13,887.85,890.75,894.16,895.22,893.79,890.28,886.86,883.15,879.67,876.65,874.19,872.17,870.68,869.57,868.80,868.31,867.84,866.64,864.46,861.80,858.57,854.39,850.19,847.77,846.98,847.86,849.99,853.44,858.35,860.85,860.73,858.45,854.98,851.44,847.54,843.39,839.03,834.00,830.12,828.67,831.05,838.50,845.70,851.79,856.63,859.91,862.16,864.22,865.85,866.65,866.51,865.11,862.75,859.69,856.72,856.64,859.38,863.43,867.33,870.97,874.89,878.56,881.89,885.67,889.13,892.16,894.51,895.65,896.65,896.25,894.73,892.57,890.95,889.46,888.02,886.65,885.46,884.74,884.09,883.78,884.26,884.78,884.65,883.44,881.31,879.97,879.28,878.78,878.30,877.94,878.09,878.42,878.81,879.17,879.36,879.47,879.60,879.78,880.14,882.26,885.11,887.88,889.70,890.06,890.14,890.16,890.11,890.09,889.99,889.91,889.89,889.88,889.91,889.92,889.90,889.71,889.08,887.86,886.74,885.91,885.09,884.21,883.44,882.96,882.90,882.71,882.59,882.48,882.23,881.59,880.93,880.34,879.74,878.97,877.91,876.10,873.68,871.10,869.67,868.91,868.52,868.36,868.23,867.62,866.86,866.09,865.44,865.08,864.88,864.76,864.69,864.45,863.34,862.05,860.88
678.84,681.12,682.40,683.47,684.37,685.03,685.93,687.24,688.80,690.76,693.26,692.71,690.86,688.88,687.58,686.68,686.87,687.93,689.89,692.85,695.41,697.08,698.17,699.43,701.14,704.77,713.17,729.21,749.78,762.79,774.45,785.22,788.42,789.41,792.82,798.55,805.64,814.82,822.76,829.44,835.26,841.17,848.13,857.11,866.60,872.95,877.70,880.41,881.71,882.20,883.10,884.88,886.98,888.88,889.88,889.95,888.84,886.98,884.59,880.32,876.42,872.62,868.55,864.43,859.23,852.36,845.09,840.32,836.12,831.28,825.87,820.57,817.23,814.15,810.75,806.89,802.76,799.13,796.30,795.97,800.89,808.26,815.95,821.44,823.98,827.19,832.45,838.12,845.06,855.67,860.00,862.75,865.48,868.28,870.15,871.81,873.69,876.09,879.24,882.06,884.78,887.50,890.34,893.66,894.81,893.57,890.24,886.88,883.61,880.85,878.67,876.89,875.41,874.37,873.78,873.69,873.61,872.98,871.42,868.59,864.17,859.10,853.77,849.22,847.03,845.37,845.81,847.73,850.89,855.70,858.41,857.92,854.84,851.25,847.73,843.87,839.72,835.36,830.66,828.28,829.12,833.72,841.26,847.82,853.28,857.68,860.68,862.38,863.63,864.29,864.07,863.30,861.81,859.13,855.63,853.13,854.85,859.07,863.92,868.00,871.87,875.82,879.60,883.15,886.86,889.91,891.94,893.00,893.40,894.53,895.33,895.64,895.25,893.69,892.10,890.88,889.97,889.05,888.39,887.86,887.44,887.00,885.67,884.00,882.12,880.35,879.58,879.12,878.66,878.28,878.33,878.63,879.01,879.46,880.00,880.36,880.58,881.12,881.88,882.26,884.09,886.56,888.79,889.87,890.13,890.19,890.17,890.10,890.02,889.50,889.10,888.93,888.88,889.11,889.26,889.31,889.15,888.46,887.33,886.23,885.33,884.66,884.36,884.04,883.56,882.92,882.25,881.73,881.28,880.70,879.53,878.36,877.09,875.95,875.39,874.59,872.94,871.03,869.48,868.41,867.62,867.03,866.67,866.54,865.99,865.22,864.40,863.75,863.35,863.07,862.81,862.46,861.73,860.73,859.74,858.96
679.83,681.35,681.62,681.74,682.23,683.33,684.68,686.46,688.32,690.06,691.28,689.88,687.73,685.92,685.15,684.57,685.44,686.86,688.54,691.23,693.85,695.72,697.02,698.44,700.30,704.68,715.46,734.72,752.00,765.41,777.53,787.73,791.74,794.16,797.90,803.17,809.48,816.02,822.99,829.99,836.77,843.49,850.96,859.94,868.95,874.45,878.39,880.27,880.63,880.10,880.18,882.13,884.54,886.49,887.24,886.80,885.03,882.48,879.67,875.71,872.02,867.87,862.72,857.20,850.67,843.64,837.13,833.00,830.37,826.56,821.36,815.39,810.70,807.08,804.06,801.26,798.01,794.60,793.07,795.10,802.60,810.87,819.51,826.63,831.15,834.82,840.62,846.68,852.73,859.43,863.40,866.29,868.91,871.45,873.35,874.64,875.76,877.16,879.66,882.23,884.85,887.51,890.24,893.35,894.45,893.33,890.24,887.12,884.33,882.37,881.13,880.03,878.99,878.33,878.07,878.20,878.27,877.37,875.10,871.09,865.37,859.35,853.52,848.85,846.66,844.25,843.93,845.41,848.51,853.01,855.86,855.14,851.46,847.79,844.26,840.34,836.09,831.74,827.60,827.28,830.47,836.60,843.47,849.11,853.52,857.05,859.85,861.47,862.20,862.07,860.95,859.27,857.33,854.50,851.27,849.94,853.45,858.63,863.77,868.00,871.99,875.99,879.93,883.74,887.33,889.88,890.81,890.66,890.72,891.76,893.32,895.01,896.28,895.64,894.34,893.20,892.37,891.63,890.98,890.41,889.56,887.83,885.12,882.62,880.76,879.72,879.31,878.99,878.63,878.41,878.73,879.08,879.53,880.16,881.00,881.64,882.06,882.93,884.19,884.96,886.41,888.11,889.50,889.98,890.18,890.20,890.14,889.96,889.35,888.26,887.55,887.28,887.13,887.35,887.60,887.78,887.71,886.93,885.83,884.71,883.76,883.23,883.50,883.78,883.53,882.34,881.10,880.05,879.15,878.20,876.56,874.92,873.40,872.25,871.97,871.55,870.41,869.14,868.30,867.42,866.55,865.79,865.21,864.97,864.46,863.63,862.71,862.06,861.63,861.29,860.91,860.36,859.36,858.47,857.82,857.48
678.89,679.42,679.31,679.53,680.57,682.57,684.43,686.18,687.73,688.71,688.21,685.79,683.53,682.37,682.71,682.84,684.88,687.38,689.74,693.11,695.54,697.50,699.44,701.91,704.92,709.99,721.60,741.34,754.34,768.57,779.79,786.72,792.39,798.84,804.55,809.44,813.91,818.69,825.09,832.94,841.31,847.39,855.50,864.15,871.62,875.46,877.55,877.90,877.33,876.57,876.62,879.38,882.04,883.35,883.44,882.25,880.22,877.79,875.17,871.46,867.54,863.06,857.56,850.94,843.26,836.69,831.47,826.85,823.92,821.32,817.89,812.73,806.56,801.67,798.32,796.19,793.85,790.41,791.44,796.93,805.04,812.85,821.33,830.13,838.13,842.68,847.23,851.92,856.91,862.45,866.43,869.17,871.57,874.24,876.64,877.89,878.62,879.38,880.89,882.97,885.38,887.93,890.50,893.28,894.20,893.10,890.29,887.78,885.48,884.25,883.96,883.51,882.71,882.19,881.83,881.44,881.36,880.33,877.07,871.41,865.37,859.93,854.58,849.87,846.93,843.79,842.23,843.04,846.49,850.57,853.20,852.48,848.88,845.06,841.44,837.26,832.71,828.38,825.13,827.51,832.75,839.06,844.75,849.31,852.08,854.03,856.86,859.15,859.95,859.38,857.38,854.23,851.22,848.58,846.85,847.61,852.44,857.37,861.79,866.09,870.30,874.78,879.19,883.24,886.63,888.56,888.45,887.43,887.65,888.77,890.48,892.57,894.80,896.20,895.75,894.57,893.33,892.56,891.76,890.76,888.99,885.83,883.00,881.01,879.87,879.49,879.17,878.87,878.70,878.73,879.03,879.36,879.95,880.89,882.15,883.19,883.93,884.92,886.35,887.97,889.10,889.68,889.94,890.10,890.24,890.19,890.06,889.60,887.76,886.02,885.11,884.86,884.58,884.40,884.63,885.08,885.37,884.76,883.66,882.48,881.48,881.01,881.63,882.61,882.92,881.48,879.74,878.02,876.53,875.15,873.15,871.21,870.06,869.65,869.55,869.46,868.98,868.24,867.43,866.48,865.60,864.75,864.00,863.49,863.00,862.09,861.04,860.38,859.94,859.56,859.09,858.44,857.53,856.68,856.32,856.37
676.25,676.72,676.82,678.16,680.17,682.10,683.35,684.10,684.77,685.12,683.99,681.85,680.27,679.78,680.74,682.61,685.85,689.30,692.58,696.49,699.46,702.03,704.69,707.99,711.74,716.29,727.10,746.11,755.99,770.75,783.00,790.02,795.44,802.55,808.53,813.51,818.55,823.75,828.90,835.37,843.54,851.17,860.44,867.94,872.63,874.45,874.83,873.57,872.05,871.51,872.02,875.30,878.35,879.85,879.93,878.43,876.22,873.75,871.11,867.79,863.86,858.78,852.23,845.02,838.46,832.69,827.31,821.76,817.83,815.48,813.51,810.31,803.65,798.16,794.20,791.51,789.32,788.19,791.49,798.27,806.15,812.83,819.53,827.63,837.00,843.74,850.26,856.04,861.05,865.65,870.13,873.67,876.38,878.44,880.32,881.09,881.49,882.01,883.13,884.81,886.85,889.02,891.13,893.48,894.12,892.99,890.52,888.61,887.23,886.78,887.08,887.23,886.52,885.67,884.82,883.93,883.07,881.77,879.16,874.48,867.51,861.93,856.97,852.51,848.84,844.58,841.55,840.79,843.00,846.86,850.05,850.09,846.99,842.86,838.81,834.48,829.91,825.83,824.88,828.61,833.89,838.93,842.58,845.50,847.37,849.16,852.46,855.30,856.38,855.71,853.16,849.10,845.49,843.17,842.80,845.52,851.03,855.86,859.99,864.29,868.47,873.65,878.70,882.75,885.28,885.57,884.63,883.71,884.55,886.49,888.66,890.99,893.47,895.58,895.78,894.64,892.85,891.60,890.61,888.96,886.38,883.04,881.17,880.11,879.55,879.35,879.09,878.89,878.86,878.98,879.22,879.55,880.27,881.35,882.73,884.07,885.18,886.44,887.91,889.26,889.88,890.08,890.13,890.21,890.24,890.16,889.85,888.77,885.86,883.67,882.65,882.41,882.13,881.66,881.80,882.42,883.09,882.73,881.70,880.58,879.68,879.33,880.30,881.54,882.11,881.03,879.43,877.26,874.92,872.74,870.91,869.45,868.65,868.39,868.28,868.26,867.88,867.26,866.55,865.69,864.80,863.91,863.04,862.24,861.58,860.59,859.49,858.74,858.23,857.76,857.24,856.61,855.77,855.25,855.11,855.21
673.23,673.92,674.60,676.87,679.49,681.14,681.67,681.47,681.33,681.17,679.98,678.46,677.84,678.19,679.68,683.12,687.31,691.49,695.49,699.70,703.24,706.55,710.01,714.06,718.16,722.38,732.11,749.26,757.14,772.76,786.50,794.46,799.84,806.74,812.29,817.02,822.72,829.53,834.00,838.97,846.34,855.19,864.22,869.89,872.01,871.95,870.41,867.96,866.04,865.87,866.88,870.54,874.11,876.26,876.69,875.08,872.53,869.77,867.24,864.25,860.20,854.63,847.41,840.04,834.31,828.93,823.28,817.22,812.36,809.60,808.25,806.74,800.92,795.41,790.65,786.85,784.91,787.34,792.83,799.86,806.87,812.40,817.45,824.60,834.63,843.30,852.18,859.39,864.65,868.86,873.77,877.94,880.96,882.64,884.00,884.35,884.49,884.84,885.68,887.01,888.60,890.29,891.99,893.77,894.14,893.10,891.05,889.65,889.02,889.10,889.61,889.89,888.98,887.54,886.07,884.83,883.48,882.15,880.38,876.95,869.58,863.75,858.96,854.70,850.57,845.72,841.66,839.27,839.53,842.81,846.44,847.46,845.32,841.09,836.47,831.85,827.20,823.35,824.50,829.00,833.57,836.68,838.12,839.41,840.87,843.25,847.63,851.19,852.75,852.21,849.32,844.80,840.89,838.83,839.50,843.94,850.01,855.13,859.45,863.75,867.81,873.42,878.60,881.97,883.10,881.91,880.63,880.39,882.16,884.91,887.52,890.03,892.61,894.94,895.44,894.27,892.06,890.24,888.83,886.59,883.64,880.80,879.92,879.60,879.41,879.24,879.06,878.99,879.07,879.22,879.38,879.70,880.54,881.76,883.21,884.69,886.04,887.46,888.88,889.83,890.08,890.16,890.24,890.28,890.21,890.13,889.44,887.49,883.83,881.56,880.59,880.38,880.12,879.56,879.63,880.24,881.01,880.81,879.89,878.87,878.08,877.86,879.15,880.57,881.31,880.69,879.35,876.91,873.96,871.15,869.54,868.57,867.95,867.58,867.35,867.29,866.89,866.27,865.64,864.89,864.02,863.12,862.19,861.20,860.30,859.30,858.35,857.72,857.25,856.74,856.18,855.55,854.84,854.47,854.26,854.12
670.32,671.35,673.04,675.28,677.49,678.99,679.15,678.66,678.14,677.69,677.08,676.17,676.67,678.22,680.34,684.38,688.97,693.45,697.62,701.68,705.46,709.49,713.93,718.65,722.50,727.41,736.40,749.98,757.60,774.93,790.10,798.90,805.80,812.46,817.00,820.52,825.68,835.36,840.84,845.28,851.53,859.70,865.24,868.13,868.79,867.30,863.39,860.70,859.55,859.76,861.11,865.02,869.35,872.73,873.83,872.32,869.04,865.56,863.44,860.61,856.14,850.42,843.77,836.90,830.16,824.10,818.62,813.25,807.98,803.97,801.59,800.60,797.85,793.25,787.45,781.99,781.05,788.30,796.02,802.28,807.53,812.26,816.82,823.81,834.13,843.39,853.71,861.71,867.10,871.96,876.89,880.80,883.81,886.05,887.47,887.75,887.72,887.81,888.36,889.40,890.43,891.57,893.11,894.10,894.30,893.60,892.08,891.00,890.56,890.57,890.69,890.13,888.45,886.17,884.04,882.72,881.88,881.03,879.61,876.61,870.24,864.36,859.38,855.05,851.02,846.89,842.93,839.28,836.97,838.78,842.16,844.25,843.77,839.95,834.68,829.38,824.34,820.59,822.63,827.34,830.72,831.32,830.73,830.79,832.42,836.20,842.66,847.38,849.71,849.54,846.61,842.28,838.50,836.55,837.59,843.27,850.01,856.19,861.48,865.80,869.69,875.01,879.13,880.45,879.48,877.72,877.12,878.24,881.31,884.47,887.26,889.95,892.70,894.90,895.06,893.69,891.38,889.11,886.80,884.24,881.78,880.12,879.70,879.51,879.32,879.13,879.10,879.19,879.32,879.47,879.58,879.81,880.78,882.20,883.75,885.12,886.39,887.66,888.89,889.84,890.13,890.24,890.29,890.28,890.15,890.05,888.71,885.51,881.76,880.02,879.39,879.22,879.03,878.70,878.74,879.05,879.32,879.13,878.28,877.34,876.62,876.55,878.10,879.69,880.61,880.35,879.11,876.72,873.79,870.96,869.41,868.47,867.70,866.99,866.48,866.34,865.91,865.32,864.73,863.98,863.19,862.37,861.47,860.47,859.34,858.49,858.04,858.02,857.83,857.43,856.83,856.10,855.65,854.89,854.00,853.18
668.00,669.13,670.83,672.85,674.71,675.86,675.73,675.16,674.65,674.41,674.59,675.42,677.14,679.31,681.66,685.52,689.47,693.73,698.40,702.68,706.45,710.63,715.41,720.57,725.26,730.44,738.57,750.31,757.83,775.06,791.72,802.96,809.55,815.08,818.73,821.87,826.93,835.30,841.77,847.51,853.66,859.96,862.87,863.74,863.04,860.17,856.06,853.49,852.38,852.39,853.43,857.58,863.29,868.69,870.31,867.82,863.88,860.00,857.15,854.66,850.15,844.95,839.94,834.71,827.81,820.56,813.84,808.40,803.44,799.22,796.23,794.85,793.50,789.06,782.87,777.78,780.12,789.88,798.80,805.30,810.36,815.20,820.40,827.64,837.24,845.49,856.39,864.84,870.01,874.22,878.72,882.26,885.23,887.93,889.23,889.56,889.63,889.74,890.14,890.93,891.78,892.56,893.25,893.72,893.90,893.58,892.69,891.96,891.52,891.15,890.53,889.03,886.14,883.51,881.46,880.00,878.97,877.94,876.66,874.47,870.05,865.34,861.02,857.03,853.06,848.88,844.78,840.67,837.01,835.69,839.22,842.09,841.98,838.47,833.20,827.37,821.97,818.81,821.53,824.18,825.57,825.63,825.16,825.52,827.87,832.55,839.53,844.40,845.93,844.90,842.04,839.31,835.86,833.88,835.05,841.30,849.54,857.18,863.58,868.51,872.35,874.80,875.59,874.79,873.81,873.52,875.47,879.01,882.43,885.74,888.53,890.97,893.17,895.01,894.81,893.43,891.50,889.69,887.57,885.06,882.39,880.13,879.69,879.54,879.35,879.18,879.24,879.38,879.56,879.77,880.06,880.46,881.43,882.78,884.27,885.53,886.77,887.98,889.11,889.91,890.19,890.27,890.29,890.23,890.10,889.49,887.64,884.31,880.85,879.41,878.75,878.35,878.14,877.89,877.82,877.93,878.08,877.80,876.96,875.98,875.10,874.66,875.91,877.09,877.68,877.57,876.86,875.12,872.76,870.35,869.11,868.23,867.39,866.57,865.87,865.46,864.94,864.35,863.78,863.06,862.30,861.53,860.72,859.83,859.23,859.05,859.16,859.27,859.16,858.87,858.33,857.55,856.90,855.92,854.45,852.82
665.89,667.06,668.52,670.24,671.75,672.50,672.20,671.81,671.67,671.99,673.21,675.62,678.27,680.80,683.25,686.51,689.62,693.62,698.83,703.38,707.26,711.54,716.40,721.71,727.17,732.42,739.78,750.35,757.85,774.03,791.34,804.61,810.26,814.65,817.78,820.95,826.06,832.59,839.68,846.38,851.99,856.07,857.26,856.88,855.19,851.57,848.16,845.93,844.79,844.71,845.42,849.58,856.32,863.48,865.83,862.49,857.91,853.43,849.35,846.89,843.08,839.19,836.06,832.46,825.82,817.77,809.90,804.16,799.58,795.41,791.80,789.36,788.29,783.88,777.99,774.34,780.35,791.39,800.91,807.89,813.27,818.48,824.67,832.25,840.89,848.53,859.53,867.99,872.72,875.98,879.85,882.91,885.67,888.59,889.97,890.50,890.75,890.95,891.25,891.79,892.44,892.89,892.78,892.93,893.19,893.27,892.97,892.52,892.05,891.31,889.98,887.42,883.47,880.63,878.72,877.07,875.55,874.23,873.04,871.65,869.10,865.85,862.54,859.15,855.27,850.86,846.57,842.29,837.88,833.62,836.13,839.12,839.60,836.60,831.67,825.59,819.87,816.89,819.77,820.22,819.84,819.86,820.08,821.34,824.71,830.13,836.88,841.17,841.38,839.29,836.57,835.21,832.18,830.83,832.93,839.46,848.97,857.87,865.26,870.69,873.91,873.00,870.58,868.57,868.82,870.69,875.09,880.49,883.89,887.10,889.77,891.88,893.45,894.93,894.64,893.46,892.00,890.79,889.18,886.88,883.86,880.55,879.81,879.60,879.42,879.27,879.41,879.56,879.84,880.32,881.02,881.68,882.52,883.57,884.82,885.99,887.19,888.39,889.42,890.02,890.24,890.30,890.27,890.17,889.96,888.71,886.46,883.38,880.38,879.11,878.33,877.66,877.36,877.10,876.89,876.83,876.90,876.56,875.72,874.70,873.65,872.79,873.40,873.93,874.11,874.08,873.90,872.94,871.38,869.61,868.70,867.87,867.03,866.22,865.53,865.00,864.43,863.84,863.25,862.58,861.77,860.93,860.13,859.47,859.65,860.23,860.74,860.74,860.52,860.24,859.78,858.95,857.65,856.27,854.39,852.35
663.80,665.13,666.54,667.89,668.93,669.38,669.19,669.60,670.48,672.02,674.85,677.30,679.86,682.50,684.99,687.14,689.76,693.89,699.50,704.09,708.71,713.46,718.28,723.09,728.02,733.12,740.10,749.79,757.47,771.37,786.73,799.18,803.73,807.86,811.41,815.09,820.29,827.42,834.01,838.85,841.55,843.50,844.99,844.93,843.32,840.86,838.81,837.21,836.58,837.33,838.28,841.74,847.80,855.08,859.01,856.30,851.05,845.07,839.28,835.74,834.53,833.77,832.19,829.11,823.26,816.06,808.68,802.63,798.00,793.64,789.01,784.34,781.63,777.54,773.48,772.69,781.36,792.10,801.33,808.59,814.32,819.83,827.03,834.79,842.72,852.57,863.01,870.39,874.38,876.94,880.11,882.43,884.47,886.96,889.21,890.22,890.70,891.00,891.20,891.40,891.47,891.41,891.32,891.59,892.07,892.51,892.67,892.26,891.75,891.01,889.39,885.57,881.34,878.26,876.04,874.07,871.86,870.45,869.50,868.52,866.61,864.49,862.49,860.14,856.46,852.00,847.61,843.27,838.75,833.80,831.26,832.62,835.63,833.86,829.63,824.05,818.11,813.65,815.25,815.33,814.59,814.13,814.72,817.29,822.07,828.19,833.92,836.38,835.16,832.57,830.17,828.13,825.52,826.96,832.75,839.35,848.49,857.69,865.58,870.60,871.38,868.06,864.98,864.70,867.93,872.07,876.76,881.29,884.44,887.12,889.46,891.36,892.74,894.13,894.63,894.12,892.91,891.81,890.70,888.73,885.60,881.61,880.10,879.67,879.51,879.40,879.54,879.69,880.33,881.55,883.21,884.10,884.57,884.94,885.47,886.57,887.74,888.91,889.87,890.14,890.26,890.30,890.26,890.07,889.59,887.71,885.20,882.56,880.12,878.94,878.11,877.32,876.69,876.34,876.01,875.75,875.57,875.20,874.44,873.49,872.49,871.57,870.95,870.74,870.74,870.73,870.69,870.38,869.77,868.91,868.11,867.33,866.54,865.90,865.75,865.72,865.36,864.74,864.04,863.45,862.40,861.14,860.06,859.89,860.94,861.97,862.40,861.92,861.29,860.76,860.26,859.28,856.44,853.96,852.13,850.98
664.13,664.93,665.76,666.67,667.62,668.54,669.55,670.50,671.63,673.39,676.59,679.30,681.96,684.65,687.27,689.70,692.77,696.89,702.01,706.96,711.38,715.85,720.37,724.55,728.72,733.85,740.57,749.05,756.87,768.82,781.14,790.98,795.93,801.95,807.43,812.58,818.42,825.28,829.88,832.18,832.72,833.42,834.72,835.09,834.13,831.99,830.23,829.37,829.45,830.38,831.31,834.34,839.98,847.37,852.70,850.09,844.13,837.22,830.85,826.96,826.43,826.66,825.83,823.07,818.32,812.78,807.18,802.17,797.59,792.99,787.30,780.31,776.33,772.24,770.65,773.70,782.53,792.85,802.15,809.68,815.25,821.29,828.75,836.21,843.36,852.58,862.60,869.06,871.86,873.97,877.40,879.93,881.90,884.15,886.82,888.69,889.51,889.44,889.50,889.71,889.58,889.35,889.64,890.58,891.32,891.91,892.28,891.98,891.48,890.80,889.22,885.21,881.11,877.88,875.22,872.66,870.15,868.29,866.94,865.78,864.00,862.10,860.40,858.63,856.06,852.45,848.31,843.96,839.34,833.92,828.27,827.53,830.49,829.60,825.31,819.86,814.42,810.36,810.79,810.47,809.75,809.49,810.69,814.46,819.96,826.04,830.52,829.12,826.28,823.24,820.57,819.76,820.94,825.55,832.84,839.69,848.44,857.18,864.70,868.99,866.51,862.60,860.97,863.09,867.61,872.45,877.19,881.32,883.99,886.37,888.75,890.78,892.15,893.50,894.44,894.49,893.69,892.67,891.52,889.56,886.30,881.86,880.15,879.71,879.59,879.52,879.66,879.79,880.85,882.75,884.79,886.30,886.87,886.91,886.89,887.56,888.60,889.50,890.06,890.22,890.31,890.30,890.21,889.89,888.62,886.30,883.67,881.29,879.71,878.74,877.96,877.29,876.88,876.59,876.13,875.55,874.90,874.15,873.30,872.39,871.48,870.66,869.91,869.53,869.42,869.38,869.35,869.18,868.84,868.28,867.54,866.96,866.54,866.33,866.46,866.59,866.32,865.77,865.10,864.57,863.85,862.75,861.67,861.86,862.21,862.25,861.89,861.10,860.15,859.26,858.31,856.87,854.04,851.94,850.65,850.00
665.77,665.85,666.02,666.54,667.59,669.38,671.68,672.88,673.87,675.38,678.16,681.03,683.83,686.56,689.41,692.96,696.80,700.75,704.99,710.13,714.06,717.97,722.02,725.68,729.22,734.39,740.80,748.02,755.86,765.98,775.15,782.24,788.53,797.46,805.38,812.13,818.51,824.24,826.47,826.44,825.37,825.11,825.98,826.79,826.67,824.60,822.50,822.16,822.86,823.74,824.73,827.53,832.72,839.86,846.01,843.80,837.67,830.41,823.95,819.82,818.90,819.00,818.41,815.97,812.27,808.46,804.89,801.38,796.86,791.72,784.94,776.33,771.58,768.11,769.35,776.01,784.13,794.05,803.31,810.77,815.92,822.32,829.62,836.56,842.82,850.30,859.74,865.56,867.50,869.39,873.37,876.50,878.85,881.21,884.12,886.55,887.35,886.61,886.45,886.87,886.94,887.06,888.20,889.88,890.85,891.43,891.84,891.64,891.20,890.63,889.28,885.74,881.94,878.63,875.56,872.42,869.66,867.32,865.40,863.74,861.76,859.48,857.42,855.79,854.47,852.21,848.65,844.44,839.78,834.02,826.62,823.52,824.70,824.43,820.29,815.07,810.22,806.98,806.49,805.75,805.16,805.55,807.88,812.69,818.52,824.05,826.77,821.26,816.90,813.66,811.00,812.24,817.92,825.34,833.05,840.24,848.71,856.65,863.20,866.32,861.11,857.47,857.93,862.44,867.36,872.00,876.61,880.66,882.99,885.28,887.85,890.11,891.61,892.94,894.10,894.57,894.25,893.39,891.98,889.79,886.32,881.59,880.08,879.74,879.67,879.64,879.77,879.91,881.37,883.84,886.07,888.15,888.93,888.86,888.52,888.70,889.49,890.03,890.15,890.30,890.36,890.29,890.10,889.52,887.36,884.73,882.13,880.03,879.26,878.55,877.94,877.56,877.54,877.33,876.76,875.90,874.81,873.61,872.55,871.58,870.70,870.01,869.55,869.24,869.04,868.93,868.84,868.59,868.23,867.75,867.13,866.86,866.90,867.14,867.41,867.51,867.28,866.83,866.26,865.78,865.45,864.62,863.55,863.63,862.75,861.41,860.06,858.98,857.72,856.47,855.09,853.37,851.33,850.15,849.51,849.11
668.31,668.13,668.18,668.60,669.99,672.63,674.85,675.68,676.37,677.46,679.00,681.26,683.97,686.83,690.06,695.60,699.88,703.34,706.71,710.81,714.71,718.27,721.71,725.47,729.26,734.14,739.85,746.27,753.71,761.81,769.17,776.01,784.62,796.75,806.54,813.73,819.37,822.21,823.20,822.61,820.68,819.10,819.57,820.68,821.22,819.72,816.67,815.81,816.46,817.56,819.36,822.21,826.44,831.87,837.05,837.25,833.07,826.61,820.07,814.82,812.78,812.02,811.14,809.40,805.94,802.73,800.20,797.53,793.07,786.32,778.38,770.85,766.64,766.70,771.01,778.80,787.00,796.89,805.11,811.19,815.82,821.56,828.37,834.66,839.85,846.05,854.13,860.05,863.15,865.34,869.33,873.03,876.35,879.63,882.96,884.08,883.39,881.70,881.09,881.76,882.99,884.92,888.00,889.88,890.79,891.21,891.35,891.14,890.85,890.49,889.60,887.07,883.63,880.38,877.25,873.89,870.48,868.14,866.03,863.71,861.16,857.65,854.45,852.13,851.07,850.56,848.18,844.58,840.11,834.18,826.83,821.14,818.39,818.46,816.48,812.37,807.39,803.34,802.65,801.41,800.83,802.44,807.45,812.93,818.60,822.95,822.42,815.14,810.05,807.38,806.84,810.00,817.31,825.46,833.23,840.86,849.39,856.59,861.41,862.19,857.50,854.45,855.87,861.63,866.46,870.20,874.38,878.66,881.58,884.12,886.79,889.24,891.06,892.42,893.48,894.09,894.22,893.86,892.17,889.40,885.47,880.81,879.89,879.74,879.69,879.69,879.80,880.16,881.84,884.57,887.21,889.11,889.76,889.77,889.66,889.71,889.98,890.19,890.28,890.41,890.37,890.23,889.83,888.62,886.04,883.22,880.96,879.60,878.93,878.47,878.28,878.34,878.46,878.24,877.71,876.88,875.72,874.44,873.07,871.72,870.54,869.85,869.41,869.04,868.73,868.48,868.28,868.01,867.68,867.40,867.36,867.49,867.79,868.15,868.38,868.44,868.19,867.81,867.41,866.95,866.28,865.16,863.61,862.09,860.58,858.82,856.97,855.29,853.60,852.22,851.16,850.32,849.41,848.76,848.31,847.96
671.19,671.58,672.17,672.97,674.46,676.81,678.35,678.80,679.38,680.46,681.83,683.70,686.03,688.91,692.82,698.15,701.95,704.94,707.84,711.02,714.29,717.37,720.39,723.88,727.87,732.21,737.59,744.61,752.02,760.05,767.73,776.04,788.34,799.42,807.52,813.28,817.30,818.82,819.49,818.93,816.75,813.99,813.45,814.07,814.63,813.39,810.44,809.56,810.40,812.23,814.97,817.18,820.33,824.79,829.26,831.68,829.48,823.83,816.88,810.75,807.07,805.21,804.52,803.46,800.51,797.34,794.59,791.95,786.76,779.68,772.06,765.63,763.08,766.09,772.21,780.21,789.04,797.94,804.63,809.43,813.45,817.70,823.79,829.85,834.86,840.24,847.12,853.27,857.90,861.36,867.07,871.73,875.49,879.03,881.88,881.98,880.16,877.62,877.03,878.27,880.42,883.41,887.33,889.68,890.63,890.92,890.91,890.66,890.09,889.38,888.25,885.98,883.63,881.28,878.70,875.56,872.06,869.50,867.07,864.30,861.24,857.37,853.44,849.94,847.52,846.78,845.44,843.39,840.27,834.49,827.61,821.07,815.93,813.56,811.64,809.02,805.39,800.92,798.15,796.29,796.40,799.70,806.71,812.81,818.24,821.29,817.85,809.21,804.09,802.99,805.42,810.08,817.32,825.25,833.00,840.44,849.03,855.31,858.62,858.30,853.91,852.12,854.73,860.98,865.22,868.30,871.96,876.21,880.00,882.95,885.72,888.31,890.46,891.79,892.65,893.30,893.79,893.92,892.09,888.92,884.80,880.53,879.84,879.76,879.75,879.82,880.08,880.94,882.75,885.27,887.89,889.55,890.11,890.18,890.18,890.18,890.24,890.31,890.40,890.48,890.36,890.21,889.75,888.36,885.64,882.71,880.53,879.47,878.96,878.80,878.92,879.21,879.52,879.29,878.72,877.86,876.64,875.25,873.71,872.21,870.87,869.92,869.46,869.11,868.78,868.53,868.27,868.02,867.80,867.71,868.00,868.31,868.68,869.09,869.38,869.35,869.02,868.40,867.43,866.18,864.84,863.33,861.58,859.62,857.96,856.07,854.04,852.21,850.81,849.71,848.94,848.47,848.01,847.52,847.11,846.76
674.26,675.50,676.82,678.10,679.48,680.94,681.75,682.07,682.74,684.05,685.87,687.62,689.52,692.32,696.72,700.48,703.32,705.94,708.62,711.13,713.56,716.14,718.91,722.00,725.98,729.69,735.00,743.32,750.83,760.12,769.80,780.72,795.87,803.17,807.65,811.04,813.21,814.49,815.31,815.01,812.88,809.08,807.25,807.02,807.28,806.25,804.17,803.60,804.71,807.39,810.73,812.26,814.69,818.78,822.74,826.71,826.32,821.63,814.00,807.29,802.00,798.91,798.22,797.55,795.50,792.33,788.78,785.58,779.40,772.71,766.07,760.57,760.57,765.68,772.53,780.24,789.56,796.78,801.89,805.79,809.35,812.09,817.36,823.34,828.64,833.75,839.96,846.65,853.02,858.25,866.28,871.83,875.52,878.68,880.33,879.62,877.10,874.07,873.89,875.88,878.74,882.16,886.14,889.13,890.31,890.58,890.50,890.01,888.66,887.13,885.42,883.08,882.08,880.97,879.24,876.65,873.54,870.76,867.97,864.87,861.42,857.73,853.53,848.88,844.34,842.14,841.42,841.17,839.96,834.74,828.67,822.44,816.18,810.19,806.88,805.33,803.38,798.96,793.37,790.82,792.01,797.32,805.77,812.31,817.15,818.61,812.75,803.33,798.93,799.94,805.40,811.11,817.46,824.77,832.51,839.33,847.69,853.01,855.23,854.64,850.32,850.14,854.01,860.16,863.66,866.36,869.56,873.62,878.36,881.83,884.69,887.36,889.76,891.07,891.68,892.25,893.02,893.67,891.89,888.62,884.61,880.79,879.92,879.81,879.88,880.14,880.75,882.22,884.05,886.11,888.39,889.72,890.21,890.31,890.31,890.32,890.38,890.43,890.49,890.49,890.37,890.22,889.82,888.64,886.02,883.08,880.79,879.64,879.24,879.41,879.81,880.31,880.85,880.57,879.87,878.84,877.48,875.98,874.50,873.10,871.74,870.39,869.74,869.36,869.09,868.91,868.64,868.45,868.35,868.41,868.82,869.20,869.60,870.01,870.35,870.13,869.52,868.37,866.43,864.08,862.07,860.27,858.57,856.90,855.29,853.43,851.47,849.86,849.08,848.44,847.86,847.37,846.90,846.38,845.92,845.53
677.34,678.32,679.39,680.33,681.32,682.55,683.84,685.08,686.33,687.70,689.49,691.48,693.59,696.11,699.32,701.97,704.42,706.84,709.26,711.76,714.20,716.68,719.40,722.65,725.99,729.24,734.62,743.39,750.42,761.26,774.81,788.89,799.00,802.67,804.87,806.93,808.58,809.71,810.33,809.84,807.45,802.75,800.32,799.77,800.15,800.17,799.25,798.87,799.83,802.37,804.55,807.26,810.90,815.08,818.33,821.42,822.52,819.70,811.11,804.24,798.95,794.64,791.39,789.99,789.58,787.80,784.37,780.05,774.15,767.13,760.00,755.21,758.81,764.23,770.68,778.12,785.79,790.96,795.38,799.66,803.75,807.17,811.90,817.10,822.30,828.35,835.77,844.21,852.60,859.09,866.98,871.96,874.90,876.89,876.54,874.85,872.35,870.06,870.72,873.41,876.70,880.23,884.09,887.67,889.55,890.25,889.98,888.49,885.29,882.57,880.75,879.12,878.43,877.72,876.56,874.70,872.49,870.32,867.55,863.99,860.32,856.65,852.87,848.49,843.07,839.63,838.09,837.98,838.10,834.40,829.66,823.96,817.39,810.58,805.90,802.27,799.05,795.46,789.26,786.20,788.18,795.61,805.43,811.51,814.24,813.02,805.81,797.41,795.24,798.28,804.72,810.63,816.83,824.16,831.99,838.17,844.97,849.72,851.90,850.99,846.94,848.15,852.62,858.06,861.51,864.33,867.50,871.55,876.85,880.89,883.85,886.39,888.75,890.24,890.60,890.89,891.70,893.06,891.87,889.28,885.87,882.15,880.30,879.87,880.20,881.10,882.50,884.17,885.86,887.58,889.32,890.01,890.31,890.44,890.45,890.50,890.53,890.52,890.50,890.49,890.41,890.27,890.04,889.38,887.30,884.57,882.08,880.40,879.74,880.11,881.12,882.35,883.12,882.66,881.52,879.95,878.10,876.63,875.82,875.02,873.81,872.01,870.54,869.77,869.47,869.32,869.16,869.01,868.93,869.00,869.39,870.02,870.66,871.15,871.18,870.38,868.67,866.45,864.01,861.57,859.78,858.32,856.88,855.16,853.32,851.49,849.87,848.82,848.07,847.46,846.88,846.28,845.80,845.28,844.76,844.32
677.78,678.59,679.43,680.09,680.82,681.93,683.55,685.38,687.16,688.85,690.70,692.76,694.90,697.17,699.60,701.48,703.86,706.51,709.23,711.98,714.60,717.17,720.09,723.98,727.62,731.47,737.17,745.76,754.07,766.23,780.29,793.04,798.54,800.07,801.08,802.43,803.89,804.76,805.10,804.66,802.62,797.75,794.56,793.48,793.73,793.92,793.97,794.15,795.16,797.42,799.35,802.97,807.38,811.63,814.44,816.70,818.44,816.94,808.69,801.61,796.10,790.82,785.67,782.97,782.94,782.68,780.74,775.87,769.36,761.66,754.75,751.92,757.69,763.84,770.38,777.53,784.05,788.13,792.08,796.44,800.99,805.63,810.36,815.21,820.57,827.58,836.31,845.39,853.86,860.69,867.60,871.39,872.88,873.01,871.22,869.02,866.70,865.04,866.13,870.14,874.22,877.85,881.56,885.32,887.96,888.86,887.60,885.09,881.42,878.42,876.39,874.67,874.00,873.62,873.04,871.93,870.32,868.57,866.03,862.47,858.61,854.82,850.99,846.65,841.39,837.51,835.13,834.40,834.83,833.03,829.75,824.74,818.30,811.65,806.38,801.64,797.11,792.32,785.31,782.56,785.79,794.73,804.34,809.12,809.72,806.37,798.61,792.40,792.63,797.27,804.09,810.02,816.15,823.62,831.51,836.79,841.63,845.27,847.08,846.19,843.60,846.25,851.30,856.51,860.29,863.31,866.59,870.67,875.90,880.08,882.74,884.76,886.74,888.26,888.73,889.36,890.69,892.47,892.02,890.18,887.38,883.95,882.03,881.65,882.14,883.28,884.93,886.52,887.83,888.93,889.95,890.25,890.44,890.56,890.54,890.53,890.51,890.47,890.43,890.42,890.38,890.30,890.18,889.88,888.66,886.42,884.10,882.42,881.88,882.37,883.37,884.57,885.47,884.84,883.18,881.04,878.97,877.94,877.77,877.37,876.28,874.40,872.50,871.41,870.93,870.62,870.31,870.00,869.84,870.00,870.48,871.30,871.91,872.03,871.34,869.95,867.59,864.76,862.01,859.93,858.41,857.02,855.53,853.77,851.86,850.18,848.87,848.00,847.19,846.54,845.96,845.44,845.11,844.73,844.30,843.90
675.84,676.67,677.40,677.97,678.63,679.72,681.43,683.43,685.56,687.74,689.78,691.71,693.67,695.79,697.98,699.46,701.96,705.14,708.58,711.67,714.51,717.29,720.59,725.38,730.14,735.43,741.71,749.81,760.85,773.56,784.77,792.48,795.09,795.93,796.65,797.77,799.23,799.71,799.82,799.71,798.55,794.00,789.94,788.12,787.92,787.48,788.16,789.12,790.46,792.54,795.40,799.42,803.82,807.87,810.54,812.50,814.28,813.48,806.59,799.25,793.18,787.30,781.27,777.05,775.95,776.80,777.10,772.28,764.61,756.35,750.66,751.01,757.52,764.91,772.14,779.01,785.17,789.12,792.81,796.93,801.78,807.71,812.78,817.68,823.46,831.37,840.94,849.30,856.01,862.08,867.33,869.40,869.00,867.02,864.62,862.49,860.57,859.35,860.61,866.19,871.36,875.33,879.00,882.59,885.71,886.41,883.68,880.41,877.55,875.06,872.66,870.05,869.14,869.04,869.07,868.72,867.44,865.86,863.67,860.56,856.55,852.54,848.19,843.60,839.19,835.52,832.43,830.59,830.43,830.44,828.53,824.33,818.46,812.58,807.40,802.55,796.91,789.39,781.51,779.94,784.80,794.51,802.50,805.20,803.80,799.09,791.79,788.92,791.69,797.49,804.27,809.99,815.80,823.05,830.66,834.86,837.88,840.18,841.34,840.80,840.68,844.88,850.57,855.91,860.17,863.34,866.67,870.59,875.07,878.94,881.06,882.46,884.00,885.49,886.47,887.97,890.13,891.99,892.26,891.12,888.89,886.07,884.99,884.96,885.47,886.38,887.67,888.94,889.69,890.01,890.28,890.44,890.58,890.64,890.56,890.43,890.35,890.31,890.30,890.30,890.30,890.29,890.24,890.09,889.85,888.34,886.62,885.50,885.39,885.89,886.35,886.82,887.68,887.00,884.90,882.37,880.44,880.16,880.42,880.17,879.07,877.44,875.52,874.26,873.56,872.99,872.29,871.66,871.39,871.62,872.11,872.82,873.03,872.42,870.79,868.95,866.46,863.53,860.67,859.14,857.81,856.23,854.40,852.68,850.85,849.42,848.30,847.27,846.44,845.78,845.29,845.03,844.97,844.81,844.58,844.29
673.83,674.62,675.38,676.03,676.97,678.54,680.42,682.51,684.64,686.75,688.82,690.76,692.66,694.64,696.71,698.53,701.02,704.21,707.76,710.64,713.63,716.68,720.19,725.04,730.32,736.37,743.38,752.24,764.65,774.55,782.13,787.47,790.14,791.22,792.02,793.13,794.63,794.80,795.08,795.52,794.86,789.78,785.38,782.97,782.07,781.43,781.93,783.02,784.73,787.61,792.45,796.59,799.72,802.17,805.00,808.07,810.75,810.49,803.84,796.38,790.09,784.29,778.61,773.73,770.40,769.83,769.90,765.29,758.89,752.32,749.25,753.10,760.26,768.56,776.47,783.48,789.66,794.02,798.02,802.41,807.67,813.77,818.45,823.01,829.11,838.33,846.36,852.63,857.31,860.57,862.71,862.51,860.78,858.53,857.02,856.04,855.16,854.91,857.22,862.41,868.35,873.92,878.34,881.97,883.85,883.42,880.62,877.86,875.30,872.70,869.81,866.39,864.41,864.21,864.85,865.28,864.70,863.37,861.51,858.87,854.86,850.70,846.23,841.63,837.38,833.54,829.73,826.88,825.78,825.76,824.00,820.70,816.26,811.21,806.10,799.77,792.35,784.52,778.27,778.82,784.79,794.05,800.59,800.49,796.95,791.87,787.40,790.03,796.18,802.91,808.67,813.39,817.16,821.87,827.20,830.69,834.17,836.98,838.39,838.27,840.53,846.40,852.57,857.41,861.28,864.24,866.66,868.98,871.78,875.00,877.50,879.70,882.04,884.31,886.27,888.26,890.27,891.74,892.25,891.55,890.06,888.48,888.15,888.27,888.54,888.92,889.38,889.92,890.25,890.39,890.54,890.61,890.60,890.54,890.45,890.31,890.21,890.15,890.12,890.16,890.17,890.20,890.23,890.21,890.10,889.48,888.81,888.40,888.38,888.63,888.79,888.92,889.22,888.94,887.35,885.37,884.10,884.18,884.40,883.95,882.63,880.81,878.91,877.84,877.38,876.95,876.23,875.42,874.93,874.72,873.94,873.20,872.36,871.24,869.59,867.75,865.39,862.73,860.17,858.57,857.25,855.68,853.79,852.03,850.32,848.95,847.82,846.78,846.23,845.99,845.91,845.94,845.94,845.78,845.54,845.23
671.87,672.64,673.62,674.70,676.13,678.08,680.06,682.10,684.11,686.07,688.04,689.94,691.88,693.89,696.02,698.18,700.65,703.58,706.81,709.49,712.58,715.98,719.80,724.49,729.70,735.94,743.34,752.63,765.13,772.83,777.50,780.63,783.40,785.05,786.24,787.49,788.95,788.92,790.46,792.11,791.49,785.10,779.89,776.73,775.47,775.85,776.44,777.07,778.77,782.84,789.16,793.42,795.65,797.00,800.28,804.36,807.63,807.57,801.11,793.85,787.17,781.23,776.02,771.07,766.24,763.53,761.92,757.85,753.14,749.18,749.18,755.73,763.32,772.21,780.30,787.03,793.52,798.71,803.27,808.17,814.43,820.62,824.90,829.19,835.41,844.51,850.51,854.29,856.60,857.67,857.49,855.51,852.76,850.45,849.47,849.28,849.50,850.68,854.50,859.73,866.08,872.57,877.62,881.03,881.76,880.54,878.01,875.73,873.34,870.61,867.37,863.56,860.64,859.95,860.60,861.40,861.32,860.52,859.19,857.15,853.90,850.21,845.52,840.40,836.02,831.90,827.57,823.79,821.40,820.38,818.46,816.08,813.13,808.77,803.46,795.73,787.01,779.61,775.43,777.64,784.05,792.23,796.65,794.70,790.16,786.08,786.29,793.25,801.42,808.65,814.17,818.63,820.82,823.58,827.42,830.93,834.55,837.73,839.53,839.39,841.04,846.84,853.13,857.99,861.74,863.96,865.48,867.01,869.39,872.48,875.52,878.49,881.39,884.18,886.79,888.98,890.65,891.80,892.33,891.88,890.92,890.20,890.24,890.37,890.43,890.43,890.37,890.46,890.55,890.63,890.66,890.63,890.51,890.38,890.27,890.09,889.84,889.62,889.50,889.57,889.83,890.06,890.19,890.25,890.18,890.10,890.06,890.05,890.04,890.08,890.09,890.06,890.01,890.00,889.13,888.01,887.40,887.58,887.68,886.79,884.81,882.72,880.76,879.69,879.20,878.66,877.85,876.74,875.93,875.43,873.83,871.98,870.29,868.76,867.17,865.60,863.76,861.71,859.65,858.06,856.73,855.22,853.43,851.70,850.07,848.66,847.48,846.59,846.47,846.66,846.90,847.07,847.08,846.89,846.60,846.24
670.05,670.88,672.31,674.15,676.19,678.28,680.24,682.09,683.92,685.75,687.50,689.30,691.35,693.61,695.97,698.33,700.81,703.35,705.90,708.45,711.60,715.41,719.69,724.12,728.70,734.54,741.76,750.77,761.97,768.87,771.81,772.51,774.79,777.10,778.91,780.41,781.72,781.72,785.67,789.28,788.25,779.88,773.19,769.12,768.03,770.72,771.73,771.53,772.96,778.42,785.23,789.53,791.60,792.93,796.97,801.53,804.80,804.68,798.69,791.90,784.55,778.05,773.13,768.59,763.51,758.51,754.11,750.88,747.81,747.09,750.30,758.38,766.15,775.21,782.89,788.83,795.86,802.22,807.42,812.94,820.69,827.23,831.42,835.71,841.74,848.71,852.50,853.62,853.33,853.35,852.12,849.15,845.68,843.15,842.04,842.09,843.42,846.56,852.21,858.46,864.83,871.00,876.25,879.02,879.18,877.86,875.75,873.66,871.44,868.69,865.36,861.68,858.19,856.54,856.36,856.92,857.02,857.06,856.54,855.29,853.67,851.13,846.17,840.03,835.27,830.88,826.29,821.77,817.83,815.04,812.72,811.03,809.24,805.36,799.56,791.02,781.87,775.17,773.05,776.16,782.26,788.80,790.27,787.80,783.89,782.38,788.80,797.95,806.25,813.54,819.99,825.29,827.04,829.15,832.86,837.11,840.01,843.03,845.15,844.54,842.10,845.48,851.20,856.77,860.87,861.90,862.90,865.09,868.82,872.44,875.98,879.28,882.20,885.00,887.75,889.83,891.14,892.17,892.56,892.18,891.46,890.96,890.89,890.89,890.85,890.74,890.67,890.71,890.78,890.79,890.61,890.47,890.29,890.10,889.90,889.65,889.06,888.54,888.30,888.43,889.25,889.86,890.13,890.21,890.26,890.22,890.17,890.13,889.96,889.86,889.73,889.60,889.55,889.55,889.42,889.24,889.14,889.18,889.16,887.64,884.71,882.41,880.32,878.95,877.97,876.90,875.86,874.31,873.20,872.72,871.19,869.04,866.92,865.03,863.44,862.39,861.43,860.29,858.81,857.46,856.14,854.74,853.23,851.63,850.04,848.55,847.34,846.78,847.17,847.68,848.04,848.17,848.18,848.00,847.64,847.21
669.02,670.25,672.03,674.04,676.13,678.23,680.21,682.00,683.70,685.37,687.05,688.95,691.22,693.68,696.12,698.56,701.32,704.06,706.50,708.49,711.62,715.74,720.28,724.41,728.79,734.13,740.46,748.10,757.63,762.66,764.56,765.05,766.70,768.42,770.16,771.71,772.83,773.58,779.23,784.01,782.87,773.90,766.15,762.04,761.82,764.94,764.71,765.77,769.25,775.25,781.50,784.17,786.09,788.95,793.46,797.73,801.32,802.30,797.69,790.34,782.43,775.60,770.39,765.38,760.70,755.44,750.10,746.55,744.88,747.03,752.58,760.94,769.31,777.70,784.99,791.29,798.42,805.09,810.42,815.62,822.73,830.66,836.22,841.09,846.20,849.92,850.69,849.64,847.77,846.08,843.28,839.35,835.46,833.07,833.03,834.77,838.17,843.52,850.85,857.78,864.00,869.30,873.10,875.19,875.40,874.50,872.94,871.32,869.75,867.34,864.12,860.76,856.99,853.98,852.16,851.78,851.88,852.61,852.97,852.62,852.00,850.24,846.28,840.95,835.93,831.71,827.29,822.74,818.30,814.20,810.23,806.98,804.23,800.62,794.66,786.91,778.55,771.75,771.47,775.67,781.26,785.67,784.90,782.01,779.87,781.62,791.37,801.00,809.69,817.64,824.86,830.84,833.85,835.56,837.53,841.65,845.05,848.02,850.04,849.83,846.51,846.40,849.18,853.81,857.70,859.06,861.08,864.62,869.30,872.86,876.30,879.62,882.62,885.50,888.30,890.31,891.47,892.36,892.52,892.27,891.85,891.42,891.13,890.92,890.82,890.79,890.76,890.75,890.71,890.62,890.44,890.28,889.76,889.13,888.61,888.02,887.29,886.75,886.72,887.62,888.93,889.74,890.08,890.19,890.23,890.19,890.13,889.80,888.38,887.22,886.06,885.03,884.55,884.55,884.61,884.65,884.70,884.74,884.34,883.05,881.05,879.31,877.48,875.69,874.01,872.57,871.55,870.49,869.77,869.45,868.34,866.32,864.00,861.88,860.56,859.82,859.15,858.28,857.07,855.85,854.56,853.28,852.06,850.93,849.76,848.50,847.47,847.33,848.07,848.72,849.11,849.28,849.29,849.06,848.62,847.99
668.56,670.03,671.94,673.95,675.97,678.00,679.92,681.65,683.28,684.92,686.71,688.78,691.23,693.83,696.35,698.83,701.82,704.85,707.45,709.20,712.24,716.42,720.97,724.80,728.97,733.69,738.88,744.83,752.52,755.92,757.27,758.13,759.60,760.66,761.64,762.63,763.75,765.66,771.70,776.64,776.08,768.37,760.12,755.68,755.66,758.62,758.13,761.01,766.36,772.05,776.80,778.22,780.32,784.48,789.14,793.51,797.82,800.14,796.99,789.14,780.93,773.94,768.37,762.61,757.83,752.39,746.65,743.09,743.55,748.50,755.85,763.94,772.26,779.70,786.49,793.05,800.16,807.00,812.38,817.29,823.75,832.22,838.48,843.19,846.58,847.10,846.03,843.72,840.65,837.52,834.09,829.86,825.84,823.60,824.53,828.10,833.57,840.77,849.28,857.09,863.09,867.29,869.75,871.04,871.28,870.86,869.96,868.90,868.13,866.28,863.34,860.26,856.47,852.61,849.28,847.18,846.55,847.39,848.39,848.93,848.95,847.88,845.29,841.37,836.56,832.53,828.27,823.80,819.22,814.52,809.32,804.35,799.78,795.23,789.09,782.13,774.76,768.62,770.13,775.17,780.02,782.23,779.47,777.03,777.50,782.61,794.21,803.57,812.68,821.33,828.86,835.29,839.94,842.03,842.85,846.30,849.85,852.66,854.65,855.20,852.25,849.34,849.13,852.20,855.56,857.47,860.47,864.87,869.68,873.13,876.49,879.79,882.86,885.80,888.67,890.70,891.74,892.30,892.26,892.08,891.82,891.43,890.99,890.63,890.51,890.64,890.69,890.64,890.52,890.35,890.07,889.58,888.57,887.48,886.70,885.97,885.28,885.11,885.79,887.45,888.96,889.76,890.06,890.16,890.16,889.57,888.78,887.67,885.32,883.49,881.78,880.26,879.49,879.38,879.42,879.48,879.55,879.66,879.11,878.22,877.15,875.90,874.21,872.20,870.18,868.55,867.52,866.79,866.34,866.04,865.26,863.63,861.58,859.60,858.47,857.75,857.03,856.15,855.06,853.94,852.72,851.63,850.78,850.09,849.32,848.36,847.66,847.97,848.94,849.63,850.05,850.23,850.17,849.86,849.28,848.44
668.82,670.12,671.78,673.69,675.66,677.57,679.27,680.87,682.53,684.38,686.53,688.79,691.32,694.01,696.65,699.15,702.17,705.39,708.38,710.67,713.52,717.30,721.50,725.04,728.79,732.70,736.61,740.76,746.45,749.16,750.55,751.88,754.10,754.88,754.27,753.69,755.16,758.63,763.02,766.63,767.68,763.93,756.07,750.49,749.11,751.63,753.30,758.13,763.98,768.10,770.25,771.86,774.76,779.17,783.58,789.02,794.62,798.17,796.13,788.37,780.30,773.40,767.60,760.90,754.93,748.63,742.69,740.21,744.08,751.74,760.22,767.61,774.58,780.99,787.05,793.19,800.26,807.34,812.85,817.90,824.59,831.66,836.75,839.73,840.25,838.27,837.80,835.69,831.66,827.94,825.67,822.30,818.59,816.40,817.67,822.75,829.83,838.09,846.92,856.02,861.80,864.79,866.74,867.08,867.03,866.97,866.88,866.49,866.51,865.45,863.09,860.10,856.63,853.01,848.81,843.96,841.39,841.34,842.43,843.76,844.01,843.61,842.48,840.28,836.48,832.59,828.23,823.70,819.23,814.92,809.85,803.82,796.88,789.37,782.82,775.95,769.43,765.62,768.88,774.19,777.95,778.06,773.69,773.21,777.30,785.59,797.46,805.95,815.43,824.53,831.69,838.22,844.45,848.11,849.52,851.72,854.38,856.88,859.13,860.63,858.87,854.93,852.71,853.81,856.37,858.57,861.85,865.92,869.56,873.03,876.52,879.88,882.96,885.93,888.93,891.05,891.94,891.88,891.69,891.43,891.10,890.70,890.29,889.91,889.86,890.19,890.40,890.37,890.23,889.96,889.34,887.95,886.27,884.87,884.11,883.70,883.32,884.13,886.20,888.30,889.52,890.00,890.09,890.08,889.92,887.86,885.12,882.54,880.24,878.88,877.82,876.90,876.26,875.83,875.71,875.71,875.77,876.01,875.83,875.24,874.31,873.09,871.23,869.38,867.71,866.18,864.95,863.94,863.20,862.67,861.92,860.95,859.85,858.67,857.46,856.32,855.18,854.06,852.99,851.94,850.87,850.09,849.68,849.28,848.69,848.07,847.85,848.62,849.64,850.35,850.76,850.88,850.63,850.17,849.38,848.36
670.09,670.78,671.94,673.45,675.14,676.89,678.56,680.29,682.19,684.30,686.58,688.86,691.39,694.08,696.74,699.34,702.55,705.98,709.24,711.90,714.63,717.62,720.72,723.63,726.91,730.03,732.77,735.28,738.79,741.42,743.51,745.69,748.77,749.82,749.15,748.41,749.81,753.81,757.10,759.30,760.12,758.69,753.23,747.38,743.67,744.99,748.58,754.23,759.26,761.43,762.47,766.09,771.17,776.76,781.87,787.55,793.23,796.45,793.47,786.89,779.76,773.03,766.63,759.55,753.27,746.32,740.12,739.53,744.77,752.07,759.71,767.08,774.34,780.82,786.46,791.92,798.99,805.36,810.58,815.87,822.78,828.86,832.39,833.06,831.10,829.35,828.86,826.97,823.41,819.63,816.42,813.21,810.48,809.62,812.79,819.36,827.10,835.29,844.10,852.46,858.72,862.53,863.56,863.13,862.78,862.87,863.32,863.51,864.26,864.20,862.77,859.86,856.54,853.08,848.84,843.48,839.70,838.17,838.25,839.11,838.73,838.50,837.94,836.91,835.14,831.87,827.30,822.38,817.74,813.48,808.87,802.73,794.93,786.32,778.66,771.58,765.63,763.01,768.14,772.68,774.35,772.97,771.08,773.41,780.05,789.55,799.65,807.06,817.08,826.99,834.22,840.73,846.86,851.07,853.45,855.79,858.88,862.53,865.35,865.44,863.27,859.76,857.50,857.67,859.40,862.24,865.82,869.41,871.95,874.49,877.33,880.55,884.11,887.43,890.06,891.34,891.36,891.13,890.90,890.67,890.25,889.42,888.63,888.36,888.66,889.37,889.86,889.74,889.12,888.15,886.86,885.24,883.57,882.25,881.61,881.58,882.60,884.61,887.17,889.11,889.87,890.05,890.00,889.48,886.94,883.69,880.75,878.50,876.58,875.54,874.78,874.06,873.36,872.65,872.36,872.30,872.36,872.67,872.64,872.25,871.55,870.58,868.94,867.25,865.63,864.08,862.69,861.68,860.95,860.46,859.96,859.42,858.72,857.84,856.72,855.50,854.29,853.15,852.08,850.85,850.04,849.52,849.16,848.78,848.48,848.37,848.61,849.37,850.29,851.04,851.33,851.02,850.52,849.86,848.96,847.86
672.25,672.31,672.85,673.72,674.92,676.48,678.11,679.96,682.06,684.35,686.63,688.86,691.35,694.01,696.65,699.31,702.66,706.19,709.50,712.30,714.81,717.06,719.14,721.31,723.92,726.24,728.09,729.53,731.36,733.91,736.53,739.34,743.14,744.71,744.48,743.99,745.33,749.55,752.26,753.39,753.44,753.29,750.30,744.78,739.42,739.66,744.49,750.01,753.71,754.52,756.19,761.91,768.80,775.43,781.57,787.21,792.31,794.53,790.37,784.73,778.71,772.33,765.39,758.09,751.62,744.23,737.98,739.04,744.65,750.89,757.54,765.17,772.52,779.44,784.93,789.55,796.35,802.20,807.33,812.79,819.57,824.88,826.69,825.35,822.04,821.07,820.35,818.59,815.70,812.09,807.57,804.28,802.64,803.50,808.84,816.64,824.64,832.35,840.70,847.88,854.34,859.02,859.77,859.08,858.65,858.88,859.67,860.38,861.87,862.85,862.38,859.52,856.20,852.81,848.66,843.23,838.96,836.15,834.95,834.89,833.82,833.27,832.83,832.61,832.71,830.45,825.96,820.73,815.70,810.85,806.19,800.20,792.56,783.89,775.60,768.15,762.39,760.58,766.23,769.75,770.38,769.50,771.47,776.31,784.13,793.34,801.32,807.73,818.22,828.86,836.26,842.69,848.29,852.83,856.33,859.25,862.91,867.62,870.83,869.53,866.92,864.21,862.44,862.14,863.16,866.28,869.99,873.26,875.18,876.86,879.04,882.11,886.02,889.24,890.92,891.05,890.22,889.88,889.59,889.31,888.76,887.61,886.58,886.50,887.10,888.07,888.78,888.40,887.26,885.65,883.86,882.31,880.93,879.89,879.53,879.98,882.43,885.52,888.30,889.74,890.06,889.73,888.98,887.36,882.96,879.18,876.53,874.88,873.45,872.73,872.20,871.63,870.93,870.14,869.77,869.67,869.71,870.01,869.97,869.67,869.16,868.37,867.03,865.43,863.74,862.14,860.80,859.93,859.33,858.90,858.58,858.27,857.75,856.99,856.01,854.85,853.68,852.59,851.52,850.22,849.65,849.30,848.92,848.58,848.54,848.87,849.44,850.20,851.04,851.69,851.70,850.93,850.15,849.29,848.31,847.20
676.06,675.71,675.51,675.35,675.72,676.98,678.36,680.11,682.14,684.33,686.51,688.64,691.03,693.62,696.25,698.83,702.07,705.35,708.23,710.71,712.64,714.57,716.42,717.80,719.32,720.78,722.35,724.13,725.77,727.80,729.94,732.52,736.56,738.89,739.24,739.08,740.65,745.03,748.17,749.24,748.45,748.08,746.15,741.96,737.50,737.56,741.98,745.68,747.69,749.10,754.84,761.53,768.15,774.77,782.07,787.58,791.23,791.89,787.52,781.28,776.18,770.64,763.55,756.09,749.03,741.58,735.86,737.42,742.28,747.94,754.71,762.88,768.49,775.98,781.75,785.37,791.08,797.72,803.58,808.95,814.67,819.49,819.45,817.34,815.38,814.56,813.57,811.65,808.86,805.58,800.41,796.98,796.14,798.82,805.78,814.21,822.12,829.09,836.13,842.56,847.89,852.04,854.56,854.76,854.88,855.33,856.13,857.25,859.59,861.55,861.85,858.97,855.40,851.94,847.51,841.47,838.04,834.94,832.68,831.45,830.18,828.41,827.46,827.57,828.37,827.75,824.23,819.18,813.35,806.49,800.10,794.25,788.31,780.97,773.83,765.78,759.43,758.34,760.83,763.43,766.55,771.00,777.39,783.30,789.44,795.96,802.45,808.22,818.81,829.76,837.25,843.51,848.75,853.79,858.54,862.11,865.80,870.10,873.03,872.19,870.29,868.25,866.87,866.53,867.09,869.32,872.63,876.15,878.65,880.47,882.64,885.62,889.13,890.87,890.40,889.27,888.20,887.53,887.00,886.41,885.66,884.80,884.23,884.40,885.00,885.80,886.42,885.43,883.97,882.43,880.77,879.63,878.73,878.23,878.49,879.63,882.78,886.45,889.36,889.91,890.01,888.55,885.59,881.60,878.43,875.67,873.32,871.58,870.68,870.32,870.12,869.89,869.51,869.15,868.92,868.81,868.78,868.95,868.59,868.15,867.69,866.74,865.62,863.95,862.02,860.42,859.64,859.14,858.68,858.20,857.66,857.25,856.70,856.00,855.21,854.16,853.06,852.00,851.01,850.11,849.61,849.24,848.93,848.91,849.06,849.38,850.03,851.18,852.07,852.19,851.64,850.57,849.55,848.52,847.49,846.45
678.79,678.30,677.62,677.07,677.06,677.90,679.11,680.71,682.53,684.47,686.46,688.47,690.67,693.09,695.71,698.30,701.03,703.80,706.44,708.62,710.33,711.90,713.37,714.54,715.83,717.19,718.74,720.51,721.86,723.47,725.27,727.45,730.52,732.75,733.73,734.86,738.10,742.59,745.17,745.53,744.06,742.94,741.05,737.26,733.48,734.46,738.27,740.79,742.72,746.16,753.50,761.05,768.03,774.67,781.69,786.84,789.18,788.15,782.91,777.37,772.53,767.16,760.55,753.70,746.84,739.06,732.98,735.06,740.03,745.89,752.42,759.42,764.37,770.50,776.39,781.78,788.30,795.09,801.35,807.08,812.04,814.03,812.19,809.69,808.40,807.61,806.57,804.85,802.29,798.66,793.66,790.72,791.07,795.77,803.56,811.32,818.48,824.96,830.80,836.17,840.50,844.05,847.10,849.10,850.26,851.21,852.42,854.31,857.85,860.52,860.97,858.16,854.24,848.87,843.21,838.71,836.01,833.37,830.26,827.27,826.36,823.92,822.24,821.94,822.82,823.38,821.51,817.45,811.37,804.10,797.39,790.81,784.01,776.78,769.63,761.86,756.20,756.28,759.81,763.76,768.59,774.88,782.43,788.96,794.84,800.38,805.85,811.95,820.43,829.31,836.95,843.67,849.65,855.28,860.45,864.52,868.33,872.23,875.06,875.18,873.93,872.45,871.37,870.93,871.15,872.84,875.79,879.27,882.18,884.23,886.28,888.46,890.32,890.36,889.06,887.55,886.27,885.22,884.40,883.48,882.63,882.22,882.24,882.66,883.12,883.49,883.76,882.54,881.05,879.68,878.42,877.48,877.20,877.58,878.69,880.48,883.87,887.12,889.00,888.33,886.76,884.34,881.22,877.67,874.99,872.78,871.06,869.97,869.46,869.21,869.09,868.93,868.57,868.31,868.10,867.94,867.86,867.96,867.48,866.94,866.42,865.53,864.48,863.06,861.41,859.88,859.17,858.68,858.21,857.68,857.08,856.56,855.95,855.25,854.50,853.63,852.73,851.85,851.00,850.26,849.74,849.38,849.21,849.28,849.49,850.05,850.98,852.15,852.67,852.18,851.18,850.01,848.92,847.84,846.78,845.82
680.75,680.27,679.40,678.81,678.66,679.12,680.20,681.63,683.23,684.92,686.68,688.53,690.52,692.73,695.23,697.69,699.79,701.99,704.41,706.34,707.96,709.25,710.36,711.60,713.05,714.61,716.24,717.82,718.92,720.17,721.63,723.29,725.13,727.18,729.08,731.84,736.78,741.08,742.61,742.05,740.08,738.18,735.96,732.41,729.36,731.20,734.31,736.52,739.39,744.95,752.61,760.42,767.59,774.08,780.48,785.39,786.75,784.28,778.13,773.22,768.26,762.85,756.93,750.93,744.69,736.92,730.52,732.68,737.91,744.01,750.06,755.64,760.41,765.12,771.15,778.69,786.21,792.80,799.36,805.54,809.63,808.39,804.94,802.13,801.16,800.49,799.62,798.21,795.85,791.83,787.21,785.18,786.94,793.34,801.47,808.08,814.15,820.00,824.90,829.29,832.80,835.76,838.80,842.38,844.50,846.10,848.12,851.10,855.88,859.27,859.83,856.93,852.76,845.71,839.02,836.10,833.68,831.19,827.28,822.81,822.23,819.32,816.95,816.10,816.95,818.43,818.17,815.08,808.68,801.39,794.87,787.71,779.85,772.49,765.20,757.86,753.28,755.06,760.70,766.43,772.36,778.94,786.25,793.34,799.52,804.84,809.78,816.41,822.71,829.23,836.60,843.94,850.79,856.83,862.02,866.46,870.41,874.07,876.94,878.09,877.55,876.67,875.90,875.39,875.30,876.64,879.26,882.59,885.65,887.73,889.36,890.38,890.36,889.04,887.46,885.91,884.45,883.08,882.01,880.87,880.02,880.05,880.54,881.10,881.38,881.26,881.06,879.77,878.34,877.14,876.34,875.71,876.23,877.61,879.56,881.89,884.76,886.72,886.98,885.10,882.02,879.16,876.71,874.44,872.19,870.51,869.49,869.10,868.84,868.59,868.43,868.26,867.81,867.53,867.29,867.08,866.96,867.00,866.48,865.84,865.23,864.45,863.43,862.31,861.09,859.82,859.10,858.55,858.02,857.48,856.90,856.29,855.63,854.91,854.14,853.43,852.72,852.01,851.29,850.60,850.03,849.72,849.70,849.87,850.16,851.01,852.14,852.98,852.86,851.82,850.53,849.37,848.31,847.23,846.21,845.43
