947.44,950.38,952.83,952.99,952.38,952.30,952.29,952.20,951.96,951.24,949.39,947.69,948.06,950.18,953.51,958.28,963.26,968.04,973.58,983.10,992.60,999.95,1005.45,1011.03,1019.69,1026.48,1032.35,1038.74,1044.72,1051.73,1058.03,1063.03,1067.55,1073.24,1078.45,1082.68,1085.75,1088.60,1091.62,1093.65,1093.90,1093.00,1091.16,1089.32,1087.42,1084.67,1081.41,1078.34,1076.20,1075.15,1072.72,1068.77,1066.16,1066.37,1068.86,1063.48,1056.94,1051.17,1046.46,1044.58,1045.51,1048.00,1051.78,1057.36,1063.18,1067.78,1071.32,1075.07,1079.31,1084.07,1089.05,1092.84,1090.72,1081.32,1070.52,1060.49,1050.42,1040.18,1032.55,1028.84,1030.39,1033.87,1036.12,1037.35,1037.82,1037.17,1033.60,1028.14,1023.53,1025.05,1030.43,1035.75,1040.51,1045.11,1049.66,1058.22,1069.08,1080.39,1089.07,1096.39,1105.41,1116.38,1128.20,1137.81,1142.33,1144.72,1147.16,1150.15,1154.80,1160.20,1166.18,1173.25,1181.21,1189.37,1196.41,1201.26,1206.02,1208.74,1208.32,1205.37,1204.00,1203.16,1203.73,1207.54,1217.68,1230.28,1243.08,1252.54,1257.13,1262.30,1268.55,1275.15,1281.22,1284.43,1279.62,1274.53,1269.90,1264.43,1259.05,1254.80,1248.23,1237.02,1221.49,1210.99,1205.36,1203.74,1205.63,1207.08,1208.23,1209.07,1208.91,1205.83,1202.00,1197.26,1191.58,1185.43,1179.28,1172.45,1165.90,1160.74,1155.33,1150.30,1146.06,1143.82,1145.90,1144.38,1139.43,1132.85,1127.28,1122.98,1116.95,1113.62,1116.78,1121.96,1118.68,1113.27,1111.83,1121.37,1127.24,1127.32,1125.25,1124.59,1120.64,1118.72,1119.88,1124.64,1132.33,1139.30,1144.83,1149.40,1153.95,1158.03,1164.33,1172.12,1179.63,1183.33,1186.53,1190.51,1195.21,1199.66,1206.13,1213.44,1220.88,1227.85,1233.46,1238.82,1244.17,1249.61,1255.36,1262.13,1268.62,1272.97,1271.50,1264.46,1257.72,1252.06,1247.18,1243.34,1237.48,1232.78,1229.98,1227.16,1226.22,1225.85,1224.28,1220.08,1217.89,1218.39,1219.96,1221.94,1224.84,1227.59,1228.08,1225.64,1220.19,1215.18,1209.81,1203.88,1197.29,1190.25,1184.51,1179.69,1175.42,1171.18,1166.10,1160.60,1154.97,1149.19,1142.10,1136.47,1133.76,1134.88,1138.42,1140.40,1140.96,1140.53
948.48,949.29,952.06,955.33,958.06,959.46,959.33,958.64,957.47,955.75,953.49,950.97,949.70,949.84,951.65,955.79,959.52,964.88,973.17,982.81,992.09,999.40,1005.01,1010.45,1018.36,1025.71,1032.18,1038.04,1043.84,1049.73,1055.38,1060.54,1064.91,1069.26,1073.70,1077.93,1081.54,1085.10,1088.96,1092.43,1094.97,1096.45,1096.03,1095.38,1094.19,1090.66,1087.39,1083.90,1081.66,1081.43,1079.03,1076.97,1075.66,1075.35,1075.59,1068.25,1061.08,1055.35,1050.28,1048.43,1049.48,1052.75,1057.96,1063.99,1070.32,1075.07,1078.02,1080.03,1083.49,1087.73,1090.96,1090.67,1084.62,1075.50,1066.28,1057.85,1049.58,1042.18,1037.57,1035.63,1036.16,1039.18,1041.40,1042.82,1043.58,1043.42,1041.11,1036.50,1030.96,1027.89,1029.61,1033.26,1037.84,1043.41,1050.00,1060.96,1071.55,1079.96,1088.00,1094.66,1103.50,1115.13,1128.63,1138.59,1144.68,1148.61,1151.64,1155.70,1161.18,1165.52,1168.77,1173.49,1181.01,1190.87,1200.12,1205.92,1210.04,1212.80,1213.27,1211.73,1211.28,1211.56,1211.44,1212.44,1218.25,1229.00,1241.35,1251.38,1257.26,1262.92,1268.60,1274.69,1281.20,1286.72,1283.43,1279.22,1275.26,1270.40,1264.57,1257.07,1248.28,1237.37,1222.48,1213.46,1209.52,1209.23,1211.62,1214.10,1216.46,1217.31,1215.00,1209.22,1203.75,1197.51,1190.59,1184.50,1177.54,1171.23,1165.92,1161.42,1156.19,1152.75,1150.89,1150.57,1151.35,1147.23,1142.07,1137.05,1132.01,1128.37,1122.95,1120.08,1123.46,1128.51,1124.22,1117.06,1114.04,1124.27,1131.84,1133.64,1132.71,1132.36,1129.26,1126.79,1126.66,1129.45,1133.82,1139.65,1146.29,1152.99,1158.52,1162.21,1167.40,1174.62,1183.12,1188.93,1192.12,1195.62,1200.12,1204.36,1208.33,1213.51,1219.45,1225.24,1230.83,1236.69,1242.87,1249.13,1254.71,1260.48,1266.42,1271.67,1273.50,1267.51,1260.90,1255.15,1250.34,1246.77,1242.73,1238.51,1234.41,1231.05,1231.92,1231.67,1228.92,1224.63,1225.55,1227.73,1229.37,1230.18,1231.60,1232.97,1231.62,1227.30,1221.15,1215.74,1210.57,1205.38,1199.77,1192.62,1186.76,1181.74,1177.16,1172.69,1167.18,1161.33,1155.56,1149.98,1143.28,1139.29,1138.40,1140.51,1143.77,1145.50,1146.37,1146.50
952.51,952.07,952.60,955.10,958.32,961.06,962.81,962.97,962.15,960.52,958.01,955.17,953.16,952.53,954.09,958.08,961.34,965.35,971.78,981.63,990.71,998.00,1003.77,1008.96,1015.65,1022.77,1029.49,1035.35,1040.92,1045.72,1050.95,1056.53,1060.82,1064.58,1068.43,1072.43,1076.62,1081.67,1086.29,1090.36,1093.86,1096.67,1098.09,1099.38,1099.94,1097.74,1095.80,1093.43,1091.29,1089.82,1087.45,1085.83,1085.59,1086.49,1086.52,1080.64,1071.70,1062.96,1057.74,1054.91,1056.32,1060.18,1065.15,1069.72,1075.06,1079.71,1082.98,1084.73,1087.90,1091.97,1094.15,1091.41,1084.52,1075.22,1066.77,1060.32,1055.03,1049.82,1045.86,1043.07,1041.52,1043.32,1045.77,1047.87,1049.20,1049.58,1048.41,1045.32,1040.94,1036.98,1034.81,1034.28,1036.11,1041.43,1048.45,1061.16,1073.16,1081.61,1087.94,1094.13,1102.66,1113.87,1127.06,1137.33,1144.68,1149.98,1153.96,1158.75,1165.73,1170.99,1174.12,1177.64,1182.90,1190.68,1199.30,1206.66,1211.69,1215.53,1217.32,1217.26,1218.09,1219.02,1218.92,1218.90,1221.79,1228.84,1239.36,1249.45,1256.71,1262.93,1268.59,1274.43,1280.88,1287.49,1287.31,1285.23,1282.17,1277.20,1270.08,1259.49,1248.53,1238.06,1226.44,1219.49,1216.83,1216.91,1218.14,1219.88,1220.95,1219.97,1215.74,1209.22,1203.57,1197.66,1191.10,1184.21,1176.18,1169.21,1163.63,1159.68,1158.32,1157.69,1157.23,1156.68,1155.39,1150.69,1146.10,1142.14,1137.71,1133.62,1128.62,1126.37,1129.83,1134.81,1130.05,1122.21,1118.14,1126.71,1135.51,1140.22,1141.47,1140.45,1137.54,1136.10,1136.27,1137.49,1138.11,1141.69,1147.63,1154.67,1160.91,1164.81,1169.35,1175.21,1182.35,1189.32,1193.56,1197.87,1203.24,1208.88,1213.72,1218.37,1223.03,1227.91,1233.88,1239.16,1244.53,1250.32,1255.55,1261.32,1267.26,1272.55,1274.96,1270.44,1264.69,1259.32,1254.68,1250.85,1246.92,1242.93,1239.38,1237.54,1238.16,1237.47,1235.37,1233.41,1234.26,1235.51,1236.66,1237.65,1238.31,1237.61,1234.04,1228.07,1221.51,1216.01,1210.92,1205.88,1200.38,1193.19,1187.49,1182.56,1177.92,1173.30,1167.68,1161.39,1155.03,1149.41,1145.23,1143.57,1144.13,1146.80,1150.61,1152.11,1152.78,1153.08
957.44,955.80,954.11,954.78,957.22,960.67,964.14,965.81,966.23,965.44,962.99,959.78,957.18,956.04,957.45,961.45,964.89,967.81,971.77,980.58,988.80,995.77,1001.63,1006.67,1012.24,1018.85,1025.49,1031.20,1036.30,1040.45,1045.51,1051.49,1056.25,1059.92,1063.52,1067.39,1071.89,1078.08,1083.53,1088.24,1092.35,1095.89,1098.85,1101.84,1104.21,1104.15,1103.68,1102.41,1100.38,1097.79,1095.71,1094.20,1094.53,1096.46,1097.19,1093.60,1084.15,1073.53,1068.20,1064.38,1066.15,1070.02,1073.49,1075.90,1079.86,1084.46,1088.56,1090.67,1093.47,1096.82,1097.92,1093.95,1087.21,1077.69,1069.79,1065.18,1062.54,1058.99,1054.68,1050.07,1046.37,1047.11,1050.00,1053.06,1055.25,1056.37,1056.19,1054.24,1050.76,1046.39,1041.03,1036.78,1035.75,1039.92,1046.58,1060.03,1073.50,1083.20,1088.29,1094.04,1101.95,1112.17,1124.31,1134.34,1142.28,1148.81,1154.30,1159.54,1167.51,1174.36,1178.97,1182.25,1185.74,1191.14,1198.36,1206.59,1212.49,1217.32,1220.38,1221.77,1223.85,1225.64,1226.03,1225.49,1225.60,1229.02,1237.58,1247.20,1255.09,1262.23,1268.31,1274.14,1280.48,1287.79,1290.64,1290.86,1288.71,1283.19,1274.82,1261.90,1249.36,1239.45,1231.16,1226.27,1224.59,1224.59,1224.21,1224.14,1223.23,1220.35,1214.82,1208.35,1202.89,1197.55,1191.43,1183.38,1174.51,1167.02,1161.52,1159.14,1161.84,1163.53,1163.71,1162.39,1159.39,1154.92,1151.03,1147.56,1143.15,1138.19,1133.61,1132.02,1135.35,1140.07,1135.38,1127.65,1123.01,1129.21,1138.78,1146.07,1149.45,1148.21,1145.54,1145.07,1145.81,1146.24,1144.26,1145.31,1149.56,1155.87,1162.23,1166.46,1170.85,1175.74,1181.38,1188.56,1193.67,1198.73,1204.80,1211.88,1218.24,1223.02,1226.95,1231.38,1237.53,1242.52,1247.24,1252.23,1257.04,1262.98,1269.04,1274.21,1276.46,1273.31,1268.64,1263.85,1259.38,1255.26,1250.93,1247.02,1244.36,1244.09,1244.13,1243.22,1242.30,1242.85,1243.00,1242.83,1243.28,1244.36,1243.85,1241.02,1235.63,1228.56,1221.71,1216.18,1211.17,1206.20,1200.77,1193.89,1188.18,1183.23,1178.63,1173.96,1168.35,1161.78,1155.10,1150.07,1148.86,1149.60,1151.37,1154.19,1158.23,1159.50,1159.75,1159.68
962.50,959.07,957.15,956.12,956.60,959.24,962.60,966.43,969.38,970.52,968.83,964.75,961.29,959.42,960.00,964.10,968.77,972.74,976.03,980.50,986.18,992.08,997.76,1003.04,1008.07,1014.04,1019.97,1024.76,1028.84,1033.44,1038.79,1044.94,1051.51,1055.82,1059.92,1064.09,1068.19,1073.98,1080.57,1086.63,1091.37,1094.90,1098.35,1101.91,1105.39,1108.04,1108.43,1107.11,1105.06,1103.09,1102.01,1100.87,1100.63,1101.86,1104.16,1102.47,1096.55,1089.14,1083.73,1079.60,1081.51,1084.05,1084.04,1083.92,1086.51,1091.47,1097.05,1099.98,1101.85,1102.79,1102.21,1098.94,1092.68,1083.16,1075.80,1072.45,1070.72,1068.00,1062.47,1055.46,1050.23,1050.84,1054.57,1058.93,1062.55,1064.78,1065.31,1063.07,1058.28,1052.05,1045.45,1040.55,1038.27,1039.85,1045.22,1057.30,1071.20,1083.11,1088.89,1094.20,1100.84,1109.40,1119.97,1128.41,1135.44,1142.95,1151.15,1156.33,1163.54,1172.25,1180.57,1185.16,1189.53,1194.50,1200.43,1207.30,1212.86,1217.72,1221.53,1224.33,1227.26,1230.77,1232.34,1231.24,1227.93,1229.17,1236.51,1244.74,1251.22,1260.20,1267.40,1273.63,1280.08,1288.00,1292.52,1294.56,1293.17,1286.50,1277.59,1264.19,1251.60,1242.41,1235.67,1232.38,1231.24,1230.67,1228.77,1225.42,1222.54,1218.94,1213.57,1207.74,1202.36,1196.84,1190.16,1180.68,1171.76,1164.95,1161.61,1163.45,1168.05,1169.84,1169.48,1167.49,1164.25,1160.72,1157.25,1153.16,1147.17,1141.11,1137.07,1136.13,1138.93,1142.84,1139.21,1132.87,1128.45,1132.20,1141.70,1149.82,1154.48,1154.86,1153.00,1152.29,1153.07,1154.40,1153.13,1151.68,1153.08,1157.22,1162.47,1166.86,1171.97,1177.48,1182.98,1188.69,1193.41,1198.13,1203.72,1211.11,1218.23,1223.64,1228.12,1233.01,1238.53,1244.82,1250.44,1254.77,1259.09,1264.93,1271.05,1276.25,1278.46,1276.10,1272.54,1268.52,1264.06,1260.03,1255.26,1251.26,1248.98,1248.87,1248.97,1248.83,1249.20,1250.89,1250.98,1250.07,1249.68,1249.69,1246.48,1241.81,1235.88,1229.02,1221.94,1216.38,1211.50,1206.81,1201.95,1196.18,1189.89,1184.38,1179.90,1175.43,1169.93,1163.43,1157.48,1154.84,1156.25,1159.04,1161.67,1163.86,1166.79,1167.76,1167.38,1165.90
967.49,964.24,960.46,958.22,957.69,958.89,961.14,965.27,969.43,972.39,972.80,969.96,966.85,964.54,963.95,966.54,971.59,976.63,980.61,984.51,988.69,993.43,998.20,1001.98,1006.01,1010.76,1015.56,1019.86,1023.99,1029.32,1034.83,1040.26,1046.16,1051.55,1056.99,1062.01,1065.91,1070.53,1077.25,1083.96,1089.26,1093.45,1097.44,1101.65,1106.15,1110.64,1112.94,1112.29,1110.04,1107.59,1106.57,1105.74,1105.70,1106.88,1108.97,1108.00,1103.23,1096.84,1092.19,1090.98,1093.31,1094.79,1093.40,1092.44,1094.96,1099.56,1104.36,1106.63,1108.08,1108.69,1107.85,1104.23,1096.82,1088.79,1083.23,1080.82,1079.47,1077.20,1072.10,1065.38,1060.02,1060.03,1063.10,1067.11,1070.87,1073.19,1072.71,1068.78,1062.02,1054.36,1049.14,1046.21,1044.40,1043.43,1045.34,1053.43,1067.16,1082.75,1089.32,1093.94,1098.86,1105.30,1114.30,1122.97,1131.34,1139.89,1148.23,1153.81,1160.24,1168.75,1178.05,1184.60,1190.54,1195.67,1201.38,1208.53,1213.13,1216.10,1218.76,1221.63,1224.76,1229.42,1233.67,1235.08,1230.98,1229.00,1234.44,1241.50,1246.66,1254.33,1263.07,1270.94,1277.96,1285.48,1291.12,1293.43,1292.06,1286.40,1278.87,1266.73,1255.16,1246.58,1239.83,1237.44,1236.59,1234.86,1229.82,1224.59,1219.88,1215.14,1209.95,1204.88,1199.47,1193.98,1187.81,1179.33,1170.87,1165.76,1165.40,1170.74,1176.14,1178.27,1177.77,1175.20,1171.69,1167.83,1163.74,1158.92,1152.36,1146.58,1143.24,1142.31,1143.76,1146.32,1143.97,1139.96,1136.82,1137.47,1143.76,1151.08,1157.08,1160.11,1160.57,1160.71,1161.45,1162.44,1161.36,1159.13,1159.13,1161.44,1164.54,1167.92,1172.93,1178.74,1184.56,1190.15,1195.18,1200.14,1205.54,1212.01,1218.59,1224.03,1228.80,1233.74,1238.86,1245.90,1252.20,1256.63,1261.52,1267.37,1273.53,1279.06,1281.92,1280.40,1277.42,1273.76,1269.60,1266.27,1261.34,1257.49,1256.05,1256.79,1257.31,1257.34,1257.47,1258.33,1257.99,1256.66,1254.91,1252.43,1247.62,1242.18,1236.16,1229.48,1222.22,1216.69,1211.87,1207.17,1202.28,1197.05,1191.30,1186.02,1181.36,1176.37,1170.53,1165.47,1162.42,1162.79,1164.91,1167.10,1168.88,1170.05,1170.65,1169.52,1167.12,1164.05
971.83,969.22,963.84,960.95,960.01,960.06,961.25,964.55,968.74,972.92,975.71,974.88,972.55,969.98,968.30,969.00,973.54,979.02,983.98,988.75,992.71,996.76,1000.47,1002.55,1005.47,1008.82,1012.43,1016.31,1020.62,1026.46,1031.83,1036.26,1041.08,1047.53,1054.35,1060.31,1064.30,1068.05,1074.36,1081.07,1086.80,1091.95,1096.49,1101.32,1106.73,1112.43,1116.63,1117.23,1115.40,1112.66,1111.53,1110.88,1111.01,1112.01,1113.24,1112.62,1108.24,1101.95,1097.61,1099.51,1102.31,1103.31,1101.94,1101.08,1103.99,1108.12,1111.73,1113.27,1114.67,1115.60,1114.74,1110.18,1101.33,1094.84,1091.02,1089.32,1088.09,1086.05,1081.94,1076.52,1071.78,1071.29,1073.36,1076.44,1079.53,1081.05,1079.03,1073.36,1064.87,1055.97,1052.99,1052.75,1051.98,1048.82,1047.01,1050.49,1063.09,1081.52,1089.47,1093.97,1097.55,1101.93,1109.03,1118.19,1128.45,1138.15,1146.12,1152.33,1158.42,1166.12,1174.96,1182.72,1190.16,1195.72,1201.38,1208.58,1212.12,1212.98,1214.01,1216.27,1219.21,1224.51,1231.19,1235.60,1232.38,1228.04,1231.51,1237.38,1241.64,1247.30,1256.74,1265.98,1273.78,1280.89,1287.11,1289.15,1287.79,1284.08,1278.88,1268.87,1258.67,1250.46,1243.51,1241.42,1240.37,1237.30,1229.44,1223.13,1217.09,1211.30,1206.11,1201.59,1196.17,1190.87,1185.54,1178.73,1170.93,1168.04,1170.90,1178.76,1184.63,1187.19,1186.72,1183.62,1179.78,1175.45,1170.84,1165.36,1158.04,1152.79,1150.36,1149.56,1149.73,1150.75,1149.46,1147.49,1145.45,1143.51,1145.75,1151.33,1158.08,1163.71,1166.96,1168.44,1169.36,1169.86,1168.91,1166.62,1165.95,1166.98,1168.35,1170.38,1174.79,1180.56,1186.61,1192.12,1197.19,1202.43,1208.04,1213.78,1219.36,1224.46,1229.34,1234.34,1239.48,1246.82,1253.38,1258.08,1263.91,1269.88,1276.10,1282.05,1285.94,1285.14,1282.47,1279.04,1275.33,1272.56,1267.73,1264.25,1263.69,1265.51,1266.66,1266.70,1266.04,1265.16,1264.09,1262.22,1258.98,1254.02,1248.12,1242.37,1236.42,1229.86,1222.37,1216.85,1212.03,1207.21,1202.09,1197.05,1192.01,1187.14,1182.32,1177.07,1171.45,1168.49,1168.59,1171.33,1173.22,1173.95,1174.10,1173.66,1171.62,1168.14,1163.77,1159.45
974.12,971.30,967.09,964.90,964.39,964.98,966.45,967.38,969.26,972.74,977.29,978.51,977.03,974.42,972.31,971.82,973.85,977.66,982.87,988.86,995.72,1000.76,1003.71,1005.53,1007.40,1009.62,1012.25,1015.40,1019.13,1024.37,1028.78,1032.29,1037.63,1044.55,1051.89,1058.46,1063.25,1068.13,1073.35,1078.76,1084.47,1090.83,1095.84,1101.20,1107.17,1112.95,1117.87,1120.81,1121.66,1120.59,1119.90,1119.03,1118.26,1117.91,1118.25,1118.10,1114.39,1107.75,1101.20,1103.07,1106.17,1108.32,1109.08,1109.51,1112.86,1117.01,1120.70,1123.01,1125.02,1125.98,1124.26,1117.99,1108.69,1102.00,1098.31,1096.95,1095.62,1093.51,1090.26,1086.39,1083.15,1083.02,1084.73,1086.84,1088.15,1087.07,1083.78,1077.82,1069.19,1059.18,1058.16,1059.98,1060.08,1055.98,1052.18,1052.03,1060.92,1077.62,1088.89,1095.54,1099.57,1102.63,1106.66,1115.03,1126.33,1137.45,1146.43,1153.52,1160.72,1168.05,1174.91,1180.47,1188.44,1194.66,1199.54,1204.08,1206.92,1207.29,1207.30,1208.13,1210.41,1215.30,1221.81,1227.21,1227.37,1224.81,1226.82,1231.22,1235.87,1240.95,1247.78,1255.93,1264.69,1272.61,1278.28,1280.01,1279.48,1278.38,1276.42,1269.36,1260.41,1251.90,1246.05,1243.03,1240.38,1236.14,1228.43,1222.04,1216.12,1210.18,1204.31,1199.54,1194.29,1189.42,1184.83,1179.12,1171.89,1171.88,1177.71,1185.72,1192.25,1195.30,1194.90,1191.37,1186.94,1183.28,1179.56,1173.90,1163.98,1158.47,1157.45,1158.02,1158.14,1157.58,1156.30,1154.18,1151.53,1149.40,1148.55,1151.17,1156.57,1163.42,1169.31,1172.47,1174.33,1175.38,1174.91,1172.94,1172.33,1173.55,1175.79,1176.66,1179.85,1184.80,1190.25,1194.19,1197.64,1202.57,1209.36,1216.56,1221.08,1225.28,1229.99,1235.54,1241.84,1248.64,1254.35,1258.96,1265.73,1271.98,1278.30,1284.76,1290.16,1289.58,1286.93,1283.84,1280.70,1277.25,1273.11,1270.39,1270.32,1273.19,1275.27,1275.55,1273.97,1270.69,1268.26,1265.04,1260.61,1254.82,1248.28,1242.46,1236.58,1229.94,1222.00,1216.32,1211.44,1206.52,1201.17,1195.82,1190.76,1185.95,1181.43,1177.50,1174.62,1174.26,1175.87,1178.12,1178.93,1178.37,1176.33,1172.67,1168.38,1163.96,1159.35,1155.13
975.95,973.13,970.06,968.56,968.70,970.35,972.44,972.65,972.58,973.81,978.18,980.82,980.77,979.03,977.04,976.29,977.24,979.52,983.21,988.49,995.95,1001.51,1004.93,1008.00,1010.36,1012.50,1014.87,1017.69,1020.52,1023.90,1027.01,1030.16,1035.16,1041.73,1049.37,1056.82,1062.66,1068.35,1073.25,1078.24,1084.02,1090.67,1095.75,1101.23,1107.36,1113.12,1118.29,1122.62,1125.49,1126.23,1125.97,1125.21,1124.23,1123.36,1123.20,1123.05,1120.16,1114.57,1108.26,1109.40,1113.16,1116.25,1117.40,1117.80,1120.52,1124.09,1127.64,1130.64,1133.62,1134.47,1131.75,1124.23,1114.97,1108.42,1104.46,1102.56,1101.26,1099.38,1096.96,1094.33,1092.22,1092.10,1093.73,1095.74,1096.64,1094.09,1089.78,1083.45,1074.89,1064.90,1062.95,1065.76,1067.52,1063.63,1058.07,1055.11,1059.46,1071.99,1086.78,1096.39,1102.60,1106.74,1109.89,1115.53,1125.51,1136.44,1145.75,1153.08,1160.77,1169.45,1177.83,1182.98,1189.43,1193.11,1194.82,1196.23,1198.14,1199.32,1200.27,1201.60,1204.24,1208.60,1214.12,1219.10,1220.83,1220.12,1221.88,1225.62,1230.40,1235.27,1240.44,1247.02,1254.89,1262.67,1269.07,1272.11,1272.91,1272.73,1272.25,1267.74,1260.09,1250.99,1244.69,1239.95,1235.99,1231.70,1225.59,1219.08,1213.14,1207.52,1202.15,1197.58,1192.92,1188.09,1183.12,1178.15,1173.84,1176.24,1183.31,1191.48,1198.45,1201.47,1201.00,1197.60,1193.34,1189.13,1185.19,1179.77,1170.40,1165.84,1165.76,1167.17,1167.67,1166.00,1163.62,1160.54,1157.33,1155.67,1154.55,1155.23,1157.71,1162.18,1169.01,1173.40,1176.36,1178.63,1180.06,1179.08,1179.28,1181.44,1184.56,1184.82,1186.88,1190.98,1196.17,1199.72,1201.62,1205.22,1211.44,1218.43,1222.51,1226.20,1230.72,1236.91,1244.66,1250.77,1255.49,1260.07,1267.45,1273.67,1279.72,1286.07,1292.37,1294.72,1293.53,1290.51,1286.79,1282.99,1279.46,1277.87,1278.74,1281.05,1282.51,1281.84,1279.09,1274.62,1270.62,1265.83,1260.06,1253.56,1247.58,1242.01,1235.93,1228.91,1221.01,1215.59,1210.98,1206.54,1202.12,1197.71,1192.98,1188.37,1184.46,1182.14,1180.85,1181.15,1181.81,1180.99,1179.85,1177.93,1174.56,1169.47,1164.08,1158.68,1153.61,1148.90
977.72,974.99,972.81,971.88,972.66,975.37,978.08,978.56,977.21,975.92,978.93,982.44,984.07,983.83,982.40,981.89,982.68,983.79,985.14,988.33,994.77,1000.42,1004.85,1009.59,1013.18,1016.16,1019.04,1021.86,1023.66,1024.84,1026.60,1029.47,1033.58,1039.27,1046.72,1054.67,1061.53,1068.00,1073.22,1078.38,1084.30,1090.86,1095.80,1101.19,1107.30,1113.07,1118.18,1123.20,1127.49,1130.02,1130.54,1130.19,1129.47,1128.70,1128.39,1128.02,1126.01,1122.06,1117.03,1117.28,1121.54,1125.37,1126.49,1126.58,1128.21,1130.76,1133.74,1136.88,1140.56,1141.38,1138.26,1130.58,1121.53,1114.72,1109.90,1106.99,1105.94,1104.71,1103.10,1101.38,1100.08,1099.70,1101.46,1103.81,1104.79,1101.53,1096.49,1089.73,1081.18,1071.54,1067.14,1070.20,1073.96,1071.36,1064.61,1059.51,1059.16,1066.31,1083.14,1096.29,1105.51,1111.66,1115.22,1118.18,1125.76,1135.41,1144.53,1151.53,1159.10,1169.42,1180.53,1186.43,1190.70,1190.69,1188.60,1187.40,1188.61,1190.99,1193.46,1195.90,1199.11,1203.06,1207.47,1211.47,1213.67,1214.51,1216.60,1220.22,1225.16,1230.10,1234.44,1239.53,1245.76,1252.80,1260.07,1264.88,1267.21,1267.51,1267.60,1265.15,1258.82,1249.27,1241.63,1235.01,1229.97,1225.98,1221.71,1215.33,1209.53,1204.55,1200.20,1196.01,1192.07,1187.33,1181.93,1177.56,1176.69,1180.78,1188.01,1196.21,1203.57,1206.37,1205.73,1202.63,1198.93,1194.05,1189.54,1184.58,1177.41,1174.01,1174.47,1176.42,1177.52,1175.14,1171.23,1166.82,1163.03,1161.89,1161.92,1161.79,1161.53,1162.48,1168.75,1173.59,1177.36,1180.89,1184.52,1185.13,1186.77,1190.16,1193.74,1193.77,1194.89,1198.12,1203.16,1206.95,1207.64,1209.66,1214.41,1220.25,1224.18,1227.66,1232.00,1238.63,1247.33,1252.76,1256.74,1261.47,1269.17,1275.22,1280.85,1286.89,1293.73,1299.60,1300.38,1297.59,1293.09,1289.29,1286.45,1286.00,1287.67,1288.64,1288.51,1286.27,1282.33,1277.26,1271.76,1265.51,1258.56,1251.56,1246.67,1241.55,1235.23,1227.87,1220.56,1215.72,1211.49,1207.64,1204.42,1201.39,1197.28,1193.09,1189.79,1188.44,1187.59,1186.98,1185.18,1180.57,1177.37,1174.29,1170.20,1164.63,1158.71,1152.47,1146.77,1141.22
980.09,977.26,975.25,974.57,975.57,978.37,980.99,982.12,981.25,979.51,980.47,983.98,987.15,988.91,988.83,988.63,989.87,990.68,990.18,989.89,993.69,998.73,1003.86,1008.92,1013.49,1018.74,1023.75,1027.12,1027.88,1028.14,1028.96,1030.74,1033.62,1037.97,1043.60,1050.06,1057.15,1065.22,1071.62,1077.40,1083.52,1090.28,1095.23,1100.60,1106.78,1112.78,1117.43,1122.39,1127.31,1131.36,1134.12,1134.71,1134.66,1134.68,1134.74,1134.36,1133.10,1130.13,1125.21,1125.15,1128.66,1132.85,1136.02,1137.63,1138.61,1139.63,1140.84,1142.27,1144.80,1146.18,1145.37,1140.94,1131.82,1122.29,1114.88,1110.86,1110.68,1111.09,1110.36,1108.93,1107.95,1106.88,1109.18,1111.78,1111.89,1108.41,1103.26,1096.15,1087.03,1076.61,1069.81,1072.33,1077.83,1078.51,1072.55,1066.32,1062.35,1063.84,1076.58,1093.86,1106.02,1112.85,1117.39,1121.91,1127.65,1135.03,1143.40,1149.11,1155.47,1164.94,1176.05,1183.46,1187.21,1185.64,1182.34,1181.40,1183.37,1185.94,1188.15,1189.95,1192.32,1196.51,1200.92,1204.60,1206.74,1208.16,1210.36,1214.32,1220.26,1225.70,1230.30,1235.10,1240.49,1246.43,1252.42,1257.34,1261.12,1263.61,1264.46,1263.07,1258.01,1249.14,1239.89,1232.31,1226.45,1221.79,1217.55,1212.40,1207.87,1203.85,1200.01,1195.99,1192.33,1188.78,1185.11,1181.55,1181.17,1185.16,1191.76,1199.20,1207.18,1210.13,1209.30,1206.02,1202.85,1199.40,1195.46,1190.96,1185.95,1181.80,1182.13,1184.67,1186.47,1183.99,1179.08,1173.48,1168.69,1167.16,1168.07,1169.55,1170.53,1170.88,1174.07,1177.10,1180.23,1183.89,1187.89,1191.17,1195.21,1199.54,1202.05,1202.23,1202.83,1205.23,1209.82,1213.71,1214.40,1215.82,1219.34,1223.85,1227.58,1231.19,1235.49,1241.40,1248.53,1253.56,1258.09,1263.63,1271.02,1276.99,1282.56,1288.64,1295.93,1301.81,1303.65,1302.23,1298.62,1295.56,1293.96,1293.83,1294.65,1294.70,1292.32,1288.58,1283.85,1277.97,1271.69,1264.87,1257.68,1250.90,1246.67,1242.15,1236.09,1229.15,1223.49,1219.75,1215.69,1211.60,1208.26,1205.57,1202.51,1199.30,1196.01,1192.51,1189.98,1186.19,1180.91,1174.97,1171.01,1167.85,1163.60,1157.46,1151.06,1144.68,1138.17,1131.63
983.45,980.00,977.88,977.30,978.32,980.95,983.59,985.24,985.07,983.64,983.54,986.02,989.33,992.35,994.24,995.35,997.02,997.69,996.30,993.85,994.80,998.36,1003.32,1008.35,1013.62,1020.24,1027.34,1033.17,1034.80,1035.68,1036.51,1037.33,1038.14,1040.35,1043.22,1047.13,1053.30,1061.82,1068.57,1074.50,1080.65,1087.46,1092.96,1098.40,1104.15,1109.83,1114.47,1119.61,1125.13,1130.50,1134.96,1137.98,1139.96,1141.09,1141.59,1141.59,1141.05,1138.79,1133.72,1131.98,1135.06,1139.74,1143.93,1146.93,1149.38,1150.55,1150.76,1151.24,1152.48,1153.52,1153.20,1149.61,1140.33,1128.78,1120.14,1116.64,1117.58,1118.84,1118.44,1117.09,1116.35,1115.68,1117.66,1119.50,1118.83,1115.31,1109.81,1102.09,1092.33,1081.39,1072.91,1074.74,1081.08,1084.03,1079.61,1072.63,1066.44,1064.21,1071.54,1088.59,1103.38,1112.97,1117.97,1123.45,1128.75,1134.86,1141.83,1146.38,1151.52,1159.34,1169.09,1177.18,1181.01,1179.57,1176.39,1175.28,1176.84,1180.07,1183.03,1185.04,1186.84,1190.06,1193.64,1196.93,1199.42,1201.81,1204.84,1209.27,1215.38,1221.34,1226.42,1231.57,1237.05,1242.54,1247.90,1252.78,1257.16,1260.75,1262.47,1261.98,1258.12,1250.19,1239.70,1231.63,1225.48,1220.53,1216.20,1211.76,1207.88,1204.38,1201.02,1197.47,1194.52,1192.01,1189.35,1185.81,1186.52,1190.68,1196.61,1203.35,1211.50,1215.28,1214.63,1210.73,1207.83,1204.92,1201.41,1197.26,1192.53,1187.23,1188.33,1191.94,1193.48,1190.43,1184.44,1178.65,1174.75,1174.18,1176.02,1178.83,1181.60,1183.59,1185.24,1186.14,1187.23,1189.25,1192.62,1197.56,1203.33,1208.46,1210.38,1210.40,1210.38,1211.89,1215.72,1219.36,1220.36,1221.76,1224.86,1229.55,1234.65,1238.12,1241.04,1245.44,1250.95,1255.71,1260.80,1266.92,1273.45,1279.76,1285.68,1291.69,1298.57,1304.27,1307.22,1307.15,1304.18,1301.68,1301.14,1301.18,1300.72,1298.45,1294.55,1290.03,1284.89,1278.71,1272.38,1265.88,1259.33,1253.20,1248.84,1244.18,1238.46,1232.34,1227.61,1223.85,1219.58,1215.07,1210.98,1207.72,1204.24,1200.59,1196.63,1191.92,1187.46,1181.59,1174.83,1168.72,1164.31,1160.75,1156.20,1149.76,1142.91,1135.72,1128.91,1122.86
987.34,983.18,980.83,980.25,981.15,983.45,986.27,988.36,988.90,988.16,987.79,988.65,991.12,994.71,998.69,1001.69,1003.95,1004.74,1003.29,999.68,997.80,999.29,1003.33,1007.98,1013.63,1020.76,1029.34,1038.22,1042.10,1044.91,1046.68,1046.98,1045.72,1045.65,1045.58,1046.50,1050.75,1058.51,1064.85,1070.49,1076.42,1083.01,1089.28,1094.91,1100.05,1105.14,1110.13,1115.62,1121.68,1128.10,1133.75,1140.04,1144.88,1147.41,1148.34,1149.01,1149.11,1147.33,1142.15,1138.18,1141.19,1146.39,1150.67,1154.67,1159.55,1161.93,1162.02,1162.45,1162.80,1162.83,1161.35,1156.45,1146.84,1134.21,1125.64,1123.73,1125.93,1127.64,1127.24,1125.74,1125.06,1125.15,1126.18,1126.75,1125.62,1122.12,1115.87,1107.26,1096.92,1085.97,1076.47,1077.69,1084.31,1088.65,1086.04,1078.47,1071.03,1066.73,1068.52,1081.28,1097.84,1111.81,1117.22,1123.14,1128.95,1134.62,1139.76,1143.24,1147.32,1153.23,1160.82,1168.55,1172.65,1172.50,1170.43,1168.94,1169.42,1173.40,1177.59,1180.42,1182.12,1183.81,1186.19,1189.10,1192.19,1195.66,1199.85,1204.82,1210.67,1217.13,1222.84,1228.77,1235.00,1240.69,1246.18,1250.99,1255.28,1259.00,1261.68,1261.95,1259.09,1252.18,1241.17,1233.05,1226.96,1221.96,1217.40,1213.06,1209.26,1205.91,1202.97,1200.25,1198.27,1196.43,1193.90,1189.97,1192.29,1196.99,1202.47,1208.69,1216.56,1221.51,1221.40,1216.76,1213.90,1210.61,1207.07,1202.91,1197.16,1191.08,1193.42,1198.07,1198.71,1194.72,1187.95,1183.01,1181.49,1182.94,1185.81,1189.51,1193.77,1197.99,1199.32,1198.31,1196.73,1196.08,1198.52,1204.33,1211.05,1216.64,1218.44,1218.26,1217.74,1218.46,1221.30,1224.49,1226.10,1227.86,1231.06,1236.94,1244.06,1247.24,1248.18,1250.57,1254.71,1259.28,1264.74,1271.15,1276.80,1283.50,1289.81,1295.60,1301.45,1307.05,1311.17,1312.45,1310.06,1307.92,1307.97,1307.82,1305.74,1300.39,1295.66,1290.90,1285.60,1279.44,1273.51,1267.69,1262.04,1256.69,1251.74,1246.60,1241.28,1236.05,1231.39,1226.62,1221.84,1216.90,1211.76,1207.32,1202.45,1197.43,1192.45,1187.50,1181.45,1174.66,1167.92,1162.26,1157.60,1153.43,1148.45,1141.93,1134.76,1126.64,1120.10,1115.50
990.32,987.00,984.73,984.08,984.66,986.44,989.64,992.38,993.58,993.26,992.60,992.34,994.26,997.95,1002.46,1006.41,1010.36,1012.64,1011.62,1006.56,1002.33,1001.75,1004.17,1007.50,1012.80,1019.80,1027.55,1035.09,1041.07,1047.10,1051.11,1052.48,1052.36,1052.34,1051.41,1050.52,1051.88,1057.25,1062.68,1067.80,1072.93,1078.61,1084.65,1090.64,1096.40,1101.78,1106.90,1112.51,1118.67,1125.33,1132.20,1140.45,1147.45,1151.73,1153.08,1154.36,1154.70,1153.11,1148.67,1145.19,1148.33,1153.58,1157.94,1161.83,1165.92,1168.37,1169.47,1171.14,1172.41,1171.80,1168.61,1161.73,1151.07,1138.74,1131.01,1130.11,1133.40,1136.87,1136.91,1134.79,1133.26,1131.69,1131.96,1132.57,1131.85,1128.21,1120.12,1110.19,1099.84,1089.89,1080.12,1081.49,1089.01,1094.85,1093.15,1084.54,1075.91,1070.53,1069.11,1073.50,1088.58,1106.59,1114.72,1121.94,1128.19,1133.25,1136.70,1138.72,1142.45,1147.35,1152.86,1158.27,1161.85,1163.13,1163.07,1162.84,1164.03,1166.96,1170.21,1173.11,1175.58,1177.94,1180.79,1183.98,1187.12,1190.24,1194.40,1199.99,1207.02,1213.94,1220.37,1227.26,1234.54,1241.15,1247.35,1251.97,1255.75,1259.62,1263.35,1263.79,1261.09,1255.04,1245.85,1238.32,1232.20,1226.68,1220.94,1215.96,1211.89,1208.46,1205.77,1204.42,1203.12,1200.91,1197.59,1194.14,1197.42,1202.95,1208.96,1215.20,1222.12,1227.65,1228.36,1223.95,1220.80,1216.63,1211.64,1205.96,1199.82,1195.81,1198.13,1201.82,1201.87,1196.93,1191.57,1189.21,1190.46,1193.77,1197.83,1201.99,1205.45,1207.22,1207.59,1206.33,1203.82,1201.65,1204.79,1211.70,1218.28,1222.93,1224.73,1225.29,1225.48,1226.21,1228.18,1231.15,1234.04,1236.34,1239.17,1245.73,1251.89,1255.27,1256.36,1256.78,1260.17,1264.63,1269.93,1276.13,1282.65,1288.55,1293.97,1299.09,1304.18,1309.57,1314.63,1317.72,1317.37,1315.35,1314.34,1312.37,1308.13,1301.29,1296.18,1291.35,1285.87,1279.29,1273.49,1266.96,1260.61,1255.15,1250.29,1245.74,1241.01,1235.85,1230.01,1223.41,1218.00,1212.90,1207.11,1201.62,1196.13,1190.59,1185.15,1180.30,1174.78,1168.10,1161.15,1155.36,1150.67,1146.38,1141.22,1134.59,1127.59,1121.04,1115.74,1111.69
992.94,990.54,988.77,988.19,988.54,989.97,993.30,996.59,998.42,998.60,998.01,996.77,997.55,1000.50,1005.18,1010.04,1015.30,1018.92,1018.94,1014.36,1009.21,1007.21,1008.17,1010.22,1013.87,1019.39,1025.52,1031.46,1038.24,1045.90,1051.86,1055.72,1059.33,1060.30,1059.16,1057.21,1056.19,1058.03,1061.86,1066.25,1070.67,1075.65,1081.10,1087.18,1093.47,1099.06,1104.59,1110.36,1116.23,1122.40,1130.26,1139.67,1148.26,1154.47,1157.19,1158.98,1159.65,1158.64,1155.22,1152.19,1154.43,1158.95,1163.68,1168.25,1172.11,1174.69,1176.64,1179.53,1181.79,1180.46,1175.21,1165.77,1154.35,1143.30,1136.98,1137.04,1141.51,1145.52,1145.65,1143.19,1140.70,1137.34,1136.75,1137.31,1136.85,1132.57,1122.85,1111.90,1101.50,1092.19,1083.36,1085.71,1093.89,1099.80,1098.26,1090.13,1081.75,1076.01,1073.33,1072.96,1082.55,1097.19,1107.24,1117.68,1125.37,1130.20,1132.31,1133.31,1136.12,1140.09,1144.56,1148.71,1151.91,1154.19,1155.71,1156.74,1158.53,1160.91,1163.68,1166.69,1169.64,1172.69,1176.08,1179.63,1183.05,1186.64,1190.88,1196.82,1204.81,1212.34,1219.45,1226.97,1234.89,1242.41,1249.57,1254.20,1257.66,1261.81,1266.74,1266.77,1263.52,1257.76,1249.89,1243.04,1237.08,1231.32,1224.88,1219.01,1214.70,1211.60,1209.74,1209.46,1208.79,1206.26,1202.12,1198.91,1202.69,1208.50,1214.64,1220.91,1227.27,1233.07,1234.47,1230.30,1225.32,1219.81,1213.89,1207.87,1202.67,1200.75,1203.31,1206.26,1205.68,1200.15,1196.36,1196.07,1199.03,1203.37,1208.14,1212.34,1214.98,1214.99,1214.07,1212.38,1209.18,1205.80,1208.43,1215.84,1222.78,1227.91,1231.48,1232.89,1233.79,1234.95,1236.87,1239.67,1242.14,1244.13,1247.01,1254.17,1260.63,1264.85,1265.89,1263.76,1267.02,1271.54,1276.44,1281.83,1288.00,1293.05,1297.82,1302.61,1307.44,1313.23,1319.26,1323.61,1324.28,1321.74,1318.97,1314.99,1309.11,1301.63,1296.39,1291.53,1285.95,1279.11,1273.37,1266.07,1258.77,1252.69,1247.76,1243.45,1238.95,1233.61,1226.60,1219.81,1214.37,1209.19,1203.10,1196.59,1190.71,1184.90,1179.08,1173.72,1167.97,1161.48,1154.67,1148.52,1144.23,1139.99,1135.05,1129.25,1123.25,1118.53,1114.54,1110.97
995.38,993.72,992.87,992.57,992.81,994.05,997.18,1000.79,1003.20,1004.09,1004.02,1002.05,1001.20,1002.62,1007.06,1012.82,1018.73,1023.22,1024.91,1022.94,1018.45,1015.79,1015.58,1016.62,1017.72,1020.59,1024.49,1028.97,1034.99,1042.38,1049.63,1056.99,1066.07,1068.85,1068.22,1066.18,1063.85,1061.87,1063.36,1066.43,1069.99,1074.40,1079.01,1084.84,1091.37,1096.98,1103.21,1109.22,1114.54,1119.67,1128.05,1137.88,1147.50,1155.67,1160.67,1163.02,1164.27,1164.34,1162.25,1159.28,1159.51,1162.58,1167.90,1173.92,1178.49,1181.51,1183.99,1187.76,1190.69,1188.57,1181.11,1168.85,1157.06,1148.01,1143.53,1144.56,1150.08,1153.22,1153.06,1150.68,1147.30,1142.54,1140.96,1141.02,1140.32,1134.97,1124.10,1112.52,1102.00,1092.83,1086.22,1090.21,1098.61,1103.30,1101.44,1095.35,1088.53,1083.01,1080.66,1080.01,1081.37,1085.78,1095.63,1109.65,1119.51,1124.86,1126.50,1127.24,1128.63,1131.68,1136.10,1140.42,1143.49,1146.19,1148.60,1150.57,1152.60,1155.25,1158.32,1161.59,1164.70,1168.20,1172.07,1176.10,1180.26,1185.35,1190.03,1196.06,1204.51,1212.59,1220.19,1227.91,1235.88,1244.00,1252.29,1257.27,1260.63,1265.12,1271.44,1270.86,1266.62,1260.56,1253.05,1246.55,1240.76,1235.06,1228.64,1221.97,1217.63,1215.35,1214.75,1215.11,1214.97,1212.22,1207.34,1204.14,1208.05,1213.49,1219.16,1225.38,1231.71,1237.57,1239.39,1235.28,1227.32,1220.27,1214.28,1209.33,1206.05,1205.55,1208.88,1211.83,1210.53,1204.79,1202.32,1203.28,1206.91,1211.63,1216.56,1220.31,1222.33,1221.99,1219.70,1217.09,1213.15,1208.70,1209.41,1216.39,1224.22,1231.51,1238.37,1240.66,1242.23,1244.24,1246.90,1249.51,1250.03,1251.04,1254.48,1262.08,1270.32,1275.64,1275.99,1271.20,1274.73,1279.39,1283.75,1287.89,1292.44,1296.85,1301.53,1306.49,1311.67,1318.26,1325.05,1329.74,1329.98,1326.33,1321.52,1315.77,1308.97,1301.48,1296.28,1291.40,1285.79,1278.97,1273.26,1265.41,1257.27,1250.38,1245.13,1240.49,1235.72,1229.99,1222.27,1216.99,1212.12,1206.84,1200.69,1193.38,1187.23,1181.26,1174.95,1168.44,1161.43,1155.02,1148.82,1142.42,1138.94,1134.89,1130.61,1126.58,1122.24,1119.04,1116.16,1113.12
998.16,997.07,997.31,997.66,997.95,998.66,1001.16,1004.51,1007.46,1009.50,1010.45,1009.24,1007.96,1007.82,1010.13,1016.01,1021.45,1026.20,1030.00,1031.45,1028.68,1025.87,1024.60,1025.40,1026.66,1027.88,1028.67,1029.43,1033.23,1039.83,1047.54,1056.39,1067.41,1073.56,1076.09,1076.49,1075.78,1075.28,1073.63,1072.18,1072.26,1074.76,1078.42,1083.80,1090.20,1096.07,1102.98,1109.27,1114.48,1119.15,1126.50,1135.86,1145.94,1155.45,1162.05,1166.02,1168.61,1170.28,1170.55,1167.99,1166.26,1167.81,1173.31,1179.13,1183.54,1187.16,1190.52,1194.12,1197.22,1194.43,1185.81,1172.48,1160.47,1152.55,1149.45,1151.28,1156.11,1158.65,1158.73,1156.81,1152.99,1148.03,1145.37,1143.76,1141.33,1135.25,1123.85,1112.10,1101.67,1092.91,1089.57,1094.48,1102.44,1107.46,1106.82,1101.72,1095.37,1089.73,1086.97,1086.94,1087.18,1087.67,1090.11,1096.11,1105.70,1114.46,1119.36,1121.68,1123.13,1125.64,1129.55,1134.08,1137.05,1139.38,1141.65,1144.16,1146.64,1149.69,1152.91,1156.32,1160.49,1165.15,1170.27,1175.80,1181.81,1188.24,1193.61,1200.01,1208.47,1215.42,1222.77,1230.10,1237.21,1244.51,1253.91,1259.87,1263.27,1267.06,1275.28,1276.40,1272.64,1265.86,1258.01,1249.82,1242.69,1236.49,1230.53,1224.70,1221.63,1220.18,1219.61,1220.30,1219.87,1215.97,1210.09,1208.33,1212.29,1217.07,1221.96,1227.84,1234.75,1240.62,1242.15,1237.79,1229.96,1222.95,1217.57,1213.33,1209.63,1208.41,1213.39,1217.70,1215.53,1210.03,1208.11,1210.14,1215.34,1221.71,1226.80,1229.21,1229.63,1228.70,1226.14,1222.45,1217.30,1211.87,1211.35,1215.96,1223.61,1232.56,1240.55,1244.18,1247.70,1251.29,1254.18,1256.25,1257.47,1259.46,1263.33,1270.15,1278.41,1282.18,1281.01,1277.09,1279.97,1284.08,1288.07,1292.00,1296.59,1301.33,1306.59,1312.43,1318.70,1324.51,1329.92,1332.86,1331.18,1326.81,1321.47,1315.33,1308.34,1300.76,1295.44,1290.52,1284.96,1278.36,1272.86,1264.86,1256.89,1250.67,1245.29,1240.07,1234.08,1227.37,1220.86,1216.23,1211.41,1205.77,1199.16,1192.29,1186.21,1179.73,1172.46,1165.01,1157.14,1150.67,1145.47,1141.04,1138.20,1134.81,1131.51,1128.67,1125.30,1122.18,1119.30,1116.46
1001.50,1001.20,1002.30,1003.20,1003.77,1004.38,1006.15,1008.86,1011.78,1014.46,1016.31,1016.47,1015.93,1015.44,1016.19,1020.69,1024.57,1028.90,1034.19,1038.16,1037.67,1035.21,1033.02,1033.70,1035.20,1035.65,1034.44,1032.20,1033.64,1039.03,1046.38,1055.23,1065.89,1074.37,1079.67,1082.72,1084.63,1086.15,1083.71,1080.05,1077.36,1076.77,1079.32,1084.09,1089.96,1095.67,1102.76,1109.33,1114.87,1119.65,1126.16,1134.67,1144.56,1154.60,1162.00,1168.00,1172.32,1175.58,1177.83,1176.16,1173.96,1174.74,1179.78,1185.19,1189.61,1193.45,1196.89,1199.76,1201.65,1197.87,1188.50,1174.88,1163.86,1157.05,1154.59,1156.39,1160.76,1163.35,1163.92,1162.36,1158.08,1152.82,1148.91,1145.67,1141.72,1134.43,1123.13,1111.70,1101.56,1093.62,1093.59,1099.15,1106.45,1111.93,1112.82,1108.62,1102.34,1096.05,1092.61,1093.79,1095.03,1094.33,1090.93,1089.19,1094.84,1103.51,1111.27,1115.74,1118.05,1120.56,1124.05,1128.37,1131.12,1133.21,1135.57,1138.78,1142.10,1145.65,1149.13,1152.90,1158.51,1164.13,1170.01,1176.55,1184.28,1192.09,1198.31,1204.75,1212.26,1218.02,1225.06,1231.85,1237.98,1244.45,1254.07,1260.81,1264.73,1268.33,1277.50,1280.16,1277.29,1270.31,1261.79,1252.09,1243.87,1237.40,1232.20,1227.82,1226.35,1225.53,1224.21,1225.06,1223.91,1219.29,1213.46,1213.23,1217.49,1221.76,1225.87,1231.32,1238.79,1244.55,1245.69,1241.27,1234.53,1227.85,1222.78,1218.66,1214.06,1212.31,1217.76,1222.60,1220.48,1215.95,1214.62,1217.28,1223.63,1232.04,1237.89,1239.20,1237.72,1235.45,1232.40,1227.84,1221.87,1216.01,1215.33,1218.28,1224.44,1232.80,1241.47,1246.56,1252.55,1258.08,1261.23,1263.30,1265.63,1268.50,1272.40,1278.38,1285.96,1288.51,1287.01,1285.12,1287.37,1290.46,1293.60,1296.89,1301.10,1306.08,1311.95,1318.59,1325.59,1330.98,1334.54,1334.94,1331.00,1326.16,1320.53,1314.26,1307.32,1299.79,1294.29,1288.93,1283.14,1277.00,1271.39,1263.56,1256.00,1250.19,1244.65,1238.97,1232.29,1225.12,1219.21,1214.39,1209.29,1203.51,1196.98,1190.59,1184.63,1177.77,1169.80,1162.03,1154.52,1148.92,1145.21,1142.91,1140.62,1137.84,1135.32,1133.23,1130.26,1126.86,1123.83,1121.39
1005.37,1006.30,1007.86,1009.13,1010.29,1011.50,1012.55,1014.30,1016.42,1018.75,1021.20,1023.14,1024.54,1025.47,1026.10,1027.46,1028.72,1031.85,1037.41,1042.24,1044.44,1043.00,1040.15,1040.58,1041.61,1042.30,1041.15,1037.78,1037.11,1040.72,1046.65,1053.92,1062.00,1070.76,1077.42,1082.61,1087.54,1090.32,1090.69,1089.16,1085.74,1081.14,1082.23,1086.09,1090.89,1095.73,1102.24,1109.07,1115.38,1120.92,1127.28,1134.75,1143.68,1153.19,1160.45,1168.66,1175.07,1179.78,1183.23,1183.01,1182.45,1183.62,1187.41,1192.61,1197.40,1200.86,1203.17,1204.86,1203.74,1198.42,1188.73,1175.58,1167.15,1161.74,1158.99,1159.56,1164.31,1167.84,1169.07,1167.54,1162.48,1156.48,1151.14,1146.68,1141.92,1132.72,1122.26,1111.78,1102.13,1095.56,1098.48,1104.48,1110.99,1116.69,1119.02,1115.86,1109.49,1102.03,1097.72,1100.55,1103.75,1103.97,1099.16,1093.66,1091.06,1093.91,1102.51,1109.27,1113.12,1116.25,1119.58,1123.12,1125.49,1127.89,1130.98,1135.20,1139.75,1143.91,1147.81,1152.32,1159.51,1165.59,1171.31,1177.81,1186.54,1195.76,1202.93,1208.86,1214.27,1219.34,1226.16,1232.42,1237.77,1243.84,1252.31,1259.32,1264.43,1268.92,1277.58,1280.80,1278.90,1272.47,1263.11,1252.85,1244.48,1238.38,1234.27,1231.77,1231.91,1231.30,1228.54,1229.42,1227.33,1222.92,1218.68,1219.71,1224.63,1228.60,1231.96,1236.88,1244.65,1250.14,1250.99,1246.88,1241.55,1235.07,1229.65,1224.86,1219.42,1218.10,1222.23,1226.13,1225.47,1222.70,1222.13,1224.89,1231.53,1241.94,1249.36,1250.22,1246.80,1242.25,1238.10,1233.07,1226.95,1221.44,1222.02,1224.94,1228.25,1233.03,1242.08,1248.63,1257.28,1264.95,1268.61,1271.61,1274.87,1277.99,1281.41,1286.85,1293.29,1295.89,1295.99,1296.65,1298.49,1300.06,1301.54,1303.38,1306.26,1311.06,1317.28,1324.30,1331.27,1337.16,1338.84,1336.31,1330.21,1325.05,1318.99,1312.52,1305.77,1298.51,1292.78,1286.49,1280.05,1274.55,1268.30,1260.96,1253.85,1247.70,1241.89,1236.02,1229.69,1222.98,1216.27,1210.31,1204.63,1199.07,1193.45,1187.29,1181.47,1174.60,1166.66,1159.67,1154.17,1150.73,1148.99,1148.28,1146.39,1144.03,1141.95,1140.11,1136.93,1133.16,1130.18,1128.45
1006.45,1009.57,1011.97,1014.13,1016.23,1018.03,1018.76,1020.20,1021.65,1023.15,1025.68,1028.55,1030.94,1032.71,1033.89,1034.99,1036.07,1038.22,1041.89,1045.98,1049.84,1050.45,1048.48,1046.98,1047.32,1048.89,1049.48,1047.41,1044.62,1045.03,1048.34,1053.99,1060.94,1069.01,1075.97,1082.20,1088.38,1092.22,1094.55,1095.52,1094.48,1090.63,1089.05,1090.15,1093.01,1096.35,1101.91,1108.71,1115.35,1121.03,1127.11,1134.67,1142.95,1151.26,1158.69,1167.48,1175.70,1182.85,1188.19,1189.46,1189.95,1191.41,1194.67,1199.55,1203.39,1206.18,1208.20,1209.37,1206.16,1199.52,1190.40,1179.87,1172.23,1168.92,1166.60,1165.45,1169.54,1174.57,1176.17,1173.36,1166.18,1159.95,1153.68,1147.94,1142.06,1132.10,1122.94,1113.34,1104.21,1099.88,1103.93,1109.72,1115.79,1121.75,1124.38,1121.93,1116.75,1110.27,1104.83,1107.54,1111.81,1112.82,1106.41,1099.29,1093.65,1092.88,1098.55,1104.96,1109.54,1113.01,1115.99,1119.07,1121.88,1125.52,1129.83,1134.47,1139.15,1143.46,1147.80,1152.84,1159.75,1166.43,1172.20,1178.02,1185.73,1194.61,1201.93,1207.77,1212.69,1218.19,1224.30,1230.42,1236.42,1242.66,1249.44,1256.09,1262.32,1268.47,1277.03,1280.43,1278.19,1270.84,1261.63,1252.45,1245.58,1241.07,1238.56,1238.67,1238.81,1237.07,1233.76,1235.00,1233.80,1230.28,1226.96,1229.22,1234.53,1237.31,1238.99,1243.05,1250.04,1255.25,1256.37,1252.55,1245.97,1239.14,1232.86,1226.91,1221.51,1221.73,1226.51,1231.35,1232.53,1229.53,1228.49,1231.62,1238.96,1248.46,1256.46,1257.69,1253.74,1247.66,1242.87,1237.88,1231.88,1226.62,1228.58,1232.06,1235.22,1238.78,1245.00,1252.15,1261.15,1269.24,1274.23,1278.58,1283.00,1286.93,1290.71,1296.00,1301.97,1304.93,1305.86,1306.85,1307.79,1306.94,1306.62,1308.35,1311.78,1316.17,1321.60,1327.91,1334.64,1339.89,1340.13,1336.45,1330.27,1324.06,1316.90,1309.67,1302.70,1295.96,1290.01,1283.49,1276.65,1270.22,1263.11,1256.08,1249.50,1243.43,1237.24,1231.40,1225.50,1219.21,1212.25,1205.77,1199.73,1193.94,1188.28,1182.74,1177.51,1172.10,1166.92,1163.56,1160.22,1157.95,1156.57,1155.32,1153.05,1151.57,1150.39,1148.75,1145.63,1142.05,1139.35,1137.74
1004.93,1010.10,1013.15,1015.88,1018.91,1022.11,1023.86,1025.78,1027.04,1027.97,1030.56,1033.89,1036.80,1039.09,1040.85,1042.40,1043.72,1045.04,1046.78,1049.88,1054.73,1057.44,1057.15,1054.68,1054.19,1055.99,1057.76,1057.06,1052.99,1050.83,1051.70,1055.61,1061.50,1068.58,1075.45,1082.19,1088.98,1093.87,1097.68,1100.83,1102.75,1101.53,1097.87,1095.99,1096.53,1098.43,1102.63,1108.77,1115.20,1120.84,1126.83,1134.67,1142.46,1149.61,1157.04,1165.70,1174.98,1184.13,1191.73,1195.27,1197.39,1199.42,1202.07,1206.02,1209.03,1211.42,1213.28,1213.64,1208.85,1201.50,1193.50,1185.89,1178.70,1177.29,1175.88,1173.79,1176.87,1182.24,1183.28,1178.80,1169.63,1163.03,1156.25,1149.58,1142.67,1132.70,1124.41,1115.55,1107.27,1104.87,1109.39,1115.03,1121.04,1127.36,1129.99,1127.88,1123.56,1117.99,1112.09,1114.29,1118.85,1120.27,1113.13,1105.50,1098.52,1095.13,1097.39,1102.77,1107.83,1111.99,1115.31,1118.11,1121.20,1125.17,1129.60,1134.03,1138.42,1142.80,1147.66,1153.30,1159.77,1166.85,1172.71,1177.89,1184.21,1191.94,1199.10,1205.18,1210.38,1216.40,1222.17,1228.47,1235.29,1241.72,1247.30,1253.55,1260.56,1268.23,1276.77,1279.57,1276.57,1268.81,1260.65,1253.19,1248.20,1245.51,1244.58,1246.28,1245.50,1242.91,1240.60,1242.38,1241.89,1238.60,1235.35,1238.90,1244.15,1245.93,1246.37,1249.43,1255.14,1259.62,1260.46,1256.37,1248.37,1241.20,1234.40,1228.01,1223.52,1225.22,1230.95,1236.86,1239.47,1236.24,1235.07,1238.57,1246.21,1254.51,1262.33,1263.81,1259.73,1252.57,1247.56,1242.76,1237.24,1232.67,1235.31,1239.34,1243.06,1246.24,1249.52,1255.76,1263.95,1271.91,1278.27,1284.32,1290.38,1295.57,1300.00,1304.98,1310.10,1312.88,1313.98,1314.80,1315.53,1313.66,1312.58,1314.50,1318.76,1322.39,1326.57,1331.75,1337.68,1341.40,1340.14,1335.76,1329.76,1322.59,1314.32,1306.34,1299.21,1292.81,1286.56,1280.10,1273.28,1265.95,1258.13,1251.36,1245.22,1239.21,1232.71,1226.80,1221.18,1215.40,1208.90,1202.77,1196.79,1190.85,1185.07,1179.94,1175.54,1171.92,1169.53,1169.07,1167.17,1165.65,1164.42,1162.52,1160.04,1159.12,1158.55,1157.21,1154.60,1151.65,1149.31,1147.42
999.55,1005.87,1009.00,1011.32,1015.11,1021.32,1026.62,1030.36,1032.38,1033.59,1036.50,1039.73,1042.65,1045.15,1047.22,1049.16,1050.28,1050.99,1051.91,1054.34,1059.36,1063.66,1065.86,1065.25,1063.84,1064.20,1065.09,1064.56,1061.02,1058.38,1057.85,1059.78,1064.00,1069.96,1076.44,1083.18,1090.19,1096.23,1100.93,1105.39,1109.83,1112.57,1108.71,1104.45,1102.38,1103.35,1105.49,1109.81,1115.18,1120.70,1127.01,1134.92,1142.36,1148.83,1155.74,1163.69,1172.54,1182.26,1192.47,1199.90,1205.15,1208.40,1209.89,1211.77,1214.83,1217.63,1219.16,1217.76,1211.92,1205.08,1198.87,1193.63,1187.10,1186.84,1186.89,1185.77,1187.66,1190.63,1189.35,1183.10,1172.95,1165.43,1158.69,1151.84,1144.26,1135.30,1126.74,1118.39,1111.55,1110.03,1114.53,1120.52,1127.14,1133.91,1136.59,1134.24,1129.37,1123.43,1118.55,1120.40,1124.08,1125.18,1119.30,1112.30,1104.80,1099.73,1099.58,1103.87,1109.25,1114.99,1120.13,1122.86,1125.56,1127.53,1129.60,1132.79,1136.60,1141.15,1146.65,1153.09,1159.75,1166.77,1172.64,1177.63,1182.90,1188.77,1195.56,1202.33,1208.48,1214.66,1221.05,1228.04,1235.29,1241.63,1247.35,1253.43,1260.52,1269.01,1277.51,1278.26,1274.33,1268.08,1262.29,1256.99,1253.80,1252.66,1253.03,1253.78,1251.09,1248.88,1250.34,1252.86,1251.72,1246.86,1242.35,1247.29,1251.74,1253.41,1253.97,1255.98,1259.87,1262.63,1261.78,1256.24,1247.96,1240.78,1234.53,1229.46,1227.13,1229.63,1235.84,1242.13,1245.05,1242.67,1242.74,1246.46,1253.38,1261.45,1267.95,1268.96,1264.83,1257.20,1252.58,1248.01,1243.57,1240.68,1242.50,1246.70,1250.97,1254.30,1256.16,1258.85,1265.01,1272.59,1279.97,1288.26,1296.80,1303.88,1309.09,1313.24,1316.38,1317.70,1318.04,1318.84,1321.04,1321.50,1321.89,1323.94,1328.61,1330.86,1333.47,1337.22,1341.24,1342.14,1339.14,1333.93,1327.59,1320.06,1311.00,1302.66,1295.70,1289.13,1282.36,1276.23,1270.13,1262.83,1254.77,1248.27,1242.34,1236.14,1229.57,1223.23,1217.58,1212.53,1207.72,1203.33,1198.13,1192.48,1186.94,1181.54,1178.25,1176.28,1175.20,1174.62,1172.62,1171.50,1170.84,1169.17,1167.30,1166.04,1165.19,1164.41,1163.08,1161.34,1159.34,1156.66
995.87,1001.88,1005.19,1007.98,1012.20,1018.74,1024.84,1030.09,1034.31,1037.77,1041.42,1044.94,1048.23,1051.16,1053.51,1055.60,1056.98,1057.71,1058.11,1059.56,1064.62,1069.70,1073.22,1074.20,1073.47,1073.33,1073.51,1072.89,1069.74,1067.66,1066.96,1067.61,1069.60,1072.99,1078.04,1084.47,1091.94,1098.81,1103.97,1108.99,1114.49,1118.80,1117.67,1114.37,1111.07,1109.83,1110.39,1113.32,1117.47,1122.05,1127.63,1134.82,1142.28,1149.30,1155.58,1162.70,1170.94,1180.20,1190.42,1201.12,1208.29,1212.78,1215.26,1216.50,1219.30,1222.28,1224.12,1222.66,1216.48,1211.03,1206.76,1202.45,1195.57,1195.23,1196.23,1196.34,1196.91,1197.34,1193.97,1186.54,1176.03,1167.36,1160.18,1153.12,1145.72,1139.17,1131.55,1122.64,1115.14,1115.44,1120.42,1126.77,1133.57,1139.97,1142.34,1140.57,1136.04,1129.80,1124.57,1125.27,1128.24,1129.56,1125.03,1119.38,1112.41,1106.12,1102.94,1105.57,1108.99,1113.84,1119.42,1123.31,1127.99,1132.23,1135.42,1137.49,1140.56,1145.09,1150.19,1155.46,1160.93,1167.02,1172.54,1177.71,1183.39,1189.27,1196.03,1203.02,1209.70,1216.01,1222.59,1229.75,1237.31,1244.50,1249.90,1254.99,1261.23,1270.03,1280.17,1279.36,1274.74,1270.38,1266.60,1263.58,1261.95,1261.55,1261.75,1261.05,1257.43,1255.54,1258.52,1261.67,1259.01,1253.48,1249.47,1254.06,1259.47,1262.63,1263.83,1264.13,1265.11,1264.58,1261.03,1254.30,1247.32,1242.03,1238.40,1235.88,1234.23,1235.84,1241.37,1247.31,1250.30,1248.94,1249.63,1254.14,1261.92,1269.91,1275.08,1274.36,1269.22,1262.12,1257.08,1252.68,1249.36,1248.04,1249.76,1254.15,1258.66,1262.06,1263.48,1264.65,1268.07,1273.98,1282.72,1294.27,1303.54,1310.75,1316.23,1320.14,1322.75,1324.45,1325.68,1326.82,1328.22,1328.66,1329.85,1332.99,1337.51,1339.55,1341.10,1342.72,1343.61,1341.93,1337.31,1331.29,1324.79,1317.14,1308.15,1300.12,1293.52,1286.72,1279.45,1273.03,1267.24,1261.20,1254.06,1248.16,1243.00,1237.91,1232.13,1226.13,1220.91,1216.59,1212.64,1207.95,1202.89,1197.61,1192.06,1186.26,1183.50,1182.13,1181.22,1180.38,1179.20,1178.31,1177.82,1177.59,1177.05,1175.91,1174.43,1172.64,1170.43,1168.30,1166.01,1163.05
992.88,998.15,1001.72,1005.35,1010.04,1016.17,1022.19,1028.43,1034.56,1040.21,1044.83,1049.04,1053.11,1056.81,1059.65,1061.99,1063.80,1064.92,1065.38,1066.26,1070.72,1075.64,1079.66,1082.03,1082.53,1082.15,1081.68,1081.19,1079.07,1077.88,1077.22,1076.86,1076.91,1077.77,1080.86,1086.23,1093.69,1100.98,1106.65,1112.15,1118.04,1122.82,1124.76,1123.62,1120.36,1117.03,1116.10,1117.96,1121.20,1124.81,1129.02,1135.03,1142.40,1150.13,1156.09,1162.57,1170.09,1178.40,1187.66,1200.17,1208.78,1214.75,1218.94,1220.67,1223.39,1226.60,1229.05,1228.13,1221.89,1217.73,1214.77,1210.27,1203.07,1202.64,1204.41,1205.62,1205.14,1203.19,1197.94,1189.61,1178.98,1169.13,1161.51,1154.47,1147.60,1143.21,1136.80,1127.55,1119.39,1121.28,1126.53,1132.90,1139.60,1145.67,1147.94,1146.97,1142.98,1136.45,1130.09,1129.19,1131.63,1133.58,1130.43,1125.94,1119.62,1112.52,1106.94,1108.22,1109.66,1112.84,1117.71,1122.49,1128.96,1136.09,1141.46,1143.33,1146.39,1151.08,1155.72,1159.67,1163.61,1168.71,1173.87,1179.20,1185.49,1191.86,1198.91,1206.18,1213.14,1219.45,1226.40,1233.59,1241.13,1249.38,1254.36,1258.27,1263.27,1271.50,1282.65,1281.45,1277.15,1274.68,1272.87,1272.36,1272.17,1271.88,1271.08,1268.87,1264.81,1263.11,1266.45,1269.99,1265.99,1259.93,1256.51,1261.20,1267.86,1272.38,1273.97,1272.55,1270.17,1266.11,1260.11,1252.82,1247.42,1244.60,1243.82,1243.59,1242.08,1242.17,1246.46,1251.85,1255.17,1255.26,1256.72,1262.11,1270.86,1278.80,1282.69,1280.34,1274.23,1267.56,1262.00,1257.73,1255.34,1255.33,1257.30,1261.94,1266.59,1270.01,1271.35,1271.78,1272.81,1277.20,1287.47,1301.43,1311.43,1318.38,1323.21,1326.71,1329.60,1332.59,1335.27,1336.61,1336.36,1335.85,1337.53,1342.20,1346.73,1348.36,1348.49,1347.71,1345.65,1341.73,1335.66,1328.85,1322.14,1314.43,1305.82,1298.38,1292.30,1285.65,1278.41,1271.93,1266.41,1261.45,1255.15,1249.60,1245.08,1241.32,1236.90,1231.53,1226.66,1222.58,1218.65,1212.97,1207.62,1202.48,1197.07,1191.68,1189.43,1188.35,1187.36,1186.22,1185.91,1185.46,1185.38,1186.55,1187.01,1185.70,1183.33,1180.36,1177.08,1174.30,1171.61,1168.55
990.38,994.96,998.97,1003.75,1009.28,1015.31,1021.22,1027.18,1033.00,1038.70,1044.57,1050.41,1056.14,1061.37,1065.43,1068.48,1070.80,1072.88,1074.90,1076.80,1078.85,1081.44,1084.59,1087.96,1089.88,1089.08,1087.98,1088.62,1089.55,1089.23,1088.17,1086.98,1086.55,1086.38,1086.85,1089.15,1094.92,1101.72,1108.49,1114.86,1120.46,1124.73,1127.89,1129.47,1128.81,1124.89,1122.32,1123.73,1127.17,1130.42,1132.32,1136.55,1143.09,1150.94,1157.56,1164.09,1170.71,1177.59,1185.35,1195.82,1205.59,1213.73,1219.81,1224.12,1227.58,1231.40,1234.82,1234.62,1228.50,1224.51,1220.74,1214.04,1207.51,1208.13,1210.66,1212.26,1211.74,1208.05,1201.32,1192.35,1181.78,1170.87,1163.29,1156.99,1150.88,1146.52,1140.99,1133.17,1126.31,1128.18,1132.60,1137.98,1144.16,1150.70,1153.87,1153.59,1149.97,1143.03,1134.48,1131.36,1133.65,1137.03,1135.24,1130.66,1124.27,1117.26,1111.81,1113.19,1114.75,1116.24,1118.25,1121.88,1127.30,1135.15,1142.55,1146.95,1152.46,1157.98,1162.98,1167.00,1169.75,1174.55,1179.56,1184.70,1190.84,1197.36,1205.40,1213.51,1220.42,1226.33,1234.56,1241.89,1248.56,1257.59,1262.22,1265.24,1268.63,1274.14,1282.74,1284.32,1283.14,1282.12,1282.58,1285.20,1286.25,1285.03,1281.99,1278.58,1274.61,1272.80,1275.09,1278.40,1274.43,1267.41,1263.26,1271.03,1278.11,1282.03,1282.83,1280.24,1274.23,1267.44,1260.67,1254.46,1249.98,1249.65,1250.39,1250.51,1248.89,1247.12,1249.65,1254.48,1259.19,1261.91,1265.16,1271.14,1279.62,1287.47,1290.40,1287.86,1281.78,1274.35,1268.72,1264.50,1262.40,1263.02,1265.66,1270.68,1275.47,1278.89,1280.21,1280.42,1280.71,1285.37,1297.35,1310.10,1322.50,1329.70,1331.54,1333.53,1337.84,1343.14,1347.41,1348.19,1345.84,1343.80,1345.67,1352.23,1357.83,1357.37,1354.47,1351.07,1347.82,1342.49,1335.35,1327.76,1320.50,1312.70,1304.65,1297.95,1292.76,1287.46,1281.84,1276.61,1271.56,1265.99,1259.27,1252.96,1248.10,1245.13,1243.00,1238.42,1233.16,1227.85,1222.16,1215.35,1208.93,1203.20,1198.56,1196.19,1195.02,1194.29,1193.51,1192.13,1191.92,1192.74,1194.13,1195.44,1195.29,1192.42,1188.74,1185.50,1182.68,1179.97,1177.17,1174.04
988.10,992.92,997.91,1003.03,1008.43,1014.41,1021.14,1027.90,1034.05,1039.48,1044.59,1049.64,1055.03,1060.33,1064.85,1068.89,1072.09,1075.29,1078.95,1082.75,1084.98,1087.04,1090.01,1094.70,1097.50,1096.86,1095.34,1095.47,1097.47,1098.09,1097.58,1096.50,1095.80,1095.32,1094.97,1095.68,1098.93,1103.22,1109.26,1115.93,1122.36,1127.57,1131.73,1134.87,1136.04,1133.11,1129.36,1129.13,1131.51,1134.85,1137.14,1140.27,1144.62,1150.35,1157.35,1164.20,1170.56,1176.77,1183.67,1192.42,1200.83,1209.41,1218.13,1224.82,1230.48,1235.50,1239.24,1239.53,1235.23,1231.45,1227.00,1219.99,1213.55,1213.83,1216.14,1218.01,1218.53,1215.76,1208.88,1198.75,1186.54,1174.83,1167.35,1161.38,1155.33,1150.51,1144.02,1136.45,1131.12,1134.54,1138.84,1143.59,1149.11,1155.44,1160.03,1160.85,1157.71,1150.36,1140.08,1135.19,1137.30,1141.88,1141.48,1135.59,1128.93,1121.96,1115.99,1116.98,1119.87,1121.68,1122.55,1124.77,1127.90,1134.49,1141.93,1147.56,1154.55,1160.94,1166.86,1172.04,1175.59,1181.08,1186.24,1191.08,1196.97,1204.03,1212.48,1220.85,1228.05,1234.30,1241.44,1249.25,1257.87,1267.37,1272.00,1275.22,1278.52,1282.61,1287.78,1289.83,1290.19,1290.20,1291.66,1295.35,1297.20,1295.74,1290.57,1287.04,1285.30,1285.28,1286.93,1288.54,1284.80,1278.34,1273.63,1278.43,1284.49,1288.12,1288.43,1284.63,1277.43,1271.04,1265.14,1259.41,1254.55,1254.95,1256.44,1256.91,1255.09,1252.34,1253.74,1258.11,1263.62,1267.84,1272.59,1279.33,1287.55,1294.32,1297.59,1295.41,1289.71,1282.99,1277.36,1272.53,1269.62,1270.05,1274.90,1280.78,1285.47,1288.46,1289.66,1290.17,1292.17,1297.45,1307.54,1320.45,1333.94,1340.99,1341.10,1341.28,1344.82,1349.32,1353.04,1354.20,1352.41,1350.98,1353.31,1360.10,1365.91,1365.48,1361.03,1355.24,1351.10,1345.35,1337.63,1329.68,1322.63,1314.76,1306.37,1299.55,1294.80,1290.72,1286.38,1281.73,1276.74,1271.18,1264.84,1258.57,1253.70,1250.95,1249.12,1245.08,1239.27,1232.71,1226.61,1218.95,1211.40,1205.38,1202.12,1200.92,1200.45,1200.28,1200.04,1199.10,1199.46,1200.48,1201.68,1202.44,1201.63,1198.97,1195.41,1191.62,1188.29,1185.84,1183.13,1179.84
986.04,991.40,997.46,1002.72,1007.99,1014.34,1022.09,1029.44,1035.61,1040.36,1043.87,1047.15,1051.45,1056.26,1060.75,1065.73,1070.06,1074.68,1080.21,1086.16,1089.67,1092.26,1095.53,1101.23,1104.62,1104.55,1103.11,1102.51,1104.51,1105.77,1106.01,1105.47,1104.77,1104.46,1104.21,1104.31,1105.29,1106.47,1110.65,1116.79,1123.88,1130.37,1135.51,1139.67,1142.21,1140.95,1136.59,1134.44,1135.34,1139.00,1142.66,1145.14,1147.18,1150.20,1156.90,1163.76,1170.00,1175.97,1182.47,1189.83,1196.25,1204.53,1215.47,1224.12,1232.19,1238.58,1242.67,1243.59,1241.60,1238.15,1233.29,1226.74,1220.58,1219.99,1221.75,1224.05,1225.73,1224.16,1217.37,1206.29,1192.65,1180.82,1173.01,1166.56,1160.01,1154.30,1146.29,1138.66,1134.98,1140.41,1144.98,1149.36,1154.22,1160.05,1166.11,1167.95,1165.24,1157.60,1145.96,1140.08,1142.04,1147.19,1147.55,1140.37,1133.62,1126.73,1120.03,1119.93,1124.25,1127.36,1128.29,1129.27,1130.12,1134.68,1141.04,1147.02,1154.68,1161.80,1168.79,1175.55,1180.96,1187.34,1192.76,1197.58,1203.53,1211.44,1220.30,1228.81,1236.26,1243.36,1250.08,1259.44,1270.92,1280.15,1284.45,1287.81,1291.21,1294.34,1296.36,1298.07,1299.30,1300.16,1301.70,1305.12,1307.28,1305.93,1299.19,1296.04,1296.42,1297.92,1298.76,1298.30,1294.94,1289.57,1284.50,1284.77,1289.20,1292.54,1292.57,1287.90,1281.21,1276.29,1271.36,1265.49,1260.04,1260.39,1262.01,1262.53,1260.44,1257.36,1258.23,1262.38,1268.43,1273.74,1279.74,1287.10,1295.01,1300.68,1304.55,1302.88,1297.65,1291.84,1286.18,1280.87,1277.21,1277.30,1284.14,1290.91,1295.54,1298.16,1299.66,1300.89,1304.55,1309.55,1316.23,1329.93,1343.56,1350.29,1349.78,1348.60,1350.71,1353.35,1355.82,1357.90,1358.12,1358.17,1360.84,1366.91,1372.40,1372.61,1367.32,1359.64,1354.89,1349.06,1341.15,1333.19,1326.63,1318.94,1310.19,1303.07,1298.46,1295.23,1291.80,1287.43,1282.36,1276.99,1271.45,1265.70,1260.91,1257.65,1254.78,1250.59,1244.13,1236.59,1230.55,1222.58,1214.57,1208.79,1206.87,1206.11,1206.28,1206.82,1207.29,1207.13,1208.07,1208.85,1209.21,1209.08,1207.44,1205.31,1202.24,1198.01,1194.04,1191.49,1188.51,1184.75
984.44,990.04,996.47,1002.51,1009.20,1017.41,1025.49,1030.88,1034.87,1037.94,1039.92,1041.61,1045.32,1049.93,1053.81,1059.13,1064.94,1071.84,1079.97,1087.53,1092.35,1096.34,1100.61,1105.74,1109.41,1110.58,1110.70,1111.13,1112.41,1113.12,1113.37,1113.36,1113.40,1113.95,1114.32,1114.88,1115.92,1114.95,1116.07,1119.43,1124.86,1131.48,1137.90,1143.03,1146.37,1146.88,1143.23,1140.03,1139.89,1144.05,1148.34,1150.74,1152.18,1153.97,1158.32,1163.58,1169.23,1175.30,1182.02,1188.72,1194.80,1202.71,1213.29,1222.62,1231.53,1239.04,1244.52,1247.00,1246.42,1243.77,1239.20,1232.97,1228.71,1227.48,1229.10,1232.53,1234.16,1230.51,1222.66,1212.18,1200.61,1190.78,1180.93,1171.68,1163.67,1156.28,1147.56,1140.68,1138.69,1145.33,1150.49,1154.86,1159.32,1164.71,1171.46,1173.41,1170.83,1163.34,1151.01,1146.22,1148.17,1151.94,1150.71,1144.29,1138.38,1131.90,1124.60,1121.66,1125.94,1130.70,1133.40,1134.03,1134.62,1137.50,1141.91,1147.03,1153.91,1161.22,1168.94,1177.09,1185.14,1191.42,1197.14,1203.16,1210.47,1219.67,1229.98,1239.08,1246.10,1254.68,1267.24,1281.63,1294.81,1301.41,1303.70,1305.29,1307.06,1308.85,1310.06,1312.11,1314.37,1316.09,1316.33,1317.81,1319.18,1318.07,1311.72,1309.06,1307.76,1306.67,1305.37,1303.94,1301.13,1296.41,1291.45,1291.00,1293.98,1296.56,1296.48,1292.35,1288.43,1284.00,1277.88,1270.49,1265.81,1265.95,1266.63,1266.09,1263.66,1261.22,1262.76,1267.39,1274.00,1280.68,1287.50,1294.73,1302.03,1308.14,1311.49,1310.01,1305.03,1298.44,1292.63,1288.38,1285.92,1286.40,1292.00,1299.06,1304.06,1307.25,1310.78,1313.48,1314.76,1315.52,1318.96,1333.61,1345.91,1352.31,1353.27,1352.91,1354.64,1356.43,1358.53,1361.92,1365.29,1366.62,1368.78,1373.24,1377.88,1377.54,1371.71,1363.56,1358.74,1352.54,1345.09,1337.78,1331.53,1324.81,1317.18,1310.51,1305.57,1302.05,1298.76,1294.60,1289.55,1284.06,1279.61,1274.95,1269.89,1264.41,1258.69,1252.24,1244.97,1237.53,1231.13,1224.29,1218.47,1214.38,1212.69,1212.65,1213.79,1215.28,1216.62,1217.30,1218.21,1218.78,1218.68,1217.37,1214.35,1211.12,1207.65,1203.87,1200.24,1196.01,1191.09,1185.85
986.28,990.45,995.49,1000.85,1007.24,1015.09,1022.28,1026.06,1029.02,1031.89,1033.70,1035.87,1039.88,1044.56,1048.52,1054.00,1062.10,1070.90,1079.08,1085.88,1091.57,1096.96,1102.28,1107.36,1111.47,1113.99,1115.80,1117.60,1119.37,1120.90,1121.84,1122.25,1122.70,1123.38,1124.03,1124.78,1125.56,1124.51,1124.22,1125.58,1129.14,1134.67,1140.84,1146.02,1149.90,1152.13,1149.81,1146.45,1145.56,1149.36,1153.84,1157.08,1158.95,1160.13,1162.62,1166.28,1170.76,1175.98,1182.13,1188.34,1194.42,1202.01,1211.69,1220.71,1229.96,1238.68,1245.84,1249.50,1250.03,1248.22,1244.37,1239.13,1237.02,1236.23,1237.37,1239.80,1239.80,1233.89,1224.75,1214.35,1204.21,1195.59,1185.44,1174.88,1165.26,1157.30,1149.49,1143.90,1142.87,1149.55,1155.28,1160.48,1165.32,1170.16,1176.35,1177.60,1174.00,1165.85,1155.15,1151.53,1153.75,1156.95,1154.59,1148.39,1142.81,1136.54,1129.12,1124.97,1127.07,1131.68,1136.23,1138.22,1139.11,1140.96,1143.86,1147.84,1153.82,1160.84,1168.85,1177.64,1186.02,1192.31,1198.96,1206.87,1216.56,1228.17,1238.76,1247.53,1254.80,1263.86,1278.27,1294.12,1307.20,1311.47,1313.06,1314.43,1316.18,1318.42,1321.38,1325.62,1328.25,1327.94,1326.13,1325.29,1325.79,1325.69,1321.86,1318.97,1317.00,1314.82,1311.72,1308.37,1304.66,1300.78,1297.78,1298.04,1300.04,1301.56,1300.99,1297.29,1294.01,1289.49,1283.20,1276.25,1273.31,1273.03,1272.70,1271.21,1268.14,1266.08,1267.49,1272.02,1279.18,1286.75,1294.08,1301.38,1308.65,1315.26,1318.46,1317.54,1313.42,1307.17,1301.70,1297.84,1295.55,1295.81,1300.92,1308.71,1314.86,1318.75,1321.33,1323.15,1322.84,1321.46,1322.85,1337.32,1347.69,1353.25,1355.28,1356.32,1358.40,1360.28,1362.41,1366.06,1371.03,1374.00,1377.06,1381.11,1383.78,1382.24,1376.43,1368.75,1363.26,1356.67,1349.53,1342.45,1335.99,1330.47,1324.65,1319.07,1314.10,1309.94,1305.93,1301.39,1296.25,1290.69,1285.97,1281.16,1275.18,1267.67,1260.08,1252.28,1244.86,1237.84,1231.08,1225.85,1222.66,1220.78,1219.94,1220.84,1222.63,1224.44,1225.76,1226.25,1227.07,1227.37,1226.64,1224.30,1220.61,1216.69,1212.77,1208.71,1204.10,1198.17,1191.89,1185.83
990.78,992.79,995.60,999.36,1004.21,1010.21,1016.00,1018.71,1021.35,1024.64,1027.26,1031.00,1035.64,1040.46,1044.97,1050.55,1060.77,1070.69,1077.45,1082.48,1088.77,1095.29,1101.47,1106.86,1111.52,1115.36,1118.80,1122.03,1124.89,1127.98,1130.13,1131.14,1131.90,1132.33,1133.08,1133.91,1134.28,1134.31,1133.88,1134.19,1136.17,1139.92,1144.77,1149.34,1153.47,1157.14,1156.54,1153.70,1152.28,1155.04,1159.58,1164.08,1166.93,1168.00,1168.97,1171.15,1174.19,1178.07,1183.12,1188.87,1194.97,1202.16,1210.68,1219.09,1228.35,1237.89,1246.38,1251.07,1252.75,1251.88,1249.09,1245.42,1245.28,1245.49,1245.96,1245.99,1242.87,1234.70,1224.41,1213.92,1204.78,1196.79,1187.42,1176.68,1165.70,1158.03,1151.93,1147.85,1147.36,1153.46,1159.74,1166.15,1171.82,1176.03,1180.68,1180.45,1175.16,1166.07,1158.05,1155.74,1158.58,1161.78,1158.59,1152.27,1146.55,1140.32,1133.26,1129.28,1128.64,1131.97,1137.76,1141.90,1143.49,1144.89,1146.83,1149.76,1154.69,1160.94,1168.72,1177.56,1184.95,1191.36,1199.06,1208.75,1220.95,1235.20,1245.58,1253.68,1261.45,1270.32,1283.41,1298.08,1310.26,1313.26,1315.09,1317.13,1319.71,1323.25,1328.74,1335.33,1337.76,1334.61,1331.20,1328.52,1328.35,1329.49,1329.00,1326.06,1324.70,1322.76,1318.03,1312.00,1306.59,1303.67,1303.57,1305.35,1306.94,1307.41,1306.03,1302.13,1297.83,1292.88,1287.32,1282.32,1281.39,1280.72,1279.59,1277.46,1273.75,1271.63,1272.37,1276.46,1284.12,1292.20,1299.83,1307.53,1315.46,1322.95,1326.57,1326.26,1322.95,1317.43,1312.56,1308.65,1305.91,1305.58,1310.56,1319.00,1326.46,1330.98,1331.21,1330.95,1329.84,1328.05,1328.49,1341.58,1349.76,1354.24,1356.84,1359.24,1362.03,1364.66,1367.31,1370.73,1376.20,1380.76,1385.28,1389.45,1389.78,1386.82,1381.36,1374.61,1368.20,1361.36,1354.41,1347.25,1340.22,1335.50,1331.43,1327.07,1322.27,1317.42,1312.23,1306.98,1301.62,1296.02,1290.36,1284.69,1277.57,1268.55,1259.99,1251.74,1244.68,1238.33,1231.70,1228.46,1227.87,1228.20,1228.59,1230.32,1232.27,1233.84,1234.70,1234.66,1235.13,1234.81,1233.12,1229.64,1225.51,1221.22,1216.88,1212.19,1206.20,1198.99,1191.90,1185.47
997.75,998.98,1000.55,1002.77,1005.69,1009.63,1015.01,1017.77,1019.58,1021.84,1025.86,1030.15,1034.50,1039.07,1044.20,1050.07,1059.28,1067.94,1074.02,1079.35,1086.14,1092.82,1098.94,1104.62,1109.70,1114.53,1119.23,1123.55,1126.60,1130.52,1134.15,1136.88,1138.67,1139.25,1140.38,1141.74,1142.38,1143.02,1143.44,1144.35,1146.14,1148.37,1151.42,1154.93,1158.75,1162.66,1164.05,1162.42,1160.68,1161.90,1166.93,1172.14,1175.93,1177.55,1176.88,1177.65,1179.72,1182.74,1186.70,1191.72,1197.26,1203.48,1210.84,1219.81,1228.72,1237.05,1244.57,1250.76,1254.60,1255.11,1253.80,1252.39,1252.93,1253.69,1253.70,1251.15,1242.34,1231.83,1221.46,1212.08,1204.30,1196.82,1187.97,1177.56,1166.71,1159.91,1154.72,1151.67,1151.96,1157.70,1164.50,1171.73,1177.92,1181.59,1183.65,1180.54,1173.64,1164.67,1157.72,1157.50,1161.63,1164.85,1160.56,1154.46,1148.12,1141.70,1135.91,1133.42,1133.28,1135.46,1139.68,1144.97,1147.76,1149.72,1151.79,1154.54,1158.01,1162.45,1168.85,1177.00,1184.22,1190.81,1198.18,1207.41,1220.04,1234.86,1246.17,1254.77,1262.17,1270.79,1280.53,1292.86,1305.34,1310.76,1312.97,1314.97,1317.51,1320.85,1325.66,1329.97,1331.56,1330.18,1329.14,1327.75,1327.91,1329.18,1329.91,1329.74,1331.47,1330.75,1323.97,1314.70,1308.17,1306.10,1308.07,1311.64,1314.03,1314.36,1311.78,1305.39,1298.98,1293.44,1289.44,1287.47,1287.19,1286.74,1285.88,1284.07,1280.47,1277.24,1277.28,1281.25,1289.15,1297.36,1305.34,1314.18,1324.22,1334.53,1339.82,1339.25,1334.69,1328.33,1323.65,1319.93,1317.18,1316.46,1320.16,1327.62,1334.84,1339.58,1339.70,1338.84,1337.64,1336.58,1337.72,1347.14,1353.53,1357.28,1359.59,1361.99,1365.16,1369.22,1373.53,1377.62,1383.15,1388.01,1392.36,1395.53,1394.84,1391.15,1385.89,1379.76,1373.14,1366.59,1359.91,1352.65,1344.81,1338.62,1334.21,1329.97,1325.30,1320.21,1314.29,1308.32,1302.51,1296.83,1291.15,1284.99,1277.49,1268.47,1259.95,1252.57,1246.27,1240.89,1236.74,1236.10,1237.01,1238.41,1239.87,1241.30,1242.08,1242.73,1243.54,1244.50,1243.46,1241.10,1237.38,1231.81,1226.23,1221.46,1216.95,1212.24,1207.07,1200.20,1192.95,1186.12
1006.40,1007.25,1008.16,1009.79,1012.03,1015.12,1019.88,1022.81,1024.32,1025.59,1028.82,1032.47,1036.22,1040.36,1045.53,1051.55,1059.73,1067.64,1073.91,1079.42,1085.95,1092.13,1097.71,1103.16,1108.22,1113.91,1119.67,1124.61,1128.09,1132.72,1137.31,1141.14,1143.86,1145.29,1146.82,1148.26,1149.02,1150.48,1151.65,1152.92,1154.58,1156.34,1158.75,1161.70,1165.13,1168.85,1170.79,1170.01,1168.58,1169.04,1173.29,1178.58,1183.33,1186.15,1185.29,1185.36,1186.62,1188.87,1192.09,1196.40,1201.23,1206.88,1213.81,1222.14,1229.96,1236.82,1243.19,1250.03,1255.59,1258.07,1258.87,1259.40,1259.89,1260.13,1258.61,1253.50,1242.51,1232.56,1223.19,1214.07,1205.41,1198.15,1188.99,1178.59,1168.69,1162.79,1158.14,1155.77,1156.82,1162.83,1170.06,1177.38,1183.41,1186.45,1185.99,1180.15,1171.79,1163.20,1158.24,1160.56,1165.70,1168.37,1162.82,1156.45,1149.93,1144.04,1139.81,1138.72,1139.02,1140.28,1142.93,1147.82,1151.41,1154.20,1156.71,1159.22,1161.55,1164.58,1169.59,1176.57,1183.23,1190.06,1196.88,1205.02,1217.11,1231.55,1243.39,1252.38,1259.24,1266.74,1274.36,1283.62,1293.40,1299.51,1302.82,1306.17,1309.72,1313.05,1317.32,1320.76,1322.78,1323.51,1324.43,1325.09,1326.46,1328.21,1329.50,1332.23,1336.24,1336.58,1329.31,1317.88,1310.60,1309.87,1313.99,1317.16,1319.32,1319.14,1315.36,1307.04,1300.30,1295.87,1293.89,1294.18,1294.86,1295.35,1295.05,1293.36,1289.32,1284.55,1283.66,1287.15,1294.80,1303.41,1313.68,1324.69,1335.82,1346.03,1351.78,1351.45,1346.90,1340.46,1335.46,1331.63,1328.88,1328.01,1330.75,1336.71,1343.22,1347.81,1347.23,1345.83,1344.82,1344.76,1346.84,1353.41,1358.37,1361.39,1363.19,1365.27,1367.81,1372.19,1377.48,1382.39,1387.91,1392.74,1396.65,1398.97,1398.15,1394.25,1389.00,1383.11,1376.73,1370.45,1363.77,1356.38,1348.39,1341.40,1336.35,1331.87,1327.18,1321.78,1315.18,1308.69,1302.58,1296.68,1290.83,1284.58,1277.13,1268.52,1261.17,1255.31,1250.83,1247.71,1246.42,1247.30,1248.62,1249.76,1250.51,1251.03,1251.07,1251.30,1251.83,1251.88,1248.85,1244.59,1239.33,1232.59,1226.24,1221.40,1217.11,1212.62,1207.59,1201.77,1195.24,1188.50
1015.65,1016.60,1017.48,1019.32,1021.95,1025.21,1029.11,1032.12,1033.81,1034.45,1035.27,1037.55,1040.65,1044.42,1049.20,1055.22,1062.78,1070.46,1077.26,1082.55,1088.18,1093.45,1098.32,1103.18,1107.84,1114.07,1120.50,1125.64,1129.90,1135.13,1140.13,1144.32,1147.80,1150.54,1152.46,1153.68,1154.54,1156.92,1158.64,1160.02,1161.58,1163.78,1166.53,1169.47,1172.58,1175.80,1177.02,1176.67,1176.08,1176.57,1179.01,1183.72,1189.17,1193.57,1193.94,1193.98,1194.61,1196.11,1198.78,1202.41,1206.55,1212.00,1219.01,1225.65,1231.95,1237.49,1242.85,1249.50,1256.08,1260.71,1263.88,1265.86,1265.87,1264.55,1260.51,1253.08,1243.38,1236.31,1228.66,1219.14,1207.87,1200.42,1190.45,1179.99,1171.59,1166.56,1162.26,1160.35,1162.03,1168.58,1176.03,1182.99,1188.46,1190.79,1187.86,1179.62,1169.96,1161.95,1160.03,1164.94,1170.70,1172.56,1166.01,1159.05,1152.71,1147.83,1145.26,1145.20,1145.37,1146.01,1147.53,1150.60,1154.48,1158.15,1161.20,1163.35,1164.98,1167.51,1171.59,1177.09,1182.59,1189.32,1195.43,1202.23,1213.01,1226.08,1237.68,1246.85,1253.36,1259.14,1266.02,1272.08,1277.05,1282.10,1287.00,1292.70,1298.04,1301.78,1306.05,1310.38,1314.06,1316.79,1319.01,1321.97,1325.22,1327.97,1329.65,1334.51,1339.18,1339.82,1333.35,1321.49,1314.38,1315.27,1321.01,1321.95,1322.73,1321.61,1316.91,1307.90,1302.51,1300.51,1300.67,1302.35,1304.18,1305.84,1306.08,1304.24,1299.41,1292.95,1291.00,1294.02,1301.76,1311.36,1324.86,1337.99,1348.68,1356.20,1361.29,1361.77,1358.57,1353.05,1347.78,1343.72,1340.93,1340.00,1342.07,1346.19,1351.74,1356.06,1354.42,1352.32,1351.55,1352.46,1355.43,1360.32,1364.35,1366.77,1367.96,1369.43,1370.45,1373.83,1378.99,1384.58,1390.13,1394.90,1398.42,1400.16,1399.83,1396.19,1390.82,1384.80,1378.90,1372.74,1365.66,1358.14,1350.74,1343.76,1338.15,1333.31,1328.61,1322.88,1315.69,1308.90,1302.63,1296.46,1290.40,1284.39,1277.37,1269.51,1264.02,1260.05,1258.02,1257.84,1259.11,1260.40,1261.23,1261.09,1259.81,1259.19,1259.12,1259.39,1259.22,1256.54,1251.35,1245.64,1239.59,1232.76,1226.47,1221.94,1218.11,1213.93,1208.28,1203.76,1198.62,1192.46
1020.94,1023.59,1025.98,1027.99,1030.36,1033.63,1036.90,1039.36,1041.05,1042.07,1042.85,1044.91,1048.33,1052.72,1057.89,1063.79,1071.10,1077.71,1082.67,1087.42,1092.26,1097.21,1102.18,1106.95,1111.24,1116.54,1122.10,1127.15,1132.37,1137.95,1142.87,1146.95,1150.98,1154.35,1156.73,1158.58,1160.56,1163.19,1165.40,1167.51,1169.80,1172.39,1175.29,1178.52,1181.77,1184.15,1184.78,1184.79,1184.91,1185.66,1187.25,1190.24,1194.81,1199.90,1202.23,1202.75,1203.14,1203.89,1205.37,1208.28,1212.14,1217.15,1223.31,1229.28,1235.14,1240.34,1245.30,1251.32,1257.69,1262.68,1266.57,1269.31,1269.11,1265.30,1258.61,1250.02,1242.29,1236.62,1230.24,1221.45,1209.34,1200.74,1191.26,1182.22,1175.33,1171.05,1167.43,1166.20,1168.15,1173.72,1180.63,1187.90,1193.88,1195.68,1189.39,1179.02,1168.51,1161.38,1162.99,1168.81,1174.71,1177.16,1172.20,1165.37,1158.65,1154.08,1152.72,1152.50,1151.61,1152.13,1153.64,1153.80,1157.17,1161.14,1164.38,1166.31,1168.20,1172.94,1178.19,1182.57,1185.80,1189.95,1194.70,1200.70,1209.36,1218.59,1228.22,1237.46,1245.22,1250.31,1256.87,1262.33,1266.47,1271.49,1277.15,1283.33,1289.18,1293.89,1298.72,1304.14,1309.66,1314.78,1318.98,1323.69,1328.79,1333.46,1336.52,1339.95,1341.20,1338.89,1332.33,1324.55,1321.72,1323.20,1326.28,1325.62,1324.41,1322.28,1318.16,1311.49,1307.58,1306.72,1307.98,1310.52,1312.19,1312.78,1312.48,1310.81,1306.24,1298.77,1296.26,1301.08,1313.57,1326.07,1338.09,1347.82,1355.01,1361.02,1365.98,1367.37,1365.64,1362.01,1359.60,1356.24,1353.27,1351.83,1352.30,1354.20,1358.93,1364.08,1364.06,1360.75,1359.28,1360.34,1363.77,1368.26,1372.68,1375.41,1376.16,1376.01,1375.23,1375.92,1378.58,1383.52,1389.68,1395.29,1399.06,1400.38,1400.25,1397.38,1392.07,1385.56,1379.71,1373.07,1364.85,1357.06,1351.10,1344.28,1338.68,1334.22,1330.16,1324.57,1317.55,1310.58,1304.08,1298.16,1293.06,1287.46,1281.30,1274.99,1270.05,1267.50,1266.54,1266.73,1267.90,1269.07,1269.17,1267.95,1265.76,1265.41,1265.87,1265.84,1264.05,1258.72,1252.18,1246.11,1240.42,1234.55,1229.21,1225.04,1221.25,1216.99,1211.16,1206.76,1202.45,1197.47
1022.19,1026.10,1030.06,1032.93,1035.70,1039.17,1042.37,1044.96,1047.16,1049.02,1050.62,1052.80,1056.35,1060.97,1066.26,1072.04,1078.33,1083.64,1087.58,1092.13,1096.71,1101.70,1106.92,1111.78,1116.56,1121.20,1125.68,1130.19,1135.61,1140.76,1145.17,1149.18,1154.05,1158.16,1161.20,1163.67,1166.33,1169.70,1172.45,1175.02,1177.79,1180.77,1183.60,1186.81,1190.00,1191.92,1192.50,1193.11,1193.87,1194.74,1196.02,1197.73,1201.26,1206.27,1209.65,1210.72,1211.29,1211.81,1212.37,1214.37,1217.63,1221.88,1227.17,1233.52,1239.37,1244.17,1248.46,1253.60,1259.33,1264.29,1268.61,1271.62,1269.72,1263.69,1255.61,1247.05,1240.51,1235.08,1229.13,1221.09,1209.58,1200.36,1192.27,1185.23,1179.70,1175.92,1172.81,1171.92,1173.87,1178.96,1185.37,1192.55,1198.24,1198.76,1190.33,1178.85,1168.47,1162.72,1166.57,1172.99,1178.65,1181.39,1178.58,1172.52,1166.19,1162.11,1161.05,1159.42,1157.76,1158.32,1159.72,1157.72,1160.42,1164.44,1168.11,1170.99,1174.88,1180.76,1185.73,1188.56,1190.40,1192.89,1196.26,1200.89,1207.49,1213.97,1221.64,1230.02,1238.02,1243.23,1249.58,1255.35,1260.44,1266.43,1272.58,1278.75,1284.61,1289.94,1296.03,1302.55,1309.23,1315.72,1321.44,1327.58,1333.83,1339.56,1343.59,1345.74,1344.00,1339.47,1333.51,1329.24,1329.14,1330.41,1331.13,1329.36,1326.87,1324.44,1321.48,1317.38,1314.79,1314.35,1315.68,1318.00,1318.92,1318.57,1317.97,1316.76,1313.38,1307.88,1307.27,1313.76,1327.32,1339.27,1347.78,1353.73,1358.25,1363.31,1368.12,1370.27,1370.03,1368.47,1368.36,1366.17,1363.29,1361.04,1360.40,1360.98,1365.40,1371.18,1371.86,1368.12,1366.56,1368.09,1372.14,1375.74,1379.81,1382.59,1383.44,1382.73,1380.41,1378.78,1379.34,1383.46,1389.11,1395.38,1399.53,1400.39,1400.36,1398.08,1392.92,1386.25,1380.53,1373.64,1365.27,1357.47,1351.65,1345.11,1339.90,1335.87,1332.29,1327.42,1321.14,1314.34,1307.66,1301.84,1297.80,1293.18,1287.78,1282.07,1277.63,1275.58,1274.37,1273.81,1274.75,1275.79,1275.45,1273.93,1271.94,1271.39,1271.61,1270.72,1267.51,1261.22,1254.46,1248.32,1242.75,1237.48,1232.85,1228.52,1224.38,1220.06,1214.55,1210.08,1205.94,1201.47
1019.23,1023.45,1028.62,1033.18,1037.27,1041.20,1044.96,1048.61,1051.97,1055.05,1058.00,1060.50,1063.87,1068.10,1073.01,1078.60,1082.98,1087.03,1091.40,1096.19,1101.13,1106.48,1111.97,1117.11,1123.28,1127.82,1131.34,1134.93,1139.56,1143.49,1147.09,1151.20,1157.16,1162.23,1166.08,1168.97,1171.54,1176.21,1179.54,1182.17,1184.93,1188.25,1190.81,1193.54,1196.36,1198.32,1199.46,1200.95,1202.36,1203.27,1204.80,1206.14,1208.89,1213.03,1216.20,1217.74,1218.95,1219.88,1220.15,1221.13,1223.39,1226.60,1231.17,1238.53,1244.49,1248.71,1251.98,1255.99,1260.86,1265.77,1270.42,1273.06,1267.80,1260.15,1252.26,1244.86,1238.39,1232.18,1225.78,1218.28,1208.70,1199.84,1193.83,1189.07,1184.66,1181.20,1178.44,1177.48,1179.15,1184.57,1190.62,1197.03,1201.21,1199.48,1190.67,1179.39,1170.22,1166.36,1170.80,1177.71,1182.79,1185.20,1184.52,1179.86,1174.97,1171.65,1169.81,1165.72,1163.90,1164.63,1165.61,1162.62,1164.54,1168.48,1173.13,1178.51,1185.91,1190.95,1193.43,1194.17,1195.82,1198.23,1200.41,1203.04,1207.88,1213.52,1219.77,1226.36,1232.99,1238.98,1245.10,1251.67,1258.88,1266.76,1273.20,1279.24,1284.91,1290.43,1298.38,1305.91,1312.85,1319.36,1325.84,1332.92,1339.37,1344.88,1349.16,1351.17,1348.14,1343.11,1338.74,1336.13,1335.88,1336.32,1336.19,1334.11,1331.48,1329.67,1328.17,1326.18,1324.60,1323.87,1324.12,1324.99,1324.77,1324.13,1323.76,1323.32,1322.01,1321.64,1325.40,1332.54,1341.60,1348.61,1352.45,1355.55,1359.11,1363.64,1368.01,1370.60,1371.70,1372.03,1372.69,1371.97,1369.73,1366.74,1365.82,1366.25,1370.75,1376.47,1376.35,1373.58,1372.95,1375.42,1380.25,1382.26,1384.83,1387.14,1388.62,1388.86,1385.62,1382.73,1382.25,1385.56,1389.36,1395.68,1400.02,1400.34,1400.35,1398.23,1393.37,1387.05,1381.69,1375.09,1367.88,1360.45,1353.14,1347.00,1342.45,1338.67,1335.21,1331.51,1326.46,1320.24,1313.56,1307.63,1304.39,1301.23,1296.42,1290.11,1286.30,1283.75,1281.14,1279.21,1280.32,1281.41,1281.04,1279.96,1278.93,1277.26,1276.11,1273.78,1269.63,1264.34,1258.53,1252.48,1246.54,1241.24,1236.83,1231.77,1226.83,1222.45,1217.67,1213.13,1208.46,1203.58
1015.24,1019.16,1024.88,1030.50,1035.51,1039.85,1044.22,1048.56,1052.99,1057.43,1061.50,1064.96,1068.91,1073.37,1078.02,1082.60,1086.36,1090.30,1094.94,1099.76,1104.92,1110.45,1116.36,1122.65,1128.34,1132.16,1135.25,1138.69,1142.57,1146.17,1150.12,1154.86,1160.53,1165.57,1169.57,1172.76,1175.64,1179.72,1183.24,1186.37,1189.34,1192.15,1194.66,1197.16,1199.56,1201.40,1202.80,1205.03,1207.57,1209.85,1212.49,1214.96,1217.66,1220.70,1223.74,1225.63,1227.38,1229.04,1230.22,1231.38,1233.63,1236.51,1239.86,1243.97,1248.56,1252.84,1256.31,1258.71,1263.38,1268.66,1272.89,1273.52,1266.73,1258.66,1250.90,1243.81,1237.36,1230.94,1224.58,1217.73,1209.73,1202.33,1197.22,1193.30,1189.98,1187.55,1185.90,1185.56,1187.02,1191.10,1196.17,1201.44,1203.86,1200.03,1191.81,1181.46,1173.31,1170.74,1176.79,1183.13,1187.72,1190.21,1190.00,1186.57,1183.27,1180.01,1176.27,1172.18,1170.78,1171.95,1173.05,1169.21,1169.76,1173.96,1181.22,1190.86,1197.68,1200.55,1200.93,1200.07,1200.43,1202.32,1204.13,1206.11,1209.69,1215.14,1221.90,1228.34,1233.51,1238.41,1243.95,1250.57,1258.46,1267.38,1273.64,1280.25,1287.21,1294.09,1302.73,1310.32,1317.18,1323.75,1330.42,1336.72,1342.08,1346.87,1351.80,1355.67,1354.14,1350.27,1346.69,1343.70,1342.65,1343.37,1344.99,1345.56,1344.06,1342.96,1342.21,1341.10,1339.99,1338.00,1336.31,1335.40,1334.55,1334.01,1333.83,1333.94,1334.38,1335.94,1339.75,1344.33,1348.50,1352.36,1354.82,1357.24,1360.31,1364.07,1366.53,1368.24,1369.31,1369.56,1369.61,1369.81,1369.73,1369.17,1368.64,1368.71,1371.13,1374.58,1375.85,1377.27,1378.32,1380.61,1384.91,1387.15,1388.82,1390.42,1391.84,1392.34,1390.77,1388.75,1387.96,1390.09,1393.62,1397.70,1400.22,1400.40,1400.26,1397.92,1393.42,1387.91,1383.22,1377.79,1371.44,1364.47,1357.38,1351.61,1347.10,1342.95,1338.95,1335.29,1330.63,1325.12,1319.35,1314.20,1310.75,1307.32,1302.91,1297.64,1293.82,1291.04,1288.72,1287.39,1288.57,1290.40,1289.76,1287.41,1284.45,1281.15,1277.99,1274.27,1269.73,1264.72,1259.40,1253.59,1247.72,1242.64,1238.63,1233.18,1227.27,1221.77,1216.77,1211.72,1206.65,1201.54
1010.83,1014.45,1020.21,1026.53,1032.42,1037.43,1042.34,1047.03,1052.08,1057.52,1062.69,1066.97,1071.58,1076.53,1081.32,1085.42,1089.21,1093.34,1098.07,1102.84,1108.07,1113.68,1119.81,1126.58,1131.57,1135.09,1138.26,1141.77,1145.11,1148.61,1152.88,1157.87,1162.74,1166.93,1170.55,1173.77,1176.83,1180.52,1184.28,1187.88,1191.08,1193.30,1195.39,1197.47,1199.47,1201.21,1202.68,1205.21,1208.45,1211.95,1215.68,1219.36,1222.59,1225.60,1229.21,1231.74,1234.22,1236.76,1239.04,1241.02,1243.59,1246.36,1248.78,1250.17,1253.08,1257.21,1261.21,1263.02,1267.65,1272.64,1275.91,1274.82,1267.00,1259.04,1251.81,1245.27,1239.16,1232.61,1226.61,1220.82,1214.30,1207.34,1201.96,1198.08,1195.60,1194.28,1193.47,1193.36,1194.47,1197.80,1202.14,1205.98,1206.36,1200.59,1193.13,1184.32,1177.38,1175.50,1182.20,1187.84,1192.19,1195.01,1195.22,1192.92,1190.92,1188.05,1183.53,1179.65,1178.10,1178.88,1179.65,1175.92,1176.02,1181.03,1190.47,1202.75,1208.60,1209.54,1208.28,1206.25,1205.21,1206.53,1208.30,1210.04,1212.38,1217.01,1223.85,1230.47,1235.36,1239.89,1245.01,1250.98,1258.28,1267.52,1274.05,1281.53,1289.72,1297.67,1306.35,1313.63,1320.34,1326.94,1333.28,1338.59,1342.95,1347.19,1352.62,1358.55,1359.65,1357.91,1355.31,1352.56,1351.45,1352.54,1355.24,1357.43,1356.95,1355.50,1354.09,1353.33,1352.69,1350.61,1348.42,1346.93,1345.95,1345.15,1344.41,1344.15,1345.33,1347.01,1349.41,1351.31,1352.12,1353.99,1355.99,1358.25,1360.68,1362.71,1363.47,1364.29,1364.96,1364.76,1364.11,1364.62,1365.76,1366.82,1366.87,1367.36,1368.76,1371.05,1374.30,1379.29,1381.82,1383.72,1386.76,1389.03,1390.25,1391.55,1393.01,1393.72,1394.04,1393.75,1393.62,1394.87,1397.65,1399.46,1400.29,1400.34,1399.83,1397.32,1393.29,1388.77,1385.16,1380.97,1375.26,1368.70,1362.09,1356.46,1351.82,1347.22,1342.60,1338.74,1334.31,1329.38,1324.38,1319.87,1315.95,1312.16,1308.21,1304.13,1300.42,1297.73,1296.17,1295.79,1296.79,1298.02,1296.35,1292.48,1287.53,1282.82,1278.13,1273.45,1268.73,1263.82,1258.74,1253.23,1247.61,1242.58,1238.59,1233.05,1226.57,1220.08,1214.79,1208.88,1203.31,1198.18
1006.18,1009.75,1014.98,1021.61,1028.45,1034.55,1039.82,1044.39,1049.32,1055.05,1061.33,1065.95,1071.06,1076.72,1082.24,1087.12,1091.55,1095.95,1100.50,1105.18,1110.28,1115.86,1121.76,1127.52,1132.16,1136.32,1140.23,1143.87,1147.01,1150.51,1154.58,1158.95,1162.68,1165.06,1167.64,1170.49,1173.39,1177.76,1181.94,1185.82,1189.14,1190.92,1191.91,1193.17,1194.85,1196.58,1197.97,1200.11,1203.12,1207.01,1211.50,1215.88,1220.37,1225.22,1230.55,1234.28,1237.79,1241.28,1244.49,1247.79,1250.89,1253.70,1255.96,1257.27,1258.69,1262.08,1266.63,1269.75,1274.35,1277.79,1279.46,1277.89,1269.30,1261.94,1255.93,1250.71,1245.50,1238.76,1233.48,1229.33,1224.22,1215.48,1208.34,1203.65,1201.59,1201.19,1200.46,1199.71,1200.22,1204.39,1208.68,1210.78,1208.76,1201.36,1194.57,1187.96,1182.55,1180.53,1185.85,1191.08,1195.56,1198.92,1200.17,1198.85,1197.63,1195.97,1193.00,1188.76,1185.85,1184.72,1184.26,1182.20,1183.57,1190.11,1200.37,1211.81,1217.61,1217.69,1215.60,1212.95,1210.79,1211.66,1213.54,1215.24,1216.16,1218.66,1224.06,1230.70,1237.30,1243.38,1248.49,1252.99,1258.21,1266.74,1274.38,1282.89,1291.68,1299.75,1307.84,1314.54,1321.06,1327.62,1332.98,1337.67,1341.78,1345.94,1351.44,1358.97,1363.50,1364.93,1364.02,1363.44,1363.75,1364.82,1366.27,1367.19,1366.96,1363.40,1359.36,1358.45,1358.50,1358.59,1358.72,1358.81,1358.33,1356.48,1353.92,1351.90,1352.15,1352.14,1352.40,1352.66,1352.87,1354.03,1355.82,1357.90,1359.33,1358.26,1358.26,1358.69,1358.90,1358.40,1357.43,1357.37,1357.53,1357.60,1358.17,1360.42,1363.54,1367.46,1372.83,1379.00,1382.35,1383.92,1385.03,1386.29,1387.57,1389.30,1391.24,1392.28,1393.84,1395.84,1397.73,1398.86,1399.62,1400.06,1400.20,1399.87,1398.70,1396.31,1392.92,1389.49,1387.49,1384.34,1379.10,1372.82,1366.49,1360.60,1355.79,1350.84,1345.73,1341.76,1337.59,1332.94,1328.14,1323.62,1319.31,1315.64,1312.26,1308.97,1305.91,1303.78,1303.05,1303.37,1303.64,1301.81,1297.96,1292.80,1286.91,1281.45,1276.35,1271.43,1266.63,1261.79,1256.70,1251.54,1246.28,1240.94,1236.33,1230.99,1224.70,1217.94,1212.64,1205.43,1199.21,1194.26
1003.45,1007.38,1012.45,1019.08,1026.06,1032.33,1037.82,1042.36,1046.79,1051.95,1058.91,1064.08,1069.74,1075.86,1081.61,1086.91,1091.82,1096.57,1101.29,1105.99,1111.07,1116.35,1121.59,1126.38,1130.39,1134.51,1138.63,1142.37,1145.59,1149.38,1153.04,1156.28,1159.22,1161.03,1163.29,1166.14,1169.46,1173.87,1177.84,1181.36,1184.19,1185.35,1185.92,1186.92,1188.50,1190.48,1192.70,1195.05,1197.77,1201.39,1206.39,1212.04,1217.39,1222.54,1228.54,1232.87,1236.61,1240.04,1243.12,1246.70,1250.41,1254.04,1257.33,1259.70,1261.70,1264.93,1269.08,1272.57,1276.58,1279.35,1280.71,1279.62,1272.76,1266.61,1261.91,1258.03,1253.12,1247.11,1242.14,1238.12,1233.30,1223.25,1214.83,1209.34,1207.08,1206.87,1206.53,1206.21,1206.91,1210.51,1214.49,1215.19,1211.98,1205.00,1198.35,1191.55,1186.06,1183.92,1188.14,1193.67,1198.70,1202.63,1204.76,1204.67,1204.20,1203.17,1200.89,1196.88,1192.88,1190.76,1190.10,1188.94,1189.55,1196.50,1207.35,1218.13,1224.21,1226.39,1225.40,1222.32,1220.81,1221.05,1222.01,1222.95,1223.32,1223.87,1226.66,1231.71,1238.59,1244.98,1250.54,1255.64,1260.84,1267.06,1272.78,1281.30,1290.90,1299.08,1306.74,1313.32,1319.64,1325.79,1330.79,1335.56,1340.37,1345.26,1350.69,1359.18,1365.63,1370.08,1373.18,1375.76,1375.63,1374.48,1373.30,1372.72,1371.73,1368.72,1365.13,1363.11,1362.94,1363.81,1364.80,1365.35,1364.84,1362.21,1359.07,1356.61,1356.02,1355.40,1354.19,1352.83,1351.85,1351.66,1352.39,1353.66,1354.70,1353.93,1353.77,1354.18,1354.36,1353.37,1351.77,1351.44,1351.26,1350.58,1350.08,1352.20,1356.99,1363.39,1369.76,1376.05,1379.62,1381.21,1381.78,1382.51,1383.28,1384.32,1385.57,1386.66,1388.56,1391.55,1394.89,1397.61,1399.54,1399.95,1398.82,1396.54,1395.04,1393.45,1390.98,1388.23,1386.66,1384.70,1381.08,1375.99,1369.89,1364.30,1359.10,1353.56,1348.08,1344.44,1340.52,1336.05,1331.47,1327.36,1323.17,1319.52,1316.34,1313.67,1311.52,1310.18,1309.41,1308.44,1305.95,1302.65,1298.06,1292.42,1286.09,1280.45,1275.37,1270.22,1264.93,1259.89,1254.94,1249.88,1244.84,1240.02,1235.21,1229.94,1223.96,1217.54,1212.08,1204.67,1198.22,1192.69
1002.46,1006.75,1011.87,1018.27,1024.94,1031.04,1036.73,1041.35,1045.34,1049.75,1056.62,1062.40,1068.62,1074.96,1080.55,1086.06,1091.29,1096.33,1101.21,1105.96,1110.95,1115.81,1120.33,1124.26,1127.63,1131.32,1135.13,1138.75,1142.20,1146.29,1149.70,1152.16,1154.58,1156.28,1158.44,1161.38,1165.16,1169.39,1173.03,1175.97,1177.94,1178.46,1178.99,1180.05,1181.72,1183.97,1186.92,1189.64,1192.37,1195.84,1201.28,1208.34,1214.45,1219.39,1225.30,1229.92,1233.75,1236.98,1239.69,1243.08,1247.13,1251.45,1255.58,1258.84,1262.07,1265.54,1269.20,1272.77,1276.26,1279.05,1280.95,1280.99,1276.59,1272.04,1268.51,1265.46,1260.60,1255.25,1250.25,1245.65,1240.44,1229.98,1221.03,1215.08,1212.57,1212.25,1212.17,1212.31,1213.20,1216.00,1219.39,1218.95,1215.10,1208.93,1202.35,1195.32,1189.59,1187.08,1190.39,1196.41,1202.34,1207.07,1209.88,1211.15,1211.27,1210.41,1208.28,1204.56,1199.95,1197.37,1196.78,1195.92,1195.08,1201.76,1212.78,1223.11,1230.21,1234.88,1235.55,1232.79,1232.10,1232.06,1232.83,1234.18,1235.32,1233.44,1232.77,1235.12,1240.82,1246.15,1251.74,1257.65,1263.62,1268.90,1273.10,1280.66,1289.82,1297.74,1305.00,1311.57,1317.81,1323.66,1328.59,1333.86,1339.52,1345.19,1350.79,1359.79,1367.86,1375.13,1381.82,1386.06,1384.65,1381.05,1377.35,1375.16,1373.29,1371.11,1368.55,1366.05,1365.79,1367.29,1368.96,1369.78,1368.94,1366.00,1362.81,1360.25,1358.80,1357.43,1355.00,1352.01,1349.17,1347.29,1347.10,1347.82,1348.77,1349.03,1348.99,1349.41,1349.58,1348.36,1346.43,1345.85,1345.38,1344.23,1342.84,1344.43,1350.30,1358.54,1365.25,1371.19,1374.62,1376.19,1376.59,1377.02,1377.33,1377.67,1378.25,1379.37,1381.29,1384.41,1388.21,1391.92,1394.92,1395.51,1393.68,1390.28,1388.87,1388.20,1386.93,1385.19,1384.08,1383.45,1381.95,1378.63,1373.05,1367.76,1362.19,1356.29,1350.74,1347.24,1343.41,1339.05,1334.72,1331.15,1327.58,1324.25,1321.38,1319.10,1317.33,1316.34,1314.72,1311.69,1306.74,1302.66,1297.65,1291.70,1285.30,1279.81,1274.85,1269.51,1263.74,1258.37,1253.51,1248.60,1243.85,1239.66,1234.90,1229.71,1223.99,1217.89,1212.43,1205.64,1199.38,1193.34
1004.53,1008.86,1014.28,1020.10,1025.90,1031.60,1037.61,1042.48,1046.47,1050.29,1055.44,1061.81,1068.58,1074.73,1079.50,1084.95,1090.26,1095.32,1100.12,1104.89,1109.58,1113.90,1117.78,1121.18,1124.04,1126.76,1129.45,1132.32,1136.22,1140.38,1144.09,1147.10,1149.38,1151.20,1153.39,1156.33,1160.28,1164.23,1167.70,1169.93,1170.55,1170.55,1171.44,1173.00,1175.03,1177.48,1180.26,1183.39,1186.85,1190.97,1196.86,1205.22,1212.16,1216.75,1221.36,1225.89,1230.00,1233.45,1235.98,1238.69,1242.42,1246.46,1250.13,1252.99,1257.61,1261.92,1265.52,1269.19,1272.70,1276.58,1280.29,1282.43,1280.57,1278.10,1275.35,1271.87,1266.79,1261.28,1255.63,1249.82,1243.30,1234.33,1226.38,1220.87,1218.45,1217.72,1217.40,1217.27,1217.85,1220.22,1222.50,1221.35,1217.35,1211.47,1205.19,1199.57,1194.32,1190.86,1193.50,1200.03,1207.36,1213.46,1216.61,1219.34,1219.69,1218.28,1215.54,1211.82,1207.58,1205.29,1204.68,1203.12,1200.63,1206.13,1216.41,1226.67,1236.45,1242.44,1244.78,1244.16,1243.42,1244.07,1247.30,1252.57,1257.16,1251.55,1246.08,1244.05,1245.92,1247.61,1251.83,1257.60,1264.81,1273.85,1279.67,1284.57,1289.96,1296.67,1303.53,1310.05,1316.45,1322.58,1327.71,1334.02,1340.26,1346.25,1352.74,1361.59,1371.55,1381.31,1388.84,1390.21,1386.69,1381.71,1376.80,1372.83,1370.49,1367.92,1365.63,1364.97,1365.58,1368.36,1371.29,1372.71,1371.13,1368.88,1366.16,1363.35,1360.97,1357.72,1354.17,1349.50,1343.53,1339.54,1339.45,1340.67,1341.91,1342.57,1342.98,1343.21,1343.13,1342.43,1341.17,1340.13,1339.10,1337.98,1337.32,1338.68,1344.17,1352.07,1358.29,1363.43,1366.25,1367.40,1367.57,1367.89,1368.30,1368.80,1369.53,1370.82,1372.61,1374.65,1376.78,1378.81,1380.24,1380.61,1379.96,1378.64,1378.20,1378.23,1378.62,1379.09,1379.32,1380.29,1381.37,1380.58,1376.30,1370.93,1365.23,1359.70,1354.71,1350.60,1346.43,1342.09,1338.05,1335.12,1332.97,1330.91,1328.83,1326.55,1323.55,1321.60,1317.76,1312.12,1306.96,1302.71,1297.04,1290.63,1284.70,1279.85,1274.93,1269.49,1263.57,1257.74,1252.70,1248.23,1244.13,1240.25,1235.79,1230.86,1225.16,1218.92,1214.02,1209.04,1203.77,1197.89
1007.11,1011.68,1017.18,1022.48,1027.63,1032.95,1038.89,1043.85,1048.07,1051.99,1056.44,1062.53,1068.84,1074.38,1078.60,1083.69,1088.88,1093.87,1098.51,1102.86,1106.96,1110.66,1113.91,1116.68,1119.49,1122.15,1124.63,1127.18,1130.78,1134.88,1139.16,1143.01,1145.05,1146.89,1149.03,1151.88,1155.79,1159.53,1162.35,1163.81,1163.77,1163.27,1163.80,1165.56,1168.34,1171.66,1174.41,1178.00,1182.54,1188.10,1194.82,1202.70,1209.47,1214.42,1218.56,1222.70,1226.52,1229.86,1232.54,1235.10,1238.38,1242.04,1245.60,1248.31,1252.56,1257.03,1261.28,1265.52,1269.84,1274.63,1279.26,1282.61,1283.35,1282.18,1279.84,1275.99,1269.53,1263.67,1257.94,1252.11,1245.90,1238.45,1231.55,1226.64,1224.46,1223.43,1223.01,1222.84,1223.20,1224.86,1225.89,1223.41,1218.81,1213.86,1209.04,1204.41,1199.67,1196.01,1197.36,1204.68,1212.83,1219.33,1222.77,1225.82,1226.99,1226.76,1225.37,1222.87,1219.25,1215.76,1212.64,1209.41,1205.68,1210.34,1219.97,1229.74,1239.76,1246.49,1250.23,1251.56,1252.35,1254.29,1258.45,1264.19,1268.97,1265.35,1258.79,1254.11,1253.53,1253.91,1256.30,1260.33,1266.68,1276.95,1284.44,1289.02,1292.71,1297.55,1303.29,1309.53,1316.22,1322.98,1328.61,1335.37,1341.94,1348.43,1355.78,1363.97,1374.37,1383.84,1388.93,1388.13,1382.74,1375.98,1369.63,1365.24,1361.22,1358.91,1358.44,1359.86,1361.99,1365.09,1368.38,1370.71,1369.87,1367.60,1364.78,1361.67,1357.90,1352.36,1346.99,1341.23,1334.73,1329.76,1329.27,1330.90,1333.17,1334.70,1335.78,1336.35,1336.50,1336.24,1335.45,1334.54,1333.44,1332.31,1331.97,1333.34,1338.21,1345.46,1352.13,1356.91,1359.71,1361.12,1361.41,1361.16,1361.27,1361.70,1362.41,1363.53,1365.07,1366.90,1368.99,1371.31,1373.10,1373.44,1372.10,1369.54,1368.34,1368.29,1369.73,1371.72,1372.35,1373.37,1375.92,1378.20,1377.81,1373.23,1368.20,1363.40,1359.05,1355.37,1350.57,1346.15,1342.47,1339.69,1337.77,1335.07,1332.02,1328.86,1325.13,1321.84,1317.19,1311.35,1305.88,1301.13,1295.16,1288.95,1283.72,1279.05,1274.24,1269.21,1263.93,1258.43,1253.23,1248.69,1244.65,1240.79,1236.65,1232.40,1227.41,1221.76,1217.56,1212.97,1208.10,1202.83
1009.61,1014.74,1020.16,1025.03,1029.72,1034.71,1040.28,1045.10,1049.40,1053.42,1057.53,1063.01,1068.71,1073.76,1077.62,1082.28,1087.23,1092.03,1096.33,1099.98,1103.45,1106.64,1109.43,1111.69,1114.46,1117.24,1119.82,1122.29,1125.46,1129.44,1134.13,1138.68,1140.96,1143.04,1145.24,1147.94,1151.51,1154.91,1157.02,1157.88,1157.56,1156.77,1156.77,1158.53,1161.95,1166.27,1169.59,1173.80,1179.26,1186.06,1193.34,1200.13,1206.36,1211.79,1215.87,1219.59,1222.95,1226.06,1228.95,1231.57,1234.57,1237.96,1241.48,1244.40,1248.09,1252.54,1257.44,1262.30,1267.62,1273.04,1278.00,1281.88,1284.66,1284.81,1283.13,1279.17,1271.37,1264.77,1259.02,1253.77,1248.78,1243.13,1237.35,1233.07,1231.23,1230.38,1230.46,1230.75,1231.16,1231.96,1231.97,1228.55,1223.25,1218.14,1214.36,1209.79,1205.08,1201.47,1201.75,1209.53,1218.09,1224.77,1228.48,1231.32,1233.47,1234.96,1235.47,1234.60,1232.03,1227.54,1221.72,1216.12,1210.92,1214.35,1222.91,1231.84,1241.08,1248.15,1253.36,1256.95,1259.79,1263.10,1267.64,1272.73,1276.45,1275.95,1269.95,1263.76,1261.20,1261.05,1261.87,1264.24,1269.51,1279.76,1288.17,1293.10,1296.29,1299.82,1304.28,1310.07,1316.88,1324.11,1330.25,1337.36,1344.32,1351.27,1358.99,1366.23,1376.04,1383.53,1384.54,1381.93,1375.67,1368.14,1361.14,1356.64,1350.05,1347.67,1349.31,1353.24,1357.07,1360.25,1363.42,1366.14,1365.94,1363.28,1359.79,1355.95,1351.35,1344.93,1338.87,1332.84,1326.48,1320.93,1319.39,1320.59,1323.22,1325.43,1327.25,1328.34,1328.92,1329.19,1328.96,1328.54,1327.76,1326.75,1326.54,1327.94,1332.14,1338.61,1345.74,1350.48,1353.52,1355.35,1355.90,1355.19,1354.98,1355.36,1356.17,1357.13,1358.31,1360.10,1362.52,1365.49,1368.12,1368.41,1366.01,1361.66,1359.42,1359.19,1361.19,1364.02,1364.82,1365.66,1369.14,1373.87,1377.09,1374.26,1370.45,1366.45,1362.60,1359.48,1354.30,1349.85,1346.27,1342.91,1340.45,1336.63,1332.28,1328.05,1323.89,1319.58,1314.72,1309.33,1303.64,1298.44,1292.55,1286.80,1282.09,1277.63,1273.02,1268.40,1263.76,1258.71,1253.50,1248.91,1244.83,1240.92,1237.06,1233.35,1229.02,1224.05,1220.38,1215.88,1211.40,1207.00
1011.26,1017.85,1022.89,1027.50,1032.15,1036.94,1041.61,1045.71,1049.26,1052.56,1056.42,1061.19,1066.95,1072.42,1076.21,1080.47,1085.09,1089.40,1092.88,1095.41,1098.43,1101.57,1104.46,1106.69,1108.97,1111.43,1114.01,1116.75,1119.85,1123.69,1127.97,1132.44,1136.68,1139.83,1142.50,1145.02,1147.51,1150.03,1151.78,1152.60,1152.48,1152.11,1151.89,1153.32,1156.62,1161.54,1167.28,1172.53,1177.99,1184.45,1190.97,1196.75,1202.36,1207.79,1212.23,1215.73,1218.75,1221.62,1224.58,1227.28,1230.75,1234.32,1237.70,1241.67,1246.19,1250.86,1255.60,1260.68,1266.70,1272.11,1276.44,1279.58,1282.49,1284.88,1285.11,1281.84,1274.22,1265.77,1259.48,1255.45,1252.91,1249.91,1245.49,1241.73,1240.31,1241.21,1243.61,1245.81,1247.01,1246.76,1246.68,1244.42,1238.52,1228.88,1223.44,1216.29,1209.91,1206.35,1206.98,1213.82,1222.17,1229.38,1233.36,1235.57,1238.53,1241.52,1243.55,1244.21,1243.81,1240.71,1234.40,1225.29,1217.39,1217.88,1223.83,1231.29,1239.14,1246.00,1253.13,1260.32,1265.00,1269.29,1274.18,1278.84,1281.17,1280.93,1276.57,1270.75,1266.13,1265.39,1265.99,1268.88,1274.75,1283.74,1290.56,1295.32,1299.59,1304.46,1307.91,1312.95,1319.17,1325.93,1332.32,1340.18,1347.92,1355.04,1361.51,1367.46,1374.86,1377.96,1373.21,1369.21,1365.19,1360.73,1355.94,1350.76,1340.03,1335.76,1338.68,1346.25,1351.73,1355.26,1357.68,1358.74,1357.05,1353.69,1348.21,1342.32,1339.26,1337.14,1334.96,1330.77,1323.69,1317.61,1313.51,1311.46,1311.42,1313.12,1315.64,1317.28,1318.36,1319.59,1320.42,1321.05,1321.24,1320.92,1320.67,1321.93,1325.50,1331.06,1337.68,1342.93,1346.32,1348.38,1349.31,1348.99,1348.83,1349.52,1350.95,1352.22,1352.86,1354.15,1356.20,1358.80,1361.56,1361.53,1358.95,1354.87,1352.73,1352.89,1354.54,1356.65,1357.95,1359.68,1363.59,1367.99,1370.98,1372.08,1370.34,1367.03,1363.08,1359.75,1355.32,1351.17,1346.71,1340.97,1336.75,1332.41,1327.69,1322.81,1318.66,1314.86,1310.11,1304.47,1298.98,1293.95,1288.89,1283.75,1278.82,1275.12,1270.87,1266.14,1261.12,1256.08,1251.36,1247.31,1243.60,1239.74,1235.98,1231.88,1227.27,1222.41,1218.51,1214.74,1211.39,1208.16
1012.96,1019.80,1024.94,1029.36,1033.66,1037.94,1041.50,1044.12,1046.74,1049.75,1053.28,1057.74,1063.09,1068.52,1072.99,1076.78,1081.36,1085.38,1088.00,1090.06,1092.68,1095.85,1099.05,1101.44,1103.43,1105.09,1107.10,1110.20,1114.29,1118.38,1122.59,1127.16,1132.28,1135.83,1138.22,1139.96,1141.42,1142.90,1144.41,1145.53,1146.08,1146.59,1147.36,1149.65,1153.53,1158.72,1165.54,1171.21,1176.19,1181.33,1186.79,1191.96,1196.95,1201.74,1206.15,1209.78,1213.19,1216.27,1218.64,1221.10,1225.02,1229.17,1233.09,1238.10,1243.47,1248.42,1253.21,1258.88,1265.01,1270.00,1273.35,1275.23,1278.78,1283.02,1285.84,1285.34,1279.19,1270.12,1263.47,1259.95,1258.77,1257.65,1255.84,1254.99,1256.20,1258.34,1259.26,1257.86,1255.24,1254.32,1253.95,1251.92,1246.49,1237.13,1230.79,1223.18,1216.92,1213.45,1212.61,1219.02,1227.04,1234.10,1238.64,1240.59,1243.30,1246.83,1250.92,1255.61,1259.58,1261.77,1258.67,1243.54,1229.32,1224.52,1226.45,1231.39,1237.72,1244.13,1252.13,1261.49,1268.54,1274.15,1278.81,1282.46,1284.46,1284.72,1282.18,1277.62,1272.45,1270.61,1270.63,1273.38,1279.11,1287.21,1293.05,1297.92,1303.11,1309.02,1312.77,1318.19,1324.08,1329.91,1336.61,1344.98,1352.80,1359.20,1363.74,1367.56,1369.50,1367.65,1361.56,1357.49,1356.26,1355.02,1352.02,1345.28,1332.86,1327.58,1330.30,1338.55,1345.01,1350.27,1353.50,1353.93,1351.67,1346.95,1339.85,1332.80,1330.21,1329.92,1330.34,1328.59,1322.88,1316.49,1310.54,1305.79,1302.97,1303.30,1305.13,1306.99,1308.85,1311.01,1312.67,1313.80,1314.32,1314.21,1313.99,1314.62,1317.44,1322.40,1328.87,1334.84,1339.35,1342.07,1342.72,1342.32,1342.36,1343.14,1344.49,1345.72,1346.58,1348.00,1350.00,1352.38,1355.29,1355.30,1352.96,1349.34,1347.03,1346.15,1346.72,1348.45,1350.89,1354.10,1358.11,1361.57,1363.63,1366.54,1367.90,1366.30,1362.20,1358.67,1354.61,1350.12,1344.88,1338.49,1333.09,1328.01,1322.61,1316.92,1312.37,1308.50,1303.69,1298.16,1293.41,1289.25,1284.68,1279.49,1273.99,1270.05,1266.22,1261.82,1256.81,1251.80,1247.67,1244.27,1241.03,1237.30,1233.33,1228.69,1223.55,1218.34,1214.09,1210.72,1207.86,1205.12
