796.14,792.92,790.04,787.76,785.78,783.84,781.89,781.52,782.13,783.23,784.33,785.43,786.56,787.26,786.88,785.90,784.76,784.23,784.51,784.67,785.16,785.98,786.86,787.28,787.13,786.67,786.32,786.42,787.03,787.83,788.66,789.49,790.45,791.72,793.78,796.74,800.92,806.38,810.68,812.23,810.23,806.23,802.30,799.11,797.67,800.10,804.89,810.79,816.26,819.50,818.36,816.12,813.65,811.46,810.38,809.47,808.67,808.15,808.10,807.28,806.34,806.06,806.69,807.25,807.53,807.75,808.14,808.98,809.72,810.61,812.30,815.17,817.36,816.70,815.52,815.05,815.57,816.19,817.03,817.95,818.77,819.58,821.05,824.57,831.07,839.15,843.55,845.44,845.21,842.27,839.03,835.92,833.22,831.19,829.61,827.64,825.49,823.54,822.44,822.01,821.70,821.54,822.03,823.52,824.94,825.43,824.54,823.06,821.13,821.47,824.70,829.52,830.71,831.70,833.41,835.78,837.86,839.97,842.38,845.53,850.03,854.24,858.84,864.05,869.78,874.82,879.69,884.50,889.02,892.43,894.25,894.19,891.87,886.76,881.62,876.79,873.35,872.33,871.31,867.75,862.39,855.78,848.68,841.56,836.43,832.93,829.83,827.89,828.34,829.60,830.29,830.03,831.40,833.57,836.29,839.95,844.52,848.11,850.61,853.02,858.85,864.61,870.08,875.80,882.94,889.95,893.33,891.71,884.18,877.61,872.65,869.33,867.62,866.17,864.11,863.02,862.99,862.29,860.02,857.99,858.22,862.94,870.03,878.27,887.34,896.80,904.85,911.74,917.97,923.67,928.69,933.83,938.88,943.27,946.72,950.25,953.04,955.09,956.20,955.72,953.34,949.57,945.03,939.85,933.03,927.27,922.71,919.07,915.46,911.46,906.50,900.17,892.10,886.06,880.61,875.13,869.05,861.34,858.08,855.96,853.46,851.12,851.21,854.06,858.56,863.41,867.92,872.32,876.50,879.94,881.46,882.25,882.61,882.56,881.75,879.30,875.48,870.35,863.92,857.75,852.23,848.27,846.38,846.87,851.24,856.39,860.67,862.60,861.35,858.22,854.45,849.75,841.74,833.56,827.34,822.92
793.85,791.25,788.95,786.95,785.04,783.14,781.28,780.98,781.61,782.69,783.77,784.81,785.88,786.53,786.06,785.04,783.91,783.29,783.38,783.71,784.50,785.42,786.15,786.17,785.89,785.45,785.26,785.64,786.23,787.00,787.75,788.41,789.05,789.95,791.59,794.39,798.96,804.41,808.34,809.48,807.25,803.39,799.74,796.98,795.89,798.09,801.99,807.81,813.43,816.52,816.33,813.96,811.12,808.75,807.65,806.86,806.28,805.95,805.87,805.17,804.72,804.75,805.26,805.74,806.09,806.46,806.93,807.51,807.81,808.76,810.60,813.21,815.14,814.40,813.30,812.99,813.63,814.38,815.33,816.32,817.09,817.87,819.29,822.74,829.06,836.53,840.68,842.00,841.12,838.63,836.08,833.27,830.67,828.86,827.49,825.67,823.65,821.82,820.90,820.60,820.47,820.66,821.72,823.38,824.21,823.92,822.48,820.65,819.26,820.63,824.48,828.12,829.04,830.40,832.55,834.95,836.44,837.66,839.40,842.43,847.58,852.13,857.16,862.72,868.26,872.88,877.04,881.10,885.02,888.25,890.27,890.13,887.47,882.27,876.55,870.95,866.94,866.06,865.96,863.94,859.93,854.11,847.41,840.49,835.32,831.74,828.78,826.69,826.90,828.00,828.65,828.23,829.40,831.24,833.62,837.34,842.02,844.87,846.38,848.32,853.43,859.13,865.19,872.07,880.50,887.66,890.71,888.52,880.14,873.05,867.03,862.62,860.42,859.26,857.94,857.06,856.60,855.69,853.83,854.05,857.22,863.73,871.00,879.09,887.60,896.07,903.53,909.62,916.07,922.52,927.14,931.89,936.41,940.19,943.13,946.90,950.13,952.13,952.60,951.32,948.66,945.04,940.51,934.80,928.04,923.02,919.01,915.39,911.84,908.21,904.07,898.91,892.07,886.05,880.43,874.95,868.91,860.24,855.36,851.34,847.04,843.63,842.87,845.83,850.95,856.19,861.48,866.82,871.85,875.73,876.83,877.11,876.90,876.40,875.82,875.05,873.31,870.01,864.74,859.13,853.68,849.07,845.65,843.66,846.61,851.67,856.65,859.58,860.34,858.08,854.41,849.69,842.44,834.82,828.34,823.13
791.05,789.15,787.50,785.82,784.05,782.25,780.59,780.49,781.21,782.28,783.34,784.30,785.29,785.84,785.29,784.21,783.10,782.42,782.43,783.02,783.94,784.82,785.33,784.99,784.62,784.25,784.25,784.83,785.45,786.16,786.85,787.45,788.04,788.59,789.64,792.08,796.92,801.98,805.20,805.81,803.56,800.22,797.09,794.88,794.31,796.58,799.12,804.64,810.46,813.71,815.42,812.73,809.41,807.13,805.63,804.70,804.14,803.84,803.68,803.01,803.02,803.40,803.85,804.25,804.68,805.11,805.55,805.95,806.27,807.57,809.54,811.62,813.15,812.20,811.06,810.87,811.71,812.67,813.71,814.70,815.53,816.53,818.28,821.76,827.43,833.37,837.32,838.43,837.30,835.58,833.50,830.98,828.54,826.75,825.34,823.64,821.81,820.18,819.51,819.30,819.42,820.04,821.52,823.13,823.09,822.11,820.66,818.63,818.38,820.00,822.88,825.67,827.38,829.58,832.09,834.01,834.18,834.39,835.92,839.47,844.97,849.88,855.53,861.58,866.69,870.66,874.13,877.44,880.61,883.41,885.70,885.18,881.61,876.40,870.80,865.28,861.14,859.76,859.49,858.90,856.54,851.82,845.67,839.39,834.24,830.27,827.26,825.34,825.35,826.28,827.07,826.56,827.12,828.25,830.14,834.03,838.85,841.48,842.82,844.92,849.18,854.77,861.52,869.60,878.80,885.50,888.04,885.45,876.47,868.96,862.23,856.91,853.81,851.89,851.79,851.89,851.42,850.16,849.20,852.00,857.78,864.92,871.93,879.67,887.44,894.73,901.33,906.51,913.49,921.15,925.54,929.61,933.34,936.62,939.57,943.30,947.05,948.95,948.50,946.51,944.05,940.71,936.17,930.13,924.39,919.80,915.82,912.05,908.17,904.42,900.56,896.35,891.30,885.30,879.54,874.14,868.39,859.88,853.87,847.77,841.19,836.76,834.61,837.85,844.11,849.66,854.90,861.14,867.36,872.10,873.36,873.44,872.56,871.25,870.54,870.35,870.13,868.62,864.80,860.47,855.89,850.97,845.64,840.53,841.82,846.60,852.13,855.98,858.39,857.47,854.43,849.74,843.01,836.31,829.93,824.08
789.28,787.53,786.13,784.54,782.86,781.26,779.93,779.99,780.72,781.71,782.73,783.67,784.65,785.18,784.57,783.44,782.29,781.55,781.57,782.42,783.41,784.03,784.15,783.76,783.38,783.23,783.43,784.05,784.67,785.21,785.73,786.23,786.70,787.21,788.17,789.84,792.82,797.98,801.15,801.66,799.63,796.88,794.11,792.49,792.63,795.14,797.78,802.04,807.01,811.47,814.44,811.85,808.40,805.99,803.88,802.64,802.02,801.73,801.57,801.47,801.79,802.25,802.66,803.04,803.37,803.71,804.06,804.44,805.16,806.63,808.47,810.21,811.42,810.56,809.49,809.22,810.05,811.04,812.09,813.13,814.21,815.95,818.04,821.49,826.69,831.36,834.36,834.96,833.76,832.36,830.75,828.95,827.05,825.19,823.49,821.74,820.13,818.87,818.23,818.35,818.99,820.04,821.40,822.20,821.70,820.47,818.84,816.98,817.37,819.20,821.82,824.53,827.10,829.53,831.38,831.97,831.23,831.59,833.82,837.96,842.79,847.86,853.89,860.04,864.46,867.33,869.77,872.24,874.86,877.61,879.48,878.87,875.60,870.65,865.36,859.70,855.17,853.63,853.81,854.14,853.02,849.41,843.04,836.62,831.66,828.08,825.39,823.99,824.10,824.89,825.52,824.94,825.30,826.46,828.31,831.07,835.37,837.93,839.45,841.94,847.08,853.14,860.22,868.38,876.38,881.16,882.09,879.15,872.06,865.05,859.02,853.88,849.56,845.87,845.69,845.90,845.52,845.60,847.43,852.68,859.62,866.06,872.48,879.46,886.89,894.28,900.22,905.43,911.97,918.92,923.38,927.14,930.38,933.51,936.88,940.76,944.40,945.34,943.13,939.75,936.85,934.15,931.12,927.08,922.31,917.74,913.30,908.76,903.93,899.98,896.52,892.90,888.02,882.17,876.76,871.50,865.61,858.32,852.15,845.53,838.46,833.18,829.71,831.01,836.21,843.45,849.33,856.64,863.50,868.09,869.59,869.72,868.80,867.27,865.96,865.42,865.47,865.40,864.25,860.95,856.71,851.94,846.44,840.17,839.55,843.00,847.78,851.21,854.22,855.88,854.92,850.44,844.00,837.32,831.02,825.28
788.54,786.82,785.33,783.66,781.97,780.46,779.28,779.45,780.19,781.12,782.09,783.03,784.00,784.51,783.87,782.73,781.54,780.74,780.74,781.80,782.78,783.12,782.91,782.51,782.21,782.27,782.64,783.24,783.83,784.15,784.47,784.87,785.29,785.91,786.91,788.13,789.74,793.72,796.10,796.49,795.09,793.25,791.25,790.52,791.47,794.10,796.87,800.12,804.30,809.41,813.09,810.74,807.19,804.48,802.08,800.72,800.10,799.86,799.81,800.11,800.60,801.08,801.48,801.85,802.09,802.32,802.59,802.98,803.94,805.43,807.07,808.50,809.41,808.84,808.05,807.85,808.65,809.58,810.54,811.56,812.81,814.86,817.24,820.67,825.32,829.19,831.32,831.47,830.23,828.92,827.52,826.30,825.13,823.74,821.99,820.29,818.84,817.74,817.12,817.66,818.76,820.01,820.98,821.02,820.20,818.88,817.22,815.53,816.32,818.30,820.76,823.41,826.25,828.48,829.68,829.50,828.76,829.86,832.84,837.28,841.60,846.40,852.14,857.85,861.57,863.38,865.17,867.29,869.82,872.71,874.39,873.69,870.52,865.68,860.98,855.16,849.82,847.43,847.79,849.10,849.07,846.21,839.91,833.68,829.05,825.79,823.34,822.54,822.84,823.52,823.97,823.35,823.69,824.99,826.92,829.01,832.45,835.14,837.37,840.43,846.17,852.39,859.46,867.40,874.39,877.08,876.53,873.24,867.00,860.82,855.31,850.01,844.61,839.62,839.07,839.54,840.13,842.49,846.67,853.19,860.42,866.51,872.45,878.51,885.55,893.27,899.04,904.24,909.89,915.71,920.59,924.47,927.68,930.92,934.73,939.04,942.09,941.58,937.66,933.46,930.46,928.43,926.87,924.99,921.24,916.42,910.99,905.22,899.78,895.55,892.08,888.61,883.96,878.48,873.10,867.69,861.87,855.72,849.27,842.26,835.27,830.19,826.20,825.53,829.27,838.14,845.28,853.26,860.28,864.60,865.94,865.88,864.95,863.46,861.82,860.81,860.80,861.54,862.27,860.46,856.69,852.06,846.70,840.34,837.20,839.13,843.49,846.57,849.90,853.13,854.17,851.39,845.62,839.00,832.81,827.27
788.76,787.02,785.18,783.28,781.48,779.92,778.68,778.87,779.60,780.48,781.42,782.33,783.28,783.77,783.14,782.10,780.94,780.08,779.96,780.99,781.90,782.09,781.69,781.25,781.12,781.37,781.85,782.39,782.91,783.01,783.11,783.40,783.88,784.70,785.80,786.97,788.13,789.69,790.54,790.71,790.30,789.57,788.75,789.15,790.86,793.43,796.14,798.95,802.63,807.59,811.42,809.37,805.69,802.49,800.22,798.95,798.40,798.26,798.43,798.84,799.37,799.88,800.30,800.63,800.82,800.98,801.18,801.55,802.48,803.85,805.27,806.36,807.00,806.91,806.65,806.66,807.46,808.32,809.10,809.96,811.22,813.00,815.61,819.04,823.05,826.54,828.03,827.85,826.63,825.24,823.84,823.00,822.62,822.26,820.77,819.30,817.94,816.77,816.20,817.18,818.57,819.74,820.16,819.69,818.65,817.32,815.80,814.23,815.25,817.29,819.59,822.04,824.41,826.07,826.85,826.77,827.02,829.19,832.75,837.15,841.37,845.52,850.28,854.98,857.97,858.92,860.49,862.86,865.78,868.93,870.76,869.91,866.41,861.54,857.68,851.71,845.21,841.22,841.26,843.59,844.55,842.15,836.49,830.95,826.70,823.57,821.24,821.02,821.50,822.10,822.42,821.80,822.23,823.64,825.74,827.91,830.32,833.34,836.69,840.43,846.08,851.97,858.71,866.32,872.73,873.52,871.81,868.14,861.44,856.12,850.59,844.60,838.34,832.80,831.87,832.99,835.56,840.77,846.33,852.85,859.71,866.00,871.69,876.81,883.20,891.09,897.29,902.34,906.93,911.69,917.29,921.72,925.36,928.92,933.03,937.88,939.76,937.56,932.34,928.17,925.46,923.97,923.47,923.44,920.79,915.62,908.94,901.74,896.19,891.60,887.57,883.74,879.47,874.46,868.71,862.85,857.31,851.84,844.80,837.41,830.97,827.21,823.54,821.47,823.85,833.77,842.53,850.76,857.52,861.63,862.49,861.93,860.91,859.67,858.07,856.63,856.42,857.30,858.74,858.91,855.96,851.55,846.43,840.70,834.62,834.92,839.20,842.30,845.84,849.26,851.86,852.24,847.80,841.54,835.50,830.08
789.04,787.23,785.28,783.30,781.40,779.72,778.41,778.15,778.61,779.53,780.52,781.27,781.96,782.39,782.24,781.78,781.05,780.22,779.48,779.24,780.24,780.82,780.63,780.07,780.14,780.52,781.01,781.51,781.84,781.81,781.81,782.02,782.52,783.48,784.54,785.56,786.57,787.67,788.44,788.70,788.37,787.70,787.55,788.40,790.06,792.14,795.42,798.59,802.23,806.82,810.36,808.40,804.51,800.81,798.68,797.43,796.87,796.78,797.06,797.54,798.14,798.68,799.09,799.43,799.60,799.73,799.90,800.16,800.80,801.86,802.99,803.81,804.38,804.69,804.97,805.40,806.19,806.99,807.68,808.34,809.23,810.58,813.16,816.57,820.30,823.14,824.10,823.64,822.47,821.57,820.70,820.30,820.27,820.27,819.39,818.24,816.96,815.79,815.41,816.47,817.70,818.63,818.98,818.32,817.14,815.79,814.40,813.00,814.03,815.97,818.09,820.20,821.62,822.73,823.55,824.19,825.94,828.46,831.90,836.23,840.63,844.55,848.48,851.98,853.82,854.26,855.49,857.96,861.58,864.97,866.73,865.37,861.45,857.50,854.05,848.00,840.87,835.68,834.82,837.21,839.04,838.12,833.71,829.02,824.92,821.72,819.87,819.64,820.12,820.66,820.85,820.33,820.86,822.40,824.65,826.95,829.24,832.43,836.20,840.20,845.03,850.31,856.64,863.77,869.00,868.80,865.89,861.63,856.40,851.03,844.60,837.64,830.90,825.45,824.64,827.11,832.08,838.84,844.43,850.80,857.57,863.70,869.73,874.40,879.32,885.57,893.09,898.45,903.40,908.71,914.61,920.00,924.10,927.66,931.40,935.32,935.00,931.96,927.63,923.91,920.86,919.08,918.78,919.81,918.78,914.19,907.84,901.16,895.71,890.32,885.25,880.34,875.02,869.52,863.50,857.42,851.61,845.29,837.49,830.72,826.18,823.68,820.10,818.43,820.88,829.46,838.30,846.96,853.80,857.63,858.99,858.26,857.13,855.97,854.43,852.80,852.28,852.99,854.72,855.99,854.89,852.09,847.73,841.62,834.32,832.25,834.58,838.29,842.13,845.46,848.66,851.05,849.43,844.31,838.47,832.89
789.31,787.38,785.39,783.38,781.42,779.61,778.21,777.39,777.51,778.44,779.42,780.00,780.42,780.78,781.04,781.12,780.89,780.30,779.26,777.89,778.53,779.31,779.44,778.84,779.10,779.59,780.11,780.57,780.75,780.69,780.63,780.73,781.15,782.09,783.08,784.03,784.99,786.06,787.03,787.42,786.99,786.22,786.57,787.65,789.12,790.94,794.63,798.27,801.98,806.04,809.02,807.05,803.20,799.44,797.36,796.02,795.40,795.34,795.71,796.25,796.91,797.49,797.90,798.25,798.39,798.52,798.68,798.86,799.29,800.06,800.93,801.66,802.27,802.84,803.46,804.15,804.90,805.67,806.38,807.07,807.92,809.11,811.41,814.59,818.07,820.13,820.63,820.14,819.22,818.70,818.21,818.11,818.27,818.40,818.02,817.08,815.89,814.79,814.57,815.52,816.53,817.31,817.72,816.96,815.74,814.43,813.13,811.88,812.79,814.58,816.59,818.49,819.36,820.12,820.93,822.04,824.75,827.57,830.98,835.16,839.38,842.88,845.97,848.11,848.15,847.95,849.20,852.16,856.67,860.89,862.51,860.75,856.67,853.29,849.57,843.41,836.24,830.61,828.65,830.55,832.91,833.44,830.33,826.30,822.72,820.06,818.71,818.24,818.58,819.07,819.17,818.81,819.41,821.04,823.44,825.93,828.49,831.83,835.68,839.69,843.92,848.66,854.38,860.50,863.97,863.30,860.29,856.39,852.47,846.15,838.88,831.60,825.07,820.28,819.72,822.88,828.96,836.16,841.72,848.06,854.66,860.29,866.24,870.88,875.05,880.14,888.29,894.43,900.20,906.21,912.43,918.59,922.99,926.52,929.88,932.42,930.57,927.17,923.46,919.38,915.78,913.66,913.31,914.82,915.49,912.09,906.76,901.03,895.75,889.68,883.72,878.01,872.22,866.29,859.71,852.94,846.23,838.92,830.58,824.30,820.94,818.66,815.17,814.23,817.18,824.79,832.84,841.58,848.89,853.32,855.50,854.96,853.73,852.37,850.61,848.86,848.36,849.13,850.97,852.68,853.07,851.79,848.41,842.47,834.98,830.81,830.75,834.38,838.18,841.47,845.01,848.69,849.92,846.31,840.93,835.27
789.50,787.45,785.42,783.41,781.42,779.52,777.97,776.66,776.41,777.24,778.08,778.50,778.76,779.04,779.47,779.88,780.09,780.01,779.33,777.48,777.04,777.48,777.97,777.53,777.90,778.52,779.12,779.54,779.73,779.70,779.60,779.54,779.75,780.46,781.38,782.36,783.36,784.43,785.56,786.05,785.57,784.78,785.49,786.67,788.05,790.07,793.74,797.74,801.57,804.88,807.07,804.99,801.59,798.44,796.25,794.69,793.97,793.95,794.42,795.01,795.68,796.30,796.77,797.04,797.21,797.36,797.51,797.70,798.17,798.72,799.38,800.25,801.00,801.65,802.26,802.91,803.62,804.38,805.27,806.38,807.81,809.24,811.03,813.66,816.79,817.95,818.14,817.92,817.54,817.06,816.55,816.50,816.71,816.88,816.73,815.82,814.68,813.76,813.61,814.26,815.12,815.93,816.46,815.64,814.49,813.28,812.05,810.94,811.60,813.20,815.20,817.15,818.23,818.93,819.54,820.52,823.15,826.37,830.06,834.01,837.38,840.04,842.22,842.89,840.45,839.36,841.18,845.22,850.89,856.75,858.16,856.25,852.47,848.82,843.98,837.67,831.18,826.15,823.06,823.95,826.25,827.78,825.87,822.24,819.78,818.61,817.66,816.77,816.84,817.23,817.33,817.20,817.85,819.52,822.03,824.84,827.96,831.44,835.11,838.88,843.06,847.47,852.25,856.59,857.62,856.96,855.51,853.46,849.90,841.74,834.11,827.58,822.15,818.65,818.36,820.97,826.03,832.46,838.32,844.81,851.06,855.83,861.03,866.04,870.83,876.05,883.52,890.99,897.81,904.23,910.86,917.25,921.71,925.25,928.42,929.47,927.43,924.11,919.88,914.11,909.87,907.57,907.07,908.40,910.65,909.11,905.32,900.51,895.41,888.91,882.40,876.60,871.82,865.92,858.45,850.24,841.99,833.91,825.42,819.15,815.41,811.68,808.31,807.97,811.58,819.45,825.94,834.16,842.34,848.64,851.86,852.00,850.76,848.84,846.45,844.63,844.68,845.95,847.70,849.12,850.10,849.81,847.60,842.97,836.34,830.84,828.36,830.58,833.83,837.17,840.94,845.23,848.76,846.96,842.48,836.97
789.25,787.05,784.94,782.93,781.02,779.24,777.75,776.38,775.73,775.97,776.72,777.08,777.41,777.82,778.33,778.88,779.29,779.30,778.60,776.89,775.75,775.77,776.35,776.20,776.78,777.50,778.14,778.58,778.91,778.93,778.80,778.63,778.62,779.17,779.95,780.80,781.71,782.84,784.19,784.81,784.27,783.58,784.39,785.79,787.42,789.49,792.86,796.93,800.90,803.89,805.09,802.94,799.88,797.06,794.88,793.28,792.57,792.60,793.18,793.90,794.55,795.13,795.61,795.86,796.03,796.19,796.35,796.58,797.07,797.56,798.18,799.08,799.79,800.39,801.02,801.73,802.43,803.22,804.45,806.02,807.71,809.25,811.07,813.30,815.53,816.01,816.02,815.96,815.81,815.39,814.98,814.98,815.21,815.41,815.44,814.64,813.54,812.62,812.48,813.08,813.90,814.71,815.24,814.51,813.41,812.24,811.08,810.15,810.94,812.47,814.22,815.91,817.11,817.91,818.55,819.36,820.95,823.69,827.30,831.16,833.65,835.24,836.52,836.89,835.02,833.19,835.26,840.26,847.03,853.54,854.14,851.82,848.38,844.82,840.02,834.10,827.94,822.80,820.14,820.27,821.56,822.76,822.13,820.11,818.50,817.49,816.63,815.68,815.33,815.37,815.55,815.65,816.81,818.67,821.19,824.70,828.13,831.57,835.12,838.90,843.05,847.03,850.47,852.53,851.50,850.70,849.93,848.45,844.68,837.68,830.94,825.00,820.07,816.83,816.65,818.70,822.86,829.49,835.77,841.90,847.57,852.56,858.68,863.89,868.73,874.04,881.06,889.54,897.16,903.64,909.59,914.99,919.16,922.85,926.09,926.52,924.33,920.63,915.57,909.06,904.31,901.71,900.99,902.15,904.72,905.13,902.69,897.71,892.76,884.89,877.21,871.50,868.99,864.64,857.99,850.00,841.29,832.14,823.61,817.38,813.11,807.81,803.32,802.83,806.30,812.94,819.11,826.23,833.58,840.39,845.82,847.50,846.75,844.65,842.29,840.66,840.70,841.70,842.96,844.23,845.75,846.69,846.08,842.46,837.11,831.66,827.69,827.31,830.21,833.26,837.13,842.21,846.40,846.24,843.26,838.62
788.55,786.31,784.13,782.13,780.33,778.74,777.40,776.14,775.17,774.80,775.38,775.75,776.20,776.75,777.32,777.93,778.44,778.48,777.72,776.22,774.68,774.30,774.76,774.95,775.72,776.51,777.15,777.63,778.09,778.20,778.06,777.78,777.55,778.01,778.67,779.39,780.22,781.33,782.90,783.61,782.97,782.47,783.37,784.96,786.85,788.90,791.88,795.91,799.97,802.80,803.27,801.16,798.33,795.63,793.36,791.78,791.16,791.32,792.00,792.80,793.43,793.98,794.44,794.69,794.87,795.01,795.18,795.46,795.93,796.43,797.08,797.92,798.56,799.14,799.82,800.58,801.33,802.17,803.64,805.54,807.36,809.00,810.89,812.76,814.12,814.15,814.05,814.01,813.97,813.71,813.43,813.49,813.73,813.93,814.13,813.44,812.40,811.50,811.37,811.93,812.71,813.50,814.04,813.40,812.35,811.14,810.01,809.60,810.63,812.12,813.60,814.87,815.98,816.85,817.59,818.33,819.07,821.08,824.32,827.94,829.26,829.63,829.91,830.06,829.54,828.42,830.98,836.67,844.26,850.39,849.91,847.11,843.93,840.67,836.41,831.31,825.75,820.62,818.50,817.83,818.00,818.69,819.01,818.55,817.59,816.48,815.60,814.69,813.99,813.68,813.90,814.38,816.05,818.06,820.49,824.38,828.18,831.68,835.13,838.93,842.95,846.10,847.87,847.68,845.31,844.41,843.93,842.68,839.08,833.82,828.14,822.71,818.05,814.83,814.70,816.43,820.08,826.88,833.91,840.06,845.61,851.29,858.24,863.49,868.20,873.42,879.89,889.02,897.20,903.57,908.62,912.98,916.88,920.70,923.94,923.90,921.19,916.88,911.29,904.58,899.45,896.39,895.23,896.11,898.66,900.57,899.42,894.55,889.24,880.64,872.38,866.63,865.15,862.29,857.17,850.33,842.00,832.36,823.78,817.26,812.08,805.48,799.77,798.68,801.57,806.87,812.66,818.72,825.00,831.62,838.49,841.68,841.93,840.38,838.44,836.94,836.81,837.38,838.06,839.05,841.21,843.37,844.20,841.68,837.46,832.37,827.42,824.57,826.98,829.75,833.73,839.44,843.81,845.12,843.74,840.26
787.11,785.04,782.90,780.95,779.25,777.87,776.77,775.71,774.65,773.88,774.12,774.62,775.16,775.73,776.33,776.95,777.50,777.63,776.99,775.51,773.97,773.26,773.36,773.88,774.77,775.53,776.13,776.65,777.12,777.42,777.35,776.90,776.49,776.91,777.57,778.29,779.08,779.97,781.72,782.47,781.59,781.42,782.51,784.21,786.13,788.13,790.69,794.54,798.61,801.43,801.86,799.91,797.19,794.36,791.65,790.10,789.72,790.13,790.93,791.66,792.30,792.85,793.28,793.52,793.70,793.82,793.98,794.33,794.68,795.23,795.93,796.69,797.27,797.96,798.72,799.51,800.40,801.26,802.70,804.56,806.41,808.22,809.99,811.50,812.40,812.35,812.15,811.99,811.94,812.04,811.91,812.04,812.26,812.40,812.73,812.15,811.24,810.46,810.38,810.83,811.49,812.24,812.86,812.22,811.21,809.88,808.68,809.48,810.74,812.18,813.51,814.20,814.80,815.58,816.47,817.36,818.25,819.44,821.92,824.90,824.39,823.43,822.48,821.92,822.64,825.28,829.06,834.96,842.76,846.85,845.04,841.70,838.61,835.90,832.56,828.93,824.82,820.37,818.11,816.45,815.83,816.33,816.82,817.07,816.56,815.54,814.58,813.70,812.88,812.38,812.56,813.69,815.57,817.57,819.80,823.08,827.53,831.39,834.82,838.47,842.12,843.66,843.22,841.16,838.84,837.99,837.45,836.48,834.21,830.17,825.24,820.17,815.65,812.54,812.44,814.41,818.29,824.61,833.05,840.42,846.95,853.75,860.28,865.31,869.89,874.70,880.18,889.38,897.69,903.86,908.12,912.11,915.98,919.76,922.68,922.02,917.93,912.86,907.47,901.27,895.96,892.12,890.04,890.42,892.98,895.31,895.38,891.89,885.17,877.78,870.62,864.44,860.53,858.12,855.04,850.45,843.69,835.06,826.34,818.70,811.99,804.74,798.29,796.05,797.78,802.40,807.05,812.47,818.13,823.79,829.76,833.88,835.99,836.34,835.27,833.67,833.26,833.51,833.71,833.99,837.01,840.23,841.95,840.83,837.22,832.35,827.02,822.72,824.20,826.90,831.10,836.96,841.40,843.88,843.94,841.91
785.41,783.32,781.49,780.15,779.02,777.81,776.41,775.25,774.17,773.26,773.00,773.46,774.03,774.60,775.21,775.83,776.45,776.73,776.32,774.89,773.35,772.38,772.17,772.90,773.83,774.49,775.01,775.58,776.09,776.56,776.58,776.09,775.58,775.83,776.37,777.01,777.75,778.72,780.25,781.07,780.66,780.35,781.58,783.20,784.86,786.83,789.34,792.96,796.96,800.12,800.27,798.23,795.48,792.69,790.36,789.01,788.71,789.14,789.93,790.57,791.19,791.73,792.12,792.36,792.53,792.64,792.79,793.17,793.46,794.03,794.73,795.39,796.05,796.79,797.56,798.38,799.38,800.32,801.74,803.54,805.41,807.36,809.03,810.22,810.75,810.75,810.60,810.42,810.32,810.40,810.51,810.65,810.76,810.86,811.25,810.83,810.10,809.45,809.32,809.75,810.38,811.03,811.48,810.85,809.74,808.57,807.99,809.51,810.85,811.89,812.61,812.94,813.38,814.14,815.07,816.02,817.12,818.38,820.21,821.92,821.00,819.88,818.96,818.67,819.93,823.10,827.81,834.03,840.72,842.80,839.96,836.39,833.23,829.52,826.32,823.95,821.80,819.36,817.70,815.93,814.55,814.04,814.49,815.15,815.17,814.50,813.42,812.63,811.85,811.23,811.27,812.86,814.99,816.76,818.36,821.03,825.12,829.05,832.74,836.47,839.71,839.20,836.87,834.13,832.21,831.37,830.85,830.18,828.76,826.07,822.17,817.64,813.22,810.47,810.43,812.58,816.59,822.33,831.42,840.02,847.56,854.43,860.60,865.45,869.95,874.70,880.06,888.83,896.96,903.09,907.19,911.25,915.15,918.71,921.14,920.28,915.36,909.79,904.50,898.49,892.65,887.53,884.25,884.40,886.53,888.57,889.30,887.38,881.25,874.74,868.78,863.44,858.71,855.32,851.53,846.75,840.64,833.52,825.97,818.22,810.31,802.32,794.76,790.67,790.82,795.64,801.29,807.03,812.48,817.53,822.58,827.27,830.73,832.51,832.07,830.49,829.60,829.37,829.42,829.55,831.79,835.03,838.07,838.73,835.74,831.10,825.76,821.01,822.32,825.40,829.53,834.55,838.87,841.86,843.12,842.55
784.19,782.35,781.02,780.35,779.69,778.41,776.57,775.15,773.90,772.76,772.07,772.33,772.85,773.41,774.05,774.71,775.42,775.87,775.65,774.27,772.75,771.56,771.10,771.96,772.83,773.39,773.86,774.46,775.05,775.68,775.82,775.35,774.77,774.73,775.09,775.64,776.34,777.49,778.78,779.65,779.71,779.22,780.51,781.92,783.14,785.01,787.68,791.24,795.24,798.59,798.44,796.30,793.59,791.00,789.22,788.05,787.82,788.26,788.97,789.52,790.10,790.60,790.97,791.20,791.37,791.47,791.62,791.98,792.25,792.81,793.49,794.10,794.85,795.63,796.41,797.25,798.30,799.37,800.84,802.63,804.53,806.60,808.07,808.90,809.15,809.24,809.17,809.06,808.95,808.90,809.19,809.32,809.32,809.38,809.77,809.50,808.95,808.43,808.31,808.80,809.42,809.91,810.01,809.39,808.19,807.30,807.57,809.47,810.72,811.28,811.40,811.51,811.90,812.64,813.56,814.55,815.72,817.18,818.49,819.12,818.27,817.37,816.88,817.13,818.69,821.35,826.79,833.23,838.29,838.37,834.47,830.58,827.26,822.74,819.66,818.34,817.91,817.51,816.80,815.35,813.59,812.16,812.22,813.06,813.60,813.39,812.24,811.44,810.70,810.13,810.23,812.12,814.22,815.54,816.47,818.83,822.38,826.31,830.34,834.13,836.69,834.27,830.46,827.44,825.92,825.06,824.55,824.07,823.13,821.51,818.56,814.75,810.82,808.57,808.78,811.11,815.14,820.40,829.53,838.98,847.33,853.97,859.99,864.63,868.95,873.67,879.27,887.58,895.51,901.83,906.11,910.38,914.23,917.50,919.47,918.22,912.85,906.98,901.73,896.09,889.89,883.69,879.22,878.72,879.91,881.28,882.30,881.83,877.16,871.57,866.70,862.38,857.47,852.64,847.17,841.34,835.54,829.98,823.84,816.40,807.69,798.83,790.32,784.71,783.49,788.34,795.16,801.61,807.30,812.20,816.68,821.63,826.01,828.83,828.68,827.23,825.98,825.31,825.26,825.37,826.66,829.64,833.70,835.89,833.61,829.26,824.04,819.37,820.63,824.00,827.88,831.89,836.10,839.46,841.74,842.47
784.77,784.20,783.66,783.27,782.30,780.24,778.04,776.21,774.24,772.33,771.57,771.34,771.62,772.20,772.90,773.75,774.62,775.16,774.94,773.56,772.08,770.77,770.13,771.02,771.73,772.22,772.67,773.26,774.03,774.83,775.11,774.74,774.09,773.49,773.59,774.15,774.88,776.25,777.65,778.42,778.27,777.88,779.10,780.00,780.54,782.15,785.18,789.33,793.51,796.31,796.01,794.08,791.77,789.67,788.13,786.92,786.86,787.50,788.07,788.56,789.01,789.45,789.86,790.10,790.22,790.31,790.45,790.76,791.06,791.55,792.18,792.92,793.68,794.50,795.31,796.13,797.16,798.42,800.14,802.13,804.13,806.20,807.15,807.50,807.67,807.75,807.84,807.90,807.89,807.79,807.99,808.09,808.09,808.13,808.38,808.23,807.78,807.33,807.53,808.17,808.81,809.05,808.50,807.87,806.66,806.20,807.36,809.06,809.78,810.00,810.05,810.14,810.44,811.12,812.04,813.04,813.77,814.89,816.06,816.76,816.15,815.46,815.34,816.05,817.84,819.94,825.82,832.07,835.13,833.26,827.97,823.06,819.47,816.32,814.16,813.36,813.39,813.78,814.38,813.77,812.67,811.48,810.24,810.88,811.85,812.19,811.07,809.90,809.09,808.96,809.88,811.83,813.01,813.39,813.94,816.93,820.34,824.41,828.71,832.26,833.32,829.96,825.62,822.33,820.83,819.94,819.30,818.61,817.47,816.01,813.44,810.69,808.58,806.98,807.99,810.60,814.38,819.61,827.56,836.68,845.22,851.75,858.18,862.45,866.21,870.74,876.87,884.99,893.09,900.09,905.04,909.50,912.99,915.91,917.65,915.04,909.84,904.05,898.70,894.36,888.69,882.53,877.20,874.37,873.53,873.69,874.45,874.91,872.34,868.12,863.95,859.97,855.23,848.92,841.49,834.38,828.81,824.35,819.08,812.31,803.75,793.68,785.11,779.69,778.15,781.71,787.97,795.43,802.41,808.15,813.23,817.86,822.26,825.36,824.69,823.65,822.61,821.80,821.43,821.38,822.92,825.81,829.43,831.97,830.68,826.78,821.77,817.76,818.60,821.53,824.91,828.39,832.62,836.62,839.60,841.12
787.00,786.81,786.57,786.20,784.99,782.42,779.50,777.39,774.93,772.22,770.91,770.16,770.35,771.10,771.95,772.86,773.79,774.43,774.37,773.14,771.84,770.55,769.67,769.98,770.54,771.08,771.63,772.34,773.18,774.00,774.38,774.13,773.38,772.53,772.32,772.73,773.64,775.10,776.39,776.91,776.57,776.52,777.54,778.32,778.87,780.35,783.41,787.96,792.36,794.72,793.83,791.95,790.02,788.31,786.87,785.91,785.96,786.58,787.09,787.59,788.06,788.50,788.89,789.13,789.27,789.36,789.48,789.72,789.99,790.41,791.01,791.79,792.56,793.31,794.09,795.05,796.59,798.23,800.09,802.07,803.98,805.28,805.82,806.04,806.19,806.30,806.42,806.54,806.61,806.62,806.78,806.86,806.86,806.92,807.03,806.91,806.55,806.22,806.68,807.49,808.16,808.28,807.31,806.47,805.49,805.45,806.95,808.40,808.83,808.89,808.90,809.01,809.34,809.84,810.45,811.08,811.50,812.48,813.58,814.30,813.80,813.38,813.92,815.43,817.70,819.74,825.05,830.17,831.48,827.52,822.54,818.23,814.81,811.81,809.71,808.97,809.20,810.03,811.32,811.55,811.13,810.21,808.82,808.98,810.00,810.75,809.80,808.37,807.58,807.82,809.21,810.91,811.58,811.48,811.81,814.96,818.45,822.49,826.70,829.99,829.67,825.66,821.14,817.90,816.39,815.46,814.71,813.88,812.74,811.56,809.94,808.25,806.84,805.60,807.33,810.46,814.40,819.57,826.50,834.54,842.48,849.03,854.75,858.37,861.92,866.87,873.79,882.64,891.09,898.32,903.89,908.60,911.98,914.49,915.71,913.07,907.64,901.76,896.54,892.50,887.35,881.31,875.42,871.08,868.57,867.66,867.98,868.66,866.84,863.02,859.65,856.79,852.67,845.54,837.14,829.31,823.44,819.28,814.54,808.29,800.33,791.10,781.89,775.83,773.74,776.43,781.86,790.01,797.83,803.80,809.19,814.27,818.86,821.84,821.04,819.94,818.49,817.25,816.75,816.80,818.75,821.86,825.23,827.13,826.75,824.40,820.64,816.44,815.66,817.99,821.48,825.23,829.41,833.56,836.72,838.69
790.17,789.95,789.79,789.25,787.74,784.78,781.16,778.69,775.72,772.23,770.15,768.86,768.96,769.92,770.99,771.98,772.92,773.63,773.79,772.86,771.85,770.67,769.51,768.92,769.19,769.83,770.64,771.54,772.38,773.18,773.63,773.51,772.68,771.71,771.17,771.33,772.44,773.92,775.02,775.27,774.78,775.13,776.00,776.87,777.76,779.21,782.08,786.91,791.47,793.31,791.83,790.00,788.36,786.92,785.51,784.93,785.10,785.63,786.11,786.64,787.17,787.63,787.99,788.22,788.40,788.52,788.62,788.78,789.02,789.41,789.95,790.67,791.38,792.03,792.85,794.13,796.31,798.37,800.30,802.13,803.69,804.02,804.27,804.53,804.70,804.85,804.96,805.07,805.22,805.39,805.50,805.49,805.46,805.54,805.64,805.57,805.31,805.13,805.83,806.77,807.48,807.49,806.28,805.17,804.51,804.86,806.37,807.59,807.86,807.84,807.86,808.00,808.37,808.69,808.92,809.12,809.35,810.24,811.25,811.87,811.46,811.36,812.56,814.88,817.70,820.10,824.47,828.02,827.62,822.12,818.10,814.85,811.69,808.32,805.84,804.93,805.21,806.34,807.94,808.91,809.11,808.49,807.47,807.29,808.19,809.14,808.36,806.78,806.15,806.72,808.33,809.70,810.04,809.71,809.89,813.04,816.65,820.58,824.55,827.48,825.98,821.52,817.00,813.85,812.22,811.17,810.33,809.50,808.63,807.74,807.07,806.33,805.27,804.25,806.59,810.35,814.64,819.61,825.63,832.38,839.38,845.85,850.49,853.55,857.26,863.00,870.94,880.77,889.57,896.78,902.76,907.63,911.00,913.15,913.75,911.64,906.00,899.98,894.84,890.52,885.72,879.90,873.73,868.38,864.50,862.61,862.36,862.87,861.21,857.50,854.73,852.84,849.41,842.14,833.63,825.54,819.08,814.61,809.90,803.99,796.85,789.14,779.51,772.87,770.31,772.27,776.80,785.28,793.57,799.50,805.06,810.86,815.58,818.22,817.47,816.12,814.08,812.28,811.62,811.83,814.15,817.50,820.69,821.77,822.37,821.79,819.40,814.76,811.99,813.62,817.37,821.63,825.69,829.89,833.28,835.79
794.07,793.86,793.80,792.84,790.70,787.28,783.55,780.23,776.34,772.10,769.31,767.33,767.11,768.16,769.69,770.95,771.92,772.59,772.87,772.65,772.10,771.10,769.67,768.00,767.34,768.15,769.55,770.73,771.56,772.38,772.90,772.85,771.97,770.99,770.15,769.93,770.98,772.45,773.47,773.63,773.12,773.62,774.65,775.87,777.17,778.71,781.19,786.17,790.60,791.39,790.10,788.54,786.99,785.48,784.01,783.86,784.25,784.79,785.31,785.85,786.35,786.77,787.08,787.32,787.53,787.68,787.77,787.94,788.26,788.65,789.06,789.49,789.92,790.53,791.75,793.72,796.20,798.44,800.43,801.91,802.41,802.45,802.66,802.95,803.20,803.36,803.50,803.62,803.77,804.05,803.99,803.61,803.32,803.51,803.99,804.13,804.09,804.18,805.07,806.06,806.63,806.46,805.23,804.03,803.69,804.24,805.55,806.69,806.87,806.78,806.79,807.05,807.33,807.58,807.81,808.02,808.19,808.85,809.49,809.77,809.59,809.85,811.28,813.77,817.00,820.43,824.30,826.07,823.77,819.12,815.48,812.25,808.97,805.44,802.37,801.18,801.50,802.79,804.39,805.76,806.40,806.12,805.42,805.88,806.78,807.29,806.37,804.97,804.80,805.72,807.28,808.44,808.50,807.99,808.15,811.33,815.00,818.83,822.47,824.80,822.58,817.98,813.43,810.04,807.91,806.53,805.66,805.23,805.24,804.43,803.76,803.54,803.59,802.56,805.32,809.70,814.37,818.65,823.94,829.82,835.95,841.82,845.82,849.20,853.76,860.67,870.04,880.26,889.08,896.16,901.81,906.43,909.79,911.77,911.92,910.18,905.06,899.06,893.37,888.34,883.35,877.89,872.02,866.09,861.32,858.55,857.55,857.62,856.26,853.26,850.13,847.24,843.97,838.13,830.96,823.40,816.21,810.43,804.40,798.39,792.28,785.07,776.77,771.29,769.06,770.04,773.86,781.91,790.03,796.04,801.74,807.84,812.28,814.30,813.58,812.14,809.82,807.54,806.31,806.42,808.68,811.85,814.79,815.99,817.97,818.08,815.76,811.18,807.16,807.94,811.41,815.80,819.55,824.26,828.97,832.83
797.72,797.51,797.51,796.66,794.36,790.31,786.23,782.14,777.61,772.94,769.50,766.94,765.75,766.03,767.86,769.45,770.67,771.46,771.77,771.80,771.53,770.92,769.80,767.85,766.30,766.76,768.35,769.98,770.90,771.70,772.24,772.26,771.48,770.59,769.43,768.74,769.59,771.03,771.96,772.06,771.66,772.53,773.87,775.35,776.83,778.33,780.29,784.71,788.69,789.24,787.92,786.46,784.96,783.53,782.67,782.92,783.45,783.99,784.53,785.04,785.52,785.90,786.17,786.41,786.64,786.81,786.94,787.17,787.50,787.86,788.20,788.55,789.11,789.82,791.25,793.53,796.09,798.44,800.20,801.13,800.97,800.85,801.02,801.32,801.63,801.86,802.07,802.30,802.54,802.79,802.64,802.00,801.43,801.63,802.60,802.86,802.95,803.36,804.47,805.48,805.82,805.39,804.18,802.95,802.91,803.68,804.85,805.74,805.83,805.73,805.74,806.01,806.27,806.52,806.76,807.00,807.11,807.65,808.06,808.07,808.01,808.72,810.42,813.12,816.86,820.76,823.52,823.67,820.46,816.56,813.09,809.54,805.86,802.52,799.93,798.98,799.29,800.39,801.66,803.06,803.94,804.00,803.57,804.60,805.44,805.48,804.49,803.21,803.46,804.69,806.19,807.06,806.91,806.45,806.79,809.84,813.25,816.83,820.10,821.94,820.12,815.72,811.09,807.34,804.46,802.61,801.70,801.56,801.88,801.32,800.69,800.85,801.79,800.88,803.55,808.22,813.22,816.57,820.77,825.58,830.97,836.74,840.87,845.45,851.52,859.65,869.59,880.02,888.83,895.72,901.01,905.32,908.34,909.86,909.56,908.21,903.85,898.33,892.51,886.67,881.12,875.81,870.44,864.87,860.05,856.25,853.57,851.88,849.94,847.45,844.59,841.58,838.55,834.41,827.68,819.86,812.51,806.23,799.93,793.87,787.90,781.07,774.00,769.58,767.88,768.59,771.39,778.61,786.26,792.25,798.10,804.07,808.16,809.79,808.88,807.34,805.12,802.85,801.23,800.83,802.78,805.38,807.84,810.18,813.35,813.79,811.30,806.63,801.65,801.28,804.43,809.71,814.40,819.37,824.52,829.24
800.92,800.67,800.60,800.10,797.94,793.39,788.92,784.25,779.37,774.55,770.57,767.38,764.76,763.70,765.53,767.43,768.99,770.02,770.41,770.52,770.39,770.23,769.71,768.02,765.78,765.62,767.08,769.22,770.36,771.11,771.60,771.69,771.12,770.34,768.86,767.66,768.23,769.63,770.47,770.59,770.45,771.80,773.48,775.12,776.64,778.04,779.46,782.87,786.16,786.93,785.41,783.95,782.56,781.43,781.50,782.07,782.66,783.21,783.74,784.21,784.67,785.03,785.27,785.50,785.74,785.92,786.12,786.42,786.74,787.07,787.44,787.92,788.84,789.76,791.28,793.54,796.02,798.27,799.56,799.88,799.46,799.27,799.40,799.71,800.08,800.41,800.72,801.09,801.45,801.59,801.40,800.60,799.84,800.01,801.40,801.71,801.90,802.62,803.92,804.97,805.05,804.31,803.12,801.94,802.17,803.16,804.25,804.72,804.75,804.70,804.72,804.94,805.22,805.48,805.74,806.00,806.03,806.53,806.81,806.63,806.64,807.81,809.78,812.67,816.93,820.92,822.38,821.20,817.69,814.20,810.73,806.75,802.65,799.81,798.25,797.80,798.08,798.83,799.64,800.83,801.75,802.07,801.94,803.37,804.09,803.71,802.71,801.57,802.21,803.72,805.07,805.56,805.26,805.04,805.73,808.60,811.62,814.86,817.68,818.98,818.06,814.15,809.58,805.47,801.84,799.51,798.52,798.46,798.71,798.45,797.89,798.21,799.66,799.07,801.45,806.07,811.17,813.74,817.13,821.19,826.09,831.98,836.73,842.79,850.38,859.47,869.47,879.95,888.65,895.28,900.28,904.20,906.58,907.41,906.72,905.78,902.32,897.54,891.92,885.41,879.23,873.92,869.12,864.32,859.79,854.92,850.13,845.87,842.57,840.32,838.22,835.92,833.36,830.84,824.31,816.14,808.99,802.91,797.01,790.82,784.26,777.59,771.50,767.91,766.71,767.54,769.31,775.32,782.29,788.29,794.10,799.64,803.35,804.70,803.53,801.75,799.78,797.73,795.79,794.70,796.37,798.54,800.80,804.74,808.62,809.06,806.27,801.25,795.53,794.20,797.25,803.78,810.06,815.20,820.24,825.31
802.95,802.48,801.80,800.93,798.95,795.14,790.94,786.28,781.47,776.80,772.65,768.14,763.93,761.46,762.45,764.30,765.99,767.28,768.22,769.15,769.23,769.12,768.72,767.27,765.14,764.62,765.75,768.07,769.80,770.56,770.91,771.00,770.67,769.80,768.06,766.51,766.73,768.00,768.87,769.32,769.81,771.49,773.18,774.88,776.50,777.88,779.13,781.52,783.87,784.50,782.67,781.34,780.54,780.24,780.64,781.24,781.85,782.42,782.90,783.37,783.80,784.13,784.36,784.59,784.82,785.05,785.27,785.59,785.95,786.41,787.06,787.99,789.08,790.32,791.92,793.96,796.15,797.44,798.09,798.24,797.94,797.81,798.02,798.38,798.78,799.24,799.62,799.98,800.29,800.40,800.14,799.35,798.73,799.10,800.22,800.56,800.95,801.83,803.18,804.42,804.33,803.22,801.96,801.09,801.54,802.64,803.65,803.67,803.60,803.65,803.83,803.97,804.20,804.44,804.70,804.95,804.94,805.33,805.51,805.33,805.40,806.88,808.89,811.71,816.27,820.31,821.50,819.87,815.82,811.87,808.20,804.23,800.44,798.49,797.15,796.71,796.97,797.73,798.50,799.29,799.84,800.11,800.63,802.06,802.51,801.93,801.05,800.32,801.38,802.99,803.91,803.89,803.61,803.74,804.90,807.96,810.90,813.82,815.92,816.10,814.99,812.09,808.27,804.17,800.50,798.06,796.69,796.22,796.50,796.25,795.53,795.37,796.28,796.61,799.16,803.13,807.43,810.65,815.88,821.22,826.39,831.72,837.24,843.48,850.79,859.56,869.88,880.20,888.33,894.39,899.38,902.77,904.09,904.05,903.30,902.78,900.31,896.19,890.76,884.47,878.35,873.24,868.62,863.61,858.46,852.95,846.78,840.13,834.64,832.09,830.90,830.07,828.77,827.00,822.62,816.26,809.16,803.88,798.07,791.11,783.26,775.90,770.37,767.09,765.77,766.32,768.02,772.30,778.24,784.75,789.56,794.57,797.77,798.67,797.43,795.03,792.75,790.41,787.85,786.55,788.57,792.11,796.39,801.09,804.00,803.82,800.60,794.53,788.31,787.86,791.92,798.98,805.93,811.78,816.93,821.78
804.12,803.36,802.33,801.25,799.52,796.53,792.66,788.30,783.80,779.28,774.74,769.37,764.10,760.54,760.53,761.68,763.03,764.43,765.87,767.24,767.80,767.88,767.50,766.25,764.32,763.52,764.29,766.56,768.36,768.72,769.00,769.56,769.63,768.62,766.75,765.08,765.05,766.18,767.14,768.21,769.71,771.56,773.14,774.61,776.01,777.31,778.51,780.22,781.80,782.24,780.63,779.60,779.09,779.07,779.69,780.38,781.03,781.60,782.06,782.52,782.91,783.22,783.45,783.69,783.94,784.20,784.48,784.84,785.41,786.13,787.03,788.16,789.30,790.81,792.43,794.06,795.63,796.19,796.42,796.51,796.39,796.46,796.78,797.19,797.62,798.13,798.56,798.92,799.15,799.12,798.75,798.03,797.61,798.11,798.89,799.34,799.99,801.08,802.47,803.76,803.56,802.28,801.02,800.27,800.94,802.06,802.77,802.56,802.49,802.67,802.95,803.05,803.20,803.42,803.68,803.89,803.85,804.09,804.19,803.98,804.02,805.63,807.71,810.42,814.63,818.54,820.05,818.59,814.19,809.83,805.83,802.10,799.02,797.52,796.18,795.64,795.81,796.48,797.17,797.74,798.08,798.42,799.56,800.76,800.87,800.10,799.40,799.35,800.76,802.16,802.42,802.24,802.02,802.36,803.82,807.16,810.24,812.81,814.21,813.60,812.06,809.47,806.19,802.51,799.14,796.59,794.87,794.06,794.39,794.16,793.31,792.76,793.40,795.20,798.35,802.16,806.13,809.92,816.37,822.18,827.15,832.25,838.44,844.46,851.32,860.08,871.24,881.09,888.46,893.85,898.16,900.90,901.56,901.03,900.13,899.80,898.15,895.02,890.31,884.00,877.78,872.54,867.81,862.74,857.25,851.41,844.39,836.06,828.45,825.09,824.38,824.67,824.06,822.52,819.73,815.35,809.42,804.81,799.19,791.67,782.76,775.00,769.81,766.61,764.95,765.00,766.85,770.04,774.74,780.49,784.54,789.11,791.88,792.39,791.08,788.53,786.65,784.67,781.74,779.67,781.80,786.23,791.61,796.26,798.01,796.86,793.19,787.18,781.25,781.59,786.51,794.22,801.67,808.46,814.11,818.96
804.58,803.54,802.46,801.38,799.98,797.72,794.15,790.31,786.28,781.92,776.89,771.21,765.46,761.13,759.98,759.92,760.54,761.79,763.53,764.91,766.17,766.60,766.19,765.12,763.37,762.32,762.73,764.74,766.02,765.62,765.85,767.16,767.82,766.78,764.94,763.39,763.29,764.31,765.48,767.35,769.99,771.83,773.17,774.20,775.13,776.30,777.52,778.84,779.88,780.14,779.21,778.57,778.09,777.92,778.69,779.51,780.21,780.77,781.22,781.68,782.04,782.31,782.55,782.79,783.08,783.39,783.71,784.15,785.08,786.11,787.18,788.28,789.38,791.03,792.57,793.68,794.46,794.65,794.72,794.77,794.81,795.18,795.64,796.10,796.57,797.04,797.50,797.88,798.04,797.74,797.25,796.64,796.39,796.91,797.44,798.11,799.09,800.42,801.84,803.03,802.76,801.49,800.27,799.44,800.31,801.41,801.65,801.38,801.45,801.73,802.05,802.19,802.24,802.42,802.67,802.79,802.74,802.84,802.81,802.57,802.49,804.00,806.16,808.77,812.09,815.71,817.88,817.13,812.84,808.23,803.78,800.43,798.26,796.74,795.24,794.55,794.57,795.06,795.60,796.08,796.46,797.03,798.64,799.46,799.19,798.33,797.84,798.59,800.23,801.19,800.66,800.62,800.49,800.87,802.41,805.96,809.32,811.56,812.34,811.25,809.16,806.30,803.25,800.28,797.43,794.78,792.81,791.86,792.24,792.09,791.21,790.61,791.52,795.01,798.98,803.11,807.25,811.42,817.98,823.23,827.60,832.81,839.50,845.19,851.78,860.99,873.29,882.33,888.84,893.53,896.54,898.56,899.07,898.48,897.30,896.90,895.83,893.79,890.15,883.66,877.33,871.77,866.77,861.87,856.39,850.41,842.99,833.75,824.46,819.98,818.97,819.50,819.05,817.36,815.34,812.63,808.73,804.52,799.15,791.44,781.99,774.32,769.44,766.19,764.09,763.54,765.61,768.42,771.79,775.67,779.28,783.52,785.90,786.03,784.59,782.33,781.36,780.26,777.44,774.27,776.12,780.60,785.89,789.79,790.44,788.25,784.29,779.55,774.75,775.63,781.04,789.40,797.33,805.08,811.57,816.82
804.81,803.73,802.65,801.60,800.49,798.88,795.56,792.19,788.60,784.61,780.12,774.55,768.78,763.79,760.86,759.95,759.80,760.29,761.51,763.09,764.74,765.31,764.92,764.23,762.56,761.20,761.21,762.82,763.01,762.10,761.87,762.86,764.30,764.26,762.88,761.53,761.88,763.10,764.96,767.33,769.86,771.29,772.20,772.98,773.81,774.85,776.09,777.11,777.81,778.05,777.40,776.94,776.90,777.32,778.10,778.90,779.53,780.01,780.39,780.84,781.16,781.42,781.71,781.99,782.29,782.63,782.99,783.44,784.42,785.53,786.68,787.85,788.99,790.35,791.57,792.46,793.03,793.22,793.28,793.30,793.38,793.91,794.45,794.97,795.48,795.99,796.47,796.85,796.96,796.46,795.92,795.33,795.08,795.55,796.14,797.26,798.65,800.12,801.42,802.33,802.03,800.82,799.46,798.56,799.50,800.58,800.58,800.10,800.41,800.88,801.20,801.35,801.37,801.48,801.62,801.70,801.63,801.55,801.33,801.00,800.93,801.89,803.76,806.24,809.11,812.32,814.59,814.96,812.56,807.77,802.89,799.60,797.79,795.98,794.13,793.28,793.27,793.68,794.07,794.48,795.01,795.89,797.47,797.96,797.67,797.07,796.83,797.95,799.42,800.02,799.27,799.04,798.85,799.21,800.59,803.50,806.87,809.19,809.71,807.77,805.01,802.25,799.58,796.97,794.31,791.93,790.29,789.61,790.03,789.82,789.49,790.00,792.22,795.91,800.02,804.17,808.41,813.13,818.25,822.68,826.99,832.30,838.85,844.98,852.33,862.27,874.60,882.35,887.95,892.14,894.09,895.60,896.45,896.23,894.83,894.02,892.81,890.76,887.30,881.68,876.53,871.51,866.58,861.78,856.32,850.02,842.28,833.02,824.01,818.85,815.26,813.05,813.35,811.55,809.47,807.13,803.98,799.68,794.14,786.89,778.51,771.58,767.71,764.84,762.59,761.79,763.79,766.46,769.13,771.81,775.02,778.89,780.58,779.86,778.07,775.98,774.50,773.40,772.04,769.34,770.18,773.62,778.18,781.03,780.96,778.71,775.56,772.70,769.90,771.75,777.11,784.87,793.26,801.27,808.66,815.12
804.89,803.91,802.84,801.81,800.85,799.60,796.72,793.83,790.71,787.19,783.24,778.14,772.48,767.15,763.37,761.54,760.23,759.65,760.21,761.81,763.44,763.96,763.59,763.14,761.85,760.45,760.03,760.99,760.68,759.74,759.26,759.77,761.33,761.85,761.02,760.07,760.69,762.12,764.42,766.97,769.17,770.25,770.95,771.63,772.42,773.33,774.49,775.24,775.68,775.92,775.68,775.62,776.03,776.87,777.64,778.37,778.92,779.31,779.63,780.04,780.33,780.59,780.89,781.21,781.53,781.91,782.30,782.73,783.66,784.78,785.97,787.18,788.29,789.34,790.30,791.08,791.57,791.82,791.88,791.86,791.98,792.62,793.21,793.75,794.29,794.85,795.35,795.73,795.78,795.20,794.63,794.05,793.81,794.31,795.16,796.60,798.23,799.79,801.02,801.67,801.35,800.18,798.53,797.42,798.32,799.35,799.26,798.91,799.45,800.02,800.33,800.45,800.48,800.51,800.56,800.60,800.51,800.25,799.87,799.49,799.36,799.81,801.19,803.31,805.82,808.72,811.10,812.38,811.58,807.23,802.29,798.85,796.91,794.91,792.88,792.03,792.03,792.36,792.65,792.97,793.64,794.80,796.09,796.36,796.17,795.90,795.99,797.21,798.39,798.71,797.90,797.48,797.24,797.64,798.92,801.20,804.31,806.38,806.51,804.05,801.04,798.37,795.90,793.43,790.82,788.88,787.71,787.26,787.60,787.88,788.69,790.47,793.53,797.02,800.79,804.57,808.47,813.06,817.34,821.61,826.24,831.74,838.34,845.06,853.20,863.50,874.61,881.20,885.95,889.54,891.23,892.89,893.98,893.87,892.19,890.42,888.53,886.21,883.20,879.20,875.88,871.86,867.19,862.24,856.50,850.02,842.49,834.00,826.12,820.30,814.21,808.93,808.03,806.08,803.70,801.07,797.93,793.45,788.08,781.65,774.65,768.92,765.81,763.26,761.03,760.14,762.00,764.42,766.70,768.77,771.03,773.93,774.96,773.87,771.72,769.63,767.90,766.89,766.54,764.73,765.05,767.56,771.24,773.23,772.98,771.18,768.92,767.44,766.96,769.79,774.84,781.71,790.55,798.25,806.09,813.55
804.74,804.00,802.98,801.96,800.96,799.75,797.53,795.10,792.47,789.51,785.92,781.67,776.18,770.85,767.51,764.60,761.71,759.85,759.76,761.12,762.27,762.54,762.16,761.75,761.18,760.12,759.32,759.36,759.40,758.94,758.58,758.70,759.52,759.81,759.50,759.17,759.71,761.28,763.60,765.94,767.78,768.71,769.48,770.22,770.97,771.82,772.77,773.30,773.59,773.88,774.24,774.87,775.64,776.48,777.24,777.89,778.34,778.66,778.96,779.29,779.55,779.81,780.12,780.43,780.80,781.22,781.63,782.02,782.86,783.93,785.11,786.29,787.26,788.12,788.96,789.70,790.12,790.43,790.47,790.42,790.64,791.31,791.92,792.47,793.03,793.64,794.19,794.52,794.51,793.95,793.36,792.79,792.62,793.28,794.53,796.08,797.73,799.33,800.59,801.06,800.69,799.49,797.44,795.99,796.68,797.61,797.62,797.87,798.57,799.12,799.36,799.44,799.47,799.49,799.50,799.48,799.35,798.94,798.48,798.09,797.77,797.86,798.67,800.16,802.28,804.98,807.55,809.34,809.36,806.27,801.81,798.07,795.50,793.45,791.55,790.83,790.89,791.13,791.36,791.56,792.33,793.68,794.52,794.68,794.66,794.74,795.22,796.31,797.14,797.25,796.50,795.91,795.69,796.19,797.45,799.35,801.92,803.28,802.84,800.36,797.63,794.97,792.40,789.84,787.17,785.82,785.19,784.95,785.19,786.66,789.10,791.97,794.97,798.10,801.14,804.15,807.27,810.90,815.43,820.44,825.79,831.69,838.74,845.98,854.56,864.58,873.23,879.04,883.01,885.89,888.25,890.71,891.72,891.19,889.08,885.78,882.76,880.22,878.14,876.43,875.32,872.70,868.54,863.16,856.80,850.39,843.67,836.68,830.41,823.93,816.13,808.23,803.52,801.23,798.36,794.91,791.19,786.61,781.89,776.58,771.00,766.85,764.02,761.61,759.57,758.69,760.43,762.43,764.52,766.51,767.20,768.35,768.86,768.13,765.79,763.62,762.29,761.66,761.41,760.62,761.17,763.15,765.89,767.34,767.55,766.55,765.03,764.21,766.13,769.84,774.49,780.48,789.65,796.55,804.19,812.13
803.75,803.35,802.53,801.60,800.60,799.43,797.69,795.47,793.10,790.77,788.48,784.78,779.43,774.00,770.29,766.48,762.71,760.07,759.37,760.48,761.18,761.22,760.83,760.41,760.07,759.38,758.63,758.19,758.26,758.00,757.73,757.76,758.25,758.33,758.12,758.11,758.96,760.52,762.73,764.57,765.54,766.20,766.94,767.87,768.96,770.15,771.17,771.83,772.37,772.97,773.65,774.43,775.25,776.07,776.75,777.30,777.70,778.00,778.27,778.57,778.82,779.05,779.30,779.69,780.12,780.54,780.93,781.29,782.05,783.06,784.15,785.18,786.04,786.96,787.78,788.41,788.88,789.19,789.20,789.19,789.56,790.12,790.74,791.37,792.01,792.71,793.29,793.51,793.31,792.73,792.12,791.58,791.53,792.46,793.95,795.56,797.15,798.67,799.97,800.38,799.78,798.38,796.44,794.70,794.83,795.50,795.88,796.88,797.64,797.96,797.96,797.97,798.15,798.26,798.30,798.27,798.13,797.72,797.26,796.83,796.41,796.20,796.69,797.77,799.23,801.14,803.40,805.26,805.96,804.97,801.36,797.70,794.79,792.23,790.39,789.74,789.71,789.75,789.96,790.20,791.07,792.49,793.05,793.12,793.18,793.48,794.25,795.31,795.85,795.74,795.06,794.41,794.16,794.39,795.23,797.00,799.40,800.45,799.78,797.43,794.77,792.03,789.17,786.23,783.49,782.75,783.09,784.05,785.63,787.95,790.59,793.28,795.98,798.82,801.71,804.64,807.70,811.23,815.55,821.20,827.76,834.81,842.43,849.44,856.99,865.41,873.06,878.56,882.25,884.87,887.26,889.43,889.29,887.39,884.20,880.12,876.87,874.79,873.76,873.24,873.12,871.98,868.97,863.28,856.88,850.66,844.38,838.04,832.29,825.59,817.56,808.76,800.81,796.44,792.64,788.75,784.81,780.91,776.51,772.19,768.25,764.87,762.34,760.18,758.31,757.38,759.43,761.38,762.99,764.05,763.66,763.54,763.45,763.03,761.83,760.54,759.59,759.04,758.86,758.55,759.16,760.43,762.01,763.27,763.88,763.27,762.24,762.45,765.87,770.35,775.50,781.80,790.00,796.56,804.00,811.43
802.50,802.41,801.90,801.12,800.15,799.01,797.64,795.67,793.60,791.78,790.49,787.63,782.55,776.90,772.56,768.06,763.56,760.26,759.05,759.80,760.14,760.02,759.62,759.18,758.93,758.51,757.95,757.45,757.50,757.28,756.99,756.86,757.06,756.99,756.90,757.18,758.33,759.83,761.71,762.99,763.27,763.62,764.19,765.21,766.65,768.36,769.77,770.77,771.58,772.42,773.27,774.07,774.86,775.62,776.21,776.67,777.02,777.29,777.53,777.82,778.06,778.28,778.51,778.94,779.40,779.83,780.19,780.54,781.20,782.12,783.12,784.05,784.90,785.83,786.60,787.16,787.70,788.02,788.06,788.12,788.60,789.12,789.74,790.43,791.13,791.84,792.40,792.51,792.16,791.51,790.77,790.35,790.58,791.73,793.17,794.68,796.17,797.61,798.97,799.45,798.71,797.17,795.43,793.59,793.19,793.64,794.53,796.06,796.58,796.55,796.38,796.48,796.80,797.00,797.07,797.06,796.92,796.55,796.09,795.61,795.15,794.67,794.74,795.31,796.18,797.42,799.24,801.08,802.42,803.11,800.59,797.29,794.16,791.21,789.47,788.75,788.52,788.42,788.62,789.02,789.94,791.22,791.64,791.73,791.89,792.35,793.31,794.31,794.58,794.30,793.67,792.99,792.66,792.56,792.86,794.14,796.24,797.28,796.81,794.65,791.95,789.17,786.24,783.18,780.51,780.63,781.96,783.87,786.41,789.08,791.52,793.88,796.36,799.14,802.08,805.06,808.18,811.78,816.05,822.21,829.85,838.22,846.13,852.73,859.25,866.29,873.22,878.53,882.09,884.55,886.73,887.79,886.41,883.25,878.94,874.48,871.24,869.51,869.13,869.28,869.70,869.49,867.40,862.06,856.26,850.49,844.56,838.40,832.27,825.22,817.61,809.17,799.46,793.25,788.30,783.69,779.39,775.94,772.04,768.56,765.68,762.75,760.56,758.75,757.12,756.10,758.12,760.05,761.30,761.62,760.72,760.04,759.66,759.48,759.22,758.65,757.94,757.38,757.19,757.11,757.66,758.36,759.07,760.15,760.93,760.79,760.66,762.42,766.89,772.23,778.11,784.57,791.21,797.33,804.39,810.91
801.14,801.20,801.17,800.64,799.73,798.60,797.45,795.92,794.29,792.77,791.59,790.11,785.60,779.58,774.52,769.63,764.39,760.46,758.90,759.04,759.17,759.01,758.61,758.19,757.98,757.62,757.33,757.35,757.37,757.09,756.56,755.99,755.81,755.69,755.87,756.53,757.86,759.20,760.43,761.18,761.30,761.34,761.56,762.47,764.13,766.40,768.72,770.25,771.25,772.04,772.88,773.72,774.46,775.09,775.63,776.00,776.27,776.51,776.74,776.99,777.22,777.48,777.78,778.18,778.63,779.05,779.41,779.75,780.28,781.06,781.97,782.98,784.00,784.72,785.32,785.93,786.52,786.93,787.08,787.23,787.78,788.42,789.06,789.72,790.38,790.96,791.45,791.47,791.02,790.28,789.23,789.09,789.82,791.07,792.00,793.14,794.45,795.88,797.35,798.09,797.49,796.00,794.41,792.76,792.01,792.39,793.90,795.48,795.27,794.77,794.68,795.17,795.53,795.74,795.85,795.89,795.75,795.42,794.96,794.44,793.96,793.29,792.67,792.42,793.00,793.96,795.35,797.11,799.06,800.37,799.20,796.61,793.40,790.47,788.89,787.94,787.36,787.20,787.45,788.15,789.05,789.90,790.30,790.58,790.94,791.52,792.49,793.33,793.41,793.01,792.37,791.69,791.21,790.85,790.59,790.63,792.03,793.44,793.72,791.82,789.01,786.33,783.77,781.23,778.86,780.23,782.33,784.31,786.55,788.80,790.97,793.22,795.80,798.85,801.94,804.97,808.08,811.71,816.32,822.80,831.10,840.73,848.34,854.53,860.70,867.27,873.45,878.59,882.07,884.36,886.13,885.17,882.80,879.02,873.79,869.35,866.14,864.32,863.83,864.16,864.81,864.49,862.64,858.77,854.42,849.47,843.91,837.50,829.94,822.12,815.39,808.75,799.79,792.96,786.70,780.79,775.69,771.92,768.97,766.11,763.15,760.41,758.62,757.26,755.96,754.81,755.99,757.78,759.07,759.33,758.80,758.58,758.51,758.45,758.24,757.63,756.93,756.35,756.04,755.96,756.34,756.80,757.28,758.09,758.67,759.29,760.90,764.92,769.98,776.38,782.96,788.81,793.45,798.76,805.09,810.39
799.22,799.46,799.70,799.45,798.90,798.16,797.11,795.83,794.53,793.28,792.09,790.92,787.55,782.56,777.23,772.17,766.52,761.83,759.30,758.85,758.72,758.63,758.51,758.33,758.10,757.90,757.90,758.18,758.24,757.83,757.07,756.14,755.38,754.75,754.80,755.57,756.86,757.82,758.62,758.90,758.66,759.01,759.89,761.19,762.96,765.40,767.90,769.74,770.97,771.74,772.55,773.29,773.95,774.51,774.99,775.24,775.45,775.68,775.91,776.14,776.38,776.66,777.02,777.44,777.90,778.30,778.64,778.97,779.47,780.16,781.03,782.04,782.89,783.51,784.08,784.69,785.26,785.75,786.09,786.45,787.08,787.76,788.43,789.02,789.52,790.05,790.31,790.06,789.30,788.24,787.77,788.16,789.03,789.95,790.38,791.31,792.59,794.09,795.64,796.80,796.55,795.24,793.73,792.08,791.08,791.42,793.20,794.35,793.65,793.01,793.13,793.88,794.24,794.49,794.68,794.71,794.59,794.26,793.81,793.28,792.78,791.90,791.09,790.62,790.76,791.22,791.97,793.11,794.70,796.25,796.67,795.55,793.10,790.34,788.86,787.57,786.47,786.04,786.47,787.27,788.12,788.85,789.25,789.61,790.04,790.65,791.50,792.19,792.18,791.74,791.09,790.47,789.98,789.60,789.23,788.73,789.06,790.09,790.72,789.62,787.35,785.04,782.72,780.20,777.52,778.99,781.30,783.42,785.61,787.71,789.76,791.97,794.60,797.89,801.43,804.95,808.46,812.19,816.51,823.05,831.59,841.24,848.78,854.70,860.65,867.21,873.36,878.43,881.80,883.71,884.48,882.85,879.87,875.48,869.70,864.95,861.74,859.88,859.25,859.55,860.17,859.91,858.44,855.41,851.21,846.52,841.75,836.56,829.43,821.04,813.63,806.98,799.50,793.54,787.55,781.40,775.49,770.63,768.16,765.58,762.24,759.57,757.84,756.49,755.10,753.64,753.62,755.05,756.69,757.65,757.47,757.40,757.40,757.38,757.21,756.64,755.93,755.26,754.87,755.27,755.89,756.57,757.29,758.19,759.23,761.06,764.06,768.63,773.51,780.11,786.84,792.31,796.08,800.47,805.57,809.41
796.76,797.18,797.69,797.75,797.59,797.33,796.54,795.52,794.48,793.41,792.22,791.08,788.73,785.03,780.11,775.49,769.84,764.52,760.80,759.32,758.80,758.88,759.19,759.13,758.73,758.63,758.91,759.42,759.43,758.80,757.81,756.61,755.32,754.11,753.83,754.40,755.45,756.02,756.51,756.65,756.60,757.65,759.32,761.00,762.73,765.01,767.37,769.30,770.67,771.44,772.18,772.82,773.40,773.91,774.31,774.44,774.61,774.84,775.07,775.29,775.53,775.85,776.25,776.71,777.16,777.54,777.87,778.24,778.76,779.40,780.19,781.13,781.79,782.36,782.94,783.54,784.08,784.63,785.17,785.73,786.44,787.12,787.78,788.29,788.61,788.98,788.89,788.33,787.37,786.22,786.51,787.37,788.23,788.71,788.71,789.52,790.80,792.34,793.97,795.44,795.56,794.55,793.10,791.47,790.29,790.57,792.44,793.15,792.12,791.41,791.70,792.62,792.99,793.27,793.49,793.55,793.42,793.09,792.64,792.12,791.57,790.60,789.79,789.30,789.13,789.19,789.27,789.63,790.59,792.19,793.81,794.09,792.74,790.37,788.84,787.20,785.65,784.95,785.55,786.39,787.20,787.88,788.31,788.70,789.16,789.73,790.42,790.96,790.94,790.51,789.89,789.36,788.88,788.51,788.12,787.32,786.69,787.10,787.81,787.59,785.98,784.03,781.85,779.25,776.24,777.52,779.88,782.19,784.42,786.50,788.54,790.89,793.93,797.73,801.73,805.73,809.67,813.55,817.70,824.11,832.37,841.31,848.51,854.39,860.44,867.08,873.09,878.01,881.24,882.78,882.47,880.40,877.00,872.16,865.96,860.98,857.71,855.79,855.07,855.38,855.97,855.77,854.45,851.61,847.01,842.16,838.16,834.71,828.84,820.34,811.94,804.44,797.82,792.76,787.43,781.68,775.84,770.89,768.84,766.13,762.08,759.27,757.50,756.03,754.47,752.71,751.56,752.48,754.35,756.04,756.20,756.21,756.22,756.22,756.14,755.65,754.95,754.25,753.93,754.88,755.89,756.89,757.99,759.39,761.39,764.46,768.39,772.83,777.47,783.68,789.99,795.14,798.61,802.24,805.90,808.08
793.34,793.86,794.85,795.23,795.30,795.44,795.50,794.92,794.00,792.92,791.82,790.78,788.75,785.94,782.88,780.15,775.31,769.81,764.80,761.10,759.89,760.35,761.25,760.87,759.90,759.63,760.15,761.06,760.75,759.68,758.43,757.14,755.59,754.01,753.12,752.96,753.37,753.73,754.03,754.86,756.58,758.89,760.94,762.55,763.92,765.53,767.44,769.07,770.28,771.03,771.69,772.27,772.81,773.30,773.56,773.62,773.76,774.00,774.22,774.39,774.69,775.07,775.47,775.93,776.34,776.73,777.13,777.64,778.23,778.85,779.50,780.19,780.82,781.42,782.03,782.62,783.12,783.75,784.41,785.10,785.83,786.48,787.03,787.43,787.61,787.51,786.88,786.06,785.29,784.91,785.70,786.71,787.44,787.55,787.28,788.07,789.31,790.74,792.45,793.82,794.22,793.68,792.38,790.90,789.71,789.86,791.60,792.25,791.05,790.22,790.47,791.39,791.80,792.07,792.28,792.38,792.25,791.92,791.50,790.97,790.26,789.49,788.84,788.41,788.35,788.51,788.04,787.59,787.90,789.35,790.92,791.88,791.85,790.40,788.50,786.49,784.78,783.99,784.63,785.52,786.32,786.93,787.45,787.86,788.26,788.70,789.20,789.63,789.64,789.36,788.91,788.44,787.98,787.53,786.97,785.96,784.92,784.69,785.12,785.56,784.38,782.57,780.40,777.79,774.90,776.09,778.56,781.10,783.39,785.61,787.76,790.73,795.18,800.18,804.49,808.57,812.64,816.81,821.58,827.59,834.54,841.80,847.73,854.13,860.91,867.51,872.58,877.04,880.14,881.47,880.35,877.39,873.79,868.89,862.40,857.55,854.14,852.07,851.39,852.02,852.75,852.44,850.61,846.69,841.21,835.59,831.96,830.46,826.67,819.09,810.05,800.88,792.87,787.71,782.87,778.36,774.99,773.16,771.65,768.01,762.60,759.24,757.41,755.87,754.19,752.29,750.53,750.68,752.18,754.15,754.69,754.78,754.82,754.91,755.03,754.69,754.08,753.54,753.56,754.91,756.41,757.70,759.11,761.81,765.60,769.67,773.59,777.34,782.27,787.13,791.98,796.77,800.63,803.92,805.98,806.18
790.70,791.20,792.26,792.85,793.17,793.56,793.96,793.80,793.23,792.36,791.28,790.26,788.82,787.10,785.35,783.18,779.82,775.93,771.83,767.42,765.98,765.84,765.88,765.13,763.63,763.01,763.04,763.04,761.94,760.39,758.83,757.32,755.63,753.93,752.55,751.69,751.58,751.87,752.66,754.17,756.47,758.88,760.90,762.50,763.88,765.39,766.98,768.44,769.67,770.57,771.15,771.69,772.21,772.64,772.80,772.80,772.92,773.14,773.34,773.56,773.90,774.31,774.74,775.19,775.56,775.97,776.47,777.08,777.63,778.15,778.72,779.41,780.07,780.59,781.11,781.69,782.27,782.94,783.66,784.40,785.16,785.83,786.25,786.39,786.22,785.71,784.90,784.07,783.57,784.02,785.02,786.07,786.63,786.35,785.88,786.68,787.95,789.33,790.92,792.17,792.86,792.71,791.36,789.97,788.89,789.13,790.88,791.47,790.43,789.39,789.16,790.15,790.58,790.84,791.05,791.16,791.04,790.73,790.35,789.88,789.22,788.56,787.95,787.51,787.40,787.08,786.29,785.47,785.30,786.66,788.16,789.35,789.94,789.43,787.62,785.54,783.78,782.98,783.66,784.60,785.31,785.72,786.18,786.59,786.97,787.39,787.88,788.28,788.27,788.02,787.66,787.27,786.86,786.41,785.77,784.56,783.30,782.45,782.40,783.23,783.00,781.39,778.84,775.75,773.40,774.94,777.67,780.41,782.82,785.15,787.44,790.32,794.34,799.08,803.97,808.65,813.11,817.65,822.88,828.94,835.55,842.22,847.70,854.36,861.20,867.29,872.08,876.08,878.90,879.68,876.76,873.27,869.58,864.94,859.03,854.45,850.67,848.19,847.32,848.01,848.54,847.72,845.33,841.02,835.00,828.47,823.90,822.06,819.81,814.07,806.28,797.59,789.32,783.69,779.23,775.31,772.10,770.62,769.41,766.79,762.75,759.31,757.29,755.71,754.09,752.22,750.26,749.73,750.61,752.40,753.08,753.18,753.23,753.47,753.99,753.70,753.13,752.91,753.60,755.11,756.77,758.29,760.47,765.48,770.59,775.19,779.26,782.99,787.25,791.00,794.78,798.76,801.94,804.72,805.44,803.99
788.94,788.96,789.74,790.45,791.06,791.67,792.23,792.43,792.23,791.60,790.56,789.46,788.44,787.62,786.91,785.23,783.39,781.38,778.72,774.56,772.92,771.81,770.61,769.59,767.83,766.83,766.09,764.83,762.83,760.87,759.06,757.35,755.58,753.86,752.12,750.72,750.21,750.44,751.77,753.78,756.15,758.31,760.18,761.82,763.36,764.90,766.25,767.63,768.94,770.01,770.58,771.10,771.60,771.98,772.05,771.98,772.07,772.28,772.47,772.76,773.13,773.54,774.00,774.46,774.82,775.27,775.84,776.47,776.95,777.38,777.93,778.68,779.38,779.79,780.21,780.78,781.47,782.17,782.92,783.70,784.47,785.11,785.42,785.35,784.80,783.90,782.98,782.29,782.21,783.33,784.41,785.37,785.76,785.16,784.51,785.30,786.63,788.05,789.53,790.68,791.55,791.65,790.15,788.75,787.96,788.43,790.16,790.69,789.88,788.62,787.85,788.87,789.32,789.61,789.84,789.95,789.82,789.55,789.20,788.80,788.26,787.67,787.06,786.56,786.26,785.37,784.35,783.37,782.83,784.00,785.43,786.65,787.53,787.81,786.39,784.41,782.68,781.96,782.70,783.67,784.25,784.39,784.76,785.15,785.55,785.98,786.51,786.92,786.88,786.60,786.28,785.96,785.61,785.26,784.69,783.36,781.99,780.62,780.00,780.90,781.51,780.06,777.04,773.44,771.87,773.81,776.76,779.70,782.26,784.62,786.94,789.44,792.44,796.34,801.73,807.20,812.26,817.20,822.74,828.89,835.55,842.40,847.96,854.48,860.89,866.45,871.38,875.02,877.40,877.41,872.82,869.05,865.29,860.91,855.76,851.28,846.97,844.00,842.91,843.53,843.82,842.62,839.91,835.52,828.90,821.49,815.68,812.75,811.57,807.61,801.38,793.74,785.92,780.16,776.10,772.51,768.95,766.84,765.62,764.25,762.09,758.78,756.49,754.95,753.64,752.01,750.01,748.93,749.25,750.75,751.40,751.47,751.60,752.09,753.00,752.70,752.20,752.39,753.83,755.46,757.14,759.05,762.30,769.38,775.43,780.38,784.63,788.44,791.80,794.75,797.68,800.64,802.90,804.94,804.55,801.93
789.16,787.29,787.14,787.84,788.80,789.72,790.45,790.76,790.72,790.28,789.35,787.87,786.50,785.68,785.75,785.98,785.05,783.46,781.43,778.84,776.57,774.39,772.53,771.58,770.43,769.22,767.66,765.46,762.91,760.87,759.05,757.29,755.51,753.75,751.98,750.52,749.90,749.94,751.17,753.04,755.20,757.30,759.19,760.99,762.66,764.03,765.31,766.69,768.08,769.26,769.95,770.48,770.95,771.32,771.33,771.17,771.20,771.40,771.68,771.98,772.35,772.76,773.22,773.63,774.10,774.64,775.21,775.66,776.02,776.54,777.20,777.91,778.61,779.01,779.43,780.00,780.69,781.43,782.23,783.07,783.83,784.18,784.50,784.46,783.74,782.47,781.24,780.92,781.61,782.84,783.86,784.50,784.64,784.08,783.20,783.79,785.20,786.97,788.63,789.68,790.47,790.49,788.73,787.05,786.91,787.88,789.30,789.84,789.01,787.59,786.59,787.48,787.94,788.38,788.74,788.84,788.66,788.38,788.06,787.70,787.22,786.68,786.09,785.44,784.66,783.59,782.46,781.39,780.71,781.34,782.56,783.76,784.72,785.19,784.61,783.00,781.38,780.96,781.83,782.75,783.12,782.98,783.28,783.71,784.15,784.63,785.16,785.61,785.52,785.16,784.79,784.42,784.18,784.17,784.05,782.85,781.54,779.97,778.82,778.96,779.42,777.87,774.62,770.92,770.42,772.35,775.28,778.42,781.17,783.27,785.25,787.27,789.50,792.36,797.76,803.95,809.98,815.35,820.85,826.69,833.54,841.84,848.31,853.61,858.80,864.34,870.00,873.63,875.16,874.15,869.55,865.87,861.97,857.56,852.57,847.49,842.35,838.93,837.83,838.23,838.64,837.90,835.78,831.56,823.65,815.65,809.28,805.56,804.50,800.95,794.92,787.64,781.24,777.01,773.51,770.29,767.36,764.87,762.88,761.07,759.03,756.09,753.43,752.19,751.78,750.93,748.88,747.65,747.86,749.25,749.60,749.60,750.09,751.10,752.02,751.73,751.38,752.05,754.28,756.13,757.81,760.64,765.45,772.51,778.80,784.06,788.37,791.72,794.69,797.51,799.88,801.68,803.51,804.28,803.24,800.58
789.98,787.39,785.58,785.28,785.92,786.96,788.16,788.70,788.74,788.39,787.67,786.25,784.70,783.60,783.63,784.59,784.88,784.29,782.87,781.00,778.76,776.42,774.38,773.26,772.17,770.57,768.31,765.37,762.56,760.48,758.77,757.18,755.44,753.70,751.98,750.52,749.77,749.70,750.67,752.22,754.09,756.01,758.01,760.08,762.02,763.42,764.77,766.11,767.40,768.55,769.34,769.85,770.28,770.62,770.59,770.39,770.33,770.49,770.88,771.21,771.59,772.02,772.45,772.94,773.44,773.95,774.42,774.75,775.15,775.74,776.45,777.17,777.83,778.28,778.74,779.35,780.04,780.80,781.63,782.45,783.04,783.20,783.54,783.55,782.74,781.31,780.09,780.13,781.29,782.43,783.29,783.69,783.59,782.91,781.95,782.44,783.89,785.89,787.71,788.72,789.47,789.47,787.73,786.10,785.86,786.66,788.00,788.88,788.14,786.69,785.56,786.11,786.59,787.10,787.53,787.68,787.47,787.17,786.86,786.53,786.13,785.59,784.97,784.29,783.51,782.63,781.62,780.57,779.70,779.61,780.29,781.21,782.12,782.83,782.87,781.67,780.30,780.13,781.02,781.76,781.90,781.59,781.85,782.33,782.84,783.35,783.91,784.33,784.11,783.63,783.22,782.87,782.80,782.99,783.12,782.38,781.27,779.61,777.88,776.81,776.85,775.42,772.71,769.89,769.97,771.87,774.40,777.09,779.67,781.80,784.12,786.33,788.35,791.13,796.69,803.43,810.08,815.19,820.31,825.67,832.28,840.91,847.52,852.61,857.55,862.93,868.37,872.23,873.53,872.04,867.57,863.47,859.41,855.18,850.38,844.23,838.13,833.85,832.30,833.63,834.26,833.70,831.41,826.24,818.59,810.39,803.61,799.34,797.08,793.56,788.50,782.49,776.83,773.26,770.56,768.08,765.59,763.01,760.69,758.57,756.43,753.86,751.22,750.19,750.16,749.70,747.97,746.51,746.38,747.62,747.98,748.18,748.95,750.15,751.03,750.80,750.85,751.98,754.53,756.72,758.57,762.35,768.59,775.47,781.53,786.68,790.90,794.05,796.96,799.29,801.01,802.22,803.49,803.29,801.80,799.15
790.73,788.19,784.75,783.05,782.90,783.89,785.61,786.38,786.44,786.07,785.63,784.62,783.07,781.61,781.19,782.24,783.66,784.31,783.60,782.00,780.14,778.14,776.26,774.88,773.43,771.30,768.38,764.82,761.76,759.59,757.94,756.55,754.98,753.45,751.95,750.61,749.72,749.55,750.18,751.29,752.78,754.51,756.79,759.25,761.49,762.99,764.41,765.66,766.80,767.86,768.73,769.23,769.62,769.90,769.85,769.65,769.50,769.59,770.05,770.40,770.84,771.28,771.72,772.29,772.77,773.18,773.54,773.83,774.34,774.98,775.70,776.44,777.08,777.59,778.13,778.76,779.45,780.19,781.04,781.80,782.13,782.18,782.56,782.61,781.75,780.22,779.21,779.60,781.00,782.01,782.63,782.83,782.59,781.81,780.79,781.32,782.88,784.95,786.70,787.69,788.46,788.54,787.02,785.61,784.88,785.15,786.48,787.75,787.22,785.88,784.67,784.81,785.27,785.81,786.27,786.50,786.25,785.93,785.63,785.32,784.99,784.45,783.78,783.11,782.54,781.99,781.22,780.28,779.29,778.51,778.53,779.05,779.88,780.77,781.20,780.38,779.33,779.35,780.22,780.70,780.64,780.26,780.46,781.01,781.61,782.17,782.73,783.05,782.67,782.08,781.67,781.33,781.43,781.73,781.97,781.74,780.93,779.29,777.06,774.80,774.24,773.00,771.18,769.62,770.18,772.06,774.11,776.11,778.36,780.73,783.69,786.45,788.68,792.02,797.75,804.66,811.41,816.00,820.64,825.46,831.52,839.72,846.02,851.35,856.61,861.99,866.82,870.94,872.31,870.66,866.28,861.57,857.27,853.12,848.28,841.19,834.26,828.82,826.29,828.59,829.42,828.93,826.30,820.16,813.56,805.54,798.51,793.69,789.66,786.06,782.36,778.10,772.96,769.57,767.56,765.85,763.66,761.21,758.90,756.63,754.37,752.07,749.65,748.70,748.71,748.40,747.17,745.52,744.95,745.94,746.45,747.00,747.94,749.13,749.88,749.85,750.46,752.06,754.69,757.25,759.62,764.36,771.63,778.24,783.89,788.71,792.73,795.82,798.72,800.41,801.50,802.40,803.05,802.20,800.49,797.90
790.01,787.89,784.68,782.03,780.71,781.26,783.11,783.93,783.85,783.29,783.02,782.90,781.77,780.15,779.29,780.54,782.11,783.39,783.87,782.63,781.07,779.57,778.14,776.65,774.48,771.56,768.00,763.91,760.05,757.38,755.36,753.80,752.88,752.23,751.55,750.70,749.69,749.26,749.51,750.07,750.94,752.75,755.87,758.92,761.28,762.65,763.87,765.00,766.12,767.21,768.08,768.62,768.99,769.21,769.24,769.10,768.88,768.79,769.08,769.53,770.03,770.55,771.04,771.55,771.93,772.24,772.54,772.97,773.58,774.26,774.98,775.73,776.36,776.95,777.54,778.17,778.81,779.47,780.25,780.93,781.11,781.10,781.54,781.64,780.71,778.87,778.14,778.80,780.30,781.38,781.61,781.63,781.56,781.15,779.93,780.84,782.73,784.59,785.40,786.34,787.29,787.65,786.56,785.30,784.18,783.93,784.94,786.20,786.10,785.06,783.81,783.62,784.04,784.54,785.00,785.31,785.02,784.70,784.39,784.10,783.83,783.37,782.65,781.87,781.29,780.84,780.34,779.69,778.88,778.05,777.58,777.80,778.57,779.31,779.62,779.01,778.28,778.42,779.22,779.56,779.44,779.10,779.13,779.81,780.54,781.14,781.56,781.75,781.24,780.65,780.36,779.88,780.02,780.33,780.53,780.46,780.08,778.59,776.32,773.95,772.49,771.28,769.97,769.17,770.93,772.89,774.79,776.67,778.75,781.54,784.94,788.19,791.13,795.47,800.95,806.85,812.50,816.97,821.48,825.79,831.00,838.17,844.16,849.26,854.93,861.29,866.10,870.08,871.43,869.74,865.01,860.00,855.27,850.26,844.35,837.86,830.83,823.94,819.08,820.03,820.84,820.65,818.80,814.25,808.28,801.21,794.34,788.39,783.22,779.76,777.17,774.53,770.74,767.51,765.28,763.50,761.63,759.55,757.50,755.43,753.28,750.94,748.67,747.56,747.31,747.13,746.19,744.73,743.93,744.32,744.89,745.70,746.72,747.69,748.13,748.64,750.04,752.22,754.96,757.74,761.74,767.42,774.37,780.56,786.03,790.48,794.17,797.29,799.61,800.91,801.69,802.16,802.20,801.43,799.99,797.70
789.00,786.92,784.13,781.38,779.50,779.32,780.96,781.69,781.41,780.62,780.50,780.81,780.16,778.74,777.66,779.24,780.96,782.49,783.48,782.96,781.94,780.83,779.71,778.38,775.80,772.29,768.22,763.62,758.35,754.76,752.50,751.30,750.88,750.75,750.60,750.21,749.41,749.01,749.23,749.70,750.48,752.31,755.74,758.81,760.93,762.12,763.22,764.32,765.44,766.53,767.45,767.98,768.33,768.58,768.67,768.54,768.27,768.06,768.22,768.70,769.24,769.78,770.30,770.71,771.02,771.28,771.61,772.15,772.81,773.53,774.27,775.01,775.59,776.17,776.76,777.36,777.97,778.57,779.26,779.86,780.02,780.07,780.57,780.70,779.75,777.77,777.05,777.75,779.30,780.51,780.55,780.40,780.28,779.99,778.97,780.51,782.24,783.10,783.71,784.80,785.98,786.64,785.99,784.82,783.62,783.01,783.43,784.61,785.06,784.35,782.97,782.44,782.77,783.29,783.81,784.19,783.79,783.43,783.13,782.85,782.65,782.31,781.62,780.77,780.16,779.79,779.42,778.95,778.30,777.53,776.80,776.81,777.49,778.12,778.35,777.85,777.29,777.52,778.24,778.48,778.33,777.99,778.00,778.72,779.46,779.99,780.29,780.40,779.93,779.39,779.11,778.52,778.69,779.03,779.22,779.19,779.07,777.75,775.61,773.35,771.48,769.66,768.75,769.39,771.56,773.47,775.32,777.16,779.14,782.22,785.90,789.67,793.50,798.29,803.21,808.25,813.20,817.53,821.82,825.87,830.59,836.96,842.61,847.35,852.83,859.29,864.24,868.72,869.83,867.38,862.42,857.82,853.33,848.10,841.62,835.31,828.33,820.64,813.69,811.29,811.85,812.28,811.42,808.40,803.17,796.74,790.20,783.89,777.49,774.03,771.98,770.24,767.85,765.15,762.99,761.22,759.59,757.84,756.01,754.12,752.13,750.07,748.13,746.79,746.07,745.85,745.22,744.00,743.05,742.93,743.48,744.33,745.32,746.30,747.08,748.15,750.12,752.81,756.06,759.51,764.49,770.52,776.99,782.78,787.88,791.93,795.35,798.49,800.18,801.01,801.41,801.50,801.28,800.74,799.60,797.68
788.27,786.04,783.67,781.34,779.29,778.15,779.11,779.45,778.94,778.05,778.01,778.34,778.10,777.17,776.16,778.08,780.06,781.57,782.53,782.84,782.42,781.65,780.78,779.83,777.25,773.39,768.90,763.76,756.71,752.08,749.80,749.28,749.15,749.18,749.27,749.24,748.90,748.84,749.28,750.05,751.17,752.99,756.18,758.81,760.44,761.47,762.55,763.66,764.78,765.86,766.85,767.33,767.67,768.00,768.13,767.98,767.65,767.38,767.44,767.91,768.45,768.99,769.48,769.82,770.06,770.34,770.72,771.37,772.07,772.82,773.58,774.28,774.75,775.27,775.81,776.36,776.95,777.52,778.11,778.63,778.86,779.13,779.68,779.77,778.77,776.87,775.97,776.56,778.18,779.52,779.44,779.13,778.80,778.39,778.07,780.21,781.39,780.91,781.91,783.27,784.64,785.59,785.36,784.24,783.17,782.32,782.00,783.02,784.03,783.65,782.19,781.30,781.52,782.07,782.67,783.09,782.57,782.15,781.84,781.59,781.48,781.26,780.65,779.83,779.19,778.86,778.51,778.09,777.57,776.89,776.11,775.97,776.51,777.08,777.31,776.83,776.34,776.63,777.28,777.46,777.26,776.92,777.01,777.68,778.32,778.74,778.95,779.04,778.70,778.25,777.86,777.26,777.46,777.82,778.04,777.99,777.95,776.83,774.93,772.86,770.97,768.21,767.55,769.90,771.88,773.70,775.51,777.32,779.26,782.43,786.26,790.55,795.28,800.08,804.38,808.84,813.48,817.61,821.53,825.40,829.93,835.84,841.31,845.69,850.51,856.31,861.54,866.84,867.57,864.00,859.05,855.25,851.30,846.30,839.83,833.38,826.68,818.88,810.34,803.55,803.20,804.13,804.19,802.27,797.99,792.14,786.13,780.07,772.50,768.79,766.78,765.39,764.23,762.32,760.53,758.95,757.49,756.01,754.38,752.64,750.89,749.33,747.85,746.30,745.05,744.60,744.22,743.26,742.24,741.74,742.23,743.01,743.96,745.12,746.64,748.19,750.45,753.52,757.51,762.02,767.48,773.40,779.34,784.70,789.25,792.84,796.01,799.19,800.37,800.66,800.61,800.39,800.13,799.82,798.93,797.37
789.69,787.83,785.90,783.40,780.77,778.59,777.35,776.28,775.60,775.35,775.20,775.22,775.11,774.76,774.48,776.36,778.55,780.27,781.18,781.41,781.06,780.68,780.44,780.11,778.10,774.32,769.49,763.50,754.91,750.31,748.40,747.99,747.86,747.90,748.03,748.16,748.30,748.78,749.52,750.67,752.31,754.15,756.49,758.53,760.03,761.00,762.06,763.12,764.19,765.26,766.26,766.74,767.06,767.37,767.55,767.39,767.04,766.69,766.62,767.08,767.62,768.12,768.54,768.90,769.12,769.37,769.81,770.68,771.48,772.30,773.03,773.55,773.84,774.27,774.74,775.20,775.71,776.29,776.87,777.34,777.63,778.31,778.88,778.67,777.38,775.78,774.93,775.59,777.34,778.62,778.11,777.64,777.17,776.68,777.97,779.69,780.23,779.76,781.06,782.43,783.75,784.73,784.81,783.92,782.81,781.71,780.96,781.47,782.63,782.68,781.50,780.34,780.39,780.89,781.49,781.89,781.47,780.95,780.60,780.46,780.37,780.12,779.71,779.16,778.52,777.97,777.61,777.23,776.70,776.12,775.48,775.26,775.52,776.00,776.21,775.77,775.33,775.66,776.27,776.40,776.18,775.88,776.01,776.55,777.13,777.54,777.65,777.69,777.48,777.07,776.57,776.14,776.33,776.63,776.82,776.80,776.76,775.90,774.36,772.38,770.42,767.48,766.70,769.10,771.40,773.28,774.99,776.64,778.46,781.34,785.21,789.85,795.05,799.96,804.29,808.62,812.93,816.67,819.94,823.26,827.56,833.74,839.92,844.36,848.55,853.52,859.33,864.39,864.82,861.32,857.00,853.11,848.56,843.29,837.39,831.50,825.93,819.00,810.17,800.64,796.58,796.12,796.34,794.53,791.61,787.50,782.63,776.75,768.98,764.26,761.87,760.81,760.07,758.80,757.56,756.35,755.08,753.82,752.46,751.02,749.60,748.46,747.35,745.98,744.55,743.50,743.04,742.31,741.37,740.66,741.27,742.31,743.48,744.79,746.41,747.99,750.10,753.11,757.55,763.34,769.44,775.33,780.74,785.27,789.08,792.00,794.82,798.23,799.38,799.25,798.83,798.47,797.99,797.42,796.46,795.10
791.28,789.81,788.35,785.94,783.05,780.25,777.99,776.27,775.10,774.25,773.09,772.40,772.25,772.36,772.62,773.98,776.02,777.83,778.87,779.27,778.94,778.83,779.09,779.28,778.13,774.67,769.64,763.01,753.46,749.23,747.59,746.93,746.69,746.77,747.12,747.63,748.17,748.98,749.82,751.06,752.88,754.72,756.58,758.25,759.59,760.49,761.57,762.63,763.71,764.78,765.67,766.12,766.44,766.76,766.98,766.80,766.41,766.00,765.79,766.21,766.73,767.20,767.60,767.96,768.19,768.52,769.09,770.08,770.97,771.77,772.39,772.74,772.92,773.27,773.69,774.11,774.55,775.10,775.63,776.13,776.62,777.55,777.90,777.35,775.88,774.43,773.89,774.79,776.58,777.54,776.73,776.02,775.55,775.43,777.37,778.60,778.80,778.70,780.49,781.90,783.14,784.07,784.18,783.59,782.51,781.29,780.30,780.29,781.35,781.74,781.02,779.75,779.41,779.76,780.34,780.73,780.43,779.96,779.65,779.56,779.43,779.07,778.71,778.31,777.76,777.17,776.76,776.35,775.80,775.27,774.74,774.45,774.50,774.93,775.14,774.71,774.32,774.73,775.25,775.32,775.11,774.84,774.94,775.42,775.89,776.20,776.27,776.30,776.23,775.91,775.30,774.98,775.15,775.39,775.53,775.50,775.42,774.97,773.85,771.81,769.67,766.75,765.82,767.89,770.27,771.91,773.38,774.97,776.91,779.42,783.03,787.78,793.44,798.22,802.56,806.93,811.24,814.78,817.72,820.87,825.38,832.30,838.71,843.20,847.09,851.46,857.22,861.79,861.98,858.64,854.51,849.89,844.56,838.99,833.58,828.50,824.00,818.10,809.75,799.11,792.31,789.55,788.27,785.90,784.56,782.47,779.16,774.19,767.27,761.95,758.70,757.00,755.99,754.99,754.15,753.36,752.48,751.54,750.49,749.35,748.22,747.30,746.36,745.20,743.92,742.74,741.99,741.35,740.62,740.07,740.93,742.13,743.40,744.72,746.19,747.66,749.47,752.24,756.85,763.31,769.90,775.73,780.53,784.47,787.63,790.08,792.63,795.94,797.10,796.68,795.98,795.59,795.29,794.70,793.70,792.26
792.61,791.44,790.43,788.52,785.86,782.93,781.10,779.65,777.73,775.11,772.17,770.36,769.88,770.15,770.56,771.04,772.55,774.24,775.56,776.51,776.29,776.33,776.87,777.44,777.30,774.39,769.41,762.50,752.70,748.88,747.27,746.08,745.61,745.82,746.66,747.74,748.61,749.47,750.18,751.22,752.83,754.63,756.47,757.99,759.13,759.96,761.06,762.21,763.36,764.41,765.09,765.47,765.80,766.16,766.43,766.20,765.78,765.32,764.98,765.32,765.78,766.25,766.67,767.00,767.32,767.82,768.58,769.56,770.49,771.16,771.61,771.85,772.01,772.30,772.68,773.12,773.52,773.98,774.46,775.04,775.87,776.86,776.75,775.80,774.31,772.85,772.84,774.13,775.86,776.27,775.31,774.33,773.97,774.64,776.08,776.93,777.21,777.65,780.09,781.59,782.76,783.55,783.41,783.13,782.23,781.07,780.04,779.53,780.25,780.85,780.67,779.50,778.62,778.68,779.23,779.60,779.45,779.18,779.00,778.89,778.64,778.12,777.64,777.25,776.84,776.42,775.95,775.44,774.91,774.37,773.88,773.55,773.49,773.90,774.10,773.68,773.34,773.84,774.25,774.25,774.03,773.77,773.81,774.30,774.63,774.73,774.77,774.83,774.95,774.75,774.09,773.75,773.92,774.13,774.18,774.08,773.95,773.96,773.34,771.18,768.81,765.98,764.91,766.43,768.55,769.64,770.80,772.45,774.72,776.92,780.00,784.59,790.59,794.98,799.24,803.84,808.49,812.17,815.26,818.76,823.95,831.76,837.73,842.19,846.13,850.22,855.21,859.11,859.13,855.86,851.36,845.53,839.47,833.73,828.66,824.41,820.60,815.62,808.32,798.03,790.23,784.71,780.40,776.95,777.13,776.99,775.51,772.23,767.11,761.90,757.53,754.27,752.37,751.21,750.57,750.18,749.81,749.29,748.55,747.67,746.72,745.85,744.88,743.89,743.00,742.25,741.13,740.39,739.96,740.01,741.26,742.48,743.66,744.84,746.06,747.37,748.78,751.25,755.87,762.27,769.03,774.63,778.77,782.40,785.08,787.34,789.77,792.62,793.73,793.11,792.22,791.92,792.20,791.85,790.79,788.94
793.05,792.14,791.38,790.11,788.09,785.45,783.64,782.09,780.22,777.74,774.45,770.99,769.04,768.34,768.24,768.54,769.49,770.68,771.90,773.03,773.35,773.74,774.45,775.31,775.72,773.66,769.54,763.33,754.20,749.75,747.47,745.90,744.84,745.54,746.89,748.28,749.32,750.19,750.94,751.93,753.31,754.83,756.47,757.78,758.75,759.64,760.80,762.00,763.13,764.01,764.49,764.79,765.06,765.39,765.79,765.63,765.23,764.76,764.34,764.48,764.84,765.27,765.72,766.08,766.51,767.20,768.11,769.09,769.87,770.38,770.73,770.94,771.11,771.34,771.70,772.14,772.54,772.95,773.48,774.21,775.24,776.25,775.72,774.36,772.77,771.35,771.84,773.52,775.22,775.00,773.78,772.86,772.67,773.44,774.53,775.43,776.24,777.41,779.83,781.21,782.21,782.78,782.49,782.21,781.72,781.01,780.05,779.01,779.28,779.84,779.97,779.04,778.07,777.86,778.19,778.63,778.69,778.48,778.31,778.19,777.73,777.10,776.58,776.15,775.77,775.38,774.95,774.52,774.10,773.58,773.09,772.72,772.58,772.88,773.11,772.70,772.38,772.92,773.20,773.21,773.00,772.69,772.74,773.21,773.50,773.46,773.16,773.18,773.48,773.49,772.94,772.54,772.72,772.96,772.97,772.64,772.50,772.62,772.37,770.85,768.67,765.94,764.35,764.78,766.54,767.59,768.84,770.54,772.59,774.91,778.04,782.10,786.88,790.81,795.62,800.88,806.06,810.45,814.55,819.01,824.52,831.42,836.81,841.31,845.44,849.49,853.67,856.46,856.13,853.07,848.28,841.86,835.48,830.01,825.71,821.14,816.68,811.59,804.84,795.20,788.20,781.57,775.27,770.87,770.70,771.12,770.81,769.17,765.93,761.97,757.81,753.84,750.74,749.26,748.65,748.33,748.02,747.52,746.92,746.12,745.16,744.22,743.38,742.39,741.52,741.16,740.34,739.22,738.97,740.18,741.76,743.09,744.29,745.46,746.67,747.84,749.13,751.72,756.80,763.09,768.80,773.48,777.15,780.33,782.64,785.02,787.63,790.07,790.95,790.13,789.15,788.99,789.44,788.78,786.86,784.04
792.68,791.92,791.30,790.42,788.97,786.91,785.38,783.98,782.37,780.28,777.29,773.03,769.80,767.92,767.19,766.94,766.86,767.33,768.46,769.63,770.44,771.31,772.33,773.30,773.89,772.81,769.89,764.56,756.24,750.87,747.74,745.89,744.25,745.28,747.04,748.72,749.95,750.92,751.77,752.71,753.82,754.92,756.20,757.37,758.38,759.37,760.53,761.78,762.84,763.45,763.77,764.00,764.24,764.58,765.12,765.07,764.72,764.22,763.73,763.66,763.94,764.35,764.78,765.22,765.83,766.67,767.67,768.57,769.17,769.55,769.81,770.01,770.17,770.38,770.70,771.12,771.51,771.95,772.59,773.48,774.62,775.53,774.67,773.06,771.47,770.18,771.07,773.02,774.62,773.82,772.30,771.56,771.69,772.54,773.53,774.64,775.92,777.53,779.63,780.80,781.57,781.92,781.54,781.19,780.99,780.65,779.89,778.58,778.36,778.75,779.13,778.50,777.58,777.16,777.27,777.69,777.93,777.79,777.59,777.38,776.76,776.10,775.52,775.05,774.66,774.28,773.92,773.60,773.29,772.82,772.34,771.96,771.78,771.93,772.13,771.75,771.45,771.96,772.15,772.18,771.98,771.62,771.69,772.10,772.37,772.27,771.66,771.51,771.92,772.17,771.80,771.35,771.56,771.82,771.79,771.33,771.08,771.19,771.23,770.48,768.51,765.91,763.85,763.19,764.57,765.74,767.16,768.85,770.67,773.04,776.11,779.56,783.35,788.11,793.60,799.30,804.84,809.86,814.75,819.86,825.39,831.31,836.42,840.98,845.21,849.10,852.46,853.98,853.07,849.96,844.91,838.28,832.08,827.12,823.32,818.14,812.75,807.13,800.56,791.82,785.78,779.23,772.43,767.38,765.50,765.45,765.61,765.12,763.56,761.15,757.84,753.89,750.07,748.29,747.39,746.82,746.38,745.85,745.31,744.59,743.66,742.67,741.81,740.86,740.12,739.92,739.24,738.11,738.22,740.18,741.83,742.96,743.98,745.14,746.58,747.89,749.56,752.64,757.99,763.75,768.46,772.29,775.42,778.14,780.32,782.88,785.59,787.59,787.98,787.06,786.21,786.19,786.62,785.50,782.86,779.39
791.39,790.59,789.97,789.05,787.92,786.75,785.94,785.16,783.88,782.03,779.85,776.29,772.50,769.52,768.18,766.70,765.02,764.47,765.51,766.55,767.63,769.09,770.66,771.49,771.89,771.88,770.37,765.88,758.30,751.99,748.02,745.93,743.84,744.83,746.84,748.85,750.37,751.53,752.48,753.33,754.10,754.70,755.45,756.61,757.97,759.05,760.16,761.44,762.39,762.63,762.87,763.05,763.32,763.78,764.45,764.51,764.19,763.69,763.13,762.88,763.09,763.48,763.91,764.45,765.31,766.28,767.24,767.98,768.39,768.67,768.88,769.05,769.20,769.42,769.69,770.03,770.43,770.99,771.80,772.84,773.98,774.59,773.57,771.98,770.55,769.52,770.68,772.67,774.04,772.78,770.95,770.49,771.12,772.24,773.43,774.84,776.36,777.95,779.47,780.35,780.86,781.00,780.60,780.16,779.98,779.83,779.37,778.21,777.49,777.63,778.17,777.90,777.10,776.58,776.49,776.77,777.11,777.08,776.83,776.40,775.74,775.10,774.49,773.95,773.57,773.18,772.89,772.67,772.46,772.07,771.63,771.28,771.08,771.05,771.17,770.84,770.57,771.00,771.12,771.14,770.93,770.58,770.64,770.92,771.18,771.12,770.36,769.91,770.34,770.81,770.67,770.19,770.42,770.65,770.57,770.17,769.72,769.74,770.02,769.92,768.11,765.71,763.34,761.81,762.75,764.15,765.74,767.41,769.14,771.36,774.11,776.98,780.57,787.97,794.15,799.83,805.42,810.74,815.83,820.92,826.15,831.57,836.85,841.40,845.39,848.79,851.29,851.55,849.79,846.31,841.09,834.68,829.25,824.94,821.06,815.17,808.94,802.55,795.76,788.24,782.75,777.45,771.99,766.70,761.91,760.36,760.14,760.06,759.78,758.97,756.99,753.89,750.25,748.23,746.68,745.47,744.74,744.18,743.63,743.03,742.29,741.29,740.15,739.38,738.96,738.63,737.66,737.20,737.93,739.84,741.19,741.66,742.19,743.27,745.21,747.01,749.71,753.66,758.84,763.53,767.72,771.03,773.47,775.82,778.18,780.91,783.52,784.94,784.56,783.75,783.26,783.37,783.65,782.01,779.09,775.60
790.25,788.67,787.46,786.38,785.41,784.60,784.04,783.62,782.97,782.02,780.81,778.61,775.23,772.00,770.36,768.53,766.32,764.43,763.41,763.40,764.42,766.11,767.91,769.02,769.83,770.35,769.57,766.03,759.29,752.94,748.61,746.10,743.67,744.21,746.24,748.61,750.43,751.42,752.11,752.67,753.15,753.66,754.35,755.52,757.01,758.31,759.65,760.88,761.64,761.69,761.86,762.10,762.48,763.09,763.80,763.95,763.65,763.11,762.52,762.09,762.25,762.63,763.10,763.88,764.84,765.84,766.73,767.22,767.52,767.77,767.97,768.13,768.33,768.55,768.82,769.14,769.54,770.12,771.01,772.14,773.26,773.68,772.66,771.12,769.76,769.18,770.40,772.26,773.41,771.88,770.06,769.99,771.03,772.28,773.56,774.97,776.49,777.97,779.08,779.75,780.04,779.93,779.34,778.78,778.89,779.10,778.87,777.88,776.97,776.79,777.12,776.98,776.51,775.98,775.71,775.95,776.24,776.27,775.98,775.39,774.75,774.13,773.49,772.90,772.51,772.13,771.88,771.70,771.53,771.28,770.89,770.57,770.34,770.16,770.18,769.85,769.60,769.97,770.09,770.08,769.86,769.52,769.46,769.70,769.87,769.75,769.15,768.81,769.21,769.65,769.53,768.95,769.12,769.33,769.24,768.88,768.73,768.88,769.15,769.12,767.75,765.49,763.14,761.41,761.36,762.72,764.75,766.94,769.04,771.65,774.55,777.42,781.07,789.03,795.56,801.59,807.52,812.78,817.65,822.63,827.72,832.82,838.00,841.30,843.33,844.67,846.13,845.98,844.50,841.74,837.25,831.82,827.00,822.41,817.29,811.00,804.99,798.65,791.91,785.47,779.72,774.24,768.87,763.71,759.27,757.39,756.86,756.89,757.02,756.63,755.46,753.36,750.22,748.29,746.53,744.87,743.57,742.79,742.17,741.57,740.89,739.96,738.78,737.97,737.48,736.99,736.26,736.66,737.82,739.29,740.29,740.57,740.79,741.46,743.20,745.24,748.33,752.64,758.02,762.34,766.20,769.21,771.46,773.93,776.77,779.61,781.77,782.21,781.58,780.83,780.47,780.63,780.71,778.86,775.80,772.19
789.31,787.00,785.02,783.57,782.58,781.99,781.51,781.33,781.23,781.09,780.68,779.48,776.91,774.13,772.56,770.64,768.26,765.29,762.20,760.87,761.52,763.14,764.99,766.43,767.71,768.58,768.19,765.37,759.68,753.64,749.09,746.14,743.38,743.38,745.27,747.84,749.93,750.89,751.35,751.64,751.92,752.42,753.15,754.35,755.86,757.34,758.90,760.14,760.80,760.75,760.85,761.18,761.72,762.43,763.16,763.38,763.09,762.53,761.92,761.36,761.44,761.84,762.43,763.42,764.41,765.32,766.02,766.36,766.62,766.86,767.07,767.25,767.46,767.69,767.96,768.31,768.76,769.38,770.31,771.44,772.54,772.84,771.93,770.46,769.09,768.84,770.13,771.81,772.72,771.15,769.31,769.63,771.10,772.41,773.72,775.08,776.46,777.71,778.49,778.99,778.98,778.55,777.90,777.32,777.68,778.23,778.27,777.56,776.62,776.10,776.04,775.97,775.76,775.29,774.96,775.16,775.38,775.44,775.17,774.53,773.86,773.19,772.50,771.87,771.47,771.10,770.88,770.72,770.56,770.41,770.12,769.83,769.57,769.28,769.20,768.86,768.64,768.98,769.11,769.07,768.85,768.48,768.27,768.45,768.51,768.33,767.96,767.83,768.25,768.62,768.42,767.73,767.79,767.95,767.86,767.56,767.79,768.15,768.40,768.26,767.30,765.26,763.07,761.29,760.22,761.52,763.93,766.70,769.41,772.71,776.03,779.31,783.33,790.69,797.31,803.71,809.89,814.90,819.43,824.18,828.93,833.23,837.37,839.13,839.48,839.39,840.17,840.20,839.34,837.37,833.63,828.77,823.91,818.73,812.74,806.55,801.14,795.29,788.93,783.19,776.62,770.55,765.09,760.20,756.64,754.83,754.16,754.26,754.50,754.24,753.63,752.40,749.92,748.11,746.26,744.33,742.56,741.57,740.84,740.17,739.46,738.58,737.47,736.63,736.02,735.46,735.23,736.24,737.58,738.62,739.34,739.58,739.63,739.93,741.31,743.88,747.32,751.68,756.88,761.01,764.57,767.44,769.81,772.53,775.71,778.31,779.72,779.38,778.77,778.17,777.98,778.22,777.94,775.89,772.74,769.03
788.67,786.21,783.40,781.21,779.90,779.51,779.05,778.98,779.05,779.14,779.07,777.78,776.25,774.98,774.08,772.19,769.77,766.44,762.40,759.70,759.52,760.65,762.33,763.97,765.54,766.60,766.25,763.58,759.40,753.86,749.18,745.81,742.73,742.19,743.68,746.13,748.41,749.83,750.33,750.54,750.79,751.15,751.94,753.15,754.63,756.12,757.76,759.16,759.94,759.88,759.85,760.38,761.08,761.79,762.51,762.77,762.51,761.95,761.33,760.72,760.68,761.14,762.03,763.08,764.04,764.63,764.94,765.37,765.70,765.95,766.18,766.39,766.56,766.78,767.08,767.50,768.09,768.87,769.76,770.78,771.84,772.18,771.49,770.09,768.53,768.31,769.80,771.32,771.91,770.67,768.60,769.27,771.22,772.53,773.85,775.16,776.28,777.09,777.62,777.98,777.47,776.57,776.25,775.85,776.25,776.98,777.48,777.20,776.40,775.55,774.98,774.98,774.74,774.44,774.28,774.38,774.54,774.63,774.48,773.97,773.17,772.36,771.57,770.88,770.39,770.10,769.91,769.73,769.53,769.43,769.26,769.02,768.72,768.43,768.27,767.92,767.73,768.08,768.25,768.23,767.98,767.53,767.08,767.13,767.12,766.95,766.73,766.84,767.41,767.74,767.34,766.62,766.48,766.51,766.44,766.23,766.80,767.40,767.68,767.41,766.64,765.04,763.13,761.19,759.43,760.72,763.27,766.36,770.01,774.30,778.35,782.59,787.52,792.97,799.28,805.87,812.01,816.54,820.66,824.97,828.87,831.28,832.55,832.85,833.08,833.73,834.75,835.69,835.54,833.96,830.48,824.90,818.74,812.77,807.38,802.17,797.62,792.73,787.25,781.47,773.44,766.71,761.44,756.90,753.51,751.95,751.52,751.77,751.94,751.81,751.54,750.87,749.18,747.33,745.41,743.48,741.70,740.57,739.64,738.79,737.95,737.05,736.14,735.40,734.79,734.35,734.90,735.89,736.93,737.82,738.40,738.69,738.79,738.97,740.06,743.86,747.97,751.96,755.99,759.92,763.13,766.06,768.95,771.91,774.98,776.59,776.87,776.39,776.06,775.85,776.05,776.45,775.56,773.16,769.90,766.17
786.15,785.68,782.63,779.82,778.01,777.30,776.67,776.50,776.46,776.40,776.16,774.67,773.48,772.89,772.64,771.61,769.20,765.47,761.08,758.56,758.14,758.95,760.35,761.79,763.42,764.67,764.60,762.29,758.53,753.22,748.43,744.75,741.53,740.73,741.95,744.20,746.48,748.29,749.04,749.34,749.60,749.99,750.65,751.78,753.27,754.81,756.32,757.67,758.45,758.43,758.89,759.68,760.48,761.17,761.83,762.18,762.05,761.56,760.94,760.29,760.26,760.83,761.84,762.68,763.26,763.57,763.80,764.26,764.69,765.02,765.27,765.50,765.70,765.92,766.30,766.88,767.62,768.44,769.32,770.27,771.26,771.47,770.87,769.54,767.82,767.20,768.73,770.33,771.03,770.28,768.20,769.05,771.25,772.56,773.84,774.67,775.27,775.78,776.28,776.32,775.50,774.56,774.59,774.33,774.77,775.56,776.30,776.69,776.11,775.22,774.44,774.12,773.88,773.67,773.56,773.60,773.67,773.75,773.74,773.50,772.75,771.91,771.08,770.29,769.55,769.08,768.86,768.73,768.59,768.47,768.29,768.06,767.80,767.56,767.33,767.00,766.85,767.13,767.30,767.32,767.09,766.61,766.09,765.86,765.70,765.55,765.46,765.85,766.54,766.84,766.25,765.51,765.19,765.09,765.12,765.29,765.98,766.58,766.82,766.51,765.84,764.68,763.12,761.14,759.03,759.67,762.16,765.68,769.71,774.46,779.22,784.25,789.66,794.61,800.21,806.26,812.09,816.32,820.24,823.74,826.27,827.08,827.32,827.33,827.64,828.55,829.99,831.55,831.89,830.41,826.31,820.08,813.93,808.38,803.45,798.55,794.15,789.20,783.79,779.10,772.50,766.28,760.75,755.75,751.80,749.99,749.45,749.60,749.75,749.69,749.51,749.09,748.01,746.35,744.55,742.69,740.85,739.45,738.30,737.31,736.42,735.55,734.82,734.17,733.67,733.58,734.30,735.23,736.15,736.92,737.36,737.67,737.92,738.34,739.72,743.93,748.37,752.35,755.78,759.04,762.35,765.88,769.41,772.08,773.54,773.87,773.55,773.17,773.05,773.27,774.07,774.97,773.58,770.52,766.69,762.57
783.13,784.92,782.16,779.08,776.77,775.36,774.36,773.97,773.76,773.49,772.99,771.35,770.24,769.90,770.06,769.85,767.54,763.75,759.58,757.56,756.90,757.37,758.51,759.77,761.51,762.87,762.98,760.94,757.17,752.11,747.39,743.54,740.37,739.44,740.43,742.40,744.51,746.59,747.63,748.10,748.40,748.90,749.48,750.49,751.90,753.43,754.76,756.02,756.81,757.00,757.96,758.97,759.83,760.52,761.11,761.52,761.50,761.15,760.57,759.90,759.83,760.43,761.49,762.08,762.27,762.40,762.65,763.15,763.70,764.09,764.37,764.60,764.83,765.12,765.61,766.36,767.21,768.06,768.91,769.80,770.67,770.72,770.08,768.74,766.93,766.05,767.56,769.25,770.13,769.63,767.64,768.67,771.05,772.42,773.54,773.83,773.92,774.25,774.89,774.64,773.54,772.51,772.83,772.80,773.34,774.18,775.07,776.02,775.73,774.93,774.07,773.40,773.12,772.95,772.84,772.83,772.83,772.88,772.98,772.95,772.39,771.60,770.77,769.89,768.93,768.18,767.86,767.74,767.65,767.50,767.28,767.05,766.83,766.66,766.38,766.09,765.97,766.17,766.33,766.38,766.19,765.70,765.15,764.66,764.36,764.23,764.27,764.88,765.68,765.91,765.16,764.39,763.91,763.72,763.89,764.54,765.30,765.78,765.91,765.61,764.94,764.15,762.94,761.12,758.95,758.77,761.45,765.81,769.84,774.44,779.55,785.05,790.71,795.66,800.66,806.06,811.43,815.49,819.17,821.60,822.57,822.11,822.00,822.15,822.62,823.62,825.40,827.31,827.99,826.65,822.09,815.38,809.62,804.72,800.06,795.17,790.59,785.34,779.87,776.34,772.11,766.72,760.83,755.41,750.95,748.80,747.94,747.76,747.74,747.69,747.54,747.23,746.63,745.25,743.63,741.88,740.03,738.36,736.97,735.83,734.89,734.05,733.50,732.98,732.67,732.97,733.65,734.50,735.34,736.00,736.43,736.83,737.29,738.02,739.71,744.04,748.66,752.80,756.14,758.93,762.32,766.19,769.88,771.77,771.55,770.80,770.16,769.92,770.04,770.76,772.17,773.53,771.92,768.18,763.66,759.05
780.37,783.15,781.84,779.40,776.70,774.04,772.15,771.41,771.10,770.82,770.27,768.76,767.55,766.95,766.84,766.47,764.58,761.83,758.90,756.98,755.50,755.43,756.53,757.93,760.15,761.40,761.17,758.95,754.82,750.43,746.28,742.60,739.83,738.94,739.66,741.19,742.82,744.84,746.13,746.85,747.27,747.96,748.73,749.62,750.66,751.91,753.16,754.36,755.39,756.20,757.14,758.13,759.02,759.73,760.27,760.59,760.62,760.45,760.09,759.44,759.06,759.42,760.48,760.90,761.04,761.22,761.58,762.17,762.82,763.22,763.46,763.69,763.92,764.44,765.14,765.97,766.82,767.67,768.52,769.32,769.93,769.90,768.92,767.32,765.63,765.37,766.84,768.44,769.18,768.10,766.34,767.60,770.22,771.84,772.52,772.43,772.32,772.66,773.75,773.56,772.00,770.42,770.77,771.26,772.08,773.04,774.03,775.06,775.12,774.57,773.73,773.01,772.55,772.30,772.18,772.13,772.12,772.13,772.15,772.15,771.98,771.32,770.57,769.76,768.75,767.70,767.07,766.76,766.68,766.53,766.31,766.08,765.85,765.63,765.39,765.18,765.09,765.21,765.36,765.49,765.32,764.78,764.18,763.65,763.29,763.17,763.35,764.02,764.84,764.99,764.07,763.24,762.70,762.54,762.90,764.00,764.84,765.11,765.00,764.68,763.93,763.18,762.34,761.19,759.44,758.52,762.39,768.81,772.13,775.28,779.61,784.79,790.35,795.60,800.66,805.68,810.50,814.57,817.69,818.60,817.96,816.94,816.85,817.25,817.93,818.99,820.66,822.32,823.14,822.40,818.63,811.96,806.47,801.79,796.92,791.78,786.68,781.35,776.25,773.09,771.24,766.59,760.40,755.46,751.42,749.12,747.66,746.58,745.93,745.83,745.69,745.40,745.02,743.96,742.56,740.99,739.28,737.49,735.83,734.46,733.39,732.52,732.17,731.93,731.92,732.46,733.09,733.85,734.54,735.11,735.90,736.65,737.45,738.36,739.87,744.16,748.86,753.38,757.57,760.96,764.02,766.91,769.13,769.22,768.51,767.66,766.99,766.85,767.32,768.69,770.53,771.96,770.85,766.65,761.57,756.58
