634.71,633.88,632.75,631.59,630.54,629.83,629.83,631.25,633.36,635.81,638.45,640.07,640.99,641.63,642.16,641.87,641.48,641.20,641.05,641.00,640.81,640.59,640.44,640.50,640.52,640.62,640.80,640.98,640.92,640.78,640.68,640.66,640.79,640.88,640.95,641.03,641.05,640.86,640.51,639.99,639.36,638.93,639.21,639.85,640.41,640.22,639.71,639.27,639.14,639.49,640.05,640.66,641.26,641.81,642.37,642.96,643.57,644.18,644.73,644.89,644.79,644.60,644.38,644.14,643.87,643.61,643.35,643.07,642.96,643.17,643.54,643.90,644.15,644.45,644.76,644.99,644.90,644.50,644.00,643.45,642.91,642.36,641.82,641.24,640.58,639.62,636.64,633.18,630.20,628.54,627.59,627.45,627.74,628.25,628.99,629.88,630.86,631.77,632.19,632.52,632.97,633.44,633.67,633.37,632.98,632.69,632.64,633.22,634.26,635.39,636.50,637.68,638.88,639.73,640.27,640.60,640.90,641.16,641.45,641.81,642.28,642.86,643.47,644.09,644.71,645.32,645.84,646.09,645.99,645.84,645.68,645.53,645.37,645.22,645.06,644.82,644.51,644.22,643.98,643.78,643.51,643.14,642.76,642.40,642.33,642.49,642.69,642.79,642.66,642.50,642.45,642.50,642.51,642.51,642.47,642.26,641.74,641.18,640.68,640.23,639.49,639.38,639.48,639.51,639.41,639.33,639.22,639.14,639.24,639.43,639.51,639.43,639.24,639.01,638.81,638.61,638.36,638.01,637.46,636.94,636.45,635.93,635.47,635.01,634.60,634.35,634.55,635.05,635.64,636.26,636.90,637.64,638.36,639.08,639.84,640.56,641.32,642.13,642.96,643.80,644.65,645.50,646.27,646.92,647.60,648.29,648.98,649.69,650.38,651.06,651.78,652.63,653.84,655.08,656.07,656.95,657.88,658.87,659.81,660.77,661.78,662.84,664.20,665.62,666.96,668.19,669.42,670.75,672.14,673.53,674.89,676.18,676.64,676.53,676.97,678.11,679.49,680.99,682.64,684.21,685.72,687.08,688.36,689.85,691.50,693.28,695.09,696.86,698.67,700.44,702.17,703.86,705.55,707.14,708.72,710.44
634.01,633.39,632.49,631.40,630.34,629.58,629.47,630.47,632.42,635.08,637.82,639.74,640.76,641.33,641.76,641.54,641.10,640.68,640.37,640.22,640.12,640.06,640.05,640.12,640.17,640.29,640.44,640.52,640.33,640.20,640.13,640.12,640.17,640.25,640.30,640.31,640.27,640.11,639.78,639.26,638.65,638.39,638.81,639.48,640.00,639.86,639.42,639.03,639.00,639.50,640.07,640.67,641.30,641.92,642.46,642.99,643.54,644.09,644.54,644.55,644.35,644.11,643.87,643.59,643.33,643.06,642.78,642.55,642.57,642.84,643.23,643.60,643.89,644.15,644.44,644.66,644.58,644.23,643.74,643.20,642.65,642.11,641.57,641.02,640.28,638.75,635.54,632.07,629.13,627.53,627.77,628.23,628.41,628.31,628.54,629.30,630.17,630.88,631.28,631.60,631.99,632.39,632.62,632.28,632.36,632.68,633.09,633.85,634.90,636.06,637.26,638.49,639.49,640.08,640.43,640.74,641.05,641.33,641.63,641.95,642.32,642.77,643.33,643.95,644.57,645.18,645.63,645.80,645.67,645.52,645.37,645.21,645.06,644.90,644.71,644.52,644.30,643.95,643.66,643.44,643.22,642.95,642.57,642.22,642.06,642.08,642.25,642.34,642.27,642.12,641.98,642.00,642.00,642.03,642.05,641.97,641.64,641.19,640.72,640.25,639.57,639.15,638.88,638.66,638.45,638.34,638.30,638.33,638.46,638.63,638.69,638.61,638.38,638.20,638.04,637.87,637.66,637.38,636.90,636.39,635.88,635.40,634.94,634.47,634.12,634.08,634.65,635.31,635.97,636.62,637.20,637.86,638.55,639.25,639.99,640.83,641.69,642.55,643.40,644.25,645.10,645.95,646.74,647.40,648.05,648.73,649.43,650.12,650.82,651.48,652.15,652.90,653.88,655.03,656.03,656.94,657.87,658.82,659.75,660.72,661.76,662.98,664.39,665.84,667.24,668.54,670.00,672.08,674.04,675.40,676.27,677.27,677.86,677.93,677.85,678.77,680.28,681.99,683.68,685.28,686.74,688.01,689.18,690.56,692.16,693.88,695.63,697.37,699.17,700.92,702.67,704.48,706.31,708.07,709.93,711.97
633.27,632.80,632.14,631.23,630.24,629.38,629.05,629.75,631.61,634.42,637.30,639.46,640.54,640.99,641.29,641.21,640.85,640.38,639.91,639.58,639.41,639.40,639.50,639.60,639.70,639.83,639.95,639.96,639.74,639.63,639.59,639.59,639.62,639.66,639.69,639.67,639.59,639.39,639.07,638.57,637.98,637.87,638.39,639.04,639.49,639.43,639.10,638.79,638.85,639.48,640.06,640.69,641.35,641.99,642.51,642.97,643.45,643.94,644.29,644.13,643.86,643.58,643.32,643.04,642.78,642.51,642.24,642.07,642.22,642.54,642.93,643.30,643.62,643.87,644.14,644.36,644.26,643.94,643.48,642.94,642.39,641.85,641.31,640.77,639.94,637.84,634.43,631.05,628.37,627.12,628.35,629.20,629.23,628.67,628.41,628.96,629.69,630.26,630.62,630.90,631.21,631.58,631.92,631.84,632.33,633.07,633.78,634.55,635.54,636.68,637.93,639.16,639.91,640.31,640.59,640.89,641.18,641.49,641.79,642.10,642.42,642.79,643.25,643.79,644.41,645.03,645.40,645.51,645.35,645.20,645.04,644.89,644.73,644.55,644.35,644.22,644.05,643.71,643.38,643.11,642.90,642.71,642.39,642.06,641.79,641.68,641.83,641.91,641.90,641.77,641.55,641.52,641.51,641.54,641.59,641.59,641.42,641.10,640.71,640.24,639.68,639.09,638.58,638.18,637.83,637.60,637.50,637.51,637.65,637.80,637.87,637.79,637.57,637.41,637.25,637.09,636.91,636.68,636.34,635.86,635.34,634.88,634.41,633.93,633.70,633.96,634.78,635.55,636.27,636.95,637.54,638.15,638.80,639.47,640.23,641.13,642.06,642.96,643.82,644.67,645.52,646.39,647.20,647.89,648.51,649.19,649.88,650.55,651.25,651.90,652.55,653.25,654.03,655.04,656.01,656.94,657.87,658.79,659.72,660.71,661.81,663.15,664.59,666.06,667.49,668.91,670.74,673.39,675.89,677.49,678.00,678.58,679.23,679.54,678.87,679.49,681.01,682.87,684.67,686.38,687.82,689.05,690.19,691.47,692.98,694.61,696.28,697.93,699.65,701.55,703.51,705.46,707.39,709.58,711.78,713.90
632.50,632.10,631.61,630.98,630.16,629.18,628.55,629.18,631.02,633.82,636.91,639.20,640.26,640.59,640.76,640.81,640.68,640.33,639.74,639.18,638.73,638.61,638.74,638.89,639.03,639.19,639.29,639.28,639.19,639.11,639.06,639.08,639.14,639.16,639.17,639.17,639.11,638.79,638.46,637.98,637.42,637.39,637.93,638.48,638.80,638.84,638.69,638.52,638.67,639.36,640.05,640.73,641.38,641.96,642.44,642.85,643.29,643.72,643.95,643.62,643.32,643.05,642.75,642.50,642.22,641.95,641.73,641.63,641.90,642.28,642.66,643.04,643.36,643.61,643.88,644.08,643.95,643.66,643.22,642.68,642.14,641.59,641.05,640.50,639.53,636.95,633.38,630.13,627.89,627.49,629.10,629.92,629.80,629.20,628.65,628.87,629.45,630.05,630.32,630.50,630.73,631.10,631.78,632.34,633.05,633.78,634.50,635.27,636.17,637.26,638.49,639.64,640.15,640.47,640.77,641.08,641.32,641.62,641.92,642.23,642.55,642.92,643.25,643.62,644.22,644.84,645.14,645.19,645.03,644.87,644.72,644.56,644.39,644.18,644.00,643.89,643.76,643.50,643.13,642.81,642.57,642.41,642.22,641.89,641.53,641.31,641.43,641.52,641.54,641.42,641.16,641.08,641.06,641.06,641.08,641.12,641.00,640.82,640.57,640.17,639.70,639.18,638.67,638.22,637.77,637.30,636.93,636.75,636.82,636.96,637.05,637.01,636.79,636.63,636.47,636.29,636.08,635.91,635.72,635.33,634.82,634.36,633.89,633.39,633.33,633.95,634.84,635.69,636.49,637.23,637.91,638.54,639.12,639.76,640.55,641.46,642.39,643.31,644.21,645.06,645.91,646.80,647.66,648.34,648.97,649.64,650.31,650.95,651.64,652.33,652.98,653.63,654.35,655.15,656.03,656.95,657.87,658.79,659.72,660.75,661.96,663.34,664.81,666.29,667.79,669.49,671.96,674.81,677.61,679.75,680.15,680.30,680.99,681.51,680.23,680.47,681.76,683.59,685.64,687.53,688.94,690.16,691.32,692.52,693.87,695.37,696.93,698.44,700.09,702.40,704.84,707.00,708.99,711.93,714.45,716.28
631.78,631.38,630.93,630.37,629.62,628.73,628.12,628.85,630.61,633.15,636.10,638.02,639.29,640.04,640.18,640.23,640.22,640.05,639.64,639.00,638.43,638.11,638.07,638.23,638.43,638.56,638.65,638.67,638.61,638.53,638.51,638.56,638.64,638.68,638.71,638.69,638.60,638.25,637.86,637.38,636.89,636.92,637.44,637.86,638.04,638.10,638.10,638.16,638.51,639.29,640.08,640.69,641.22,641.71,642.21,642.65,643.08,643.47,643.68,643.31,642.95,642.60,642.22,641.94,641.67,641.40,641.21,641.30,641.60,641.97,642.35,642.73,643.09,643.35,643.58,643.73,643.62,643.38,642.96,642.42,641.88,641.34,640.79,640.01,638.54,635.77,632.43,629.45,627.50,627.57,629.30,630.27,630.30,629.72,629.11,628.91,629.22,629.86,630.15,630.36,630.55,631.07,632.34,633.08,633.78,634.50,635.21,635.98,636.80,637.83,638.97,639.88,640.30,640.61,640.92,641.22,641.50,641.77,642.05,642.36,642.68,643.05,643.37,643.69,644.15,644.71,644.93,644.89,644.71,644.55,644.39,644.24,644.06,643.84,643.67,643.57,643.49,643.34,642.94,642.57,642.27,642.05,641.92,641.70,641.37,641.07,641.02,641.08,641.13,641.06,640.82,640.69,640.63,640.58,640.54,640.48,640.37,640.27,640.12,639.89,639.58,639.12,638.64,638.18,637.71,637.18,636.67,636.26,636.07,636.17,636.25,636.18,635.95,635.80,635.64,635.47,635.29,635.13,634.98,634.70,634.30,633.83,633.33,632.96,633.12,633.93,634.81,635.70,636.57,637.42,638.23,638.88,639.50,640.20,641.03,641.90,642.79,643.67,644.55,645.45,646.34,647.23,648.08,648.84,649.48,650.12,650.78,651.45,652.14,652.80,653.45,654.13,654.82,655.54,656.29,657.06,657.87,658.74,659.69,660.82,662.15,663.63,665.28,666.97,669.07,672.24,676.14,678.94,681.09,682.70,683.11,683.39,683.96,684.41,683.73,683.48,684.14,685.48,687.28,689.00,690.48,691.84,693.13,694.39,695.33,696.31,697.45,698.88,700.84,703.36,705.98,708.53,711.31,714.71,717.27,718.94
631.04,630.62,630.11,629.51,628.81,628.09,627.77,628.65,630.28,632.49,635.12,636.83,638.36,639.49,639.61,639.63,639.70,639.70,639.47,638.85,638.21,637.72,637.46,637.61,637.81,637.95,638.03,638.09,638.03,637.96,637.97,638.04,638.12,638.20,638.23,638.21,638.09,637.72,637.26,636.77,636.36,636.45,636.89,637.18,637.27,637.36,637.50,637.77,638.30,639.14,639.96,640.52,640.97,641.41,641.94,642.42,642.85,643.22,643.42,643.08,642.67,642.24,641.78,641.43,641.15,640.87,640.72,640.98,641.30,641.66,642.05,642.43,642.82,643.07,643.21,643.26,643.19,643.04,642.70,642.21,641.66,641.10,640.55,639.48,637.44,634.64,631.64,628.95,627.19,627.45,629.28,630.43,630.68,630.22,629.60,629.09,629.11,629.66,630.02,630.27,630.55,631.32,633.06,633.93,634.58,635.24,635.94,636.69,637.46,638.42,639.43,640.07,640.43,640.74,641.05,641.36,641.67,641.93,642.20,642.49,642.80,643.16,643.51,643.83,644.15,644.59,644.71,644.60,644.38,644.22,644.07,643.90,643.72,643.52,643.35,643.23,643.17,643.11,642.76,642.36,641.99,641.71,641.59,641.47,641.21,640.87,640.63,640.65,640.73,640.70,640.50,640.30,640.19,640.11,640.02,639.89,639.80,639.73,639.64,639.56,639.37,639.01,638.57,638.11,637.63,637.11,636.54,635.95,635.50,635.42,635.42,635.34,635.13,634.98,634.83,634.69,634.53,634.38,634.24,634.06,633.78,633.29,632.77,632.62,632.99,633.89,634.77,635.68,636.61,637.53,638.44,639.16,639.85,640.61,641.50,642.38,643.24,644.09,644.97,645.88,646.79,647.66,648.51,649.34,649.99,650.62,651.26,651.96,652.64,653.28,653.95,654.64,655.34,656.03,656.70,657.37,658.07,658.78,659.77,661.12,662.76,664.44,666.27,668.55,671.68,676.12,680.79,683.37,684.82,685.78,686.19,686.67,687.24,687.78,687.93,687.34,687.37,688.12,689.49,691.01,692.61,694.09,695.39,696.52,697.06,697.55,698.31,699.71,702.04,704.70,707.50,710.51,714.03,717.87,720.61,722.29
630.23,629.75,629.06,628.37,627.71,627.25,627.56,628.59,630.05,631.86,634.04,636.05,637.84,639.02,639.10,639.11,639.22,639.29,639.16,638.63,638.02,637.39,636.94,637.03,637.18,637.33,637.45,637.50,637.44,637.41,637.45,637.52,637.60,637.68,637.71,637.69,637.56,637.15,636.64,636.14,635.79,635.96,636.23,636.41,636.50,636.67,636.98,637.39,637.98,638.80,639.53,640.11,640.63,641.16,641.69,642.17,642.62,643.01,643.18,642.92,642.51,642.03,641.51,641.07,640.69,640.39,640.29,640.65,641.02,641.41,641.79,642.18,642.56,642.72,642.73,642.63,642.56,642.57,642.46,642.14,641.53,640.92,640.36,639.00,636.44,633.77,631.13,628.68,626.96,627.11,629.07,630.40,630.86,630.70,630.07,629.51,629.27,629.46,629.92,630.16,630.74,631.92,633.74,634.87,635.49,636.02,636.71,637.42,638.18,639.08,639.93,640.25,640.56,640.87,641.18,641.49,641.80,642.10,642.37,642.63,642.93,643.25,643.60,643.95,644.25,644.47,644.45,644.28,644.06,643.90,643.74,643.56,643.35,643.18,643.03,642.88,642.79,642.75,642.58,642.19,641.77,641.43,641.22,641.16,640.98,640.64,640.32,640.28,640.33,640.34,640.20,639.88,639.74,639.66,639.58,639.49,639.41,639.34,639.25,639.18,639.08,638.86,638.50,638.03,637.51,637.02,636.47,635.86,635.27,634.76,634.59,634.52,634.36,634.20,634.09,633.97,633.82,633.67,633.57,633.47,633.24,632.72,632.24,632.38,632.97,633.84,634.76,635.68,636.61,637.53,638.46,639.34,640.11,640.90,641.88,642.86,643.75,644.63,645.54,646.40,647.26,648.12,648.97,649.79,650.50,651.13,651.78,652.47,653.11,653.78,654.47,655.16,655.85,656.55,657.29,658.01,658.65,659.03,660.08,661.88,664.17,666.18,668.15,671.74,676.47,681.14,684.88,686.99,688.19,688.84,689.15,689.72,690.63,691.72,692.52,691.92,691.54,691.70,692.50,693.94,695.68,697.20,698.26,698.79,699.06,699.34,699.97,701.45,703.99,706.78,709.86,713.35,717.16,721.53,724.93,726.89
628.98,628.38,627.70,627.03,626.73,627.11,627.89,628.97,630.24,631.69,633.40,635.42,637.32,638.55,638.60,638.67,638.81,638.93,638.88,638.34,637.76,637.16,636.63,636.44,636.53,636.69,636.83,636.92,636.86,636.87,636.93,637.00,637.08,637.16,637.21,637.21,637.04,636.58,636.05,635.54,635.20,635.36,635.55,635.74,635.95,636.20,636.56,637.10,637.79,638.59,639.33,639.95,640.49,640.99,641.48,641.92,642.32,642.65,642.80,642.73,642.37,641.89,641.39,640.93,640.46,640.12,640.05,640.47,640.86,641.25,641.63,641.98,642.15,642.19,642.13,642.03,641.96,642.04,642.12,641.98,641.39,640.78,640.00,638.45,635.91,633.40,630.86,628.48,626.73,626.78,628.71,630.21,631.04,631.27,630.68,630.05,629.64,629.56,629.77,630.03,630.98,632.56,634.42,635.86,636.51,636.95,637.55,638.24,638.96,639.63,640.16,640.43,640.70,641.00,641.31,641.62,641.92,642.23,642.52,642.80,643.07,643.37,643.65,643.90,644.08,644.21,644.14,643.95,643.74,643.57,643.42,643.23,643.01,642.86,642.70,642.55,642.44,642.42,642.32,642.01,641.61,641.20,640.90,640.77,640.66,640.44,640.08,639.89,639.81,639.80,639.78,639.51,639.35,639.27,639.23,639.15,639.07,639.00,638.92,638.84,638.76,638.61,638.32,637.92,637.43,636.95,636.40,635.79,635.17,634.55,634.11,633.82,633.63,633.47,633.38,633.26,633.11,632.96,632.87,632.84,632.68,632.19,631.75,631.98,632.68,633.70,634.73,635.68,636.61,637.53,638.46,639.39,640.19,640.98,641.89,642.92,643.91,644.89,645.88,646.81,647.74,648.63,649.44,650.17,650.90,651.58,652.27,652.99,653.61,654.29,654.99,655.68,656.38,657.07,657.82,658.58,659.32,660.06,661.22,662.99,665.27,667.52,670.66,675.37,680.69,685.17,688.55,690.74,692.57,694.21,694.88,695.49,696.46,697.68,698.59,698.46,697.81,697.03,696.57,697.20,698.82,700.47,701.64,702.01,702.17,702.26,702.72,704.24,706.54,709.10,711.98,715.39,719.56,725.00,729.10,731.18
627.52,626.86,626.37,626.00,626.23,627.39,628.49,629.57,630.67,631.85,633.17,634.97,636.82,638.08,638.12,638.26,638.42,638.59,638.59,638.03,637.48,636.94,636.40,635.91,635.92,636.05,636.20,636.33,636.29,636.33,636.41,636.49,636.56,636.64,636.72,636.72,636.50,636.01,635.47,634.96,634.62,634.73,634.90,635.15,635.45,635.78,636.21,636.88,637.66,638.43,639.21,639.87,640.41,640.86,641.27,641.63,641.93,642.17,642.32,642.42,642.20,641.80,641.34,640.87,640.33,639.93,639.83,640.28,640.65,641.00,641.37,641.66,641.65,641.58,641.50,641.43,641.39,641.51,641.72,641.75,641.24,640.63,639.58,637.87,635.49,633.11,630.66,628.33,626.56,626.38,628.18,629.88,631.08,631.72,631.34,630.69,630.16,629.86,629.74,630.03,631.27,633.17,635.10,636.80,637.55,637.93,638.41,639.04,639.67,640.09,640.33,640.61,640.85,641.13,641.44,641.75,642.06,642.36,642.67,642.96,643.16,643.42,643.62,643.74,643.82,643.89,643.82,643.64,643.43,643.25,643.09,642.89,642.69,642.53,642.38,642.22,642.12,642.10,642.04,641.82,641.46,641.01,640.62,640.39,640.30,640.19,639.84,639.52,639.32,639.29,639.36,639.15,638.97,638.88,638.87,638.81,638.73,638.65,638.58,638.50,638.44,638.32,638.10,637.77,637.35,636.89,636.34,635.72,635.10,634.49,633.82,633.27,632.99,632.78,632.67,632.55,632.39,632.25,632.16,632.18,632.10,631.68,631.31,631.54,632.28,633.43,634.58,635.57,636.54,637.50,638.46,639.39,640.21,640.99,641.82,642.84,643.92,645.00,646.06,647.07,648.08,649.04,649.88,650.51,651.26,651.98,652.71,653.46,654.11,654.79,655.50,656.20,656.89,657.59,658.34,659.12,659.99,661.21,662.47,664.07,666.09,668.42,672.60,677.95,683.37,687.67,691.07,693.68,696.36,699.13,700.44,701.33,702.45,703.77,704.79,705.22,704.41,702.81,701.16,700.97,702.33,704.03,705.31,705.58,705.64,705.56,705.85,707.28,709.23,711.46,713.99,717.13,721.59,727.78,732.48,734.91
625.91,625.37,625.44,626.06,627.03,628.24,629.39,630.43,631.49,632.60,633.73,634.92,636.40,637.59,637.72,637.87,638.07,638.26,638.28,637.76,637.22,636.68,636.13,635.57,635.40,635.43,635.57,635.75,635.75,635.81,635.89,635.97,636.04,636.12,636.20,636.18,635.93,635.42,634.88,634.38,634.02,634.15,634.40,634.67,634.94,635.35,636.00,636.78,637.60,638.37,639.14,639.84,640.39,640.75,640.97,641.17,641.32,641.45,641.62,641.81,641.90,641.75,641.33,640.81,640.22,639.71,639.51,639.94,640.18,640.42,640.68,640.91,640.98,640.93,640.85,640.80,640.86,641.04,641.27,641.35,641.02,640.44,639.14,637.24,634.91,632.58,630.42,628.34,626.52,625.70,627.36,629.23,630.73,631.73,632.01,631.58,631.00,630.52,630.12,630.39,631.69,633.66,635.75,637.60,638.50,638.93,639.29,639.72,640.07,640.35,640.56,640.75,640.98,641.26,641.57,641.88,642.18,642.49,642.80,643.06,643.12,643.22,643.33,643.42,643.49,643.57,643.53,643.38,643.16,642.94,642.72,642.53,642.36,642.21,642.05,641.90,641.77,641.72,641.70,641.61,641.33,640.87,640.43,640.06,639.88,639.76,639.50,639.20,639.03,638.99,638.97,638.76,638.54,638.44,638.43,638.41,638.35,638.26,638.19,638.12,638.10,638.03,637.84,637.54,637.25,636.82,636.27,635.66,635.04,634.42,633.75,633.11,632.59,632.18,631.98,631.83,631.68,631.53,631.50,631.53,631.49,631.16,630.95,631.14,631.81,632.92,634.07,635.14,636.23,637.34,638.44,639.39,640.21,641.01,641.86,642.74,643.78,644.87,645.93,646.94,648.00,649.16,650.19,650.84,651.59,652.30,653.03,653.80,654.54,655.25,655.98,656.72,657.41,658.11,658.85,659.67,660.65,661.97,663.33,664.76,666.37,668.38,672.17,676.94,681.94,686.50,690.49,694.03,697.41,700.56,702.91,704.87,706.66,708.41,710.04,710.82,710.09,708.31,706.31,705.98,706.94,708.28,709.35,709.32,709.17,709.00,709.14,710.11,711.82,713.74,715.92,718.78,723.18,728.70,733.63,737.31
624.79,625.13,625.89,626.95,628.09,629.17,630.01,630.96,632.00,633.09,634.16,635.21,636.30,637.14,637.33,637.52,637.71,637.90,637.96,637.45,636.91,636.38,635.82,635.27,634.90,634.84,634.96,635.14,635.22,635.26,635.33,635.40,635.48,635.55,635.61,635.58,635.34,634.84,634.32,633.82,633.46,633.65,633.91,634.17,634.51,635.10,635.84,636.62,637.38,638.12,638.86,639.56,640.09,640.38,640.48,640.56,640.64,640.75,640.95,641.17,641.43,641.49,641.22,640.70,640.10,639.41,638.92,639.22,639.40,639.58,639.77,639.92,640.00,640.01,640.04,640.14,640.35,640.61,640.90,641.04,640.74,640.26,638.84,636.84,634.57,632.37,630.37,628.38,626.47,625.30,626.86,628.85,630.51,631.60,632.28,632.35,632.23,632.10,631.98,632.13,633.00,634.55,636.57,638.53,639.36,639.64,639.85,640.09,640.33,640.56,640.76,640.89,641.11,641.39,641.70,642.00,642.28,642.52,642.75,642.91,642.92,642.99,643.04,643.09,643.17,643.25,643.24,643.13,642.89,642.66,642.43,642.22,642.04,641.88,641.73,641.55,641.41,641.37,641.33,641.29,641.11,640.74,640.31,639.86,639.55,639.37,639.16,638.83,638.72,638.67,638.55,638.37,638.14,638.02,638.02,638.02,637.96,637.88,637.80,637.73,637.73,637.69,637.55,637.28,637.00,636.67,636.18,635.59,634.97,634.36,633.69,633.02,632.41,631.88,631.50,631.22,631.00,630.83,630.76,630.82,630.83,630.65,630.62,630.79,631.36,632.40,633.55,634.64,635.77,636.93,638.10,639.29,640.24,641.05,641.86,642.64,643.65,644.73,645.82,646.88,647.88,648.88,649.84,650.63,651.41,652.10,652.79,653.56,654.47,655.38,656.27,657.10,657.80,658.52,659.26,660.07,661.05,662.30,663.67,665.08,666.55,668.27,670.96,674.87,679.33,683.48,687.71,691.54,695.13,698.52,701.54,704.14,706.72,709.33,711.79,714.43,715.27,714.16,711.73,711.24,711.76,712.67,713.58,713.95,714.31,714.50,714.40,714.17,715.42,716.94,718.87,721.77,726.28,730.81,735.24,739.25
624.31,625.60,626.94,628.14,629.20,630.04,630.50,631.33,632.35,633.43,634.50,635.56,636.28,636.71,636.94,637.17,637.35,637.53,637.62,637.14,636.61,636.06,635.51,634.96,634.43,634.28,634.36,634.51,634.65,634.70,634.74,634.82,634.89,634.95,635.00,634.97,634.76,634.26,633.77,633.28,632.91,633.16,633.41,633.70,634.14,634.88,635.64,636.35,637.04,637.72,638.41,639.09,639.61,639.88,639.91,639.94,640.01,640.14,640.36,640.59,640.93,641.15,641.06,640.58,639.98,639.14,638.39,638.45,638.52,638.65,638.77,638.84,638.91,639.00,639.15,639.42,639.85,640.22,640.58,640.76,640.43,639.95,638.49,636.50,634.36,632.31,630.40,628.41,626.41,625.06,626.59,628.68,630.41,631.44,632.34,632.89,633.31,633.65,633.93,633.98,634.37,635.41,637.36,639.36,640.04,640.13,640.22,640.32,640.52,640.75,640.94,641.04,641.24,641.51,641.81,642.09,642.33,642.48,642.59,642.65,642.66,642.72,642.76,642.78,642.86,642.92,642.95,642.87,642.63,642.40,642.17,641.94,641.73,641.56,641.39,641.19,641.04,641.02,640.96,640.91,640.79,640.52,640.15,639.68,639.28,639.00,638.81,638.48,638.40,638.34,638.13,637.96,637.75,637.63,637.63,637.63,637.57,637.50,637.43,637.36,637.35,637.35,637.25,637.01,636.71,636.46,636.07,635.53,634.91,634.28,633.61,632.95,632.34,631.73,631.17,630.73,630.41,630.19,630.09,630.15,630.23,630.19,630.32,630.47,630.95,631.89,633.03,634.14,635.29,636.50,637.75,639.22,640.28,641.10,641.86,642.57,643.54,644.59,645.64,646.72,647.61,648.38,649.18,650.16,650.96,651.66,652.38,653.20,654.26,655.39,656.46,657.39,658.13,658.89,659.63,660.42,661.38,662.50,663.82,665.23,666.67,668.09,669.61,672.51,676.25,679.88,684.02,687.80,691.34,694.77,698.07,701.02,704.28,707.84,711.38,716.25,719.06,719.13,716.87,716.40,716.60,717.13,717.96,719.02,719.94,720.43,720.13,718.91,719.65,720.81,722.60,725.56,729.91,733.45,737.20,741.13
625.35,626.78,628.12,629.22,630.03,630.55,630.96,631.64,632.56,633.63,634.64,635.57,636.08,636.32,636.55,636.78,636.96,637.14,637.25,636.86,636.34,635.77,635.18,634.64,634.10,633.82,633.78,633.92,634.02,634.09,634.15,634.24,634.30,634.28,634.37,634.45,634.23,633.69,633.19,632.74,632.44,632.65,632.94,633.30,633.80,634.50,635.17,635.81,636.45,637.08,637.72,638.36,638.89,639.25,639.38,639.50,639.66,639.85,640.03,640.25,640.60,640.85,640.83,640.48,639.87,639.13,638.44,638.07,637.75,637.74,637.85,637.87,637.88,638.04,638.22,638.53,639.28,639.87,640.29,640.45,640.10,639.17,637.71,636.02,634.23,632.38,630.49,628.42,626.34,625.00,626.69,628.86,630.54,631.42,632.19,632.81,633.30,633.67,633.98,634.26,634.61,635.56,637.81,639.56,640.17,640.28,640.37,640.50,640.72,640.92,641.08,641.22,641.39,641.61,641.84,642.04,642.26,642.31,642.34,642.39,642.40,642.47,642.49,642.51,642.59,642.62,642.66,642.61,642.38,642.14,641.91,641.68,641.45,641.24,641.03,640.84,640.70,640.65,640.63,640.45,640.21,639.98,639.70,639.41,639.04,638.66,638.44,638.18,638.07,637.96,637.74,637.58,637.36,637.25,637.25,637.25,637.23,637.17,637.10,637.03,637.02,637.02,636.94,636.75,636.45,636.20,635.89,635.46,634.84,634.17,633.52,632.89,632.27,631.65,631.05,630.51,630.08,629.86,629.75,629.78,629.86,629.91,630.06,630.21,630.60,631.38,632.51,633.65,634.97,636.42,637.88,639.35,640.38,641.16,641.93,642.63,643.48,644.36,645.21,646.07,646.88,647.61,648.44,649.51,650.33,651.20,652.17,653.23,654.37,655.52,656.60,657.57,658.43,659.21,660.01,660.87,661.81,662.78,664.03,665.38,666.68,667.80,668.93,670.65,673.24,676.87,680.36,683.82,687.10,690.05,692.74,695.61,699.03,703.20,708.43,714.56,718.62,720.46,720.55,720.89,721.22,721.66,722.55,724.37,724.89,724.88,724.62,724.25,724.69,725.75,727.57,730.22,733.24,736.26,739.71,743.48
626.13,627.82,629.09,629.98,630.59,630.98,631.37,631.91,632.74,633.78,634.75,635.39,635.73,635.93,636.16,636.39,636.57,636.75,636.88,636.55,636.04,635.48,634.90,634.36,633.79,633.38,633.21,633.30,633.41,633.50,633.55,633.59,633.60,633.54,633.75,633.97,633.75,633.13,632.60,632.19,631.95,632.17,632.50,632.94,633.50,634.16,634.78,635.40,636.02,636.63,637.25,637.85,638.41,638.86,639.06,639.21,639.41,639.63,639.82,640.05,640.35,640.58,640.61,640.32,639.78,639.13,638.48,637.97,637.48,637.24,637.11,636.95,636.93,637.06,637.23,637.57,638.43,639.26,639.83,639.95,639.28,638.01,636.50,634.93,633.37,631.80,629.98,627.83,625.84,625.30,627.21,629.18,630.56,631.31,632.01,632.64,633.17,633.57,633.92,634.30,634.64,635.50,637.72,639.53,640.17,640.31,640.45,640.58,640.72,640.83,640.93,641.09,641.27,641.50,641.74,641.92,642.07,642.04,642.02,642.06,642.09,642.13,642.17,642.21,642.25,642.25,642.31,642.31,642.18,641.93,641.67,641.42,641.18,640.96,640.73,640.52,640.36,640.25,640.19,639.97,639.71,639.47,639.21,638.98,638.65,638.29,638.07,637.86,637.72,637.57,637.35,637.18,636.97,636.84,636.82,636.82,636.82,636.79,636.73,636.66,636.65,636.65,636.62,636.48,636.19,635.91,635.64,635.31,634.80,634.19,633.54,632.88,632.21,631.56,630.91,630.33,629.88,629.66,629.61,629.66,629.76,629.84,629.90,630.01,630.29,630.92,632.11,633.46,634.95,636.52,638.09,639.54,640.56,641.36,642.15,642.92,643.72,644.57,645.42,646.22,646.97,647.70,648.48,649.34,650.13,651.09,652.17,653.34,654.52,655.64,656.70,657.72,658.66,659.52,660.38,661.28,662.21,663.14,664.27,665.42,666.52,667.49,668.43,669.58,671.42,674.57,677.73,680.71,683.60,686.41,688.91,691.14,693.69,697.28,702.98,708.83,713.18,715.66,716.21,716.60,717.21,718.37,720.46,723.74,725.60,726.88,728.05,729.30,730.62,731.81,733.28,735.29,737.43,739.92,743.03,746.63
626.72,628.73,629.85,630.49,630.94,631.35,631.76,632.21,632.93,633.89,634.77,635.10,635.31,635.54,635.77,636.00,636.18,636.38,636.50,636.22,635.72,635.17,634.63,634.08,633.49,632.98,632.68,632.69,632.82,632.91,632.93,632.91,632.84,632.80,633.14,633.51,633.28,632.59,632.03,631.63,631.44,631.71,632.09,632.61,633.22,633.84,634.46,635.08,635.69,636.31,636.92,637.49,638.07,638.60,638.85,639.02,639.22,639.45,639.68,639.91,640.14,640.34,640.40,640.13,639.70,639.12,638.49,638.00,637.48,637.01,636.57,636.18,636.08,636.10,636.23,636.57,637.41,638.40,639.11,639.16,638.08,636.61,635.02,633.46,632.03,630.70,628.99,626.82,625.08,625.81,627.98,629.60,630.55,631.18,631.84,632.46,633.00,633.46,633.85,634.22,634.57,635.34,637.29,639.31,640.07,640.28,640.46,640.55,640.57,640.58,640.62,640.77,640.98,641.27,641.55,641.75,641.77,641.72,641.68,641.69,641.75,641.76,641.81,641.86,641.87,641.87,641.93,641.99,642.00,641.75,641.45,641.18,640.95,640.71,640.47,640.23,640.02,639.87,639.72,639.51,639.27,639.02,638.74,638.49,638.21,637.91,637.69,637.51,637.36,637.17,636.96,636.79,636.58,636.43,636.37,636.37,636.37,636.37,636.34,636.28,636.28,636.28,636.27,636.21,635.92,635.62,635.35,635.09,634.75,634.26,633.63,632.93,632.18,631.48,630.79,630.20,629.76,629.55,629.59,629.77,629.98,630.11,630.02,629.99,630.13,630.66,631.96,633.57,635.21,636.84,638.43,639.82,640.84,641.68,642.52,643.37,644.16,645.04,646.00,646.86,647.61,648.37,649.06,649.58,650.30,651.24,652.32,653.48,654.69,655.75,656.79,657.85,658.86,659.80,660.72,661.66,662.60,663.55,664.55,665.51,666.39,667.31,668.18,669.16,670.62,673.09,676.06,678.48,680.94,683.75,686.26,687.74,689.14,691.67,697.02,701.67,705.54,707.85,707.99,708.27,709.28,711.39,714.92,719.86,723.81,727.16,730.32,733.50,736.37,737.92,739.06,740.47,742.30,744.46,747.23,750.51
627.38,629.41,630.22,630.69,631.13,631.63,632.17,632.62,633.21,633.94,634.49,634.72,634.92,635.15,635.38,635.61,635.83,636.02,636.13,635.93,635.42,634.85,634.31,633.77,633.21,632.68,632.28,632.16,632.24,632.29,632.25,632.14,632.09,632.23,632.64,633.00,632.82,632.13,631.50,631.08,630.98,631.26,631.72,632.28,632.89,633.51,634.13,634.75,635.37,635.98,636.55,637.14,637.75,638.30,638.64,638.83,639.03,639.26,639.49,639.72,639.92,640.06,640.11,639.91,639.55,639.05,638.48,637.96,637.42,636.93,636.43,635.88,635.49,635.29,635.27,635.54,636.31,637.16,637.68,637.58,636.54,635.07,633.48,631.93,630.51,629.06,627.46,625.55,624.37,626.36,628.81,630.14,630.75,631.27,631.80,632.32,632.86,633.38,633.78,634.12,634.47,635.12,636.59,638.79,639.84,640.18,640.30,640.37,640.34,640.32,640.34,640.45,640.66,640.98,641.29,641.49,641.46,641.43,641.39,641.35,641.37,641.38,641.42,641.48,641.48,641.53,641.56,641.61,641.66,641.57,641.31,641.04,640.79,640.51,640.23,639.94,639.68,639.48,639.32,639.15,638.92,638.64,638.38,638.15,637.88,637.59,637.36,637.15,636.93,636.74,636.55,636.35,636.16,636.04,635.98,635.98,635.98,635.98,635.97,635.95,635.95,635.95,635.95,635.90,635.65,635.36,635.09,634.84,634.52,634.21,633.71,633.07,632.35,631.60,630.89,630.23,629.70,629.49,629.65,630.20,630.89,631.34,631.09,630.62,630.48,631.08,632.60,634.28,635.97,637.63,639.20,640.39,641.33,642.18,643.03,643.88,644.71,645.60,646.55,647.50,648.38,649.25,649.98,650.41,650.95,651.65,652.53,653.60,654.77,655.86,656.90,657.94,659.05,660.05,661.00,661.96,663.00,664.03,665.09,666.04,666.89,667.76,668.62,669.69,671.23,673.51,675.90,677.86,679.95,682.38,684.57,686.30,687.96,690.45,695.11,698.39,700.71,702.36,703.55,705.18,706.77,708.75,711.87,717.39,722.06,726.08,730.12,734.79,739.03,741.55,743.30,745.18,747.96,750.73,753.30,755.63
627.77,629.80,630.47,630.87,631.30,631.82,632.38,632.82,633.27,633.72,634.08,634.33,634.56,634.79,634.99,635.22,635.45,635.67,635.78,635.63,635.13,634.56,634.02,633.45,632.90,632.37,631.91,631.65,631.67,631.62,631.50,631.37,631.32,631.65,632.16,632.52,632.34,631.66,630.97,630.54,630.53,630.87,631.38,631.96,632.58,633.19,633.81,634.41,635.01,635.62,636.19,636.78,637.38,637.97,638.42,638.63,638.83,639.05,639.26,639.49,639.65,639.75,639.76,639.64,639.38,638.96,638.44,637.90,637.36,636.85,636.32,635.74,635.16,634.77,634.51,634.51,635.11,635.68,636.02,635.94,635.16,633.75,632.04,630.39,628.90,627.33,625.74,624.55,624.56,627.09,629.37,630.48,630.97,631.43,631.89,632.29,632.72,633.20,633.63,634.01,634.39,634.92,635.98,638.10,639.45,640.03,640.13,640.18,640.09,639.98,639.94,640.04,640.36,640.72,641.05,641.25,641.15,641.12,641.09,641.03,641.02,641.02,641.05,641.10,641.13,641.17,641.19,641.22,641.29,641.31,641.14,640.91,640.66,640.35,640.05,639.72,639.40,639.13,638.93,638.77,638.56,638.29,638.06,637.80,637.54,637.29,637.03,636.80,636.56,636.36,636.16,635.94,635.76,635.63,635.56,635.59,635.59,635.59,635.59,635.59,635.59,635.59,635.59,635.55,635.35,635.04,634.77,634.55,634.27,634.03,633.65,633.13,632.50,631.76,631.03,630.31,629.69,629.44,629.69,630.71,632.02,632.77,632.07,631.36,631.22,631.91,633.28,634.91,636.64,638.35,639.86,640.92,641.83,642.70,643.55,644.40,645.25,646.12,647.04,648.04,649.00,649.93,650.72,651.26,651.79,652.36,653.07,653.95,654.92,656.00,657.08,658.16,659.31,660.38,661.39,662.41,663.50,664.58,665.65,666.64,667.50,668.34,669.22,670.57,672.37,674.56,676.70,678.39,680.06,681.92,683.69,685.55,687.41,689.74,693.36,695.92,697.56,699.02,700.99,703.66,705.83,707.80,710.55,716.03,721.06,725.61,730.24,735.51,740.16,743.43,745.96,748.41,751.71,754.56,757.29,759.81
627.95,629.92,630.63,631.03,631.44,631.90,632.37,632.81,633.09,633.25,633.56,633.92,634.21,634.43,634.62,634.84,635.07,635.30,635.45,635.31,634.85,634.30,633.74,633.14,632.58,632.04,631.53,631.15,631.11,630.93,630.74,630.60,630.59,631.07,631.68,632.05,631.82,631.19,630.46,630.03,630.10,630.52,631.05,631.63,632.25,632.87,633.48,634.05,634.63,635.24,635.85,636.42,637.00,637.61,638.18,638.42,638.63,638.84,639.01,639.24,639.35,639.39,639.38,639.30,639.15,638.84,638.37,637.83,637.29,636.75,636.21,635.65,635.05,634.51,633.98,633.61,633.90,634.08,634.25,634.31,633.91,632.62,630.79,628.94,627.31,625.69,624.11,623.98,625.47,627.89,629.69,630.63,631.13,631.57,632.01,632.31,632.56,632.89,633.40,633.88,634.30,634.75,635.50,637.30,638.86,639.75,639.92,639.91,639.73,639.53,639.40,639.57,640.09,640.50,640.81,641.04,640.88,640.81,640.76,640.71,640.70,640.70,640.70,640.72,640.78,640.80,640.80,640.83,640.90,640.95,640.88,640.72,640.48,640.19,639.88,639.54,639.17,638.82,638.58,638.39,638.19,637.96,637.72,637.44,637.21,637.00,636.72,636.47,636.24,636.01,635.78,635.55,635.38,635.23,635.13,635.18,635.19,635.19,635.20,635.21,635.20,635.20,635.20,635.17,635.02,634.68,634.41,634.22,633.98,633.76,633.47,633.09,632.59,631.93,631.19,630.43,629.75,629.41,629.71,631.26,633.19,634.05,632.85,632.15,632.25,633.04,633.97,635.47,637.21,638.95,640.36,641.37,642.30,643.20,644.06,644.91,645.76,646.62,647.50,648.50,649.49,650.40,651.24,652.03,652.68,653.27,653.87,654.52,655.20,656.21,657.33,658.47,659.63,660.78,661.89,662.98,664.07,665.15,666.23,667.24,668.13,668.94,669.96,671.69,673.84,675.97,678.14,679.71,680.97,682.18,683.54,685.29,687.12,689.07,691.50,693.92,695.80,697.63,700.12,703.56,706.21,708.33,710.89,715.93,721.04,726.09,731.18,736.32,740.51,744.05,747.04,749.70,752.81,755.42,758.71,762.34
628.06,629.95,630.64,631.03,631.37,631.74,632.15,632.44,632.59,632.67,632.93,633.30,633.65,633.98,634.26,634.46,634.68,634.91,635.09,635.03,634.59,634.01,633.43,632.87,632.28,631.71,631.19,630.74,630.60,630.36,630.09,629.92,630.07,630.60,631.25,631.62,631.26,630.66,630.07,629.72,629.76,630.20,630.73,631.31,631.92,632.54,633.11,633.70,634.28,634.86,635.47,636.07,636.65,637.22,637.81,638.13,638.38,638.60,638.80,638.99,639.02,638.99,638.94,638.91,638.82,638.63,638.31,637.77,637.23,636.68,636.13,635.54,634.97,634.42,633.87,633.37,633.08,632.75,632.59,632.59,632.45,631.39,629.85,628.09,626.26,624.65,623.71,624.30,626.20,628.36,629.82,630.64,631.11,631.41,631.68,631.88,632.13,632.51,633.04,633.56,634.06,634.54,635.16,636.58,637.89,638.85,639.27,639.13,638.90,638.75,638.80,639.29,639.93,640.33,640.61,640.85,640.72,640.56,640.46,640.43,640.38,640.38,640.34,640.33,640.40,640.41,640.41,640.44,640.49,640.43,640.31,640.15,639.98,639.81,639.52,639.23,638.93,638.61,638.37,638.08,637.81,637.57,637.34,637.09,636.86,636.64,636.38,636.15,635.92,635.68,635.45,635.23,635.05,634.87,634.72,634.74,634.75,634.75,634.78,634.86,634.82,634.81,634.81,634.80,634.73,634.37,634.03,633.78,633.56,633.37,633.13,632.86,632.51,632.03,631.32,630.57,629.89,629.43,629.67,631.76,633.91,633.85,633.39,633.11,633.36,634.19,635.05,636.18,637.71,639.39,640.67,641.70,642.68,643.62,644.52,645.42,646.28,647.13,648.01,648.96,649.91,650.80,651.65,652.49,653.27,654.02,654.71,655.32,655.90,656.66,657.57,658.63,659.84,661.05,662.24,663.42,664.59,665.68,666.76,667.79,668.74,669.62,671.08,673.10,675.36,677.51,679.43,680.83,681.97,683.03,684.19,685.52,686.94,688.48,690.38,692.90,695.46,698.36,702.13,706.87,709.58,711.50,713.90,718.39,723.21,728.53,733.96,738.72,742.18,744.55,745.94,746.63,748.32,751.77,756.23,760.43
627.53,629.82,630.52,630.83,631.11,631.42,631.77,631.96,632.03,632.08,632.29,632.65,633.03,633.42,633.79,634.03,634.28,634.52,634.72,634.75,634.31,633.73,633.14,632.59,631.99,631.42,630.87,630.35,630.06,629.76,629.50,629.40,629.75,630.30,630.86,631.10,630.65,630.12,629.66,629.42,629.50,629.93,630.44,631.00,631.60,632.19,632.75,633.34,633.92,634.49,635.09,635.70,636.29,636.86,637.44,637.86,638.15,638.37,638.57,638.66,638.65,638.59,638.52,638.49,638.44,638.35,638.14,637.69,637.16,636.62,636.05,635.45,634.90,634.36,633.82,633.26,632.64,632.03,631.61,631.39,631.18,630.15,628.87,627.30,625.45,623.92,623.52,624.51,626.50,628.44,629.80,630.55,630.93,631.09,631.23,631.39,631.68,632.12,632.65,633.19,633.73,634.26,634.86,635.94,637.05,637.99,638.53,638.30,638.04,638.03,638.38,639.09,639.81,640.21,640.45,640.64,640.57,640.37,640.17,640.01,639.90,639.89,639.88,639.89,639.98,639.99,639.99,640.00,640.00,639.88,639.74,639.59,639.47,639.35,639.10,638.85,638.59,638.29,638.05,637.72,637.44,637.24,636.99,636.75,636.52,636.29,636.05,635.82,635.59,635.37,635.16,634.95,634.71,634.47,634.29,634.29,634.29,634.31,634.37,634.49,634.41,634.42,634.45,634.45,634.43,634.10,633.71,633.38,633.11,632.91,632.72,632.50,632.25,631.94,631.35,630.67,630.01,629.46,629.60,631.86,634.15,633.86,633.98,634.09,634.52,635.39,636.24,637.13,638.37,639.78,640.92,641.95,642.96,643.94,644.89,645.84,646.75,647.63,648.52,649.44,650.33,651.19,652.04,652.89,653.72,654.56,655.36,656.05,656.68,657.31,658.03,658.92,660.08,661.29,662.53,663.77,664.99,666.13,667.25,668.33,669.38,670.57,672.39,674.58,676.85,678.94,680.57,681.85,682.96,684.01,685.10,686.21,687.36,688.62,690.31,693.08,696.28,700.11,704.91,709.93,712.74,714.81,717.28,721.14,725.33,730.13,735.13,739.41,742.11,743.44,743.43,742.57,743.48,747.94,753.00,756.96
626.05,629.14,630.02,630.36,630.64,630.96,631.28,631.41,631.45,631.49,631.65,631.99,632.38,632.76,633.15,633.52,633.84,634.12,634.34,634.46,634.01,633.43,632.88,632.34,631.74,631.16,630.60,630.01,629.49,629.13,628.95,629.07,629.63,630.17,630.50,630.47,629.97,629.55,629.22,629.11,629.32,629.76,630.23,630.74,631.29,631.84,632.43,633.00,633.57,634.16,634.72,635.32,635.92,636.52,637.07,637.59,637.94,638.15,638.28,638.25,638.23,638.20,638.12,638.05,638.03,637.98,637.86,637.58,637.09,636.56,635.99,635.38,634.84,634.30,633.75,633.20,632.59,631.96,631.42,630.90,630.27,629.03,627.86,626.49,624.82,623.44,623.30,624.40,626.31,628.12,629.56,630.31,630.58,630.63,630.71,630.91,631.25,631.72,632.26,632.80,633.35,633.91,634.54,635.40,636.42,637.31,637.75,637.51,637.22,637.43,638.14,638.92,639.70,640.14,640.33,640.41,640.41,640.23,639.88,639.44,639.21,639.22,639.29,639.38,639.51,639.53,639.53,639.51,639.44,639.36,639.22,639.10,639.00,638.85,638.63,638.39,638.13,637.84,637.60,637.31,637.10,636.97,636.68,636.44,636.20,635.96,635.73,635.50,635.28,635.08,634.91,634.73,634.35,634.02,633.85,633.84,633.84,633.88,633.98,634.09,633.98,634.04,634.11,634.12,634.10,633.85,633.46,633.04,632.68,632.42,632.23,632.04,631.82,631.63,631.23,630.68,630.07,629.50,629.47,631.42,633.73,634.21,634.54,634.96,635.61,636.52,637.38,638.24,639.15,640.13,641.15,642.15,643.16,644.16,645.15,646.15,647.14,648.10,649.02,649.93,650.75,651.58,652.43,653.27,654.06,654.89,655.75,656.64,657.45,658.13,658.75,659.43,660.41,661.58,662.81,664.04,665.27,666.50,667.72,668.89,670.12,671.82,673.82,676.02,678.24,680.15,681.53,682.73,683.89,685.03,686.13,687.32,688.47,689.68,691.43,694.50,698.13,702.50,707.70,711.75,714.72,717.39,720.18,723.33,726.53,729.98,733.72,737.43,739.38,740.07,739.51,738.28,739.53,744.79,749.56,752.53
622.79,625.24,627.65,629.23,630.11,630.50,630.86,630.93,630.92,630.93,631.02,631.31,631.68,632.06,632.45,632.88,633.26,633.60,633.91,634.13,633.72,633.17,632.63,632.08,631.51,630.96,630.39,629.77,629.14,628.62,628.50,628.84,629.39,629.86,629.97,629.76,629.36,628.97,628.84,628.98,629.38,629.84,630.27,630.73,631.22,631.72,632.28,632.84,633.39,633.94,634.45,635.00,635.58,636.15,636.73,637.28,637.66,637.88,637.92,637.87,637.81,637.77,637.73,637.66,637.60,637.56,637.51,637.35,636.98,636.49,635.94,635.37,634.83,634.28,633.75,633.19,632.58,631.95,631.36,630.77,630.11,628.90,627.46,625.87,624.24,622.93,623.00,624.16,625.90,627.46,628.84,629.57,629.87,630.00,630.13,630.41,630.82,631.33,631.88,632.45,633.04,633.64,634.27,635.01,635.99,636.74,636.89,636.63,636.46,636.75,637.50,638.46,639.45,639.97,640.13,640.16,640.16,640.05,639.67,639.04,638.60,638.57,638.70,638.88,639.05,639.08,639.08,639.05,638.97,638.84,638.70,638.58,638.50,638.38,638.17,637.93,637.68,637.38,637.14,636.92,636.79,636.72,636.50,636.20,635.90,635.64,635.41,635.17,635.04,634.90,634.68,634.35,633.91,633.59,633.45,633.44,633.44,633.46,633.55,633.69,633.53,633.56,633.66,633.74,633.73,633.60,633.26,632.80,632.38,632.00,631.75,631.55,631.37,631.21,631.00,630.64,630.12,629.50,629.30,630.25,631.69,632.75,633.88,634.91,635.86,636.78,637.68,638.61,639.53,640.45,641.45,642.42,643.40,644.41,645.41,646.42,647.42,648.41,649.36,650.24,651.08,651.91,652.76,653.60,654.38,655.21,656.09,657.01,657.91,658.73,659.49,660.27,661.19,662.11,663.20,664.41,665.64,666.88,668.19,669.55,671.07,672.98,675.03,677.15,679.16,680.84,682.17,683.43,684.68,685.92,687.10,688.28,689.72,691.46,693.52,696.07,699.60,703.69,707.75,710.99,713.75,716.55,719.41,721.87,723.82,726.30,729.26,731.97,732.96,733.50,733.91,734.70,737.43,741.72,745.48,748.26
620.32,621.78,624.83,627.36,628.98,629.69,630.19,630.26,630.23,630.24,630.30,630.63,631.01,631.41,631.84,632.30,632.72,633.13,633.53,633.78,633.46,632.95,632.41,631.88,631.34,630.78,630.20,629.57,628.86,628.20,628.06,628.48,628.97,629.34,629.30,629.01,628.74,628.55,628.68,629.06,629.57,630.00,630.39,630.80,631.23,631.69,632.22,632.75,633.29,633.80,634.29,634.82,635.35,635.88,636.48,637.03,637.38,637.52,637.50,637.45,637.38,637.32,637.29,637.24,637.16,637.12,637.08,637.00,636.80,636.40,635.88,635.35,634.80,634.26,633.72,633.16,632.55,631.93,631.33,630.75,630.15,629.11,627.49,625.71,624.09,622.73,622.66,623.67,625.29,626.71,627.91,628.60,628.96,629.19,629.38,629.84,630.39,630.97,631.53,632.16,632.78,633.41,634.05,634.74,635.65,636.20,636.04,635.81,635.77,636.03,636.63,637.59,638.63,639.16,639.34,639.40,639.52,639.48,639.13,638.49,637.95,637.93,638.11,638.34,638.55,638.63,638.63,638.57,638.48,638.33,638.18,638.06,637.99,637.90,637.71,637.48,637.22,636.93,636.71,636.57,636.49,636.46,636.33,636.03,635.68,635.36,635.14,634.95,634.86,634.71,634.40,633.94,633.48,633.16,633.03,633.02,633.02,633.05,633.15,633.32,633.12,633.10,633.19,633.32,633.35,633.32,633.05,632.61,632.14,631.66,631.30,631.07,630.91,630.74,630.61,630.38,629.97,629.41,629.15,629.38,630.11,631.42,633.22,634.76,636.00,636.98,637.95,638.95,639.87,640.74,641.68,642.63,643.62,644.63,645.65,646.65,647.66,648.66,649.63,650.49,651.35,652.23,653.09,653.92,654.71,655.55,656.44,657.37,658.27,659.20,660.09,660.98,661.89,662.66,663.66,664.80,665.96,667.17,668.48,669.94,671.62,673.66,675.74,677.79,679.69,681.21,682.57,683.90,685.23,686.55,687.83,689.05,690.75,692.89,695.13,697.25,700.34,703.80,706.87,709.50,711.76,714.11,716.61,718.80,720.27,722.32,724.79,726.84,727.38,728.09,729.46,731.82,735.38,738.67,741.63,744.42
619.82,620.29,622.07,624.59,626.88,628.27,629.04,629.21,629.22,629.25,629.44,629.96,630.44,630.88,631.39,631.86,632.32,632.79,633.23,633.41,633.23,632.81,632.28,631.74,631.20,630.61,630.00,629.36,628.61,627.90,627.64,627.87,628.25,628.53,628.49,628.27,628.13,628.41,628.87,629.38,629.88,630.22,630.59,630.95,631.29,631.70,632.22,632.75,633.27,633.75,634.28,634.82,635.32,635.81,636.36,636.90,637.09,637.05,636.99,636.97,636.91,636.84,636.78,636.77,636.71,636.63,636.56,636.50,636.51,636.26,635.82,635.28,634.74,634.20,633.66,633.10,632.49,631.87,631.29,630.77,630.25,629.48,627.98,626.26,624.64,623.09,622.31,622.85,624.42,625.91,626.82,627.43,627.85,628.10,628.39,629.16,629.98,630.65,631.27,631.95,632.59,633.23,633.91,634.61,635.37,635.66,635.27,635.14,635.17,635.28,635.56,636.22,636.94,637.40,637.63,637.81,638.25,638.27,638.03,637.64,637.22,637.31,637.53,637.76,637.99,638.19,638.16,638.05,637.96,637.81,637.66,637.54,637.47,637.38,637.24,637.03,636.77,636.49,636.31,636.25,636.21,636.15,636.12,635.91,635.56,635.18,634.97,634.90,634.75,634.45,634.01,633.56,633.09,632.75,632.58,632.58,632.58,632.66,632.83,632.98,632.75,632.67,632.74,632.88,632.95,633.01,632.82,632.41,631.94,631.42,630.96,630.62,630.45,630.23,630.02,629.79,629.51,629.19,629.06,629.28,629.88,631.02,632.99,634.80,636.26,637.38,638.45,639.46,640.27,640.96,641.78,642.74,643.75,644.78,645.84,646.84,647.85,648.85,649.82,650.68,651.59,652.51,653.40,654.25,655.03,655.91,656.83,657.74,658.61,659.52,660.44,661.37,662.29,663.19,664.17,665.17,666.18,667.32,668.50,669.83,671.46,673.57,675.67,677.78,679.74,681.26,682.66,684.04,685.42,686.80,688.18,689.55,691.35,693.49,695.61,697.70,700.03,702.64,705.42,707.75,709.17,710.40,711.97,714.50,716.85,719.16,721.47,723.51,724.52,725.75,727.49,729.87,732.85,735.68,738.45,741.27
619.68,619.91,620.98,622.99,625.00,626.26,627.08,627.48,627.63,627.74,628.27,629.32,630.11,630.66,631.19,631.66,632.13,632.51,632.77,632.88,632.82,632.52,632.05,631.51,630.97,630.37,629.72,629.02,628.29,627.56,627.15,627.18,627.50,627.68,627.72,627.79,628.10,628.62,629.19,629.72,630.15,630.47,630.81,631.13,631.46,631.85,632.26,632.73,633.23,633.74,634.27,634.78,635.29,635.80,636.32,636.69,636.73,636.58,636.48,636.46,636.41,636.33,636.26,636.26,636.20,636.12,636.05,635.99,636.04,636.00,635.77,635.26,634.73,634.18,633.63,633.04,632.47,631.86,631.34,630.88,630.40,629.85,628.55,626.94,625.32,623.74,622.20,622.23,623.64,624.83,625.57,626.18,626.67,627.02,627.52,628.50,629.55,630.43,631.11,631.80,632.48,633.13,633.78,634.39,634.94,635.09,634.75,634.68,634.77,634.87,635.00,635.33,635.64,635.87,636.03,636.21,636.75,636.96,636.88,636.62,636.54,636.71,636.94,637.18,637.46,637.69,637.66,637.53,637.44,637.29,637.14,637.02,636.95,636.87,636.76,636.58,636.33,636.09,636.00,635.99,635.95,635.88,635.83,635.70,635.47,635.18,634.92,634.74,634.44,634.04,633.58,633.11,632.65,632.32,632.18,632.17,632.17,632.27,632.45,632.61,632.40,632.26,632.29,632.43,632.51,632.62,632.53,632.21,631.75,631.25,630.75,630.31,630.01,629.77,629.54,629.31,629.10,629.02,629.19,629.59,630.32,631.63,633.38,635.05,636.52,637.79,638.99,639.89,640.62,641.24,641.92,642.84,643.83,644.86,645.92,646.93,647.94,648.92,649.88,650.81,651.74,652.67,653.59,654.48,655.38,656.26,657.17,658.08,658.93,659.85,660.77,661.70,662.63,663.56,664.51,665.49,666.50,667.53,668.60,669.84,671.41,673.46,675.55,677.65,679.58,681.02,682.39,683.76,685.14,686.53,688.12,689.79,691.75,693.94,696.06,698.15,700.10,702.04,704.10,705.98,707.33,708.54,710.01,712.26,715.03,717.34,719.13,720.69,722.18,724.06,726.30,728.81,731.35,733.86,736.35,738.81
619.58,619.79,620.37,621.69,623.11,624.11,624.89,625.47,625.88,626.31,627.28,628.80,629.88,630.55,631.06,631.53,631.92,632.15,632.22,632.29,632.32,632.19,631.86,631.29,630.72,630.10,629.42,628.66,627.94,627.18,626.67,626.55,626.89,627.12,627.34,627.71,628.39,629.00,629.57,630.05,630.41,630.73,631.03,631.35,631.67,632.03,632.35,632.74,633.21,633.74,634.27,634.75,635.25,635.79,636.26,636.44,636.35,636.13,635.99,635.95,635.89,635.81,635.75,635.74,635.68,635.60,635.53,635.48,635.53,635.65,635.62,635.23,634.71,634.17,633.60,633.01,632.46,631.88,631.40,630.99,630.55,630.17,629.13,627.68,626.06,624.38,622.28,621.77,622.79,623.63,624.30,624.92,625.49,625.99,626.78,627.94,629.17,630.26,630.97,631.67,632.35,632.99,633.57,634.09,634.45,634.51,634.30,634.35,634.47,634.59,634.68,634.73,634.75,634.80,634.87,635.01,635.48,635.79,635.82,635.68,635.89,636.14,636.39,636.68,637.00,637.19,637.14,637.01,636.92,636.77,636.62,636.50,636.43,636.35,636.29,636.12,635.90,635.75,635.72,635.71,635.67,635.59,635.53,635.45,635.34,635.14,634.84,634.47,634.04,633.59,633.12,632.66,632.20,631.88,631.77,631.77,631.78,631.89,632.08,632.24,632.05,631.86,631.83,631.96,632.06,632.19,632.20,632.00,631.55,631.09,630.59,630.09,629.67,629.38,629.12,628.92,628.85,629.01,629.40,630.03,630.99,632.42,633.93,635.41,636.86,638.22,639.49,640.29,640.93,641.52,642.11,642.93,643.89,644.92,645.99,647.00,647.97,648.89,649.78,650.69,651.61,652.54,653.49,654.47,655.54,656.52,657.45,658.37,659.24,660.16,661.10,662.03,662.95,663.88,664.82,665.80,666.85,667.80,668.78,669.94,671.43,673.39,675.46,677.51,679.30,680.58,681.89,683.30,684.73,686.20,687.95,689.82,691.90,694.13,696.32,698.53,700.28,701.77,703.22,704.71,706.15,707.60,709.15,711.07,713.78,715.83,717.19,718.45,720.43,722.91,725.60,728.30,730.63,732.98,735.14,737.03
619.39,619.55,619.79,620.34,621.13,622.04,622.77,623.30,624.14,625.44,626.93,628.58,629.75,630.47,630.94,631.40,631.54,631.54,631.57,631.64,631.71,631.85,631.83,631.16,630.49,629.81,629.10,628.33,627.56,626.79,626.25,626.14,626.69,627.28,627.81,628.36,629.03,629.60,630.01,630.36,630.68,630.99,631.30,631.61,631.91,632.24,632.54,632.87,633.25,633.74,634.27,634.75,635.25,635.75,636.09,636.11,635.96,635.73,635.53,635.44,635.37,635.29,635.24,635.23,635.16,635.09,635.02,635.02,635.09,635.17,635.22,635.13,634.64,634.10,633.56,633.00,632.47,631.97,631.50,631.07,630.68,630.35,629.63,628.48,626.83,624.80,622.64,621.59,621.71,622.37,623.05,623.69,624.32,625.06,626.28,627.63,628.96,630.12,630.84,631.54,632.15,632.70,633.18,633.60,633.89,633.97,633.88,634.16,634.30,634.42,634.53,634.55,634.61,634.64,634.67,634.76,634.92,635.00,635.03,635.09,635.32,635.60,635.93,636.32,636.70,636.73,636.62,636.50,636.40,636.25,636.10,635.99,635.91,635.84,635.82,635.66,635.50,635.47,635.47,635.42,635.34,635.28,635.26,635.20,635.08,634.89,634.61,634.03,633.55,633.13,632.67,632.20,631.74,631.43,631.31,631.32,631.37,631.53,631.75,631.91,631.67,631.43,631.35,631.45,631.59,631.74,631.83,631.76,631.36,630.90,630.43,629.98,629.58,629.15,628.78,628.71,628.96,629.29,629.68,630.54,631.71,633.00,634.40,635.90,637.38,638.72,639.89,640.64,641.22,641.79,642.40,643.06,643.96,644.99,646.05,647.06,647.92,648.69,649.39,650.03,650.85,651.79,652.82,653.97,655.27,656.54,657.65,658.57,659.49,660.47,661.42,662.35,663.28,664.20,665.17,666.18,667.18,668.18,669.13,670.20,671.54,673.41,675.46,677.39,678.92,679.86,681.11,682.66,684.34,686.04,687.76,689.54,691.58,693.83,696.16,698.71,700.54,701.93,703.27,704.62,706.10,707.60,709.16,711.05,712.84,714.24,715.52,717.24,719.75,722.60,725.58,728.51,731.06,733.56,735.35,736.45
619.29,619.28,619.40,619.66,620.06,620.63,621.28,622.26,623.56,625.13,626.78,628.38,629.57,630.31,630.65,630.89,630.93,630.91,630.92,631.00,631.17,631.44,631.53,630.85,630.21,629.47,628.67,627.90,627.13,626.36,625.99,626.21,626.96,627.67,628.34,628.99,629.61,630.00,630.29,630.60,630.93,631.25,631.56,631.87,632.16,632.44,632.78,633.10,633.42,633.79,634.25,634.74,635.22,635.63,635.81,635.75,635.55,635.29,635.07,634.94,634.85,634.77,634.72,634.71,634.64,634.56,634.51,634.51,634.58,634.68,634.78,634.80,634.56,634.09,633.54,633.01,632.51,632.04,631.62,631.24,630.90,630.55,630.04,629.05,627.36,625.23,622.98,621.44,620.84,621.18,621.78,622.51,623.38,624.51,625.90,627.31,628.68,629.90,630.65,631.26,631.79,632.27,632.70,633.13,633.37,633.49,633.62,633.97,634.15,634.26,634.36,634.40,634.44,634.47,634.51,634.56,634.59,634.61,634.62,634.71,634.97,635.27,635.65,636.03,636.26,636.23,636.13,636.01,635.89,635.74,635.61,635.50,635.40,635.36,635.36,635.28,635.20,635.20,635.17,635.13,635.05,634.95,634.90,634.77,634.58,634.35,634.08,633.62,633.11,632.62,632.13,631.74,631.29,630.98,630.86,630.87,630.96,631.15,631.38,631.54,631.33,631.05,630.92,630.98,631.13,631.25,631.37,631.41,631.18,630.79,630.36,629.94,629.51,629.05,628.65,628.64,629.03,629.47,630.02,631.00,632.23,633.50,634.90,636.39,637.88,639.25,640.23,640.92,641.49,642.05,642.67,643.29,644.09,645.01,645.95,646.74,647.45,648.13,648.77,649.37,650.21,651.21,652.34,653.59,654.97,656.30,657.54,658.68,659.72,660.71,661.67,662.64,663.60,664.53,665.51,666.51,667.52,668.52,669.52,670.60,671.85,673.46,675.46,677.16,678.42,679.37,680.63,682.22,683.95,685.71,687.41,689.15,691.26,693.70,696.23,698.90,700.70,701.98,703.27,705.02,706.42,707.66,708.95,710.56,712.61,714.40,715.98,717.76,719.97,722.94,726.25,729.67,732.99,735.59,737.11,737.85
619.30,619.11,619.14,619.24,619.40,619.67,620.26,621.65,623.26,624.86,626.49,627.99,629.17,629.93,630.13,630.17,630.19,630.20,630.23,630.39,630.69,631.05,631.15,630.50,629.92,629.13,628.25,627.46,626.68,625.90,625.75,626.37,627.27,628.03,628.80,629.53,630.07,630.30,630.52,630.81,631.18,631.49,631.81,632.12,632.42,632.67,633.01,633.35,633.63,633.89,634.26,634.73,635.15,635.43,635.49,635.37,635.13,634.84,634.61,634.43,634.33,634.25,634.20,634.18,634.12,634.05,633.99,634.01,634.08,634.20,634.31,634.38,634.39,634.04,633.55,633.03,632.57,632.13,631.76,631.45,631.12,630.74,630.36,629.47,627.76,625.60,623.24,621.29,620.12,620.15,620.64,621.49,622.64,624.10,625.57,626.99,628.38,629.64,630.42,630.94,631.39,631.83,632.22,632.66,632.88,633.07,633.40,633.78,633.99,634.11,634.18,634.25,634.27,634.32,634.36,634.35,634.35,634.35,634.36,634.45,634.73,635.03,635.40,635.72,635.77,635.71,635.63,635.53,635.39,635.25,635.15,635.04,634.93,634.92,634.92,634.92,634.92,634.90,634.84,634.81,634.73,634.61,634.52,634.32,634.04,633.75,633.50,633.17,632.68,632.10,631.57,631.21,630.76,630.46,630.36,630.38,630.55,630.76,630.99,631.16,630.98,630.69,630.48,630.47,630.64,630.75,630.88,630.99,630.96,630.68,630.32,629.91,629.45,628.98,628.59,628.63,629.09,629.58,630.35,631.44,632.72,634.01,635.46,636.92,638.40,639.76,640.55,641.19,641.77,642.34,642.96,643.57,644.26,645.03,645.79,646.38,646.98,647.60,648.22,648.85,649.67,650.73,651.96,653.30,654.68,656.03,657.38,658.74,659.92,660.91,661.89,662.89,663.88,664.83,665.82,666.82,667.82,668.83,669.91,671.04,672.23,673.58,675.43,676.88,677.96,679.03,680.31,681.88,683.58,685.34,687.07,688.82,691.01,693.61,696.33,699.02,700.75,701.99,703.44,705.66,706.99,707.98,709.04,710.54,713.15,715.51,717.46,719.34,721.39,724.45,728.14,732.15,736.21,738.92,740.41,741.29
619.55,619.32,619.05,618.94,619.08,619.50,620.06,621.26,622.67,624.12,625.56,626.98,628.14,628.89,629.05,629.18,629.26,629.30,629.39,629.87,630.36,630.73,630.80,630.27,629.63,628.84,627.96,627.07,626.23,625.45,625.45,626.30,627.22,628.10,628.99,629.77,630.23,630.54,630.78,631.05,631.38,631.69,632.05,632.38,632.69,632.98,633.25,633.54,633.84,634.14,634.47,634.76,634.99,635.11,635.11,634.93,634.70,634.44,634.16,633.93,633.81,633.74,633.67,633.66,633.60,633.53,633.48,633.55,633.62,633.71,633.79,633.87,633.93,633.86,633.58,633.10,632.64,632.28,631.95,631.63,631.26,630.87,630.49,629.65,627.99,625.71,623.27,621.11,619.65,619.62,619.98,620.96,622.31,623.78,625.25,626.70,628.13,629.38,630.16,630.63,631.04,631.44,631.82,632.23,632.53,632.83,633.20,633.58,633.84,633.98,634.05,634.07,634.12,634.15,634.14,634.09,634.09,634.09,634.16,634.36,634.61,634.86,635.09,635.25,635.26,635.19,635.12,635.03,634.94,634.84,634.76,634.68,634.59,634.54,634.58,634.57,634.52,634.51,634.44,634.38,634.31,634.21,634.13,633.93,633.65,633.35,633.04,632.63,632.19,631.67,631.04,630.53,630.01,629.73,629.72,629.81,630.09,630.37,630.60,630.77,630.59,630.30,629.96,629.74,630.03,630.26,630.40,630.49,630.53,630.47,630.22,629.85,629.37,628.86,628.53,628.63,629.10,629.61,630.58,631.86,633.28,634.71,636.17,637.59,638.98,640.20,640.89,641.51,642.13,642.73,643.35,643.91,644.49,645.08,645.69,646.29,646.90,647.52,648.14,648.76,649.38,650.40,651.73,653.16,654.55,655.93,657.34,658.76,660.04,661.09,662.08,663.09,664.09,665.08,666.07,667.09,668.09,669.09,670.25,671.43,672.61,673.88,675.31,676.59,677.74,678.95,680.25,681.70,683.30,685.04,686.86,688.83,691.00,693.45,696.25,698.92,700.53,701.98,704.20,706.61,707.95,709.01,710.33,712.46,715.37,717.79,719.90,722.49,725.70,729.12,733.17,737.91,741.96,744.92,747.05,749.18
619.91,619.53,619.06,618.74,618.78,619.33,619.97,620.94,622.04,623.21,624.53,625.90,626.90,627.44,627.60,627.96,628.34,628.69,629.07,629.72,630.19,630.44,630.44,630.05,629.34,628.50,627.60,626.68,625.83,625.19,625.35,626.27,627.20,628.13,629.06,629.85,630.29,630.61,630.91,631.22,631.53,631.87,632.25,632.54,632.77,633.04,633.27,633.51,633.77,634.04,634.32,634.54,634.69,634.77,634.73,634.53,634.28,634.01,633.74,633.47,633.31,633.22,633.15,633.14,633.09,633.01,632.97,633.04,633.12,633.20,633.29,633.40,633.54,633.56,633.34,632.91,632.52,632.17,631.82,631.47,631.09,630.76,630.40,629.50,627.72,625.35,622.86,620.65,619.25,619.60,620.05,620.88,622.07,623.54,625.01,626.48,627.86,629.07,629.97,630.45,630.82,631.18,631.57,631.95,632.28,632.62,633.00,633.36,633.66,633.84,633.87,633.88,633.91,633.90,633.87,633.83,633.83,633.85,633.99,634.24,634.44,634.67,634.82,634.88,634.88,634.84,634.78,634.68,634.58,634.50,634.42,634.34,634.26,634.19,634.22,634.21,634.18,634.17,634.10,634.00,633.90,633.83,633.74,633.54,633.22,632.84,632.42,631.93,631.53,631.14,630.62,629.79,628.47,627.75,627.77,627.92,628.46,628.97,629.31,629.43,629.27,628.99,628.64,628.42,628.82,629.18,629.48,629.71,629.82,629.93,629.78,629.50,629.17,628.72,628.48,628.63,629.09,629.56,630.48,632.11,633.95,635.40,636.78,638.11,639.43,640.62,641.30,641.93,642.53,643.11,643.65,644.19,644.71,645.25,645.83,646.44,647.06,647.66,648.25,648.83,649.38,650.28,651.52,652.98,654.38,655.80,657.22,658.59,659.68,660.67,661.68,662.73,663.79,664.84,665.90,666.96,668.00,669.07,670.24,671.46,672.70,673.97,675.33,676.58,677.76,679.06,680.72,682.63,684.43,685.90,687.08,688.91,691.03,693.33,695.93,698.38,700.44,702.51,704.98,707.44,709.00,710.51,712.46,715.05,718.03,720.69,723.19,726.14,730.00,734.21,738.91,744.78,752.97,758.84,763.01,766.12
620.24,619.68,619.05,618.55,618.52,619.18,619.95,620.73,621.52,622.40,623.58,624.88,625.67,626.03,626.27,626.89,627.62,628.34,629.01,629.71,630.03,630.13,630.06,629.73,628.98,628.10,627.20,626.29,625.43,625.02,625.35,626.29,627.22,628.15,629.08,629.86,630.29,630.61,630.96,631.31,631.63,632.01,632.36,632.56,632.68,632.90,633.14,633.32,633.51,633.74,633.97,634.16,634.32,634.42,634.33,634.13,633.86,633.58,633.33,633.04,632.83,632.71,632.63,632.63,632.57,632.49,632.46,632.53,632.61,632.69,632.80,632.98,633.20,633.17,632.93,632.57,632.24,631.87,631.50,631.12,630.75,630.41,629.95,628.94,627.10,624.80,622.35,620.17,618.93,619.75,620.39,621.04,621.96,623.37,624.83,626.27,627.59,628.73,629.75,630.30,630.66,631.00,631.38,631.76,632.09,632.43,632.80,633.13,633.49,633.67,633.66,633.66,633.66,633.61,633.57,633.56,633.56,633.64,633.82,634.09,634.26,634.48,634.58,634.58,634.58,634.57,634.51,634.40,634.25,634.17,634.09,634.02,633.94,633.87,633.86,633.86,633.85,633.84,633.77,633.64,633.52,633.45,633.35,633.15,632.78,632.28,631.73,631.18,630.66,630.25,629.80,628.46,626.29,625.11,625.17,625.40,626.17,626.91,627.39,627.47,627.37,627.13,626.87,626.79,627.28,627.76,628.27,628.71,628.88,629.12,629.08,628.93,628.81,628.50,628.41,628.63,629.09,629.52,630.32,632.32,634.62,636.03,637.30,638.54,639.82,641.01,641.74,642.36,642.93,643.45,643.92,644.44,644.93,645.45,646.07,646.69,647.30,647.87,648.41,648.95,649.48,650.26,651.37,652.80,654.19,655.61,657.01,658.26,659.13,660.07,661.09,662.17,663.26,664.32,665.47,666.66,667.81,668.97,670.20,671.50,672.88,674.25,675.69,676.95,678.11,679.50,681.64,684.12,686.26,687.54,687.81,689.27,691.31,693.56,695.84,697.99,700.52,703.21,705.76,708.30,710.20,712.30,714.91,717.83,720.84,723.83,726.86,730.19,734.35,739.24,745.04,753.03,765.80,774.67,780.73,784.36
620.29,619.57,618.79,618.30,618.38,619.17,619.99,620.74,621.48,622.28,623.18,624.15,624.92,625.52,626.13,626.87,627.63,628.37,629.03,629.51,629.66,629.65,629.51,629.07,628.33,627.57,626.76,625.88,624.94,624.78,625.33,626.36,627.34,628.28,629.20,629.96,630.30,630.61,630.94,631.26,631.58,631.95,632.11,632.20,632.30,632.48,632.70,632.88,633.07,633.30,633.53,633.75,633.93,634.02,633.89,633.68,633.43,633.17,632.89,632.63,632.41,632.23,632.12,632.11,632.05,632.00,631.99,632.02,632.14,632.24,632.38,632.64,632.88,632.70,632.38,632.06,631.74,631.37,631.02,630.69,630.30,629.56,628.53,627.37,626.06,624.39,622.30,620.16,618.77,619.57,620.48,621.29,622.14,623.26,624.69,626.03,627.24,628.34,629.39,630.05,630.49,630.86,631.24,631.58,631.93,632.29,632.62,632.98,633.32,633.45,633.41,633.40,633.35,633.32,633.29,633.25,633.29,633.45,633.67,633.91,634.12,634.30,634.38,634.38,634.37,634.32,634.25,634.12,633.93,633.85,633.77,633.69,633.62,633.55,633.53,633.53,633.51,633.46,633.43,633.32,633.20,633.11,632.97,632.76,632.33,631.74,631.09,630.48,629.26,628.11,627.20,624.98,623.12,622.32,622.48,622.84,623.57,624.24,624.71,624.93,624.97,624.87,624.86,625.09,625.61,626.17,626.76,627.26,627.49,627.87,628.03,628.08,628.10,628.01,628.24,628.66,629.14,629.59,630.50,632.69,635.10,636.39,637.63,638.91,640.21,641.40,642.13,642.72,643.24,643.71,644.18,644.66,645.13,645.65,646.27,646.88,647.46,647.98,648.48,649.01,649.51,650.29,651.37,652.67,654.00,655.31,656.55,657.68,658.70,659.78,660.87,661.88,662.71,663.60,664.90,666.39,667.84,669.08,670.60,672.29,674.02,675.61,677.10,678.25,679.33,680.88,683.26,685.82,688.25,689.99,689.75,690.64,692.57,694.98,697.10,698.92,701.07,703.64,706.56,709.43,711.83,714.30,717.09,720.14,723.48,726.84,730.52,734.97,738.94,743.32,751.55,764.63,776.06,783.26,788.03,790.97
620.02,619.22,618.38,617.99,618.22,619.13,620.01,620.77,621.53,622.34,623.14,623.96,624.70,625.41,626.16,626.93,627.68,628.38,628.97,629.19,629.15,629.09,628.92,628.38,627.66,626.94,626.19,625.37,624.49,624.50,625.16,626.24,627.27,628.29,629.27,630.03,630.34,630.62,630.92,631.23,631.53,631.76,631.81,631.84,631.91,632.07,632.29,632.45,632.61,632.85,633.08,633.31,633.53,633.66,633.49,633.26,633.01,632.75,632.47,632.20,631.96,631.76,631.63,631.60,631.53,631.49,631.50,631.54,631.67,631.84,632.06,632.33,632.46,632.19,631.83,631.50,631.19,630.87,630.57,629.96,628.53,626.98,625.83,624.96,624.17,623.00,621.44,619.51,618.17,619.39,620.48,621.38,622.23,623.24,624.49,625.70,626.83,627.91,628.98,629.80,630.33,630.69,631.07,631.42,631.81,632.20,632.55,632.95,633.17,633.20,633.14,633.11,633.06,633.05,633.02,632.97,633.09,633.30,633.53,633.76,633.99,634.13,634.17,634.14,634.14,634.10,633.99,633.83,633.64,633.53,633.45,633.37,633.29,633.22,633.21,633.19,633.15,633.11,633.08,632.98,632.86,632.75,632.62,632.41,632.06,631.55,630.87,630.30,628.78,626.57,624.07,622.15,621.06,620.68,620.82,621.17,622.01,622.80,623.39,623.76,623.99,624.05,624.24,624.67,625.09,625.48,625.91,626.32,626.56,626.94,627.30,627.58,627.77,627.93,628.37,628.88,629.36,629.80,631.09,633.26,635.45,636.72,637.99,639.24,640.51,641.66,642.30,642.86,643.37,643.87,644.39,644.89,645.36,645.87,646.45,647.02,647.56,648.06,648.54,649.05,649.54,650.35,651.42,652.65,653.82,654.95,656.05,657.13,658.21,659.31,660.27,661.09,661.85,662.88,664.32,665.97,667.61,669.09,671.05,673.13,675.12,677.01,679.00,680.49,681.75,683.39,685.64,688.41,691.37,693.79,693.89,693.84,694.91,696.96,699.09,701.07,703.02,705.07,707.38,710.26,712.98,715.72,718.65,721.94,725.53,729.74,734.59,739.86,743.84,750.92,761.51,774.02,781.85,786.71,790.25,793.03
619.49,618.65,617.83,617.66,618.14,619.12,620.03,620.82,621.63,622.47,623.31,624.11,624.83,625.52,626.23,626.99,627.71,628.35,628.79,628.76,628.58,628.46,628.30,627.68,627.00,626.26,625.52,624.80,624.08,624.22,624.96,626.03,627.10,628.22,629.27,630.06,630.38,630.63,630.90,631.19,631.43,631.47,631.48,631.48,631.52,631.68,631.89,632.02,632.16,632.39,632.62,632.86,633.13,633.33,633.13,632.89,632.62,632.33,632.07,631.77,631.52,631.31,631.16,631.09,631.01,630.97,630.99,631.09,631.25,631.50,631.80,632.04,631.98,631.66,631.29,630.87,630.27,629.60,629.18,628.24,625.62,623.35,622.44,622.12,621.73,620.89,619.91,618.56,617.75,619.53,620.66,621.55,622.43,623.42,624.41,625.43,626.45,627.48,628.54,629.55,630.17,630.53,630.92,631.30,631.74,632.16,632.56,632.97,633.02,632.96,632.88,632.82,632.79,632.78,632.76,632.75,632.94,633.17,633.40,633.63,633.86,633.95,633.94,633.89,633.89,633.87,633.73,633.53,633.37,633.23,633.12,633.04,632.97,632.89,632.88,632.84,632.79,632.77,632.71,632.63,632.51,632.38,632.28,632.07,631.87,631.56,630.94,630.44,628.91,625.63,621.15,620.22,620.02,620.05,620.22,620.57,621.64,622.67,623.47,624.00,624.37,624.55,624.86,625.35,625.59,625.66,625.80,626.04,626.28,626.55,627.03,627.50,627.84,628.21,628.74,629.26,629.69,630.15,631.85,633.88,635.70,637.02,638.35,639.56,640.72,641.74,642.26,642.78,643.32,643.88,644.48,645.03,645.54,646.06,646.60,647.08,647.61,648.11,648.58,649.05,649.57,650.38,651.44,652.60,653.58,654.52,655.52,656.60,657.68,658.66,659.40,659.99,660.83,662.17,663.74,665.41,667.17,668.96,671.38,673.90,676.28,678.67,681.50,683.61,685.15,686.75,688.68,691.71,695.26,698.43,699.43,698.49,698.41,699.78,701.98,704.29,706.12,707.40,708.48,711.05,713.94,716.89,719.94,723.41,727.20,732.52,738.87,745.01,749.91,760.95,772.75,780.76,784.19,786.82,789.49,792.47
618.62,617.80,617.13,617.50,618.42,619.39,620.23,620.97,621.75,622.60,623.45,624.28,625.00,625.65,626.35,627.07,627.77,628.25,628.38,628.21,627.99,627.83,627.60,626.97,626.34,625.64,624.91,624.20,623.69,624.15,625.03,626.05,627.03,628.07,629.10,629.92,630.32,630.62,630.81,630.96,631.08,631.09,631.13,631.13,631.13,631.29,631.46,631.57,631.70,631.93,632.17,632.44,632.76,633.02,632.90,632.64,632.35,632.02,631.69,631.38,631.09,630.83,630.65,630.57,630.49,630.45,630.50,630.69,630.98,631.30,631.57,631.70,631.45,631.09,630.73,629.97,627.66,624.51,623.02,622.58,621.50,620.27,619.79,619.63,619.33,618.54,617.94,618.38,619.71,621.00,621.93,622.75,623.56,624.40,625.19,625.85,626.48,627.21,628.17,629.21,629.99,630.51,630.90,631.34,631.75,632.17,632.58,632.84,632.83,632.75,632.68,632.60,632.55,632.50,632.48,632.59,632.80,633.04,633.27,633.50,633.72,633.74,633.71,633.68,633.63,633.57,633.44,633.26,633.11,632.96,632.82,632.72,632.64,632.57,632.56,632.51,632.46,632.45,632.38,632.30,632.19,632.04,631.90,631.65,631.47,631.30,630.96,630.52,628.89,625.34,620.53,619.93,619.90,620.35,621.25,622.18,623.49,624.66,625.59,626.24,626.61,626.66,626.78,627.09,627.22,627.16,627.18,627.32,627.49,627.60,627.94,628.28,628.45,628.86,629.27,629.68,630.10,630.62,632.20,634.07,635.82,637.24,638.65,639.84,640.75,641.38,641.86,642.38,642.92,643.48,644.10,644.69,645.34,645.99,646.56,647.03,647.56,648.06,648.53,649.04,649.54,650.27,651.19,652.16,653.10,653.98,654.95,656.03,657.09,657.82,658.47,659.18,660.08,661.50,663.15,664.88,666.64,668.57,671.05,674.25,678.02,681.75,685.71,688.17,689.49,690.70,692.62,695.55,699.17,702.86,704.88,704.42,704.23,705.15,707.07,709.01,710.26,710.75,710.87,712.68,715.60,718.75,721.84,724.98,728.83,734.99,742.81,751.22,760.80,770.88,778.82,782.81,783.92,785.91,788.56,791.33
617.68,616.92,616.78,617.59,618.75,619.74,620.50,621.19,621.92,622.74,623.58,624.43,625.15,625.81,626.48,627.17,627.70,627.94,627.86,627.64,627.40,627.19,626.88,626.27,625.67,625.01,624.28,623.63,623.50,624.19,625.15,626.14,627.07,628.00,628.92,629.72,630.17,630.46,630.59,630.67,630.73,630.74,630.77,630.77,630.76,630.90,631.02,631.13,631.28,631.52,631.77,632.07,632.41,632.68,632.65,632.44,632.15,631.82,631.44,631.10,630.78,630.47,630.16,629.84,629.68,629.72,629.95,630.40,630.80,631.10,631.27,631.21,630.85,628.88,627.20,626.09,623.81,620.70,619.25,619.10,618.94,618.36,617.88,617.51,617.16,616.67,616.91,618.59,621.02,622.31,623.27,624.11,624.90,625.66,626.36,626.85,627.28,627.77,628.40,629.23,629.96,630.51,630.93,631.39,631.80,632.20,632.55,632.65,632.61,632.53,632.45,632.38,632.30,632.24,632.26,632.45,632.67,632.91,633.14,633.36,633.53,633.52,633.49,633.45,633.40,633.30,633.16,633.00,632.82,632.66,632.51,632.39,632.32,632.25,632.23,632.18,632.13,632.10,632.05,631.96,631.84,631.70,631.52,631.24,631.06,630.95,630.73,630.17,627.50,623.67,620.23,619.90,619.90,620.82,622.58,624.12,625.61,626.88,627.84,628.34,628.63,628.60,628.60,628.73,628.78,628.69,628.66,628.73,628.82,628.81,628.99,629.18,629.25,629.56,629.88,630.22,630.62,631.12,632.44,633.99,635.47,636.80,638.37,639.70,640.56,640.93,641.40,641.92,642.48,643.07,643.74,644.41,645.17,645.90,646.49,646.97,647.49,647.99,648.47,649.00,649.48,650.09,650.83,651.68,652.58,653.47,654.39,655.40,656.38,657.06,657.77,658.59,659.51,660.83,662.46,664.21,666.02,668.00,670.47,674.14,678.95,683.67,688.28,691.13,692.75,694.34,696.52,699.18,702.50,706.24,708.87,709.41,709.62,710.41,712.35,714.03,714.91,714.95,714.39,714.88,717.15,720.24,723.58,726.82,731.39,738.51,747.50,757.43,768.59,776.50,780.27,780.02,779.20,780.66,783.40,786.44
616.71,616.15,616.79,617.91,619.09,620.10,620.83,621.48,622.14,622.88,623.72,624.56,625.31,625.98,626.62,627.26,627.47,627.44,627.28,627.06,626.82,626.55,626.16,625.55,625.00,624.36,623.65,623.11,623.50,624.31,625.26,626.24,627.15,627.97,628.76,629.48,629.95,630.15,630.26,630.33,630.38,630.38,630.39,630.39,630.41,630.49,630.58,630.71,630.89,631.14,631.44,631.75,632.06,632.32,632.38,632.25,632.00,631.67,631.30,630.93,630.60,630.23,629.71,628.92,628.59,628.75,629.34,630.19,630.64,630.87,630.70,630.00,629.49,625.10,621.38,620.02,619.40,618.72,618.33,618.18,617.99,617.49,616.63,615.83,615.41,615.52,616.88,619.02,621.38,623.19,624.48,625.47,626.32,627.09,627.78,628.27,628.70,629.06,629.19,629.60,630.08,630.54,630.99,631.45,631.87,632.22,632.46,632.42,632.35,632.26,632.18,632.11,632.03,632.01,632.09,632.31,632.55,632.78,633.01,633.21,633.30,633.30,633.26,633.20,633.18,633.05,632.90,632.72,632.51,632.35,632.19,632.08,631.99,631.92,631.91,631.86,631.78,631.72,631.71,631.60,631.48,631.36,631.13,630.85,630.64,630.41,629.87,628.89,624.76,620.91,619.99,619.90,619.93,621.31,623.91,626.03,627.59,628.89,629.76,629.91,630.08,630.07,630.05,630.07,630.08,630.01,629.99,629.99,630.00,629.94,630.00,630.09,630.16,630.26,630.52,630.87,631.24,631.63,632.63,633.72,634.75,635.83,637.50,639.06,640.06,640.45,640.95,641.49,642.08,642.74,643.50,644.25,645.06,645.83,646.42,646.90,647.42,647.92,648.41,648.93,649.40,649.85,650.40,651.24,652.09,652.99,653.89,654.77,655.64,656.46,657.30,658.16,659.10,660.17,661.67,663.45,665.37,667.33,669.76,673.57,678.72,683.88,688.65,691.98,694.45,697.04,699.61,701.93,704.68,708.04,710.93,712.66,713.66,714.78,717.23,718.96,719.80,719.80,718.91,717.72,718.82,721.59,725.33,729.05,734.78,742.78,752.35,762.49,771.55,776.68,776.96,772.87,770.44,771.32,774.17,778.04
615.70,616.01,616.99,618.21,619.40,620.38,621.10,621.77,622.43,623.10,623.86,624.69,625.45,626.13,626.75,627.05,627.02,626.87,626.70,626.47,626.24,625.91,625.45,624.84,624.29,623.68,623.11,622.87,623.55,624.37,625.24,626.14,627.01,627.80,628.60,629.30,629.65,629.79,629.88,629.89,629.84,629.84,629.87,629.90,629.91,630.00,630.11,630.26,630.46,630.75,631.10,631.42,631.73,631.99,632.06,631.90,631.67,631.41,631.16,630.84,630.52,630.11,629.40,628.14,627.39,627.67,628.77,629.94,630.34,630.39,628.77,624.78,623.49,621.12,619.12,618.23,617.89,617.58,617.39,617.27,617.07,616.63,615.72,614.99,614.99,615.96,617.11,619.04,621.51,623.48,625.25,626.61,627.66,628.49,629.12,629.43,629.65,629.82,629.84,630.02,630.30,630.64,631.06,631.48,631.90,632.21,632.28,632.17,632.09,631.99,631.87,631.79,631.71,631.78,631.95,632.18,632.42,632.65,632.88,633.07,633.11,633.07,633.00,632.95,632.93,632.80,632.61,632.41,632.24,632.08,631.93,631.78,631.67,631.59,631.54,631.50,631.46,631.39,631.38,631.27,631.13,630.98,630.75,630.46,630.03,628.97,626.47,624.06,621.69,620.13,619.92,619.91,620.13,621.74,624.65,627.45,628.97,629.82,630.31,630.48,630.64,630.70,630.73,630.78,630.82,630.81,630.80,630.80,630.79,630.77,630.81,630.87,630.90,630.93,631.14,631.46,631.83,632.16,632.73,633.44,634.24,635.18,636.49,637.85,638.96,639.75,640.50,641.16,641.87,642.63,643.41,644.18,644.97,645.71,646.30,646.83,647.32,647.82,648.33,648.82,649.24,649.64,650.13,650.85,651.68,652.59,653.50,654.39,655.25,656.10,656.97,657.87,658.75,659.67,661.08,662.85,664.84,666.87,669.05,672.28,676.59,680.93,685.86,690.01,693.26,695.88,698.42,700.51,702.80,705.75,709.25,711.30,713.27,716.03,720.11,722.63,723.96,724.46,723.96,722.07,722.47,724.92,728.67,732.21,737.72,745.07,753.22,760.68,765.87,767.87,766.78,763.16,760.70,761.26,764.39,769.38
614.91,616.06,617.32,618.56,619.67,620.59,621.33,622.03,622.70,623.35,624.05,624.84,625.59,626.24,626.67,626.67,626.48,626.27,626.09,625.86,625.63,625.27,624.76,624.15,623.58,622.99,622.60,622.74,623.55,624.36,625.17,626.00,626.85,627.65,628.43,629.04,629.28,629.38,629.44,629.41,629.28,629.23,629.25,629.27,629.31,629.47,629.68,629.89,630.13,630.44,630.80,631.13,631.40,631.60,631.63,631.44,631.21,630.99,630.81,630.56,630.25,629.83,629.07,627.67,626.54,626.35,627.09,628.14,627.74,627.19,625.04,620.43,618.99,618.35,617.79,617.24,616.92,616.63,616.45,616.34,616.15,615.76,614.88,614.36,614.92,616.55,617.62,619.32,621.68,623.74,625.84,627.54,628.79,629.51,629.95,630.12,630.20,630.29,630.34,630.39,630.56,630.84,631.19,631.57,631.90,632.07,632.01,631.89,631.78,631.66,631.54,631.45,631.42,631.58,631.82,632.05,632.29,632.53,632.75,632.88,632.88,632.83,632.76,632.71,632.68,632.53,632.33,632.13,631.98,631.82,631.64,631.48,631.35,631.27,631.19,631.16,631.13,631.07,631.04,630.94,630.79,630.62,630.32,629.42,628.07,626.09,623.09,620.65,619.90,619.95,620.09,620.30,621.00,622.77,625.55,628.41,629.73,630.22,630.41,630.62,630.79,630.92,631.02,631.15,631.29,631.39,631.46,631.51,631.51,631.53,631.59,631.63,631.61,631.61,631.75,632.04,632.41,632.70,632.98,633.46,634.14,635.01,636.05,637.18,638.28,639.29,640.19,640.95,641.73,642.55,643.34,644.11,644.89,645.60,646.21,646.75,647.23,647.74,648.25,648.69,649.07,649.45,649.89,650.49,651.34,652.27,653.20,654.10,654.95,655.80,656.69,657.60,658.45,659.30,660.60,662.32,664.35,666.41,668.40,671.09,674.50,677.83,682.22,686.65,690.59,693.61,696.11,698.05,699.99,702.50,706.13,708.41,711.23,715.42,721.10,724.82,727.04,728.24,728.34,726.89,726.98,728.89,732.06,734.76,738.70,743.99,749.78,754.66,757.23,757.58,756.25,753.81,752.20,753.17,757.24,763.81
614.51,616.24,617.85,619.00,619.91,620.74,621.50,622.21,622.90,623.60,624.29,625.01,625.73,626.25,626.29,626.12,625.88,625.66,625.43,625.20,624.97,624.63,624.13,623.51,622.90,622.29,622.11,622.68,623.44,624.27,625.08,625.88,626.72,627.56,628.24,628.69,628.84,628.92,628.95,628.89,628.74,628.61,628.53,628.51,628.62,628.97,629.32,629.64,629.94,630.25,630.56,630.86,631.06,631.13,631.07,630.87,630.63,630.38,630.15,629.96,629.69,629.29,628.63,627.55,626.19,624.89,624.14,624.50,622.46,620.83,619.59,618.29,617.59,617.24,616.81,616.26,615.95,615.69,615.51,615.36,615.19,614.89,614.04,613.80,614.99,616.93,618.41,620.03,621.98,624.12,626.27,628.23,629.59,629.99,630.15,630.24,630.35,630.50,630.63,630.66,630.84,631.12,631.37,631.73,631.83,631.77,631.64,631.55,631.41,631.30,631.20,631.09,631.18,631.41,631.69,631.92,632.16,632.44,632.61,632.63,632.62,632.57,632.53,632.50,632.43,632.28,632.08,631.87,631.72,631.55,631.35,631.16,631.02,630.94,630.87,630.84,630.81,630.73,630.66,630.57,630.40,630.12,629.64,627.41,624.45,621.78,620.54,620.02,619.92,620.10,620.55,621.16,622.57,624.46,626.64,628.75,629.76,630.12,630.25,630.42,630.63,630.80,630.97,631.20,631.47,631.75,631.98,632.14,632.16,632.23,632.32,632.36,632.32,632.32,632.39,632.62,632.98,633.22,633.46,633.89,634.53,635.40,636.39,637.36,638.31,639.24,640.10,640.87,641.64,642.43,643.26,644.05,644.82,645.54,646.14,646.69,647.17,647.67,648.17,648.57,648.90,649.26,649.66,650.15,651.06,652.05,652.98,653.84,654.69,655.54,656.43,657.34,658.19,659.04,660.21,661.81,663.86,665.87,667.77,670.12,672.86,675.25,678.25,682.22,686.68,690.74,693.31,695.22,696.97,699.04,702.13,704.78,708.23,713.17,719.91,725.00,728.45,730.52,731.24,731.35,731.61,732.81,734.75,735.90,736.89,738.82,741.64,744.82,746.87,747.56,747.02,745.73,745.77,748.12,753.95,762.54
614.96,617.04,618.77,619.70,620.30,620.93,621.61,622.27,622.96,623.70,624.44,625.18,625.67,625.86,625.70,625.44,625.20,624.97,624.73,624.46,624.28,624.02,623.59,622.97,622.35,621.88,621.88,622.61,623.37,624.17,624.98,625.79,626.60,627.44,628.03,628.33,628.39,628.43,628.44,628.37,628.22,628.06,627.97,628.08,628.38,628.76,629.15,629.51,629.85,630.14,630.33,630.47,630.58,630.62,630.54,630.41,630.09,629.63,629.19,628.89,628.58,628.21,627.72,627.05,626.14,624.85,623.48,622.61,620.44,618.63,617.46,616.83,616.32,616.09,615.77,615.28,614.93,614.71,614.55,614.40,614.28,614.07,613.22,613.23,614.97,617.05,618.81,620.56,622.45,624.57,626.68,628.63,629.90,630.10,630.23,630.35,630.49,630.64,630.79,630.89,631.06,631.25,631.35,631.51,631.50,631.41,631.29,631.18,631.06,630.95,630.85,630.85,631.01,631.28,631.56,631.80,632.08,632.30,632.41,632.37,632.37,632.34,632.30,632.26,632.21,632.08,631.87,631.65,631.45,631.25,631.06,630.89,630.74,630.63,630.54,630.48,630.44,630.40,630.33,630.09,629.25,627.87,626.80,624.20,621.84,620.37,619.97,619.94,620.20,620.62,621.15,621.80,622.79,624.25,626.09,627.93,629.16,629.68,629.86,630.06,630.25,630.38,630.54,630.78,631.05,631.34,631.64,631.89,632.12,632.33,632.57,632.80,632.97,633.03,633.02,633.19,633.51,633.74,633.97,634.34,634.92,635.78,636.73,637.63,638.51,639.38,640.19,640.89,641.60,642.35,643.15,643.93,644.73,645.47,646.08,646.62,647.11,647.56,648.00,648.38,648.75,649.12,649.52,650.01,650.87,651.79,652.69,653.58,654.43,655.28,656.17,657.08,657.93,658.82,659.85,661.21,663.09,665.00,666.83,668.57,670.27,672.19,674.94,678.44,682.48,686.74,690.03,692.30,694.24,696.41,699.40,702.72,706.68,711.37,716.68,721.23,725.46,728.44,729.20,729.36,730.44,732.16,733.63,733.02,732.07,732.34,733.78,735.79,737.21,737.88,738.47,739.49,741.24,745.89,753.41,762.98
615.48,617.94,619.63,620.34,620.71,621.19,621.77,622.38,623.05,623.79,624.55,625.27,625.48,625.31,625.02,624.73,624.47,624.23,623.99,623.71,623.62,623.43,623.04,622.42,621.81,621.55,621.78,622.53,623.30,624.08,624.88,625.70,626.50,627.29,627.75,627.92,627.92,627.92,627.91,627.84,627.70,627.55,627.56,627.82,628.25,628.63,629.02,629.41,629.75,629.97,630.05,630.07,630.09,630.12,630.03,629.95,629.58,628.96,628.32,627.80,627.40,627.03,626.64,626.24,625.75,624.82,623.45,621.85,619.87,617.86,616.30,615.57,615.08,614.88,614.65,614.27,613.90,613.73,613.58,613.44,613.36,613.22,612.52,612.81,614.91,617.02,618.91,620.77,622.60,624.33,626.26,628.47,630.03,630.14,630.28,630.44,630.60,630.74,630.87,631.00,631.12,631.20,631.17,631.17,631.11,631.03,630.95,630.81,630.71,630.60,630.54,630.66,630.89,631.17,631.46,631.70,632.00,632.15,632.18,632.13,632.11,632.11,632.08,632.03,632.00,631.87,631.67,631.44,631.18,630.96,630.78,630.62,630.41,630.05,629.58,629.18,628.87,628.60,628.26,627.70,626.48,624.73,623.54,621.46,620.20,619.90,619.92,620.10,620.58,621.18,621.76,622.38,622.96,623.97,625.40,626.84,628.24,628.94,629.20,629.43,629.63,629.73,629.86,630.11,630.43,630.75,631.07,631.39,631.74,632.05,632.42,632.83,633.19,633.35,633.42,633.62,633.94,634.19,634.41,634.76,635.33,636.18,637.06,637.91,638.76,639.59,640.33,640.97,641.61,642.29,643.05,643.82,644.63,645.39,646.01,646.56,647.03,647.44,647.83,648.22,648.62,649.02,649.44,649.96,650.76,651.61,652.49,653.38,654.24,655.09,655.97,656.87,657.74,658.64,659.57,660.76,662.45,664.22,665.89,667.17,668.20,669.79,672.16,675.18,678.72,682.72,686.51,689.30,691.71,694.25,697.27,700.94,705.03,709.16,712.73,716.02,720.51,724.11,724.73,724.71,726.39,728.72,730.28,728.82,726.38,725.37,725.88,727.23,728.32,729.42,731.57,735.22,739.11,745.68,754.38,764.47
615.76,618.75,620.16,620.73,621.10,621.57,622.05,622.64,623.26,623.92,624.61,625.20,625.14,624.68,624.28,624.01,623.72,623.45,623.22,622.99,622.98,622.84,622.46,621.84,621.23,621.27,621.76,622.48,623.24,624.01,624.79,625.59,626.41,627.08,627.37,627.40,627.40,627.40,627.35,627.28,627.18,627.06,627.33,627.72,628.12,628.51,628.89,629.28,629.56,629.65,629.67,629.67,629.68,629.66,629.52,629.43,629.12,628.53,627.73,626.94,626.35,625.88,625.47,625.02,624.60,624.18,623.57,622.35,620.54,617.91,615.52,614.38,613.84,613.57,613.40,613.22,612.87,612.78,612.64,612.47,612.38,612.30,612.03,612.69,614.77,616.73,618.56,620.41,622.01,622.76,624.34,627.46,630.05,630.20,630.35,630.50,630.65,630.78,630.81,630.89,630.93,630.91,630.79,630.77,630.72,630.64,630.56,630.47,630.34,630.27,630.31,630.52,630.80,631.11,631.39,631.63,631.93,631.98,631.94,631.92,631.86,631.85,631.84,631.82,631.75,631.66,631.48,631.22,630.93,630.70,630.52,630.31,629.88,628.90,627.37,626.10,625.08,624.10,623.06,621.97,621.17,620.80,620.58,620.19,619.96,619.90,619.97,620.45,621.03,621.68,622.34,622.97,623.63,624.41,625.22,625.83,627.06,627.81,628.15,628.46,628.75,628.84,628.95,629.24,629.76,630.16,630.49,630.77,631.04,631.34,631.74,632.19,632.63,632.99,633.36,633.77,634.18,634.48,634.67,635.10,635.78,636.61,637.37,638.18,639.03,639.83,640.48,641.10,641.69,642.28,642.99,643.75,644.54,645.28,645.94,646.49,646.92,647.31,647.70,648.09,648.53,648.99,649.44,649.96,650.76,651.62,652.47,653.33,654.18,655.03,655.88,656.76,657.67,658.54,659.44,660.60,662.17,663.75,665.07,666.31,667.56,668.84,670.13,672.62,675.91,679.23,682.84,686.23,689.46,692.60,695.69,698.98,702.56,706.00,708.33,709.98,713.96,717.56,718.01,718.05,719.57,722.06,724.38,723.86,720.40,718.14,717.86,719.25,720.68,723.28,727.64,733.93,740.66,748.02,756.99,767.16
616.79,619.44,620.50,621.05,621.49,621.95,622.37,622.92,623.51,624.11,624.63,625.00,624.79,624.23,623.74,623.33,623.00,622.71,622.45,622.23,622.30,622.23,621.87,621.28,620.83,621.08,621.72,622.45,623.19,623.95,624.72,625.50,626.28,626.73,626.88,626.88,626.88,626.88,626.83,626.73,626.66,626.79,627.18,627.60,627.99,628.38,628.76,629.10,629.31,629.34,629.34,629.34,629.34,629.30,629.11,628.94,628.70,628.25,627.43,626.59,625.85,625.16,624.50,623.87,623.40,623.06,622.70,622.01,620.86,618.46,615.49,613.06,612.52,612.24,612.10,612.05,611.81,611.76,611.65,611.49,611.41,611.34,611.58,612.28,613.50,614.83,616.70,618.55,619.94,620.65,623.55,627.35,630.05,630.20,630.32,630.46,630.60,630.69,630.70,630.73,630.70,630.59,630.45,630.40,630.33,630.22,630.07,629.95,629.87,629.96,630.20,630.44,630.73,631.04,631.32,631.55,631.74,631.74,631.70,631.68,631.61,631.60,631.60,631.58,631.54,631.47,631.28,631.02,630.73,630.49,630.29,629.27,627.35,625.16,623.51,622.58,622.00,621.44,620.86,620.27,619.93,619.89,619.86,619.88,619.90,619.97,620.26,620.94,621.65,622.35,623.03,623.65,624.33,625.02,625.69,626.31,627.17,627.85,628.35,628.75,629.25,629.48,629.56,629.62,629.82,629.88,629.94,630.09,630.37,630.67,631.09,631.55,632.01,632.44,632.89,633.36,633.81,634.24,634.61,635.23,636.05,636.99,637.92,638.83,639.61,640.24,640.78,641.32,641.86,642.41,643.04,643.72,644.46,645.21,645.87,646.38,646.80,647.18,647.59,648.05,648.51,649.00,649.51,650.06,650.87,651.74,652.62,653.47,654.32,655.17,656.02,656.88,657.76,658.61,659.46,660.58,662.12,663.44,664.63,665.85,667.10,668.24,669.20,671.05,673.81,677.25,680.89,684.45,687.94,691.30,694.34,697.27,700.05,702.50,704.29,705.99,709.13,711.94,712.60,712.46,713.01,714.42,716.16,716.38,714.19,712.53,712.22,713.49,716.21,721.49,728.44,736.33,743.86,751.31,760.10,769.78
617.93,619.98,620.75,621.31,621.83,622.30,622.70,623.18,623.70,624.21,624.56,624.75,624.45,623.86,623.30,622.75,622.35,622.00,621.68,621.48,621.63,621.62,621.29,620.72,620.54,620.96,621.68,622.44,623.14,623.90,624.67,625.42,626.09,626.32,626.36,626.36,626.36,626.36,626.31,626.23,626.23,626.60,627.05,627.47,627.86,628.24,628.62,628.88,629.01,629.01,629.01,629.01,629.01,628.97,628.76,628.52,628.31,627.97,627.23,626.39,625.54,624.64,623.75,622.94,622.34,621.87,621.48,621.08,620.61,618.43,615.05,611.72,611.21,610.98,610.88,610.91,610.81,610.79,610.72,610.61,610.54,610.48,611.01,611.58,611.92,612.69,614.62,616.52,617.93,619.10,623.37,627.54,630.05,630.19,630.28,630.41,630.50,630.55,630.55,630.55,630.48,630.34,630.17,630.01,629.86,629.69,629.48,629.36,629.37,629.67,630.13,630.37,630.67,630.97,631.24,631.45,631.52,631.47,631.43,631.41,631.35,631.34,631.34,631.34,631.33,631.27,631.09,630.83,630.54,630.28,629.66,627.63,624.39,621.56,620.25,619.88,619.88,619.88,619.88,619.88,619.88,619.88,619.83,619.88,619.95,620.13,620.63,621.43,622.23,622.98,623.69,624.36,625.04,625.70,626.37,627.18,627.77,628.39,628.98,629.41,630.01,630.34,630.42,630.31,630.14,629.88,629.71,629.70,629.93,630.21,630.59,631.01,631.43,631.86,632.30,632.75,633.24,633.78,634.34,635.10,636.02,637.04,638.23,639.30,640.11,640.63,641.11,641.59,642.10,642.64,643.17,643.75,644.44,645.15,645.80,646.28,646.70,647.10,647.54,648.06,648.55,649.05,649.59,650.18,651.01,651.91,652.80,653.66,654.51,655.36,656.21,657.06,657.89,658.73,659.53,660.58,662.06,663.18,664.31,665.49,666.68,667.72,668.63,669.91,672.09,675.70,679.39,682.95,686.46,689.86,692.82,695.41,697.47,699.08,700.62,702.71,705.13,707.15,708.00,707.76,707.50,707.90,708.87,709.43,708.81,708.45,708.78,710.27,714.34,722.00,731.06,739.91,747.48,754.78,763.05,771.87
618.74,620.20,620.88,621.47,622.04,622.56,623.01,623.39,623.71,624.00,624.25,624.43,624.15,623.58,622.98,622.38,621.85,621.37,620.99,620.82,621.03,621.04,620.71,620.19,620.38,620.96,621.68,622.44,623.14,623.90,624.64,625.31,625.80,625.86,625.84,625.84,625.84,625.84,625.79,625.81,626.03,626.46,626.92,627.34,627.73,628.11,628.44,628.62,628.69,628.69,628.69,628.69,628.69,628.67,628.55,628.24,627.92,627.57,627.01,626.20,625.31,624.38,623.46,622.56,621.66,620.87,620.10,619.20,619.07,616.49,612.87,610.39,609.97,609.89,609.90,609.97,610.01,610.02,610.00,609.98,609.96,609.94,610.10,610.26,610.43,611.15,613.06,615.23,617.30,619.55,623.92,627.80,630.05,630.19,630.28,630.37,630.40,630.35,630.35,630.35,630.34,630.25,630.01,629.58,629.17,628.86,628.72,628.69,628.88,629.41,630.06,630.31,630.61,630.87,631.11,631.31,631.29,631.22,631.18,631.16,631.09,631.08,631.08,631.08,631.07,631.06,630.89,630.66,630.40,630.05,627.98,624.93,621.88,620.40,619.92,619.82,619.82,619.82,619.82,619.82,619.82,619.83,619.88,619.95,620.16,620.52,621.03,621.82,622.62,623.41,624.23,625.04,625.76,626.41,627.07,627.86,628.69,629.37,629.82,630.04,630.35,630.60,630.77,630.81,630.61,630.42,630.26,630.14,630.10,630.24,630.49,630.75,631.03,631.31,631.67,632.11,632.59,633.13,633.78,634.49,635.29,636.30,637.66,639.04,640.16,640.88,641.43,641.95,642.49,643.01,643.50,643.98,644.53,645.13,645.74,646.22,646.67,647.15,647.65,648.14,648.66,649.15,649.67,650.31,651.19,652.07,652.95,653.86,654.71,655.56,656.41,657.24,658.02,658.81,659.59,660.56,661.83,662.93,663.97,665.10,666.26,667.17,668.13,669.16,670.87,674.13,677.72,681.16,684.50,687.74,690.72,692.92,694.69,696.22,697.69,699.70,702.05,703.93,704.58,704.58,704.66,705.21,705.98,705.93,705.96,707.23,709.44,712.19,717.00,725.32,734.84,743.79,751.00,757.93,765.10,772.58
619.51,620.45,621.03,621.58,622.12,622.56,622.89,623.15,623.38,623.62,623.84,624.04,623.88,623.41,622.80,622.17,621.59,621.03,620.53,620.21,620.26,620.29,620.12,619.79,620.25,620.93,621.67,622.41,623.14,623.87,624.57,625.14,625.38,625.38,625.35,625.32,625.32,625.32,625.35,625.51,625.87,626.33,626.79,627.21,627.60,627.97,628.20,628.32,628.37,628.37,628.37,628.37,628.37,628.36,628.29,627.97,627.61,627.23,626.76,625.99,625.10,624.16,623.20,622.27,621.31,619.98,618.17,615.95,614.82,612.94,610.87,609.70,609.56,609.58,609.62,609.66,609.70,609.74,609.75,609.76,609.79,609.80,609.85,610.02,610.48,611.69,613.71,615.95,618.27,620.99,624.88,628.14,630.00,630.10,630.15,630.19,630.20,630.16,630.16,630.16,630.16,630.12,629.95,629.47,628.93,628.44,628.12,628.17,628.60,629.27,629.96,630.27,630.56,630.80,630.99,631.09,631.04,630.98,630.94,630.90,630.86,630.83,630.82,630.82,630.82,630.82,630.68,630.45,630.04,628.90,626.33,623.23,620.60,619.95,619.75,619.73,619.76,619.79,619.80,619.83,619.85,619.86,619.94,620.17,620.50,620.91,621.41,622.21,623.01,623.81,624.66,625.50,626.27,627.00,627.73,628.51,629.38,629.99,630.32,630.45,630.64,630.86,631.07,631.19,631.05,630.90,630.75,630.61,630.56,630.71,631.00,631.31,631.57,631.81,632.11,632.39,632.63,632.87,633.36,634.00,634.75,635.71,637.05,638.47,639.71,640.63,641.23,641.77,642.33,642.90,643.44,643.98,644.54,645.13,645.73,646.24,646.74,647.24,647.75,648.25,648.75,649.23,649.75,650.44,651.33,652.21,653.09,654.00,654.86,655.71,656.54,657.33,658.07,658.84,659.59,660.46,661.58,662.66,663.69,664.77,665.88,666.82,667.81,668.79,670.28,673.06,676.13,679.19,681.92,684.41,687.44,689.76,691.69,693.44,695.18,697.09,698.99,700.52,701.27,701.39,701.90,702.57,703.23,703.94,706.23,709.69,713.43,716.69,721.10,729.08,738.42,747.22,753.86,759.82,765.41,770.63
620.14,620.69,621.16,621.65,622.10,622.40,622.58,622.73,622.93,623.16,623.39,623.61,623.60,623.29,622.69,622.08,621.46,620.84,620.24,619.71,619.54,619.53,619.53,619.48,620.14,620.90,621.64,622.35,623.10,623.82,624.46,624.89,624.90,624.90,624.86,624.82,624.82,624.83,624.97,625.27,625.74,626.20,626.66,627.08,627.46,627.80,627.91,627.98,628.03,628.04,628.04,628.04,628.04,628.04,628.01,627.72,627.34,626.95,626.51,625.81,624.93,623.98,623.00,622.07,621.14,619.32,616.39,612.69,610.55,609.65,609.41,609.46,609.63,609.73,609.76,609.76,609.76,609.82,609.82,609.83,609.91,610.00,610.15,610.57,611.51,613.26,615.36,617.51,619.80,622.64,625.88,628.44,629.86,629.93,629.94,629.94,629.94,629.93,629.92,629.92,629.92,629.91,629.81,629.33,628.74,628.11,627.61,627.76,628.42,629.19,629.87,630.25,630.50,630.71,630.84,630.83,630.77,630.75,630.72,630.66,630.64,630.59,630.56,630.56,630.55,630.54,630.43,630.17,629.48,627.65,625.05,622.24,620.03,619.81,619.65,619.64,619.73,619.80,619.81,619.86,619.91,619.95,620.09,620.47,620.88,621.30,621.81,622.59,623.39,624.20,625.05,625.90,626.69,627.49,628.32,629.10,629.90,630.41,630.66,630.77,630.91,631.12,631.35,631.53,631.50,631.36,631.21,631.12,631.16,631.36,631.72,632.11,632.44,632.71,632.97,633.10,633.06,632.91,633.12,633.64,634.38,635.30,636.57,637.94,639.22,640.25,640.90,641.47,642.05,642.67,643.29,643.91,644.53,645.14,645.75,646.30,646.84,647.34,647.83,648.37,648.84,649.31,649.87,650.63,651.52,652.39,653.26,654.13,654.95,655.79,656.60,657.36,658.06,658.81,659.54,660.36,661.37,662.44,663.48,664.55,665.63,666.64,667.65,668.66,670.03,672.25,674.74,677.34,679.40,680.99,683.78,686.38,688.69,690.78,692.75,694.40,695.80,697.04,698.02,698.34,699.27,700.12,700.96,703.13,708.33,714.04,718.90,722.17,725.73,732.73,741.37,749.72,755.58,760.51,764.61,767.70
620.30,620.82,621.25,621.62,621.88,621.98,622.13,622.28,622.47,622.71,622.93,623.12,623.26,623.19,622.67,622.08,621.45,620.84,620.22,619.63,619.13,618.88,618.93,619.29,620.10,620.87,621.58,622.27,622.99,623.73,624.25,624.44,624.39,624.38,624.37,624.37,624.37,624.42,624.72,625.14,625.61,626.07,626.53,626.95,627.31,627.55,627.61,627.63,627.66,627.71,627.72,627.72,627.72,627.72,627.70,627.48,627.14,626.74,626.27,625.70,624.87,623.93,622.99,622.06,621.13,619.25,615.92,611.21,609.65,609.36,609.55,610.00,610.34,610.48,610.50,610.45,610.45,610.46,610.37,610.28,610.46,610.89,611.50,612.47,613.92,615.64,617.49,619.24,621.13,623.75,626.53,628.52,629.54,629.61,629.62,629.62,629.62,629.60,629.55,629.54,629.54,629.49,629.26,628.72,628.14,627.58,627.18,627.57,628.32,629.12,629.80,630.18,630.44,630.52,630.51,630.51,630.50,630.49,630.45,630.39,630.39,630.33,630.30,630.30,630.29,630.23,630.11,629.64,628.60,627.23,624.98,622.42,620.31,619.86,619.61,619.61,619.75,619.86,619.88,619.89,619.95,620.11,620.42,620.81,621.24,621.69,622.18,622.93,623.75,624.59,625.44,626.29,627.08,627.89,628.72,629.48,630.12,630.58,630.89,631.08,631.18,631.38,631.61,631.83,631.97,631.83,631.72,631.72,631.86,632.07,632.34,632.70,633.17,633.59,633.96,634.10,633.97,633.60,633.36,633.63,634.31,635.29,636.60,637.94,639.18,640.19,640.83,641.43,642.04,642.67,643.34,643.97,644.59,645.21,645.81,646.36,646.90,647.43,647.96,648.50,648.97,649.47,650.12,651.05,651.92,652.77,653.55,654.24,654.92,655.74,656.54,657.30,657.99,658.70,659.44,660.29,661.30,662.32,663.46,664.63,665.75,666.82,667.88,668.90,670.08,671.71,673.88,676.11,677.81,678.85,680.29,683.09,685.98,688.42,690.06,690.97,692.16,693.56,694.86,695.76,696.89,698.21,700.19,704.43,712.67,720.06,725.13,727.66,730.29,735.46,742.36,749.60,754.18,758.72,762.28,764.75
620.32,620.79,621.16,621.42,621.53,621.53,621.67,621.83,622.02,622.24,622.41,622.59,622.82,622.93,622.65,622.10,621.47,620.81,620.13,619.48,618.83,618.54,618.69,619.25,620.07,620.82,621.51,622.21,622.90,623.56,623.91,623.95,623.91,623.90,623.89,623.88,623.94,624.18,624.57,625.01,625.48,625.94,626.40,626.82,627.15,627.27,627.29,627.29,627.31,627.35,627.38,627.39,627.39,627.39,627.38,627.24,626.92,626.50,626.06,625.56,624.88,624.04,623.12,622.19,621.26,619.73,616.61,610.83,609.39,609.28,609.59,610.25,611.01,611.38,611.51,611.53,611.68,611.73,611.63,611.58,611.98,612.87,613.71,614.85,616.48,618.02,619.47,620.78,622.18,624.23,626.73,628.41,629.21,629.25,629.28,629.26,629.23,629.19,629.12,629.08,629.05,628.95,628.65,628.16,627.61,627.04,626.73,627.35,628.19,629.05,629.77,630.11,630.29,630.29,630.24,630.22,630.17,630.10,630.03,629.96,629.92,629.86,629.89,629.56,627.99,626.29,625.71,625.65,625.52,625.09,624.21,622.67,620.86,619.98,619.63,619.60,619.72,619.92,620.20,620.37,620.50,620.65,620.90,621.21,621.61,622.08,622.58,623.30,624.13,624.98,625.82,626.64,627.42,628.20,628.99,629.74,630.26,630.66,631.00,631.28,631.50,631.67,631.87,632.10,632.32,632.28,632.27,632.37,632.56,632.78,633.02,633.34,633.82,634.28,634.66,634.80,634.65,634.25,633.84,633.83,634.28,635.24,636.54,637.85,639.10,640.20,640.85,641.46,642.08,642.71,643.37,644.00,644.63,645.27,645.88,646.42,646.96,647.50,648.05,648.59,649.09,649.63,650.28,651.07,651.80,652.52,653.23,653.92,654.64,655.49,656.33,657.12,657.85,658.60,659.34,660.18,661.20,662.30,663.50,664.72,665.88,666.96,668.02,669.08,670.23,671.64,673.46,675.29,676.81,677.89,679.06,681.41,684.16,686.61,687.96,688.89,690.25,691.83,693.32,694.77,696.25,697.86,700.44,706.32,715.97,723.86,728.58,730.17,731.95,735.52,740.51,746.09,750.04,754.05,758.46,762.44
620.22,620.60,620.90,621.06,621.11,621.09,621.21,621.37,621.56,621.75,621.85,622.05,622.33,622.57,622.56,622.11,621.47,620.75,619.99,619.29,618.59,618.35,618.62,619.27,620.03,620.75,621.45,622.14,622.82,623.31,623.50,623.46,623.45,623.45,623.41,623.40,623.58,624.03,624.47,624.89,625.36,625.82,626.28,626.67,626.94,626.96,626.97,626.97,626.97,626.98,627.05,627.07,627.07,627.07,627.06,627.00,626.70,626.27,625.87,625.41,624.88,624.20,623.32,622.39,621.46,620.42,617.81,611.25,609.50,609.25,609.51,610.29,611.49,612.22,612.61,612.84,613.18,613.33,613.31,613.39,614.02,615.31,616.27,617.38,618.93,620.22,621.25,622.17,623.14,624.49,626.73,628.22,628.86,628.87,628.92,628.88,628.80,628.73,628.65,628.59,628.50,628.35,628.04,627.66,627.12,626.54,626.26,627.06,627.98,628.89,629.65,629.94,629.99,629.94,629.88,629.82,629.63,629.46,629.33,629.23,629.13,629.04,629.06,628.16,624.64,621.17,620.12,620.63,621.73,622.24,622.93,622.66,621.38,620.10,619.68,619.59,619.66,619.94,620.55,621.01,621.28,621.39,621.50,621.70,622.04,622.47,622.97,623.69,624.51,625.35,626.18,626.95,627.72,628.46,629.18,629.90,630.35,630.69,631.03,631.41,631.77,631.96,632.13,632.36,632.59,632.69,632.81,632.99,633.22,633.46,633.70,634.00,634.38,634.82,635.16,635.29,635.16,634.84,634.41,634.13,634.29,635.17,636.40,637.72,639.07,640.26,640.92,641.54,642.15,642.76,643.38,644.00,644.67,645.32,645.93,646.49,647.03,647.57,648.10,648.64,649.15,649.71,650.28,650.80,651.35,651.93,652.60,653.39,654.24,655.14,656.01,656.85,657.63,658.47,659.24,660.07,661.13,662.34,663.57,664.81,666.01,667.09,668.12,669.20,670.40,671.79,673.27,674.77,676.22,677.61,679.06,680.76,682.97,685.20,686.41,687.78,689.47,691.18,692.73,694.52,696.37,698.17,701.01,707.88,717.54,724.94,728.98,729.81,731.09,733.57,736.98,741.05,744.93,748.49,753.95,759.74
619.84,620.11,620.32,620.47,620.59,620.67,620.72,620.89,621.09,621.24,621.33,621.53,621.82,622.10,622.26,621.90,621.33,620.63,619.86,619.10,618.31,618.06,618.41,619.19,619.97,620.69,621.38,622.07,622.71,622.96,623.02,622.99,622.94,622.93,622.95,623.08,623.45,623.92,624.37,624.82,625.29,625.75,626.17,626.44,626.59,626.63,626.64,626.64,626.64,626.65,626.72,626.74,626.74,626.74,626.74,626.72,626.47,626.07,625.67,625.22,624.74,624.21,623.55,622.65,621.67,620.76,618.56,612.64,610.02,609.22,609.31,610.05,611.30,612.51,613.55,614.30,614.69,614.91,615.13,615.43,616.02,617.27,618.44,619.54,620.67,621.71,622.62,623.48,624.36,625.38,626.93,628.03,628.52,628.48,628.44,628.37,628.29,628.21,628.14,628.11,627.99,627.77,627.45,627.13,626.63,626.08,625.80,626.62,627.55,628.42,629.11,629.34,629.33,629.26,629.14,628.87,628.36,628.07,627.84,627.61,627.42,627.23,626.66,625.02,621.55,619.59,619.03,619.31,620.00,620.47,621.24,621.55,621.11,620.07,619.68,619.53,619.53,619.82,620.42,621.27,621.91,622.17,622.31,622.44,622.60,622.86,623.35,624.08,624.87,625.67,626.45,627.17,627.88,628.62,629.35,629.99,630.37,630.73,631.10,631.48,631.81,632.12,632.39,632.62,632.85,633.00,633.20,633.46,633.70,633.98,634.27,634.55,634.83,635.18,635.50,635.65,635.56,635.25,634.86,634.44,634.34,635.04,636.13,637.79,639.34,640.40,641.04,641.66,642.25,642.83,643.45,644.07,644.70,645.33,645.94,646.54,647.10,647.61,648.11,648.63,649.04,649.46,649.85,650.15,650.66,651.36,652.15,652.99,653.89,654.77,655.63,656.48,657.31,658.21,659.08,660.03,661.18,662.45,663.70,664.94,666.14,667.23,668.29,669.31,670.40,671.75,673.15,674.60,676.09,677.58,679.06,680.70,682.47,684.23,685.83,687.53,689.34,690.98,692.29,693.76,695.69,697.72,700.65,707.00,714.43,719.91,723.02,724.20,726.44,729.26,732.80,737.19,741.87,745.65,749.80,753.92
