591.55,591.89,592.25,592.62,593.01,593.39,593.73,594.00,594.26,594.55,594.97,595.57,596.23,596.91,597.55,597.88,598.28,598.74,599.25,599.80,600.27,600.75,601.29,601.90,602.53,603.19,603.89,604.61,605.42,606.22,607.03,607.84,608.59,609.34,610.11,610.88,611.50,611.88,612.19,612.72,613.56,614.45,615.38,616.30,617.23,618.14,618.93,619.73,620.58,621.52,622.46,623.44,624.43,625.41,626.39,627.35,628.28,629.25,630.32,631.41,632.57,633.78,635.02,636.28,637.51,638.71,639.88,641.08,642.16,643.25,644.37,645.53,646.67,647.80,648.98,650.21,651.43,652.76,654.22,655.73,657.21,658.64,660.20,662.26,664.97,667.70,670.39,673.42,676.78,680.19,683.82,687.48,690.61,692.64,694.29,695.77,696.88,697.88,699.99,703.24,710.18,719.30,727.23,733.25,734.08,731.06,726.04,723.34,722.65,722.81,723.62,725.45,726.90,727.82,728.34,728.53,728.38,727.96,727.46,727.09,727.26,728.08,729.03,730.00,731.10,732.05,732.83,733.86,735.47,737.40,740.02,743.67,747.80,750.69,751.87,752.02,751.60,750.79,750.04,751.50,755.18,760.36,764.68,771.90,786.78,803.00,808.33,813.09,814.62,815.16,816.07,815.05,811.58,806.94,801.79,796.71,792.24,788.84,786.63,786.02,787.24,789.87,792.54,794.92,797.96,801.35,805.42,810.30,815.72,818.37,817.89,817.50,820.01,825.60,831.27,836.35,840.65,844.04,846.33,849.72,854.99,862.83,872.60,878.26,881.14,882.56,884.26,889.48,901.95,917.55,927.29,937.90,946.34,951.97,954.38,954.48,952.93,951.01,949.24,947.73,946.17,944.78,943.42,941.82,940.07,938.05,936.07,934.27,932.27,930.43,928.46,926.42,924.73,924.05,923.05,921.61,919.94,918.38,916.82,915.06,913.63,914.11,915.94,917.85,919.62,921.15,921.17,919.80,917.39,914.23,911.22,908.57,906.49,904.98,904.13,903.91,904.02,904.40,905.15,906.28,907.04,907.22,906.53,904.40,902.13,899.16,895.50,891.43,887.94,884.21,880.25,876.64,875.19,874.98,874.99,874.61
591.69,592.07,592.40,592.76,593.14,593.53,593.90,594.23,594.54,594.92,595.53,596.32,597.11,597.86,598.51,598.80,598.95,599.13,599.44,600.00,600.43,600.86,601.32,601.82,602.40,603.07,603.76,604.47,605.24,606.06,606.87,607.63,608.33,609.02,609.80,610.48,610.82,611.07,611.46,612.12,613.02,613.88,614.80,615.73,616.67,617.61,618.53,619.49,620.48,621.46,622.39,623.38,624.35,625.28,626.22,627.20,628.15,629.11,630.14,631.28,632.50,633.79,635.17,636.60,637.89,639.09,640.25,641.39,642.42,643.44,644.46,645.49,646.57,647.66,648.75,649.91,651.34,652.90,654.50,656.13,657.78,659.27,660.59,662.36,664.88,667.43,669.70,672.76,676.76,681.27,686.07,690.05,692.99,694.90,696.90,698.62,699.97,701.58,705.39,711.63,719.51,727.87,735.02,739.72,739.88,736.90,732.47,730.33,729.84,730.10,731.07,733.15,734.57,735.15,735.17,734.82,734.20,732.92,731.81,731.36,731.59,732.40,733.35,734.17,734.66,735.23,735.38,735.72,736.83,738.80,742.90,747.75,752.28,755.17,756.09,756.01,755.25,753.87,752.73,752.96,755.13,759.20,763.69,771.09,786.74,803.99,809.70,814.57,818.37,820.95,821.91,821.18,818.03,812.97,807.05,802.31,797.81,793.87,790.96,789.96,791.13,793.69,796.58,799.53,802.93,806.65,811.32,816.89,822.78,826.57,826.02,822.96,819.83,820.91,826.19,831.48,835.34,838.46,842.78,848.89,856.11,863.74,871.97,877.48,881.78,885.80,889.51,894.71,905.07,918.33,929.16,943.65,952.02,955.78,957.13,956.48,954.88,953.04,951.23,949.58,948.19,947.29,946.52,945.24,942.58,940.07,938.02,936.16,933.35,930.34,927.91,925.96,923.98,922.34,920.68,919.03,917.43,915.71,913.79,911.74,909.93,909.34,909.57,911.42,914.44,917.60,919.23,918.91,917.47,915.31,912.73,910.21,907.23,904.06,901.73,901.13,901.04,901.21,901.80,902.95,903.73,904.16,904.36,904.36,902.91,901.17,898.90,895.23,891.28,887.27,883.08,878.84,875.53,873.37,871.81,870.63
591.83,592.21,592.57,592.91,593.27,593.65,594.04,594.41,594.81,595.34,596.10,596.93,597.79,598.65,599.41,599.71,599.80,599.83,599.94,600.34,600.65,601.02,601.43,601.86,602.36,602.96,603.63,604.34,605.10,605.90,606.66,607.37,608.02,608.66,609.34,609.90,610.11,610.30,610.78,611.53,612.45,613.35,614.27,615.25,616.28,617.35,618.38,619.42,620.44,621.40,622.38,623.34,624.28,625.21,626.13,627.08,628.05,629.02,630.02,631.23,632.54,633.90,635.31,636.76,638.13,639.39,640.55,641.56,642.57,643.58,644.58,645.60,646.67,647.71,648.73,649.81,651.27,652.86,654.51,656.19,657.88,659.46,660.94,662.63,664.63,666.57,668.35,670.97,674.71,679.49,684.71,689.08,692.61,695.66,699.19,702.58,705.91,709.69,715.18,722.61,730.17,737.55,744.43,747.36,747.15,744.63,740.76,739.04,739.13,739.67,740.46,742.02,743.06,743.55,743.42,742.52,741.06,738.49,736.48,735.73,735.59,736.38,737.49,738.41,738.66,738.65,738.08,737.69,738.29,740.52,746.10,752.03,756.98,760.31,761.55,761.26,759.84,757.56,756.22,755.43,755.56,757.00,759.92,764.92,779.29,797.59,807.29,812.82,816.86,820.27,823.03,824.82,824.74,821.29,815.13,809.27,803.76,799.12,795.85,794.89,796.65,799.31,802.17,805.16,808.61,812.75,817.72,823.53,830.04,834.77,835.34,832.39,827.10,823.67,824.40,827.46,831.65,835.87,841.10,847.65,854.71,861.74,870.68,876.63,881.31,885.94,890.74,896.34,907.54,921.97,933.20,946.59,954.94,958.83,959.50,958.79,957.08,955.19,953.40,951.75,950.52,949.78,949.24,948.23,945.28,942.54,940.28,938.17,935.17,931.97,929.32,927.25,925.43,923.81,922.49,921.18,919.69,918.43,916.84,914.39,911.32,908.93,906.73,907.07,909.21,911.64,913.89,914.61,914.29,913.26,911.65,909.67,906.93,903.59,900.33,898.35,897.59,897.53,897.95,899.09,899.96,900.73,901.48,902.12,901.93,901.16,899.71,897.13,893.77,890.51,886.71,882.14,878.28,876.14,874.48,873.00
591.95,592.34,592.73,593.06,593.40,593.78,594.17,594.56,595.06,595.74,596.55,597.40,598.28,599.19,600.00,600.38,600.46,600.46,600.51,600.79,601.04,601.35,601.70,602.06,602.47,602.95,603.51,604.18,604.92,605.66,606.36,607.02,607.64,608.26,608.88,609.36,609.51,609.69,610.22,611.01,611.99,612.95,613.94,614.98,616.07,617.21,618.29,619.38,620.41,621.37,622.35,623.28,624.21,625.11,626.04,626.97,627.93,628.89,629.87,631.15,632.53,633.93,635.35,636.81,638.22,639.54,640.72,641.68,642.67,643.67,644.67,645.67,646.72,647.72,648.69,649.74,651.18,652.77,654.42,656.11,657.78,659.43,661.02,662.76,664.65,666.28,667.79,670.05,673.37,677.83,682.76,687.18,691.21,695.21,699.67,703.92,708.53,713.99,720.62,728.22,735.53,742.54,749.05,751.70,752.66,751.93,749.65,748.74,749.22,749.85,750.53,751.98,753.27,753.83,753.55,752.16,749.58,745.78,742.76,741.35,740.89,741.77,742.93,743.83,743.99,743.26,741.69,740.43,740.56,742.65,747.81,753.92,759.81,764.50,767.39,768.14,766.92,764.11,762.44,760.91,759.26,758.03,758.88,761.10,771.67,787.58,800.33,807.69,812.49,816.77,821.33,825.45,828.15,827.38,823.22,817.75,810.89,805.11,801.23,800.09,802.09,805.20,808.46,811.61,814.87,818.98,824.01,830.03,837.02,842.47,843.60,840.92,835.31,830.07,826.96,827.11,830.25,834.55,839.59,845.58,852.31,860.00,870.08,877.09,882.52,887.62,892.87,898.69,909.69,923.93,935.70,947.95,956.36,960.65,961.09,960.56,959.04,957.30,955.61,953.96,952.85,951.97,951.14,950.04,947.33,944.60,942.23,940.11,937.53,934.57,931.78,929.47,927.92,926.69,925.83,924.86,923.43,922.20,920.57,917.82,914.07,910.53,906.76,904.98,904.99,906.15,908.55,909.88,910.26,909.91,908.95,907.42,905.10,901.95,898.16,895.44,894.14,893.70,893.79,894.67,895.55,896.59,897.81,898.89,899.66,899.62,898.77,897.05,894.56,892.23,889.30,885.42,881.91,880.07,878.58,877.13
592.08,592.47,592.85,593.19,593.53,593.91,594.30,594.69,595.29,596.10,596.88,597.72,598.57,599.41,600.16,600.71,600.86,600.92,601.08,601.38,601.63,601.90,602.20,602.46,602.77,603.07,603.45,604.02,604.69,605.33,605.95,606.57,607.18,607.80,608.42,608.89,609.07,609.29,609.81,610.63,611.69,612.75,613.87,614.98,616.06,617.15,618.24,619.31,620.36,621.35,622.29,623.22,624.11,624.99,625.91,626.84,627.77,628.70,629.68,630.99,632.37,633.79,635.25,636.71,638.12,639.47,640.70,641.70,642.70,643.69,644.67,645.63,646.64,647.60,648.57,649.65,651.04,652.61,654.24,655.87,657.51,659.20,660.78,662.72,665.11,666.93,668.52,670.65,673.54,677.20,681.14,685.22,689.37,693.56,697.74,701.36,705.77,711.64,718.61,725.45,732.92,740.41,746.44,751.00,755.05,757.72,758.41,758.99,759.63,760.16,760.97,763.03,765.34,766.12,765.61,763.96,760.21,755.45,751.39,748.92,748.26,749.31,750.32,750.93,751.07,749.48,746.64,744.41,744.16,745.55,747.92,753.02,760.40,767.29,773.29,776.61,776.91,774.25,772.06,770.13,767.38,764.10,762.87,762.73,767.05,776.25,789.38,799.43,805.97,811.36,817.08,822.56,826.86,829.50,830.04,827.39,819.34,812.03,807.19,805.56,807.24,811.13,815.28,818.77,821.60,825.06,829.91,836.14,843.41,849.46,850.20,847.36,842.88,839.25,834.47,831.58,831.75,834.45,838.09,842.80,849.47,859.37,870.36,878.96,885.90,891.75,896.95,902.65,911.33,922.78,935.52,947.80,956.38,960.97,961.71,961.49,960.54,959.23,957.67,956.00,954.89,953.52,951.92,950.27,948.38,945.94,943.66,941.91,940.31,937.95,935.15,932.56,931.27,930.60,930.05,929.22,927.77,925.88,923.54,920.60,917.16,913.60,909.63,905.54,902.44,902.13,904.17,905.50,905.93,905.60,904.70,903.34,901.31,898.45,894.72,892.37,890.89,889.93,889.47,889.76,890.50,891.71,893.33,894.93,896.06,896.47,896.07,894.70,893.15,891.64,889.96,887.91,885.61,883.95,882.65,881.56
592.16,592.54,592.93,593.29,593.66,594.04,594.43,594.88,595.52,596.32,597.10,597.94,598.76,599.56,600.32,601.00,601.28,601.44,601.66,601.96,602.21,602.46,602.72,602.95,603.21,603.49,603.79,604.17,604.64,605.09,605.57,606.11,606.68,607.29,607.92,608.42,608.68,609.07,609.63,610.46,611.58,612.66,613.77,614.89,616.00,617.09,618.17,619.25,620.29,621.24,622.17,623.10,624.01,624.91,625.84,626.76,627.67,628.54,629.42,630.54,631.87,633.29,634.76,636.22,637.59,638.97,640.27,641.28,642.25,643.15,644.08,645.14,646.19,647.22,648.25,649.34,650.61,652.09,653.68,655.31,656.99,658.76,660.76,663.10,665.74,668.01,669.75,671.74,674.35,677.79,681.77,686.03,689.84,692.61,695.40,698.25,701.35,705.37,711.81,717.98,725.17,733.05,740.50,747.37,753.63,758.69,762.18,765.22,767.65,769.54,771.19,773.28,774.82,775.42,775.24,774.24,772.13,767.75,763.05,759.34,757.74,758.35,759.07,759.35,759.00,756.53,753.23,750.89,750.70,751.92,753.82,758.19,764.72,771.02,777.25,781.94,784.10,782.85,780.74,778.66,776.48,774.38,773.40,774.22,777.51,783.48,792.14,798.47,803.76,808.68,813.59,819.07,823.86,827.81,830.66,831.27,825.90,819.05,813.73,812.56,815.09,818.54,821.85,824.62,826.68,829.56,834.06,840.13,847.64,855.84,858.05,855.57,850.40,845.77,840.52,836.77,835.59,837.23,839.93,843.69,849.55,858.75,867.96,876.75,884.46,891.01,897.58,903.22,910.31,920.46,935.06,946.53,955.43,961.00,962.26,961.98,961.03,959.78,958.20,956.12,954.46,952.86,951.26,949.77,948.41,946.70,944.93,943.32,941.81,940.07,938.06,936.05,934.67,933.70,932.73,931.55,930.05,928.05,925.01,921.62,918.18,914.79,911.34,907.15,902.98,900.48,900.76,901.38,901.50,900.95,900.16,898.42,895.96,893.29,891.19,889.38,888.32,887.57,886.79,886.43,887.07,888.24,889.70,891.22,892.38,892.93,892.74,891.67,890.52,889.06,887.31,885.38,883.66,882.54,881.72,880.91
592.18,592.56,592.95,593.35,593.75,594.13,594.52,595.05,595.72,596.49,597.27,598.08,598.86,599.62,600.41,601.22,601.67,601.96,602.22,602.51,602.75,602.98,603.21,603.44,603.68,603.95,604.22,604.48,604.79,605.10,605.46,605.88,606.38,606.91,607.46,607.96,608.37,608.93,609.57,610.40,611.49,612.58,613.65,614.78,615.92,617.00,618.08,619.17,620.21,621.14,622.07,622.98,623.89,624.80,625.71,626.62,627.48,628.30,629.11,630.02,631.22,632.59,634.04,635.50,636.87,638.27,639.63,640.66,641.59,642.43,643.37,644.53,645.64,646.73,647.80,648.90,650.06,651.49,653.08,654.78,656.57,658.47,660.98,663.78,666.65,669.40,671.31,673.17,675.44,678.60,682.77,687.18,690.66,692.37,694.30,696.58,698.65,701.25,706.98,712.77,719.99,728.49,737.49,745.73,752.71,758.46,763.06,767.43,771.22,774.44,777.26,779.79,780.71,781.21,781.53,781.52,781.41,778.25,774.05,770.25,768.23,768.17,768.58,768.76,767.97,764.64,760.87,758.68,759.23,761.27,763.86,767.83,772.96,777.89,783.15,787.80,790.73,790.67,789.15,787.67,786.75,786.46,786.52,789.00,792.56,796.60,800.74,802.96,806.21,809.89,813.47,817.93,822.05,825.86,829.43,832.32,830.63,825.33,820.22,819.51,822.52,825.22,827.51,829.50,830.95,833.32,837.75,844.60,854.22,863.96,866.80,864.23,858.22,852.05,845.90,841.89,840.81,842.29,844.27,847.07,851.44,858.16,864.91,872.87,880.72,888.05,896.13,902.23,908.70,918.17,933.54,944.59,953.72,960.13,962.30,962.12,961.10,959.63,957.74,955.42,953.31,951.51,949.96,948.60,947.51,946.43,945.24,943.92,942.59,941.41,940.07,938.59,937.12,935.80,934.39,932.93,931.40,929.48,926.01,922.22,918.67,915.45,912.43,908.63,904.24,900.21,898.62,898.12,897.69,896.99,896.32,894.51,892.02,889.75,889.07,887.97,887.44,887.03,886.15,885.25,884.99,885.41,886.45,887.65,888.77,889.35,889.26,888.44,887.44,885.86,883.79,881.52,880.05,879.12,878.33,877.46
592.11,592.50,592.89,593.31,593.74,594.13,594.52,595.13,595.85,596.62,597.39,598.12,598.83,599.58,600.42,601.32,601.97,602.42,602.71,602.96,603.20,603.43,603.67,603.90,604.13,604.37,604.63,604.94,605.24,605.55,605.84,606.12,606.46,606.81,607.17,607.58,608.18,608.90,609.64,610.45,611.38,612.44,613.52,614.65,615.79,616.87,617.95,619.08,620.14,621.07,621.99,622.87,623.73,624.59,625.45,626.31,627.13,627.93,628.75,629.50,630.46,631.66,633.07,634.53,635.93,637.36,638.75,639.85,640.76,641.65,642.67,643.89,645.04,646.14,647.23,648.31,649.43,650.89,652.59,654.46,656.45,658.55,661.54,664.83,668.03,671.21,673.35,675.07,676.86,679.35,683.49,687.72,691.09,693.21,695.82,697.94,700.13,703.18,708.26,714.27,722.25,731.77,741.61,749.17,754.41,758.04,760.62,763.75,767.24,771.12,775.32,779.29,780.74,781.54,782.41,783.58,784.88,783.93,782.21,780.62,779.50,778.66,778.83,779.34,778.40,774.36,769.88,767.96,770.37,774.73,778.99,783.05,786.89,790.31,793.64,796.22,797.71,797.85,797.63,797.95,798.74,799.90,801.44,805.30,809.14,812.15,814.01,814.44,815.53,817.31,819.49,821.64,823.46,825.32,827.62,830.74,832.67,830.13,826.27,825.62,827.84,829.84,831.55,833.13,834.46,836.73,841.92,851.46,866.45,875.72,876.74,872.91,866.58,859.05,850.73,846.64,847.65,850.42,851.92,853.64,855.66,857.90,862.15,867.94,874.95,883.19,892.38,899.87,907.23,916.50,930.18,941.88,950.98,957.65,961.36,961.77,960.78,958.76,956.13,954.02,951.85,949.89,948.11,946.47,945.27,944.44,943.75,943.10,942.58,941.76,940.52,939.03,937.67,936.25,934.80,933.36,931.91,930.17,926.76,922.86,919.13,915.93,912.82,909.30,905.40,901.48,898.50,896.46,895.23,894.68,894.11,893.07,891.58,890.16,889.83,889.61,889.57,889.42,888.80,887.53,884.87,883.31,883.57,884.26,885.31,885.88,885.80,885.09,884.05,882.39,880.12,877.56,875.96,874.44,872.72,871.18
592.10,592.49,592.88,593.28,593.71,594.13,594.56,595.20,595.91,596.64,597.37,598.11,598.83,599.57,600.41,601.26,601.91,602.41,602.79,603.15,603.53,603.86,604.12,604.36,604.59,604.82,605.08,605.39,605.70,605.97,606.25,606.52,606.83,607.14,607.43,607.78,608.34,609.01,609.73,610.51,611.38,612.34,613.40,614.52,615.66,616.74,617.82,618.93,619.96,620.85,621.74,622.60,623.44,624.28,625.10,625.94,626.77,627.58,628.37,629.04,629.84,630.85,632.16,633.61,635.02,636.43,637.80,638.97,639.87,640.88,642.01,643.25,644.45,645.55,646.67,647.84,649.02,650.50,652.34,654.44,656.66,658.98,662.39,666.22,669.97,673.62,676.15,677.97,679.74,682.54,686.03,689.60,692.74,695.21,697.95,701.00,704.41,708.36,713.37,720.80,728.33,736.07,744.76,750.08,752.81,754.14,754.93,756.78,760.10,764.16,768.62,773.04,775.68,777.40,778.95,780.80,782.94,784.16,785.21,786.21,786.43,786.14,786.25,786.43,785.57,782.92,781.15,781.60,784.78,788.68,791.99,795.16,798.25,800.93,803.83,806.27,808.07,809.03,809.11,809.10,809.47,810.64,813.23,817.13,820.69,823.20,824.15,824.30,824.52,825.37,826.96,828.09,828.51,828.67,829.11,830.84,834.16,833.44,830.88,830.48,831.91,833.46,834.97,836.69,839.75,850.51,862.28,873.10,882.93,888.48,887.21,881.66,873.46,863.53,856.46,854.29,856.41,859.22,861.61,863.93,865.75,866.49,867.44,868.88,873.11,881.05,890.02,897.73,905.67,915.30,928.16,939.48,948.09,954.82,959.56,960.34,959.10,956.76,953.91,951.68,949.80,947.94,946.07,944.33,942.98,942.27,941.84,941.52,941.30,940.65,939.60,938.25,936.77,935.27,933.95,932.75,931.52,929.88,926.66,922.91,919.16,915.66,912.13,908.71,905.27,901.81,899.43,897.71,896.84,896.84,896.64,895.31,893.85,893.07,893.89,894.54,895.01,894.98,893.96,891.77,888.34,884.86,882.24,881.54,882.00,882.43,882.36,881.45,879.74,878.08,876.50,874.99,873.84,872.46,870.86,869.29
592.08,592.47,592.86,593.25,593.68,594.15,594.62,595.25,595.94,596.63,597.34,598.10,598.83,599.57,600.40,601.14,601.73,602.23,602.71,603.18,603.69,604.12,604.45,604.73,605.00,605.26,605.53,605.84,606.14,606.39,606.67,606.98,607.27,607.58,607.85,608.15,608.61,609.19,609.87,610.62,611.46,612.30,613.30,614.40,615.52,616.59,617.66,618.71,619.69,620.56,621.41,622.26,623.10,623.94,624.73,625.57,626.41,627.23,627.96,628.61,629.31,630.20,631.39,632.80,634.26,635.66,636.96,638.13,639.08,640.23,641.51,642.84,644.14,645.24,646.35,647.54,648.76,650.29,652.29,654.63,657.09,659.69,663.51,667.85,672.19,676.34,679.52,681.85,683.98,687.09,689.80,692.66,695.59,698.40,701.23,705.16,709.65,714.51,719.94,727.81,734.01,739.22,745.59,748.52,749.00,748.51,748.10,749.01,752.25,756.36,760.72,765.13,768.85,771.49,773.62,775.90,778.74,782.11,785.66,788.81,790.38,791.07,791.47,791.63,791.27,790.55,791.65,794.10,797.17,799.76,801.48,803.47,805.77,807.60,809.93,812.38,814.94,817.45,818.48,818.41,818.25,818.87,821.37,824.23,826.75,828.37,828.41,828.51,828.66,829.28,830.56,831.61,831.89,831.55,831.11,831.92,835.52,836.06,834.81,834.72,835.51,839.36,843.72,847.55,852.76,869.06,884.30,894.29,898.13,899.85,896.39,889.19,879.34,868.19,863.80,864.20,867.13,869.46,872.58,875.43,877.33,877.41,875.29,872.33,873.31,880.10,888.44,896.57,905.10,914.79,926.55,936.89,945.11,951.99,957.30,958.37,956.95,954.52,951.77,949.41,947.75,945.97,944.05,942.27,940.83,940.10,939.72,939.49,939.30,938.57,937.60,936.45,935.07,933.70,932.61,931.60,930.39,928.61,925.57,922.05,918.34,914.49,910.84,907.75,905.02,902.54,901.25,900.26,899.91,900.30,900.28,898.47,896.98,896.86,898.69,899.92,900.63,900.50,898.94,895.90,892.27,887.54,882.47,880.20,879.71,879.74,879.60,878.65,876.74,875.38,874.58,874.11,873.40,872.27,870.98,869.49
592.02,592.40,592.79,593.22,593.70,594.22,594.69,595.28,595.94,596.63,597.34,598.10,598.83,599.57,600.38,601.00,601.50,602.00,602.51,602.98,603.45,603.94,604.42,604.85,605.33,605.69,605.99,606.28,606.54,606.82,607.12,607.42,607.67,607.97,608.27,608.58,608.94,609.47,610.13,610.86,611.65,612.44,613.31,614.30,615.38,616.40,617.42,618.36,619.25,620.17,621.08,621.90,622.71,623.56,624.40,625.25,626.05,626.82,627.52,628.21,628.99,629.90,630.98,632.26,633.92,635.36,636.47,637.52,638.62,639.93,641.45,643.11,644.66,645.67,646.60,647.64,648.74,650.40,652.61,655.12,657.79,660.94,665.15,669.86,674.67,679.49,683.88,687.66,690.84,693.41,695.53,697.91,700.74,704.01,707.28,710.98,715.31,720.64,727.38,731.97,735.36,738.21,740.75,742.12,741.76,740.95,740.75,741.73,745.06,749.19,753.39,757.39,761.32,764.31,766.69,769.13,772.69,778.18,783.28,786.95,789.63,791.36,792.90,794.38,795.55,796.50,798.04,799.73,801.15,802.31,802.83,803.66,804.65,804.61,804.84,806.04,809.12,814.74,819.40,821.81,822.61,822.30,821.87,821.76,821.58,820.75,818.74,818.14,819.41,820.96,822.06,824.62,827.48,829.82,831.78,834.37,837.03,837.96,837.97,838.32,838.85,852.48,868.04,879.03,886.00,892.35,897.42,901.77,906.14,906.46,901.45,893.21,883.63,875.50,874.95,878.05,881.82,883.25,885.41,887.19,888.14,887.52,883.56,877.94,875.96,880.20,887.86,898.01,907.34,915.78,924.95,933.49,941.98,949.49,954.47,955.83,954.61,952.57,950.37,948.18,946.22,944.23,942.25,940.51,939.08,938.09,937.36,936.79,936.28,934.98,933.73,932.85,932.35,931.71,930.95,929.82,927.98,925.43,922.39,919.09,915.47,911.40,908.76,906.79,905.49,905.17,904.66,903.97,903.63,903.69,903.02,901.11,900.26,901.00,902.77,903.82,903.97,903.23,901.35,898.09,894.50,890.31,885.78,882.23,880.21,879.19,878.72,878.48,878.22,877.85,877.39,876.84,876.07,874.89,873.52,871.90
591.95,592.35,592.76,593.23,593.73,594.23,594.70,595.31,595.99,596.68,597.38,598.11,598.83,599.53,600.25,600.81,601.32,601.82,602.33,602.83,603.33,603.83,604.32,604.79,605.32,605.76,606.15,606.55,606.87,607.20,607.53,607.82,608.06,608.36,608.67,608.98,609.31,609.83,610.45,611.13,611.84,612.61,613.42,614.32,615.27,616.17,617.06,617.90,618.75,619.64,620.57,621.43,622.29,623.18,624.06,624.89,625.68,626.45,627.22,627.98,628.78,629.78,631.13,632.89,634.87,636.38,637.40,638.36,639.51,641.13,643.03,644.89,646.21,646.99,647.74,648.68,649.85,651.68,653.90,656.33,659.07,662.75,667.09,671.82,676.78,681.83,686.84,691.49,695.39,697.95,700.16,702.91,706.01,709.09,712.04,715.64,719.82,724.51,729.28,731.85,733.44,734.63,735.54,736.02,735.67,735.32,735.67,736.90,739.57,742.73,745.95,749.13,752.61,756.16,759.68,763.37,768.32,774.57,780.02,783.79,786.49,788.44,790.33,791.91,792.49,793.11,793.84,794.45,794.83,795.13,795.20,795.30,795.47,795.62,796.43,799.66,805.23,812.17,815.76,816.99,817.00,816.13,814.57,813.49,812.32,810.80,809.00,808.66,810.37,812.37,813.77,816.41,820.46,824.76,828.94,833.09,836.98,838.81,842.69,853.58,865.32,878.42,889.84,897.86,903.20,906.13,908.70,911.58,914.05,911.63,905.60,898.31,891.52,886.95,887.70,890.59,893.49,894.44,895.57,896.27,896.02,893.91,889.17,882.07,878.80,882.56,890.47,901.42,910.48,917.57,925.32,933.84,942.32,949.07,952.59,953.98,953.34,951.88,950.11,948.12,946.06,943.93,941.91,940.26,938.90,937.65,936.44,935.25,934.07,932.48,930.92,929.58,928.62,928.43,927.58,926.10,924.15,921.81,919.30,916.43,913.24,910.28,908.83,908.07,907.83,908.19,908.19,907.78,907.28,906.71,905.52,903.78,903.55,904.92,906.69,907.61,907.26,905.63,902.65,899.30,896.41,893.34,889.92,886.76,884.38,882.85,882.03,881.78,881.57,881.14,880.51,879.70,878.85,877.63,876.16,874.39
591.82,592.24,592.70,593.22,593.75,594.22,594.70,595.34,596.03,596.72,597.41,598.11,598.81,599.48,600.11,600.65,601.18,601.68,602.17,602.69,603.23,603.73,604.19,604.67,605.20,605.68,606.17,606.68,607.09,607.49,607.85,608.16,608.42,608.73,609.04,609.36,609.73,610.24,610.82,611.43,612.07,612.81,613.58,614.39,615.22,616.01,616.79,617.57,618.38,619.23,620.14,621.05,621.96,622.87,623.77,624.59,625.38,626.18,627.03,627.86,628.66,629.80,631.58,633.95,636.25,637.99,639.24,640.39,641.66,643.46,645.49,647.29,648.28,648.93,649.62,650.54,651.81,653.72,655.82,658.08,660.89,664.89,669.29,673.97,678.93,684.02,689.28,694.28,698.52,701.13,703.45,706.51,709.72,712.38,715.05,718.67,722.54,725.95,727.90,729.04,729.40,729.42,729.62,729.62,729.68,730.17,731.32,732.93,734.82,736.83,738.96,741.41,744.20,748.33,753.28,758.61,764.79,770.91,776.00,779.57,781.79,783.54,785.24,786.35,785.86,785.64,785.39,785.11,784.81,784.45,784.25,783.90,783.72,784.95,787.55,793.58,801.47,808.24,809.52,808.80,807.62,806.26,804.45,803.28,802.01,800.64,799.78,800.22,802.13,804.38,806.44,809.41,814.44,820.32,826.32,832.12,839.53,845.04,854.29,874.56,895.93,904.78,908.23,910.78,913.88,916.35,919.12,921.56,921.30,916.36,910.03,904.46,900.95,899.28,900.02,901.75,903.53,904.42,904.71,904.18,902.40,898.64,893.57,885.88,882.30,886.48,895.39,905.89,913.91,919.86,926.86,936.52,944.63,949.84,951.71,952.99,952.82,951.82,950.33,948.55,946.50,944.39,942.42,940.87,939.59,938.12,936.46,934.67,932.87,931.16,929.37,927.41,925.46,925.07,923.86,922.05,920.22,918.44,916.70,914.61,912.33,910.84,910.46,910.70,911.17,911.63,911.89,911.63,910.89,909.63,907.90,906.46,906.73,908.49,910.25,910.90,910.00,907.48,903.53,900.39,898.40,896.48,894.22,891.81,889.60,888.01,887.01,886.46,885.71,884.79,883.77,882.68,881.63,880.37,878.84,876.96
591.47,591.98,592.50,593.07,593.64,594.16,594.69,595.30,595.96,596.66,597.35,598.05,598.74,599.43,600.09,600.59,601.07,601.57,602.09,602.57,603.10,603.60,604.07,604.60,605.09,605.55,606.05,606.57,607.02,607.51,607.95,608.32,608.67,609.04,609.37,609.73,610.23,610.75,611.27,611.79,612.37,613.03,613.77,614.55,615.35,616.18,616.96,617.77,618.59,619.39,620.25,621.12,621.96,622.78,623.65,624.54,625.39,626.23,627.07,627.87,628.69,630.06,632.30,634.95,637.42,639.90,642.41,644.72,646.38,647.66,648.76,649.79,650.82,651.82,652.86,653.96,655.22,656.83,658.62,660.79,663.79,667.42,671.96,676.84,681.76,686.83,691.76,696.18,699.76,701.99,703.53,705.59,707.87,710.14,713.73,717.63,720.53,722.00,722.61,722.55,722.29,721.98,721.74,721.74,722.52,724.13,726.47,728.66,730.29,731.83,733.70,736.30,738.47,742.88,749.11,756.00,761.92,766.71,770.57,773.38,774.92,776.07,776.83,777.09,776.69,776.53,776.43,776.25,775.81,774.75,773.86,773.37,773.81,776.47,781.45,788.60,795.50,799.36,800.42,799.97,798.50,796.41,794.94,794.16,793.54,792.88,792.47,794.19,796.39,798.82,802.14,808.21,815.45,822.51,829.26,837.22,853.25,871.39,887.77,899.71,909.85,915.31,918.20,920.19,923.47,926.94,929.00,929.06,926.36,921.54,916.60,912.85,910.90,909.13,908.75,909.82,911.88,913.61,913.91,911.61,907.52,902.63,897.27,890.57,887.89,892.82,904.07,911.41,917.13,922.76,929.89,942.24,949.17,951.96,953.12,954.06,953.48,952.23,950.73,949.07,947.23,945.50,943.90,942.44,941.22,939.61,937.78,935.90,934.12,932.49,930.78,928.65,925.64,923.11,921.22,919.53,917.82,916.46,915.66,915.29,915.07,914.58,914.68,915.04,915.51,916.01,916.04,915.54,914.50,912.74,910.25,909.10,909.54,911.10,912.70,912.59,910.86,907.91,904.36,902.38,901.02,899.67,897.90,895.25,893.57,892.72,892.18,891.35,890.08,888.58,887.14,885.83,884.28,882.91,881.44,879.70
591.18,591.75,592.30,592.89,593.47,594.02,594.60,595.23,595.90,596.59,597.29,597.96,598.64,599.32,599.96,600.48,600.98,601.48,601.98,602.44,602.97,603.47,603.95,604.49,604.96,605.44,605.95,606.45,606.95,607.45,607.93,608.38,608.79,609.22,609.57,610.02,610.79,611.33,611.83,612.33,612.85,613.40,614.06,614.76,615.52,616.34,617.12,617.94,618.76,619.54,620.35,621.17,622.00,622.86,623.81,624.78,625.74,626.62,627.43,628.20,629.03,630.89,634.11,637.09,640.37,643.75,646.92,649.28,650.95,651.96,652.73,653.59,654.62,655.83,657.17,658.62,660.05,661.57,663.16,665.06,667.81,671.50,675.76,680.09,684.36,689.04,692.71,695.72,698.15,699.73,700.61,701.56,702.81,704.91,709.60,714.23,717.10,717.84,717.62,716.92,716.24,715.77,715.63,715.89,717.08,719.03,721.50,723.67,725.23,726.78,728.96,732.48,735.18,739.39,745.36,752.42,757.48,761.24,764.18,766.34,767.65,768.46,768.76,768.67,768.30,767.83,767.41,766.96,766.27,764.87,764.08,763.99,765.10,768.49,772.38,777.44,781.96,784.24,787.17,788.32,788.32,787.51,786.06,786.50,787.88,789.27,790.07,792.79,795.88,799.61,804.97,813.09,822.64,834.89,848.76,860.63,875.75,892.08,905.97,913.59,917.93,920.73,922.64,924.25,927.07,929.78,931.08,930.55,927.97,925.51,922.89,920.75,919.40,917.62,917.50,918.92,921.13,922.32,921.40,917.44,912.17,907.77,904.38,901.50,901.49,906.03,913.92,918.22,921.81,926.42,933.83,945.66,951.83,953.99,954.84,955.32,954.46,953.09,951.60,950.00,948.37,946.85,945.21,943.17,941.31,939.55,937.75,935.88,934.17,932.59,930.77,928.37,925.02,922.04,920.39,919.39,918.46,917.91,917.80,918.08,918.46,918.28,918.43,918.69,919.01,919.33,919.18,918.62,917.61,916.06,914.01,913.02,913.06,913.92,915.11,913.82,911.31,908.39,905.72,904.43,903.35,902.02,900.24,897.96,897.16,897.00,896.79,895.91,894.11,892.25,890.45,888.65,886.86,885.34,883.70,881.77
590.94,591.55,592.11,592.71,593.30,593.86,594.47,595.13,595.82,596.52,597.20,597.84,598.50,599.17,599.78,600.34,600.88,601.38,601.85,602.33,602.85,603.34,603.82,604.36,604.83,605.35,605.85,606.33,606.86,607.35,607.84,608.37,608.84,609.29,609.69,610.27,611.27,611.85,612.39,612.92,613.40,613.89,614.42,615.03,615.74,616.49,617.23,618.04,618.85,619.63,620.43,621.24,622.10,623.07,624.13,625.20,626.22,627.16,627.95,628.72,629.76,632.30,636.58,639.89,644.10,648.28,651.74,653.73,655.28,656.37,657.30,658.36,659.54,660.84,662.37,664.10,665.74,667.30,668.75,670.28,672.45,676.11,679.71,682.99,686.14,689.94,691.90,693.20,694.34,695.17,695.57,695.80,696.49,698.74,704.21,709.44,712.63,713.27,712.37,711.30,710.41,709.93,710.16,710.93,712.47,714.44,716.55,718.43,720.01,721.81,724.51,729.00,732.63,736.40,741.28,747.52,751.52,754.60,756.95,758.59,759.84,760.47,760.67,760.57,760.18,759.33,758.48,757.69,756.82,755.41,755.10,755.58,757.11,760.36,761.74,763.51,765.40,767.23,772.69,776.38,779.22,781.27,780.78,782.93,786.49,790.02,792.26,795.63,799.74,805.58,814.32,825.47,837.41,854.52,874.91,889.25,898.35,905.91,912.88,918.53,920.74,921.60,922.47,924.00,926.43,927.85,928.68,928.85,928.00,928.53,928.35,927.52,926.40,925.04,925.75,927.84,930.12,930.31,927.91,922.84,917.34,914.28,913.83,915.40,918.21,921.66,924.27,926.17,928.04,931.27,938.45,947.84,953.48,956.01,956.70,956.66,955.64,954.25,952.76,951.21,949.71,948.14,946.10,943.15,940.40,938.52,936.82,935.00,933.35,931.73,929.74,927.27,924.43,922.25,921.29,921.01,920.97,921.26,921.67,922.01,922.13,921.85,921.76,921.79,921.87,921.87,921.62,921.11,920.39,919.45,918.42,917.51,916.94,916.92,917.47,915.03,911.94,909.26,907.52,906.54,905.46,903.91,901.98,900.39,900.47,900.78,900.73,899.89,897.69,895.63,893.51,891.20,889.26,887.56,885.61,883.26
590.75,591.36,591.96,592.57,593.18,593.78,594.39,595.03,595.70,596.38,597.02,597.69,598.35,598.98,599.59,600.19,600.75,601.25,601.73,602.24,602.74,603.21,603.69,604.23,604.70,605.22,605.73,606.20,606.74,607.22,607.72,608.25,608.77,609.24,609.81,610.51,611.32,612.02,612.72,613.37,613.93,614.45,614.95,615.49,616.08,616.68,617.29,617.99,618.76,619.60,620.53,621.46,622.45,623.49,624.51,625.59,626.62,627.59,628.46,629.25,631.36,634.87,639.31,642.76,646.90,651.10,654.82,657.42,659.34,661.13,662.75,664.17,666.29,667.63,668.88,670.35,671.84,673.37,674.69,675.87,677.19,679.36,681.63,683.57,685.07,686.73,687.17,687.38,687.68,688.01,688.39,689.69,691.92,695.19,699.68,703.96,706.64,706.92,704.80,703.31,702.62,702.52,702.99,704.73,707.16,709.67,711.89,713.77,715.46,717.47,720.22,724.18,727.67,731.06,734.98,739.67,742.91,745.92,748.26,749.63,750.38,750.89,751.24,751.34,751.01,750.55,750.07,749.64,749.18,748.29,748.18,748.64,749.53,750.70,751.70,752.65,753.92,756.55,762.66,769.99,777.39,784.20,789.46,793.47,796.79,799.74,802.60,805.80,810.11,818.77,834.82,855.95,870.54,881.44,890.21,896.84,901.46,906.25,910.57,912.77,913.26,913.56,914.87,917.78,921.91,924.09,925.85,927.67,929.29,930.55,931.01,930.90,930.59,930.85,931.41,933.14,935.57,936.33,934.41,930.16,925.71,923.77,925.07,927.17,929.25,931.39,934.32,936.11,937.43,939.44,944.03,950.53,955.58,958.32,958.56,958.16,957.04,955.65,954.16,952.57,951.03,948.72,945.62,942.03,939.10,937.15,935.44,933.61,931.86,929.92,928.12,926.77,926.31,925.95,925.32,924.63,924.27,924.68,925.47,925.98,925.91,925.18,924.73,924.37,924.05,923.79,923.49,923.15,922.86,922.61,922.28,921.41,920.64,920.12,919.45,917.05,914.18,911.60,909.81,908.80,907.47,905.87,904.25,903.21,903.29,903.47,903.24,902.17,900.26,898.07,895.76,893.38,891.14,889.21,886.88,883.96
590.59,591.24,591.86,592.48,593.09,593.68,594.29,594.89,595.53,596.21,596.83,597.47,598.10,598.72,599.36,599.98,600.59,601.13,601.60,602.11,602.60,603.08,603.57,604.09,604.54,605.03,605.54,606.03,606.54,607.04,607.54,608.06,608.59,609.10,609.72,610.44,611.17,611.93,612.71,613.45,614.14,614.80,615.39,615.95,616.49,617.02,617.57,618.17,618.86,619.67,620.70,621.74,622.80,623.87,624.90,625.98,627.01,628.00,629.02,630.43,633.41,637.27,641.32,644.67,648.56,652.96,657.35,660.65,663.25,665.46,667.23,668.51,670.20,670.98,671.53,672.15,672.86,673.79,674.73,675.69,676.83,678.39,679.84,680.83,681.26,681.49,681.23,681.01,681.08,681.55,682.32,684.18,687.09,690.81,694.47,697.72,699.84,700.19,698.44,697.22,696.86,697.14,697.97,699.96,702.41,704.83,706.97,708.89,711.04,713.31,715.76,718.68,721.61,724.40,727.33,730.52,733.03,735.51,737.12,737.77,738.75,739.08,738.91,738.87,739.67,739.86,740.02,740.39,740.93,741.12,741.56,742.23,742.99,743.71,745.34,747.43,750.82,756.86,764.35,772.74,781.24,789.60,797.90,804.12,808.42,811.55,814.63,819.36,831.25,845.69,859.86,877.25,887.46,892.15,893.70,895.46,897.27,900.18,902.84,903.37,903.22,903.55,905.44,909.57,915.58,920.37,923.99,926.90,929.35,929.58,928.96,928.16,927.60,928.03,929.08,931.57,935.20,937.99,938.56,937.11,934.98,933.92,935.41,937.70,939.70,941.35,943.91,945.44,946.72,948.40,951.27,954.99,958.54,960.67,960.56,959.95,958.64,957.14,955.62,953.99,952.19,949.52,946.02,942.07,938.97,937.17,935.56,933.60,931.70,930.03,928.93,928.62,929.29,929.65,929.11,928.17,927.56,928.08,929.11,929.66,929.37,928.31,927.37,926.58,926.02,925.83,925.63,925.45,925.39,925.29,924.33,923.39,922.72,922.15,921.10,919.17,916.69,914.26,912.42,911.12,909.61,908.04,906.69,906.06,906.09,906.01,905.42,903.92,901.95,899.65,897.27,894.92,892.67,890.63,887.92,884.42
590.49,591.16,591.78,592.40,592.99,593.55,594.16,594.73,595.34,596.00,596.62,597.18,597.78,598.42,599.10,599.72,600.39,600.98,601.46,601.93,602.44,602.92,603.38,603.90,604.32,604.77,605.27,605.80,606.27,606.79,607.30,607.78,608.32,608.87,609.49,610.19,610.96,611.74,612.52,613.32,614.14,614.97,615.73,616.37,616.91,617.46,618.00,618.56,619.14,619.87,620.96,622.04,623.12,624.20,625.28,626.36,627.40,628.41,629.63,632.03,635.51,639.20,642.60,645.70,649.28,654.00,659.22,663.11,666.44,668.65,669.99,670.62,670.82,670.67,670.33,669.91,669.61,669.67,670.13,671.00,672.39,674.05,675.12,675.60,675.53,675.21,674.94,674.83,675.08,676.13,677.50,679.43,682.12,685.65,688.74,691.15,692.80,693.54,693.30,692.92,693.00,693.64,694.88,696.52,698.31,700.13,701.99,703.90,706.55,708.92,710.81,712.66,714.98,717.13,719.12,721.09,723.00,724.71,725.40,725.51,727.67,728.14,727.52,727.49,729.93,730.80,731.63,732.89,734.56,735.89,736.95,737.87,738.86,740.39,743.76,749.22,757.06,767.33,776.02,782.98,789.46,796.41,804.95,813.46,819.62,823.48,826.51,833.66,856.83,877.75,883.32,887.37,888.67,888.40,887.58,887.53,888.05,889.64,891.42,892.28,892.54,893.59,896.28,901.36,909.00,917.25,923.03,926.29,927.85,926.01,923.41,921.08,919.54,919.05,921.22,925.34,930.69,936.05,939.90,942.21,943.21,943.14,944.01,946.37,948.72,950.32,951.59,952.63,954.25,956.44,958.69,960.29,961.98,963.04,962.75,962.02,960.43,958.71,957.11,955.40,953.21,950.50,947.14,943.13,939.98,938.51,937.13,935.07,933.05,932.02,931.82,932.20,932.86,932.99,932.38,931.44,930.80,931.51,932.62,933.06,932.49,931.17,929.73,928.54,927.89,927.99,928.00,927.86,927.68,927.02,924.53,923.43,923.07,922.85,922.19,921.03,919.09,916.95,915.17,913.44,911.86,910.41,909.25,908.87,908.80,908.39,907.33,905.33,903.02,900.64,898.30,896.06,894.01,891.87,888.78,884.82
590.45,591.05,591.66,592.28,592.87,593.42,594.03,594.59,595.13,595.69,596.31,596.90,597.51,598.15,598.84,599.46,600.14,600.78,601.32,601.79,602.19,602.57,602.95,603.39,603.87,604.38,604.90,605.43,605.90,606.42,606.93,607.41,607.95,608.58,609.39,610.27,611.05,611.87,612.69,613.52,614.37,615.22,615.97,616.62,617.21,617.80,618.35,618.92,619.54,620.27,621.34,622.39,623.44,624.53,625.61,626.69,627.76,628.84,630.23,632.96,636.37,639.81,643.01,646.06,649.45,653.98,659.10,663.10,666.09,667.54,667.84,667.34,666.49,665.85,665.38,665.09,665.06,665.22,665.81,666.70,667.65,668.92,669.68,669.95,669.94,670.19,670.40,670.58,670.98,672.21,673.89,675.98,678.35,680.90,683.45,685.65,687.29,688.25,688.69,689.18,689.97,691.04,692.30,693.72,695.04,696.43,698.03,699.61,701.27,702.65,703.99,706.21,709.08,711.24,712.87,714.51,716.58,718.56,720.53,723.30,728.54,731.30,733.50,735.83,738.06,739.13,740.01,741.01,742.10,742.73,743.14,743.42,743.80,745.30,752.82,766.68,780.83,788.90,793.95,797.22,800.29,804.44,811.47,821.22,827.76,830.93,833.72,840.54,862.67,881.22,882.87,883.42,881.76,878.61,875.03,873.13,874.35,876.50,879.36,883.06,884.96,888.69,893.49,899.25,907.32,916.53,922.63,924.87,923.58,920.72,917.77,915.22,913.41,913.04,916.52,921.63,927.15,932.33,935.92,939.54,943.03,945.63,947.72,949.07,949.89,950.27,950.46,951.38,953.86,957.31,960.27,962.73,964.49,965.49,965.46,964.36,962.51,960.50,958.55,956.57,954.07,951.19,947.93,944.35,942.02,940.95,939.94,938.39,936.70,935.72,935.37,935.49,935.90,935.93,935.23,934.38,934.11,935.16,936.08,936.09,935.04,933.41,931.84,930.56,929.81,929.93,930.07,929.55,928.09,925.49,922.19,920.85,920.82,921.34,921.52,921.40,920.34,918.88,917.46,915.68,914.18,912.94,911.97,911.43,910.86,909.97,908.57,906.42,904.06,901.70,899.50,897.50,895.55,892.87,889.33,885.44
590.43,590.99,591.60,592.19,592.78,593.35,593.94,594.44,594.89,595.37,595.99,596.60,597.24,597.88,598.55,599.17,599.85,600.48,601.00,601.39,601.72,602.06,602.46,602.90,603.43,603.97,604.51,605.05,605.57,606.15,606.74,607.31,607.93,608.63,609.57,610.56,611.35,612.13,612.94,613.78,614.63,615.48,616.20,616.86,617.47,618.09,618.66,619.26,619.91,620.69,621.71,622.75,623.80,624.88,625.94,627.01,628.10,629.27,630.87,633.63,636.71,639.84,642.91,645.80,648.88,652.95,657.60,661.28,663.32,663.81,663.35,662.34,661.09,660.74,660.74,660.82,661.03,661.28,661.85,662.57,663.19,664.10,664.78,665.38,666.13,667.19,668.09,668.79,669.63,671.35,673.42,675.59,677.68,679.66,681.94,684.07,685.74,686.86,687.71,688.78,690.07,691.50,692.98,694.32,695.28,696.13,697.06,697.98,698.74,699.30,700.22,702.78,706.22,708.99,711.18,713.36,716.48,719.31,722.70,727.46,733.95,738.19,742.54,746.82,749.34,750.87,751.66,752.20,752.63,752.72,752.71,752.82,753.41,755.98,766.41,784.36,800.61,805.92,808.78,809.98,811.05,813.26,818.37,825.23,829.28,830.93,833.38,839.70,855.31,867.34,867.12,866.50,864.31,860.95,857.25,855.09,856.38,861.60,869.26,877.30,881.78,887.79,894.15,900.53,908.75,917.07,921.92,922.71,919.81,916.50,912.87,909.66,907.84,908.24,912.36,917.63,922.63,926.48,929.49,933.88,938.97,943.19,945.72,946.27,945.68,944.59,944.26,946.45,950.39,954.98,958.88,962.63,965.43,967.31,967.97,966.62,964.55,962.32,960.09,957.75,954.95,951.94,948.89,946.15,944.60,943.86,943.07,941.81,940.38,939.44,938.98,938.90,939.10,939.02,938.10,937.13,937.11,938.44,939.24,938.85,937.37,935.71,934.19,932.94,932.10,931.85,931.35,929.98,927.42,923.70,920.26,918.50,918.29,919.04,919.87,920.43,920.20,919.38,918.10,916.30,914.85,913.64,912.65,911.86,911.01,910.09,908.88,907.06,904.87,902.66,900.63,898.76,896.47,893.33,889.73,886.36
590.45,591.00,591.60,592.17,592.73,593.33,593.87,594.25,594.62,595.06,595.65,596.27,596.93,597.60,598.22,598.84,599.51,600.08,600.45,600.71,601.03,601.46,601.98,602.51,603.05,603.60,604.16,604.72,605.33,606.04,606.79,607.54,608.28,609.05,610.01,611.03,611.85,612.52,613.26,614.06,614.89,615.73,616.46,617.11,617.73,618.35,618.96,619.59,620.26,621.07,622.05,623.11,624.18,625.25,626.27,627.35,628.42,629.69,631.53,634.07,636.69,639.43,642.30,644.87,647.45,650.85,654.74,657.67,658.40,658.01,657.28,656.53,655.53,656.17,657.10,657.64,657.85,658.04,658.39,658.88,659.44,660.16,661.07,662.50,664.61,666.56,668.28,669.72,671.27,673.77,676.32,678.49,680.44,682.47,684.83,686.99,688.70,689.91,690.92,692.15,693.63,695.35,697.31,698.79,699.61,699.90,699.82,699.85,700.09,700.30,700.99,703.58,707.31,711.12,714.66,718.13,722.91,726.90,731.34,736.73,742.21,746.74,751.83,756.99,760.50,762.66,763.43,763.62,763.73,763.89,764.03,764.61,766.26,770.76,781.70,797.88,811.35,814.66,817.78,819.25,820.20,821.58,824.29,824.36,823.47,823.12,825.37,831.79,838.14,841.60,840.95,839.92,838.68,837.39,836.16,835.28,836.03,846.53,862.13,875.22,882.79,890.01,896.95,903.72,911.87,918.01,920.56,919.91,916.97,913.52,908.55,904.05,902.26,903.96,908.05,912.71,916.67,918.52,921.31,926.23,931.94,936.25,938.07,938.26,936.86,934.54,934.57,939.32,945.09,950.50,955.38,960.34,964.82,968.34,970.02,968.68,966.47,964.13,961.72,959.00,955.95,952.88,950.22,948.57,947.62,947.10,946.31,945.02,943.72,942.89,942.55,942.54,942.61,942.37,941.05,939.75,939.76,941.24,942.04,941.39,939.61,938.21,936.82,935.61,934.57,933.51,931.61,929.07,925.88,922.26,919.27,916.94,915.95,916.25,917.30,918.10,918.56,918.27,916.84,915.07,913.57,912.24,911.00,909.93,909.15,908.65,908.13,907.07,905.34,903.40,901.54,899.60,896.64,893.34,890.14,887.69
590.56,591.10,591.63,592.16,592.69,593.21,593.66,594.04,594.40,594.82,595.30,595.89,596.56,597.23,597.85,598.47,599.11,599.58,599.82,600.06,600.51,601.03,601.58,602.17,602.76,603.41,604.09,604.77,605.44,606.18,606.98,607.79,608.56,609.34,610.38,611.51,612.41,613.07,613.73,614.42,615.16,615.99,616.68,617.32,617.95,618.60,619.23,619.91,620.66,621.50,622.40,623.44,624.52,625.59,626.65,627.73,628.78,630.03,631.88,634.16,636.48,638.72,640.82,642.86,644.92,647.57,650.42,652.16,652.73,652.61,652.28,651.99,651.59,652.57,653.81,654.73,655.22,655.55,656.37,657.51,658.49,659.42,660.98,663.27,666.19,668.92,671.50,673.63,675.48,677.75,680.35,682.80,685.07,687.41,690.60,693.35,695.24,696.18,696.65,697.44,698.80,700.72,703.11,705.34,707.00,707.84,707.74,707.34,707.34,707.78,708.80,711.00,714.33,718.23,722.34,726.58,731.20,735.13,739.57,744.87,749.86,754.73,759.75,764.29,767.11,768.83,770.03,770.98,771.90,773.46,774.44,775.29,776.45,778.84,785.30,797.33,808.37,811.87,815.75,818.88,820.71,820.64,818.20,815.19,812.65,811.97,815.79,824.58,831.24,834.14,833.00,830.43,828.70,827.14,825.51,824.49,827.99,842.05,860.57,874.90,882.90,889.46,895.25,900.81,908.24,914.42,917.33,916.99,913.76,908.68,902.58,897.01,894.16,897.30,902.11,906.44,909.26,910.10,913.39,918.46,923.64,927.10,928.57,928.60,927.62,926.73,929.26,935.14,941.42,947.27,952.99,958.86,964.19,968.54,971.00,970.19,968.09,965.66,963.14,960.39,957.42,954.61,952.37,951.18,950.60,950.15,949.40,948.21,946.98,946.24,946.18,946.52,946.57,945.76,944.06,942.63,942.54,943.53,944.47,944.08,942.38,940.88,939.08,937.34,935.43,932.95,930.27,927.40,924.39,921.40,918.88,916.11,914.13,913.25,913.57,914.46,915.46,915.62,914.25,912.74,911.25,909.85,908.59,907.54,906.86,906.44,906.11,905.63,905.11,903.50,901.40,899.19,896.67,894.06,891.75,890.07
590.69,591.22,591.68,592.15,592.61,593.02,593.41,593.80,594.18,594.57,594.97,595.53,596.18,596.84,597.46,598.08,598.63,599.05,599.32,599.64,600.19,600.78,601.36,602.00,602.65,603.39,604.16,604.92,605.63,606.38,607.18,607.99,608.77,609.54,610.61,611.73,612.55,613.23,613.89,614.55,615.28,616.14,616.86,617.52,618.17,618.86,619.51,620.25,621.07,621.93,622.76,623.77,624.84,625.92,627.00,628.05,629.06,630.28,632.07,634.12,636.21,637.99,639.30,640.67,642.21,644.29,646.51,647.82,648.60,648.85,648.87,648.91,649.10,650.14,651.38,652.53,653.54,654.43,655.82,657.46,658.83,660.13,662.11,664.80,668.21,671.88,675.30,677.99,680.08,682.19,684.68,687.14,689.46,691.86,695.60,699.04,701.67,703.21,703.58,704.08,705.25,707.19,710.12,713.68,716.10,717.10,716.75,716.22,716.23,717.07,718.63,720.58,723.62,727.19,730.97,734.81,738.61,741.98,745.68,749.89,754.09,758.68,762.76,765.81,767.24,767.84,769.16,770.83,772.60,774.98,776.56,777.62,778.29,778.74,781.46,789.75,799.71,806.43,810.81,814.21,815.94,814.83,809.71,805.36,802.33,802.14,808.21,819.25,827.11,830.02,827.77,824.01,821.48,819.23,817.29,817.44,823.59,837.34,855.50,872.97,880.67,886.12,890.88,895.65,902.37,909.25,913.17,913.43,909.61,903.12,896.04,889.39,885.22,888.67,894.01,898.25,900.60,901.85,906.19,911.40,915.93,918.57,920.03,920.33,920.38,921.72,927.59,935.33,942.12,947.76,953.31,958.91,964.09,968.57,971.63,971.75,969.71,967.11,964.50,961.81,959.08,956.64,954.78,953.91,953.52,953.02,952.25,951.18,950.08,949.57,949.77,950.30,950.29,949.02,947.23,945.90,945.76,946.22,947.02,946.72,945.07,943.16,940.84,938.50,935.91,932.69,929.77,927.01,924.35,921.85,919.59,916.62,913.64,911.26,910.43,911.12,912.25,912.62,911.50,910.26,908.85,907.39,906.04,905.07,904.48,904.09,903.81,903.67,903.99,903.05,901.32,899.24,897.11,894.94,893.04,891.52
590.81,591.33,591.74,592.10,592.43,592.77,593.16,593.54,593.93,594.32,594.72,595.24,595.83,596.46,597.07,597.69,598.12,598.53,599.03,599.54,600.13,600.75,601.38,602.08,602.82,603.58,604.36,605.12,605.82,606.57,607.35,608.13,608.90,609.66,610.62,611.52,612.02,612.73,613.50,614.28,615.14,616.11,616.97,617.72,618.41,619.11,619.81,620.60,621.47,622.36,623.17,624.12,625.17,626.25,627.31,628.28,629.22,630.39,632.13,633.99,635.89,637.32,638.01,638.61,639.67,641.47,643.79,645.94,647.09,647.46,647.54,647.72,648.35,649.21,650.20,651.41,653.20,655.17,657.02,658.69,660.25,662.04,663.94,666.37,669.87,674.70,678.89,681.99,684.33,686.72,688.95,690.94,692.75,694.76,698.34,702.31,706.38,709.87,711.10,711.99,713.11,715.00,718.62,723.89,726.45,726.66,725.51,725.16,725.41,726.75,728.90,731.01,734.10,736.98,739.31,741.20,743.69,746.12,748.22,750.20,752.97,756.37,758.56,759.34,758.96,757.87,758.70,760.68,762.94,764.90,766.49,767.67,768.36,768.53,770.28,776.41,787.05,800.21,804.56,805.89,805.93,804.60,801.26,797.07,794.44,795.71,804.42,816.68,823.94,825.13,820.88,816.88,813.58,810.78,809.65,813.39,820.93,829.27,843.49,867.07,874.49,879.21,883.91,888.99,895.23,903.02,908.04,908.73,903.99,896.91,888.99,881.22,875.72,877.81,883.17,887.67,890.64,894.15,900.01,905.43,909.43,911.68,913.58,914.86,916.56,920.54,930.29,941.22,948.91,953.56,957.60,961.35,965.08,968.82,972.14,973.51,971.40,968.49,965.82,963.22,960.93,958.91,957.40,956.76,956.39,955.71,954.81,953.82,952.98,952.91,953.27,953.68,953.48,952.10,950.61,949.63,949.49,949.60,949.77,949.15,947.39,944.74,941.93,939.15,936.39,933.63,931.06,928.76,926.46,924.05,921.70,918.89,915.05,910.93,908.64,908.69,909.33,909.57,908.93,907.89,906.66,905.15,903.55,902.60,902.10,901.74,901.47,901.37,901.70,901.91,901.55,900.25,898.10,895.71,893.36,891.09
590.70,591.15,591.51,591.86,592.19,592.52,592.94,593.37,593.78,594.17,594.61,595.09,595.64,596.20,596.74,597.35,597.84,598.34,598.92,599.51,600.12,600.78,601.50,602.24,603.00,603.78,604.55,605.31,606.01,606.77,607.54,608.30,608.98,609.63,610.30,610.89,611.29,612.01,612.91,613.85,614.80,615.79,616.71,617.54,618.34,619.16,619.98,620.85,621.76,622.67,623.54,624.47,625.47,626.50,627.50,628.43,629.38,630.58,632.28,634.00,635.32,636.20,636.68,637.16,638.47,640.32,642.51,644.82,645.87,646.22,646.43,646.90,647.79,648.72,649.84,651.35,653.59,655.98,658.15,660.09,661.91,663.83,665.76,668.06,671.31,676.28,680.64,684.21,687.13,689.57,691.39,692.92,694.31,695.84,698.36,701.48,705.07,709.05,713.00,717.30,721.12,724.81,728.90,731.22,731.56,731.09,730.53,730.14,730.41,731.56,733.70,736.84,739.10,740.79,741.99,742.59,743.14,743.82,744.49,745.31,747.10,749.81,751.37,751.45,750.39,749.59,750.45,752.43,754.81,756.39,757.59,758.61,759.54,760.67,763.29,769.55,778.55,788.20,793.26,795.58,796.33,795.34,791.67,787.84,788.19,793.60,804.10,815.76,820.68,819.45,814.01,810.11,806.82,804.14,804.19,811.66,819.90,826.12,833.85,847.19,858.89,869.46,877.24,882.12,888.01,895.53,900.44,901.15,896.44,888.81,879.83,871.11,865.22,867.23,872.73,878.01,882.58,888.27,894.28,898.75,901.93,904.58,907.76,911.69,916.47,923.62,936.69,947.45,954.88,960.00,964.36,967.57,969.83,971.85,973.85,974.96,972.82,969.92,967.33,965.02,963.35,961.99,960.90,960.19,959.38,958.41,957.41,956.53,956.00,956.20,956.59,956.83,956.50,954.95,953.47,952.42,951.91,951.69,951.37,950.38,948.48,945.83,943.15,940.47,937.81,935.26,932.81,930.50,928.13,925.60,923.03,920.55,916.41,911.36,908.14,906.59,906.43,906.60,906.27,905.53,904.47,903.03,901.38,900.19,899.65,899.23,898.85,898.72,899.21,899.83,900.06,899.35,897.26,894.71,892.04,889.35
590.50,590.88,591.21,591.58,591.94,592.31,592.76,593.21,593.64,594.05,594.51,594.98,595.48,595.99,596.51,597.12,597.70,598.28,598.90,599.52,600.15,600.86,601.63,602.41,603.18,603.95,604.71,605.44,606.11,606.81,607.52,608.21,608.82,609.34,609.76,610.14,610.61,611.38,612.38,613.42,614.42,615.43,616.37,617.26,618.15,619.09,620.05,620.99,621.92,622.86,623.79,624.70,625.65,626.65,627.59,628.52,629.50,630.70,632.28,633.73,634.52,635.00,635.47,636.25,637.92,639.92,641.99,643.89,644.70,645.09,645.53,646.32,647.38,648.43,649.73,651.54,654.13,656.76,659.17,661.38,663.41,665.38,667.42,669.73,672.71,677.08,681.02,684.61,687.84,690.39,691.98,693.16,694.23,695.41,697.14,699.42,702.24,706.12,712.15,719.20,725.52,730.97,735.20,734.67,733.04,732.01,731.92,731.24,731.37,732.25,734.21,737.86,739.48,740.39,740.74,740.17,739.02,738.32,738.21,738.85,740.41,742.66,743.81,743.53,742.13,741.92,742.95,744.83,747.10,748.46,749.41,750.65,752.53,755.36,759.53,766.22,773.23,778.25,783.73,787.00,788.22,786.91,782.13,779.62,783.81,793.35,804.55,814.54,816.46,812.98,807.22,803.22,800.49,799.50,802.11,811.75,819.50,823.96,825.97,828.23,840.17,852.48,862.38,869.76,877.31,885.31,890.08,890.51,885.76,878.00,869.11,860.84,855.84,858.82,865.04,871.57,877.94,885.01,890.41,893.71,896.36,900.16,905.08,911.75,919.54,929.29,943.53,953.01,960.11,966.09,971.01,974.03,975.26,975.74,976.18,976.47,974.29,971.53,969.11,967.21,966.18,965.51,964.93,964.14,962.78,961.50,960.39,959.51,959.11,959.40,959.74,959.79,959.17,957.49,955.89,954.58,953.57,952.82,951.91,950.47,948.39,945.88,943.48,941.09,938.67,936.26,933.91,931.60,929.18,926.60,923.95,921.68,917.53,912.09,908.19,905.33,904.13,903.77,903.50,903.07,902.21,900.91,899.28,897.75,897.08,896.56,896.07,895.89,896.50,897.25,897.78,897.63,895.87,893.30,890.50,887.62
590.17,590.56,590.93,591.32,591.72,592.17,592.63,593.04,593.47,593.92,594.38,594.85,595.32,595.83,596.43,597.11,597.74,598.35,598.97,599.59,600.26,600.99,601.76,602.54,603.31,604.07,604.80,605.42,606.00,606.52,607.03,607.56,608.16,608.55,608.89,609.35,610.14,611.08,612.09,613.10,614.10,615.10,616.04,616.96,617.90,618.90,619.94,620.92,621.87,622.85,623.78,624.65,625.59,626.58,627.58,628.51,629.52,630.66,631.91,632.80,633.38,633.86,634.54,636.17,638.00,640.21,642.29,642.99,643.51,644.12,644.94,646.03,647.18,648.31,649.73,651.71,654.54,657.42,660.00,662.30,664.43,666.50,668.70,671.24,674.14,676.88,679.47,682.10,684.88,687.75,689.61,690.69,691.55,692.75,694.80,697.05,699.56,702.94,708.61,715.23,722.04,728.15,731.85,731.31,729.60,728.26,727.58,726.18,725.96,726.77,728.52,731.11,732.99,734.22,734.22,732.34,730.42,729.58,730.06,731.95,734.69,736.61,737.14,736.37,734.70,734.65,735.83,737.57,739.45,740.91,742.09,744.58,748.76,754.17,760.28,766.77,772.35,776.05,780.89,783.30,783.08,779.75,773.32,774.17,782.54,794.64,804.67,811.69,810.21,805.21,800.57,795.93,794.55,798.20,806.10,814.42,819.50,821.14,820.55,819.26,820.20,821.73,829.81,845.57,858.95,869.68,874.99,874.78,869.38,862.45,856.23,851.39,849.60,855.08,863.18,871.66,879.69,886.50,890.43,892.73,895.72,901.78,908.90,917.51,927.31,938.13,949.16,956.92,964.12,971.01,975.89,978.79,979.91,979.90,979.14,978.30,976.00,973.48,971.39,970.07,969.60,969.57,969.56,968.94,967.00,965.43,964.13,963.04,962.35,962.42,962.62,962.42,961.15,959.43,957.60,955.88,954.32,952.58,950.78,948.77,946.45,943.96,941.85,939.82,937.75,935.54,933.34,931.28,929.13,926.76,924.37,922.01,918.12,913.06,908.72,905.69,903.13,901.27,900.58,900.40,899.81,898.73,897.16,895.22,894.31,893.65,893.09,892.89,893.41,894.10,894.79,895.16,894.29,891.98,889.39,886.70
589.94,590.29,590.71,591.11,591.53,591.99,592.49,592.90,593.32,593.79,594.25,594.72,595.18,595.70,596.37,597.06,597.72,598.38,599.03,599.65,600.37,601.12,601.88,602.60,603.20,603.78,604.35,604.88,605.43,605.91,606.37,606.85,607.39,607.89,608.45,609.08,609.87,610.75,611.69,612.68,613.72,614.68,615.62,616.57,617.54,618.55,619.59,620.58,621.53,622.44,623.26,624.04,624.94,625.97,626.98,627.99,629.01,630.05,631.04,631.72,632.25,632.91,634.00,635.89,637.71,639.67,641.43,642.05,642.57,643.32,644.38,645.73,647.08,648.28,649.73,651.76,654.63,657.45,659.98,662.28,664.42,666.45,668.43,670.63,673.09,675.16,677.21,679.36,681.79,684.73,686.88,688.15,689.21,690.74,693.17,695.90,698.74,702.30,708.32,715.02,721.14,725.93,728.14,726.86,724.53,722.60,721.43,719.76,719.33,720.37,722.51,724.89,726.87,728.15,728.34,726.96,725.03,723.92,724.42,726.77,729.94,731.40,731.14,729.78,728.25,728.27,729.27,730.76,732.43,733.66,735.48,739.33,744.70,749.40,754.51,761.49,768.37,773.04,778.46,778.96,776.00,770.73,765.47,769.93,781.13,794.27,803.21,807.88,803.95,797.49,793.36,791.44,793.97,800.40,808.73,814.33,815.81,814.89,813.02,811.09,809.40,807.51,810.30,819.36,829.28,840.54,848.90,853.17,852.73,849.26,846.19,845.94,850.27,857.79,867.83,878.12,887.36,894.22,897.63,899.52,902.47,908.98,917.11,925.32,933.83,942.81,951.64,958.63,965.03,970.84,974.99,977.93,979.84,981.06,981.43,980.20,978.04,975.98,974.47,973.62,973.37,973.46,973.57,973.17,971.35,969.57,968.05,966.77,965.85,965.47,964.69,963.29,961.41,959.40,957.30,955.23,953.24,951.20,949.06,946.81,944.44,942.09,940.10,938.24,936.35,934.37,932.33,930.28,928.13,925.79,923.40,921.01,917.64,913.40,909.18,906.02,903.14,900.74,899.23,898.13,897.47,896.55,895.05,893.14,891.92,891.08,890.50,890.26,890.50,891.10,891.84,892.38,892.13,890.68,888.87,886.69
589.74,590.06,590.50,590.92,591.34,591.82,592.34,592.77,593.19,593.66,594.13,594.59,595.07,595.62,596.32,597.00,597.69,598.37,599.05,599.68,600.42,601.15,601.82,602.43,602.86,603.27,603.70,604.17,604.70,605.21,605.71,606.21,606.73,607.37,608.13,608.92,609.62,610.39,611.25,612.18,613.18,614.15,615.13,616.13,617.13,618.14,619.14,620.13,621.04,621.85,622.55,623.25,624.13,625.18,626.21,627.26,628.29,629.24,630.06,630.62,631.17,632.07,633.55,635.43,637.15,638.79,640.24,641.13,641.75,642.61,643.80,645.34,646.88,648.17,649.65,651.65,654.46,657.10,659.54,661.81,663.86,665.74,667.46,669.27,671.28,673.15,675.15,677.17,679.37,682.16,684.52,686.18,687.68,689.69,692.56,695.79,699.22,703.39,709.79,716.36,721.17,723.98,724.52,722.34,719.23,716.57,714.88,713.22,712.90,714.30,716.87,719.23,721.18,722.34,722.70,722.06,720.24,719.13,719.78,722.42,725.65,726.66,725.75,723.90,722.52,722.63,723.43,724.73,726.43,727.82,730.28,734.98,740.83,744.53,748.62,756.06,764.41,770.48,775.62,773.71,768.19,761.81,758.38,766.26,779.51,793.03,801.33,804.18,798.39,790.67,786.90,788.88,795.07,802.72,809.60,812.33,810.55,807.42,804.56,802.74,801.05,798.70,797.05,797.61,802.43,812.60,823.50,832.62,837.56,838.56,839.15,843.33,853.21,863.30,875.44,886.93,896.41,903.22,906.51,908.50,911.59,918.11,926.18,932.97,939.06,945.16,952.06,958.40,963.82,968.28,971.68,974.66,977.35,979.99,982.20,981.81,980.30,978.84,977.82,977.29,977.14,977.21,977.29,977.05,975.62,973.73,971.90,970.36,969.01,967.80,965.82,963.24,960.88,958.41,956.02,953.71,951.45,949.35,947.11,944.80,942.47,940.22,938.31,936.52,934.75,932.95,931.04,928.95,926.74,924.40,921.95,919.48,916.57,913.15,909.39,906.25,903.39,900.80,898.56,896.44,895.55,894.71,893.34,891.51,890.06,889.05,888.36,887.92,887.77,888.24,888.92,889.47,889.59,888.97,888.01,886.61
589.54,589.87,590.30,590.76,591.21,591.68,592.15,592.61,593.07,593.53,594.00,594.46,595.00,595.62,596.32,597.00,597.61,598.24,598.92,599.55,600.34,600.87,601.17,601.57,602.01,602.50,602.99,603.45,603.93,604.55,605.19,605.86,606.56,607.15,607.81,608.53,609.24,610.00,610.75,611.48,612.26,613.35,614.52,615.63,616.69,617.69,618.69,619.57,620.36,621.07,621.71,622.44,623.32,624.35,625.41,626.44,627.42,628.35,629.20,629.67,630.27,631.33,632.95,634.59,636.13,637.66,639.14,640.32,641.06,641.99,643.20,644.69,646.23,647.72,649.30,651.21,653.78,656.21,658.66,660.92,662.57,664.15,665.88,667.70,669.60,671.75,674.39,676.89,679.12,681.35,683.69,686.02,688.38,690.98,694.36,697.71,701.88,707.29,713.53,718.82,721.60,722.28,721.53,718.72,714.79,711.22,708.93,707.67,708.25,710.13,712.64,714.76,716.41,717.22,717.18,716.17,714.13,714.02,715.77,718.92,721.82,722.63,721.61,719.66,718.10,718.43,719.25,720.63,722.94,726.05,728.74,732.64,737.79,742.87,748.75,755.88,763.58,770.09,771.11,766.20,760.02,754.98,752.68,763.14,777.36,790.70,799.72,801.78,795.02,786.57,783.25,789.53,796.13,801.95,806.28,807.14,804.10,799.49,795.29,792.97,791.30,790.47,790.42,791.61,795.31,801.53,810.97,821.08,827.26,833.22,838.61,845.59,856.47,871.21,885.88,896.84,903.94,910.08,913.63,916.60,920.88,927.77,933.61,938.15,941.53,944.39,949.16,954.33,959.13,963.28,966.57,969.41,971.95,975.00,978.99,982.48,982.98,982.23,981.26,980.74,980.64,980.68,980.69,980.41,979.58,977.67,975.46,973.30,970.86,967.88,964.87,962.05,959.53,956.40,953.73,951.42,949.24,947.14,945.02,942.88,940.67,938.31,936.46,934.73,933.00,931.20,929.29,927.24,925.07,922.79,920.37,917.63,914.67,911.66,908.88,906.15,903.43,900.81,898.41,896.14,894.82,893.91,892.83,890.89,889.53,888.37,887.23,886.13,885.50,885.66,886.12,886.47,886.46,885.93,885.58,885.40
589.36,589.75,590.20,590.64,591.08,591.54,591.97,592.43,592.89,593.36,593.82,594.31,594.88,595.44,595.87,596.34,596.97,597.67,598.39,599.04,599.72,600.15,600.40,600.76,601.27,601.85,602.45,603.01,603.55,604.18,604.86,605.55,606.25,606.88,607.52,608.17,608.79,609.42,610.03,610.69,611.53,612.70,613.92,615.11,616.23,617.23,618.17,618.95,619.64,620.30,620.92,621.63,622.51,623.54,624.55,625.56,626.54,627.49,628.35,628.84,629.50,630.57,632.07,633.64,635.16,636.67,638.13,639.37,640.36,641.37,642.58,644.09,645.63,647.10,648.58,650.20,652.18,654.21,656.48,658.80,660.73,662.26,663.81,665.65,667.94,670.49,673.51,676.54,679.26,681.46,683.99,686.68,689.60,692.95,696.61,699.92,703.91,708.96,714.20,717.33,718.56,718.54,717.68,715.23,710.79,706.54,704.07,703.29,704.36,706.31,708.56,710.53,711.76,712.20,711.94,710.98,709.69,710.18,712.12,714.85,716.83,717.13,716.33,715.07,714.20,715.06,716.84,719.41,723.01,727.64,731.73,736.12,741.17,746.92,753.38,758.80,763.13,765.75,763.56,758.27,753.05,749.83,750.67,761.15,773.74,785.76,795.76,797.65,791.22,783.09,779.81,787.15,793.83,798.27,800.35,799.82,796.11,791.60,787.82,785.79,784.55,784.82,786.28,788.90,792.83,798.77,807.54,818.65,830.69,839.03,845.90,853.50,863.75,877.79,891.97,903.22,911.01,916.69,920.56,922.95,925.40,929.43,933.03,935.97,938.23,940.34,944.23,948.52,952.64,956.66,960.82,964.46,967.37,970.97,976.31,981.92,984.88,985.47,984.54,983.92,983.73,983.54,983.29,982.92,981.98,979.88,977.20,974.14,970.59,967.06,963.80,960.82,957.87,954.45,951.51,949.07,946.98,944.89,942.78,940.64,938.46,936.21,934.40,932.70,930.98,929.19,927.34,925.37,923.30,921.02,918.18,915.18,912.34,909.75,907.43,905.14,902.65,900.21,898.20,896.91,896.16,895.68,895.01,893.24,891.47,889.69,888.01,886.65,885.38,884.52,883.85,883.30,883.02,882.84,882.94,883.25
589.20,589.65,590.11,590.52,590.94,591.38,591.77,592.22,592.68,593.15,593.63,594.12,594.66,595.10,595.22,595.48,596.14,596.93,597.68,598.36,598.89,599.31,599.68,600.11,600.69,601.35,602.02,602.69,603.31,603.92,604.58,605.25,605.87,606.53,607.16,607.75,608.30,608.79,609.27,609.94,610.93,612.13,613.36,614.58,615.75,616.75,617.60,618.28,618.90,619.52,620.14,620.81,621.67,622.71,623.66,624.65,625.65,626.64,627.52,628.06,628.81,629.82,631.11,632.69,634.23,635.72,637.12,638.37,639.59,640.69,641.89,643.41,644.92,646.28,647.60,648.91,650.23,651.76,653.70,655.99,658.41,660.12,661.50,663.37,666.13,669.15,672.48,676.04,679.46,682.01,684.81,687.78,691.24,695.39,699.10,702.25,705.49,709.09,712.67,713.63,713.80,713.75,713.22,711.29,706.78,702.39,700.13,699.77,701.02,702.81,704.74,706.55,707.38,707.54,707.22,706.50,706.17,707.00,708.66,710.63,711.69,711.58,711.14,710.81,710.96,712.50,715.52,719.56,724.49,730.31,736.06,741.46,746.63,752.06,757.75,760.93,761.48,759.41,755.09,750.55,746.89,745.68,749.92,759.00,769.08,779.63,790.55,793.18,787.69,780.05,776.35,783.11,789.65,792.99,793.07,791.26,787.31,783.92,781.74,780.86,780.74,782.18,785.01,789.09,793.88,801.11,810.20,822.49,839.86,849.15,856.11,863.46,872.65,884.34,896.63,907.84,916.63,921.31,924.63,925.54,925.36,925.91,927.53,929.50,931.71,934.40,938.12,941.91,945.62,949.62,954.63,959.20,962.97,967.65,974.47,981.20,986.31,988.32,987.59,986.93,986.72,986.25,985.58,984.79,983.22,980.79,977.57,973.56,969.22,965.63,962.43,959.29,955.91,952.42,949.28,946.65,944.59,942.55,940.43,938.24,936.04,934.01,932.25,930.54,928.81,927.03,925.22,923.36,921.38,919.03,915.74,912.57,909.94,907.78,905.78,903.96,901.79,899.71,898.39,898.35,898.41,898.44,898.15,896.69,894.50,892.06,889.83,888.25,886.40,884.47,882.59,881.01,880.19,880.08,880.32,880.71
589.05,589.46,589.92,590.34,590.73,591.13,591.52,591.96,592.43,592.90,593.41,593.76,594.11,594.40,594.53,594.95,595.56,596.26,596.96,597.60,598.18,598.77,599.37,599.93,600.54,601.13,601.74,602.37,602.99,603.60,604.23,604.87,605.48,606.02,606.56,607.14,607.72,608.25,608.77,609.49,610.51,611.68,612.86,614.04,615.18,616.21,616.94,617.54,618.12,618.74,619.36,619.99,620.79,621.75,622.74,623.74,624.75,625.74,626.68,627.31,628.16,629.16,630.32,631.85,633.30,634.70,636.03,637.32,638.57,639.76,641.01,642.38,643.75,645.04,646.32,647.56,648.53,649.49,650.76,652.62,655.27,657.45,659.11,661.01,663.75,667.26,671.09,675.19,679.26,682.69,685.70,689.24,693.61,698.53,701.78,704.66,706.48,707.19,708.13,708.19,708.28,708.43,707.93,705.51,702.02,699.12,697.81,697.58,698.52,700.01,701.68,703.18,703.76,704.03,703.96,703.47,703.31,704.12,705.36,706.72,707.90,708.21,708.19,708.30,709.25,711.70,715.47,720.10,725.49,731.56,738.07,744.28,749.35,751.96,753.96,755.10,754.78,752.13,748.11,744.19,741.83,742.50,747.79,754.41,762.94,773.34,784.53,790.33,785.94,777.68,772.55,777.98,784.03,786.47,784.94,781.54,778.01,776.94,777.87,779.98,782.89,786.54,790.51,794.91,800.74,809.05,820.85,834.84,847.98,857.08,864.45,871.90,880.94,892.96,903.22,911.63,917.55,918.94,918.29,917.06,916.18,916.29,916.77,919.10,922.60,926.75,930.88,935.16,939.43,943.66,947.91,952.33,957.87,965.38,974.79,981.94,987.34,989.98,990.07,989.73,989.99,989.45,987.97,985.61,982.77,979.68,975.85,971.20,967.10,963.43,960.05,956.76,953.37,950.04,946.86,944.05,941.82,939.92,937.92,935.77,933.62,931.77,930.04,928.31,926.54,924.74,922.81,921.12,919.12,916.43,913.35,910.37,907.99,906.25,904.94,903.62,901.96,900.58,900.17,900.51,900.68,900.68,900.41,899.45,897.64,895.09,892.35,890.14,888.16,886.14,884.21,882.35,880.06,878.59,878.07,878.33
589.00,589.39,589.82,590.22,590.60,590.96,591.34,591.76,592.22,592.71,593.18,593.53,593.88,594.19,594.39,594.78,595.32,596.00,596.76,597.41,598.04,598.70,599.38,599.99,600.61,601.18,601.74,602.37,602.99,603.60,604.20,604.80,605.40,605.92,606.46,607.04,607.62,608.16,608.70,609.37,610.25,611.42,612.61,613.68,614.64,615.51,616.17,616.76,617.34,617.96,618.58,619.22,620.00,620.94,621.91,622.91,623.90,624.88,625.86,626.66,627.57,628.55,629.62,630.93,632.26,633.57,634.85,636.13,637.39,638.66,639.92,641.18,642.46,643.73,644.98,646.12,646.97,647.70,648.60,650.08,652.60,655.03,657.24,659.63,662.60,666.36,670.54,675.08,679.64,683.41,686.57,691.24,696.46,700.51,702.30,703.86,704.29,703.50,703.16,702.87,703.00,703.31,703.11,701.27,698.93,696.91,695.74,695.54,696.42,697.60,698.78,699.87,700.32,700.72,700.98,700.84,700.78,701.37,702.26,703.30,704.50,705.22,705.87,706.80,708.47,711.33,715.34,720.13,725.57,731.60,738.54,744.86,749.11,749.46,749.66,749.61,748.64,745.97,742.53,739.52,738.51,740.49,745.30,750.25,757.66,767.87,779.79,786.91,783.45,775.10,768.75,773.41,777.87,778.92,776.78,774.33,775.88,778.99,782.56,786.33,790.52,794.62,798.58,802.99,809.63,817.99,828.32,839.71,850.40,859.41,867.20,874.68,883.32,896.06,904.84,910.28,912.74,912.00,910.33,908.97,908.09,907.61,907.59,910.48,915.05,920.30,924.98,929.49,933.94,938.27,942.30,946.70,953.18,962.04,972.75,981.18,987.58,991.35,992.53,992.41,992.49,991.44,989.13,985.60,981.65,977.87,973.72,969.11,965.11,961.51,958.14,954.85,951.50,948.26,945.08,942.11,939.60,937.71,935.56,933.38,931.39,929.73,928.06,926.31,924.50,922.66,920.65,918.93,917.01,914.61,912.13,909.82,908.04,906.80,905.88,904.91,903.70,902.77,902.65,902.87,902.83,902.57,902.06,901.15,899.62,897.13,894.30,892.05,890.13,888.32,886.51,884.40,881.31,878.93,877.45,876.76
589.00,589.38,589.78,590.16,590.52,590.85,591.25,591.65,592.12,592.63,593.07,593.53,593.99,594.39,594.66,594.88,595.35,596.06,596.93,597.62,598.25,598.91,599.58,600.20,600.82,601.39,601.97,602.58,603.19,603.81,604.39,604.95,605.55,606.09,606.66,607.24,607.79,608.32,608.86,609.40,610.09,611.28,612.45,613.36,614.05,614.69,615.32,615.94,616.56,617.18,617.83,618.51,619.32,620.25,621.19,622.18,623.13,624.07,625.04,626.02,626.97,627.95,628.96,629.99,631.14,632.37,633.60,634.85,636.15,637.46,638.72,639.90,641.13,642.40,643.60,644.63,645.49,646.30,647.15,648.43,650.66,653.27,656.20,659.31,662.64,666.45,670.88,675.79,680.64,684.38,687.66,693.38,698.95,701.10,701.04,700.84,700.13,698.92,698.31,698.03,698.22,698.67,698.88,698.17,696.83,695.22,693.77,693.52,694.40,695.29,695.93,696.63,697.08,697.67,698.24,698.48,698.51,698.86,699.51,700.44,701.59,702.64,704.11,706.03,708.34,711.28,715.22,719.89,725.19,731.17,738.31,744.08,746.96,745.79,745.52,744.73,743.04,740.43,737.79,736.07,736.44,739.22,742.84,746.96,753.72,763.75,776.41,783.27,780.31,772.22,765.05,768.93,771.32,771.30,770.04,770.74,779.28,786.87,792.24,796.46,800.48,803.69,806.72,810.60,817.19,824.52,831.16,838.27,848.46,857.71,865.94,873.57,881.96,894.88,902.41,905.24,904.65,902.60,901.44,900.92,900.40,899.53,899.78,903.38,908.77,914.74,919.95,924.48,928.85,933.18,937.41,941.85,948.50,957.78,969.35,979.61,987.42,992.50,994.83,994.97,994.33,992.47,989.39,985.04,980.23,975.83,971.60,967.35,963.34,959.89,956.75,953.69,950.59,947.58,944.52,941.45,938.61,936.55,934.07,931.72,929.81,928.25,926.65,924.89,923.03,921.16,919.12,917.26,915.44,913.57,911.78,910.10,908.88,908.03,907.22,906.50,905.70,905.04,904.77,904.61,904.25,903.73,903.02,902.05,900.74,898.49,895.92,893.99,892.19,890.69,889.04,886.71,883.34,880.44,878.02,876.07
589.00,589.38,589.77,590.15,590.52,590.86,591.33,591.83,592.34,592.89,593.50,594.07,594.58,594.96,595.14,595.17,595.65,596.41,597.29,597.94,598.57,599.20,599.85,600.51,601.09,601.67,602.27,602.89,603.45,604.06,604.64,605.19,605.74,606.24,606.74,607.26,607.80,608.29,608.78,609.27,609.90,611.12,611.94,612.58,613.17,613.80,614.46,615.10,615.74,616.42,617.19,617.95,618.78,619.72,620.70,621.66,622.56,623.41,624.23,625.20,626.19,627.20,628.24,629.19,630.07,631.13,632.37,633.61,634.91,636.23,637.50,638.70,639.84,641.07,642.19,643.14,644.03,645.33,646.76,648.37,650.51,653.84,657.45,661.03,664.51,668.14,672.87,677.94,682.72,686.48,689.88,694.66,698.49,698.73,697.83,696.99,696.02,695.01,694.67,694.60,694.95,695.52,695.84,695.36,694.23,692.93,691.87,691.47,691.78,692.36,693.01,693.67,694.48,695.40,696.18,696.55,696.63,697.10,697.86,698.86,700.02,701.36,703.46,706.07,708.72,711.86,715.63,720.01,725.22,731.77,738.77,743.11,744.04,742.64,741.98,740.15,737.28,734.28,733.06,733.50,735.25,738.10,741.39,745.90,753.18,763.38,775.36,780.61,776.74,768.66,761.66,762.94,764.18,766.15,769.84,776.39,787.30,795.38,800.36,803.69,806.32,807.78,808.89,810.50,813.86,817.89,823.33,831.13,842.71,853.20,862.07,870.73,880.32,890.39,896.06,898.09,897.13,893.91,891.08,889.86,889.73,890.25,892.70,897.36,903.25,909.55,914.79,919.46,923.78,928.00,932.45,936.59,942.57,952.53,967.06,978.92,987.62,993.36,996.35,997.19,995.40,992.65,989.08,984.15,979.02,974.52,970.27,966.04,961.96,958.73,956.16,954.03,952.11,950.18,947.68,944.73,941.62,939.05,936.13,933.23,930.70,928.80,927.21,925.43,923.54,921.75,919.76,917.87,915.90,913.81,911.90,909.56,907.67,906.36,905.38,904.81,904.46,904.06,903.49,903.10,902.70,902.42,902.34,902.32,901.29,899.71,897.92,896.10,894.32,892.80,891.10,888.77,885.47,882.25,879.38,876.95
589.03,589.42,589.78,590.15,590.54,590.96,591.49,592.05,592.60,593.17,593.84,594.46,595.00,595.42,595.65,595.71,596.16,596.86,597.65,598.30,598.91,599.51,600.14,600.79,601.35,601.91,602.49,603.07,603.59,604.14,604.69,605.23,605.74,606.23,606.71,607.19,607.70,608.16,608.63,609.08,609.62,610.56,611.15,611.70,612.30,612.93,613.61,614.31,615.02,615.79,616.63,617.42,618.28,619.23,620.17,621.04,621.82,622.58,623.38,624.39,625.42,626.47,627.53,628.48,629.21,630.08,631.16,632.38,633.68,634.99,636.29,637.53,638.65,639.88,641.16,642.52,644.08,645.73,647.46,649.46,652.17,656.00,660.00,663.81,667.36,670.91,675.64,680.62,685.21,688.81,691.57,694.28,695.83,695.00,693.79,692.88,692.07,691.38,691.24,691.41,691.91,692.55,692.92,692.56,691.60,690.55,689.77,689.30,689.34,689.78,690.49,691.27,692.28,693.33,694.20,694.67,694.89,695.54,696.48,697.62,698.89,700.38,702.86,705.99,709.11,712.83,716.83,721.20,726.58,734.31,739.67,741.35,740.07,738.32,737.19,734.88,732.05,730.27,731.05,733.59,736.70,740.01,743.79,748.76,756.13,765.18,773.29,774.94,770.36,763.53,758.24,758.86,760.71,765.21,772.70,781.97,791.46,797.37,800.56,802.68,804.67,805.26,805.05,804.78,805.93,808.71,814.88,825.33,840.51,851.40,859.82,867.91,876.59,884.21,888.48,890.70,890.76,887.21,883.12,880.96,880.99,883.33,887.49,892.71,898.34,903.90,908.66,913.68,918.18,922.32,926.91,931.59,937.53,948.46,965.69,977.97,987.67,994.50,998.18,998.86,996.34,992.88,988.78,983.58,978.54,974.12,969.93,965.85,962.16,959.47,957.76,956.66,955.44,953.67,951.06,947.93,944.65,941.67,938.70,935.65,932.68,930.36,928.36,926.18,923.94,921.92,919.80,917.56,915.26,912.95,910.61,907.63,905.13,903.35,902.14,901.77,901.73,901.51,900.83,900.32,900.15,900.48,901.22,901.78,901.35,900.51,899.40,897.84,895.95,894.14,892.20,889.84,886.76,883.55,880.52,877.78
589.08,589.47,589.80,590.17,590.62,591.14,591.68,592.27,592.84,593.40,594.01,594.62,595.17,595.67,596.10,596.35,596.76,597.32,597.97,598.63,599.21,599.79,600.40,601.00,601.56,602.06,602.56,603.10,603.57,604.05,604.56,605.08,605.56,606.08,606.57,607.03,607.49,607.94,608.40,608.83,609.24,609.69,610.20,610.80,611.47,612.11,612.80,613.59,614.42,615.26,616.11,616.90,617.78,618.74,619.57,620.30,620.92,621.61,622.55,623.61,624.68,625.76,626.82,627.81,628.52,629.21,630.04,631.18,632.45,633.76,635.09,636.39,637.64,638.97,640.65,642.83,645.48,647.35,649.17,651.59,655.25,659.32,663.40,667.25,670.79,674.38,678.79,683.32,687.48,690.60,692.09,692.21,691.52,690.40,689.30,688.72,688.31,687.95,687.91,688.32,688.94,689.60,690.03,689.76,689.00,688.16,687.50,687.04,687.15,687.64,688.40,689.37,690.36,691.37,692.24,692.81,693.25,694.11,695.26,696.60,698.05,699.58,702.26,705.84,709.69,714.28,718.87,723.54,729.21,737.82,740.28,738.63,735.24,732.98,731.40,729.31,727.80,728.68,731.83,736.17,740.53,744.71,749.49,754.66,761.20,767.44,769.46,766.49,761.73,757.28,754.94,756.95,760.93,767.93,777.25,785.51,790.62,792.70,793.41,794.45,796.53,797.30,796.71,795.49,796.20,800.05,808.38,822.03,841.21,851.59,858.68,864.92,871.03,876.87,880.24,883.33,885.40,882.37,877.71,874.60,874.54,878.66,884.04,889.26,893.95,898.03,901.81,907.10,911.91,916.17,921.06,926.99,933.55,945.64,965.10,977.11,987.76,995.85,1000.17,1000.00,997.37,993.47,988.83,983.66,979.01,974.81,970.80,967.06,964.12,962.22,961.33,960.88,959.63,957.07,953.70,950.12,946.73,943.56,940.87,938.00,934.88,932.18,929.43,926.55,923.74,921.28,918.89,916.11,913.38,910.84,907.82,904.39,901.45,899.23,897.83,897.68,897.79,897.66,897.08,896.56,896.78,897.88,899.49,900.30,900.78,900.75,900.19,898.95,896.91,894.76,892.52,890.08,887.27,884.31,881.28,878.34
589.00,589.47,589.85,590.29,590.80,591.34,591.88,592.40,592.93,593.48,594.04,594.52,594.97,595.49,596.11,596.52,596.97,597.49,598.11,598.70,599.21,599.74,600.31,600.88,601.42,601.91,602.40,602.93,603.40,603.91,604.41,604.90,605.42,605.91,606.36,606.77,607.18,607.54,607.94,608.35,608.74,609.12,609.51,610.04,610.72,611.48,612.22,613.04,613.89,614.74,615.59,616.42,617.30,618.18,618.79,619.35,620.01,620.83,621.87,622.94,624.02,625.11,626.16,627.11,627.84,628.52,629.26,630.15,631.26,632.56,633.95,635.47,637.25,639.09,641.42,644.26,647.05,649.18,651.79,655.00,658.60,662.60,666.55,670.25,673.69,677.28,681.09,684.30,686.72,688.45,688.82,688.19,687.09,685.93,685.25,685.04,684.88,684.71,684.80,685.34,686.06,686.80,687.28,687.06,686.52,685.89,685.28,684.88,685.21,685.85,686.64,687.59,688.54,689.50,690.35,691.00,691.81,692.99,694.37,695.85,697.41,699.04,702.10,706.51,711.69,716.92,722.15,727.43,732.74,737.60,737.16,734.04,730.30,728.10,726.64,725.93,726.74,730.19,734.93,740.23,745.41,750.31,755.30,759.80,762.47,763.14,761.64,757.80,754.21,752.09,752.69,757.16,763.81,771.99,779.75,782.67,782.78,782.58,783.03,784.53,786.40,788.33,789.33,789.86,793.34,800.22,810.32,823.29,838.21,847.42,853.90,859.69,865.35,869.59,872.03,876.04,880.41,878.61,874.01,870.29,869.70,874.33,881.75,886.47,890.02,893.30,895.73,899.64,904.39,909.87,916.50,923.27,930.49,943.67,965.00,978.97,989.37,996.86,1000.95,1000.68,999.22,995.52,990.57,985.83,981.59,977.73,974.25,971.22,968.66,967.42,965.75,963.38,960.83,957.09,953.03,949.06,945.46,942.58,940.00,937.10,934.01,931.51,928.15,924.79,921.78,919.23,916.73,914.06,911.10,907.71,903.80,899.97,896.52,893.80,892.51,892.35,892.40,892.30,891.93,891.55,891.79,893.08,895.20,896.95,898.56,899.59,899.69,898.33,896.39,894.72,892.88,890.49,887.68,884.65,881.54,878.48
588.90,589.41,589.86,590.33,590.85,591.38,591.90,592.39,592.90,593.44,593.95,594.34,594.72,595.20,595.86,596.38,596.88,597.41,598.02,598.59,599.11,599.63,600.17,600.71,601.24,601.74,602.24,602.77,603.24,603.75,604.23,604.70,605.19,605.63,606.01,606.38,606.76,607.08,607.45,607.83,608.21,608.58,608.91,609.41,610.10,610.94,611.73,612.54,613.37,614.22,615.07,615.92,616.75,617.51,618.10,618.66,619.37,620.26,621.29,622.31,623.36,624.43,625.51,626.44,627.18,627.88,628.58,629.32,630.32,631.66,633.29,635.15,637.36,639.73,642.58,645.85,648.79,651.40,654.58,658.17,661.67,665.49,669.12,672.38,675.32,678.47,681.43,683.39,684.39,684.93,684.56,683.75,682.75,681.83,681.49,681.46,681.45,681.44,681.73,682.43,683.26,684.05,684.58,684.41,684.00,683.50,683.00,682.81,683.37,684.12,684.92,685.84,686.77,687.70,688.60,689.55,690.89,692.48,694.09,695.67,697.30,699.09,702.93,708.48,714.56,720.38,725.96,730.80,734.16,735.33,733.24,729.74,726.11,723.83,722.72,723.77,726.95,732.22,737.81,743.51,748.88,753.50,756.92,759.44,759.16,756.75,753.93,750.47,748.05,747.71,750.53,756.51,764.50,772.03,776.93,776.33,774.15,773.82,775.43,778.22,780.49,783.75,786.57,789.09,794.63,803.40,813.92,824.69,833.79,840.50,846.95,853.06,858.07,861.44,864.51,869.98,875.90,874.70,869.98,866.24,866.08,871.68,879.43,883.07,885.20,887.50,889.73,893.58,898.95,905.78,914.15,921.38,928.25,941.65,964.66,980.26,990.55,997.49,1001.25,1001.08,1000.41,997.46,993.09,988.87,985.14,981.69,978.66,975.98,972.96,970.94,967.93,963.94,960.21,955.88,951.31,946.88,942.87,939.32,936.69,934.14,931.40,928.62,925.09,921.81,919.02,916.61,914.22,911.40,907.97,903.85,899.63,895.79,892.62,890.35,889.37,888.90,888.42,887.79,887.06,886.64,886.78,888.07,890.48,892.93,895.16,896.74,897.22,896.01,894.58,893.54,892.18,889.97,887.24,884.23,881.10,877.97
588.84,589.31,589.83,590.27,590.72,591.24,591.72,592.24,592.77,593.29,593.76,594.10,594.46,594.88,595.39,595.97,596.53,597.10,597.72,598.32,598.92,599.50,600.04,600.58,601.07,601.58,602.11,602.63,603.11,603.57,604.03,604.48,604.88,605.22,605.54,605.88,606.25,606.58,606.94,607.32,607.69,608.02,608.38,608.92,609.64,610.50,611.28,612.06,612.87,613.71,614.56,615.40,616.14,616.78,617.57,618.33,619.10,619.92,620.86,621.74,622.71,623.76,624.86,625.79,626.55,627.25,627.98,628.77,629.68,631.19,633.18,635.49,637.92,640.76,643.96,647.39,650.70,653.98,657.30,660.69,664.17,667.67,670.74,673.26,675.28,677.45,679.38,680.45,680.71,680.58,679.98,679.25,678.61,678.17,677.97,677.94,677.96,678.11,678.62,679.56,680.50,681.32,681.91,681.82,681.44,680.99,680.65,680.88,681.63,682.42,683.17,684.12,685.13,686.11,687.23,688.72,690.68,692.70,694.56,696.21,697.95,700.19,705.18,711.96,718.23,724.51,729.83,732.83,732.65,731.34,729.11,726.14,722.86,720.38,719.96,722.94,728.17,734.26,739.89,745.35,750.07,753.13,753.23,752.67,751.31,749.39,747.36,744.98,743.50,744.24,748.26,754.24,761.83,766.94,768.43,767.44,766.44,768.28,772.34,777.16,780.77,785.27,789.63,793.75,799.73,808.14,817.03,824.41,827.80,830.95,837.88,844.89,848.91,852.69,858.21,865.43,871.59,870.01,864.96,862.11,863.81,871.01,876.73,878.63,879.16,880.28,883.94,889.70,896.68,904.80,914.28,921.44,926.80,939.37,963.62,979.96,990.57,997.45,1000.99,1001.09,1000.59,998.92,996.13,992.50,989.39,986.38,983.51,980.48,976.11,971.74,967.18,962.52,958.09,953.95,949.10,944.12,939.45,934.10,931.25,929.41,927.29,923.64,920.40,917.81,915.61,913.47,911.33,908.01,903.93,899.62,896.01,892.78,890.85,890.07,889.46,888.42,886.96,885.21,883.45,882.62,882.39,883.42,885.79,888.47,890.62,892.01,892.47,891.78,891.25,890.85,889.94,888.10,885.60,882.81,879.80,876.63
588.82,589.29,589.83,590.25,590.67,591.12,591.58,592.07,592.59,593.10,593.52,593.88,594.26,594.65,595.09,595.65,596.23,596.83,597.45,598.06,598.68,599.28,599.88,600.50,600.98,601.47,601.96,602.45,602.92,603.35,603.74,604.12,604.50,604.82,605.16,605.51,605.85,606.20,606.55,606.91,607.28,607.59,607.93,608.43,609.16,610.13,610.94,611.71,612.49,613.30,614.10,614.94,615.73,616.48,617.32,618.11,618.91,619.75,620.62,621.48,622.37,623.31,624.27,625.20,626.06,626.89,627.73,628.60,629.51,631.16,633.29,635.61,638.03,641.32,645.21,649.24,652.47,655.82,659.13,662.24,665.01,667.48,669.65,671.44,672.83,674.34,675.61,676.33,676.54,676.49,676.11,675.56,675.07,674.79,674.62,674.59,674.62,674.79,675.35,676.33,677.41,678.42,679.16,679.39,679.17,678.86,678.77,679.34,680.06,680.76,681.51,682.69,684.49,686.10,687.62,689.37,691.36,693.46,695.51,697.58,700.28,704.84,710.46,716.50,722.43,727.87,730.94,731.41,729.35,726.93,724.67,722.09,719.54,718.57,720.40,724.91,730.75,736.53,741.38,745.38,747.98,748.77,748.07,747.03,745.63,743.99,742.29,740.77,740.38,741.95,746.00,750.91,757.90,762.30,763.02,762.17,762.31,766.49,773.41,780.89,787.04,791.95,796.33,800.83,806.55,810.42,813.50,815.69,816.40,819.52,826.50,834.05,840.26,848.37,855.34,861.08,864.33,861.90,857.88,858.39,863.35,870.43,872.85,872.89,872.66,874.11,880.48,888.75,897.98,907.22,914.94,920.75,925.23,936.75,959.71,976.54,987.57,994.89,999.00,999.79,1000.16,999.97,998.74,995.91,993.18,990.35,986.64,981.69,976.17,970.92,966.02,961.40,957.04,952.96,947.87,942.23,936.63,931.14,927.59,925.10,922.81,919.45,916.25,913.79,911.71,909.39,906.74,903.53,900.47,898.19,896.99,895.78,894.96,894.36,893.25,891.77,890.11,888.21,885.91,883.15,880.93,880.29,881.48,883.70,885.54,886.36,886.25,885.59,885.71,885.86,885.51,884.35,882.36,880.00,877.24,874.15
588.82,589.29,589.83,590.25,590.64,591.04,591.48,591.94,592.42,592.90,593.29,593.69,594.09,594.47,594.88,595.40,596.00,596.61,597.21,597.83,598.44,599.07,599.70,600.35,600.85,601.31,601.77,602.23,602.66,603.06,603.41,603.75,604.12,604.45,604.80,605.16,605.49,605.85,606.19,606.54,606.89,607.20,607.50,607.97,608.72,609.77,610.61,611.40,612.19,612.98,613.77,614.59,615.44,616.31,617.15,617.95,618.77,619.61,620.48,621.34,622.21,623.09,623.96,624.89,625.81,626.74,627.67,628.59,629.54,631.27,633.46,635.69,637.99,641.46,645.89,650.53,653.60,656.74,659.81,662.54,664.54,666.15,667.56,668.75,669.70,670.71,671.52,672.07,672.38,672.54,672.45,672.13,671.77,671.56,671.52,671.51,671.56,671.74,672.25,673.15,674.36,675.58,676.38,676.86,676.93,676.92,677.16,677.94,678.67,679.44,680.46,682.23,684.80,686.92,688.77,690.74,692.59,694.54,696.60,699.20,703.72,710.37,716.18,720.99,725.70,729.53,730.45,729.06,725.98,722.66,720.07,717.96,716.79,718.11,722.26,727.75,733.48,738.53,742.10,744.14,744.65,743.82,742.90,741.94,740.75,739.37,738.11,737.68,738.47,740.64,744.27,748.07,753.91,757.72,758.65,758.95,761.24,767.30,775.89,785.27,793.23,797.77,800.97,804.20,808.07,808.13,806.97,805.76,805.39,809.09,815.86,823.56,831.82,843.72,851.24,854.99,855.39,852.67,851.78,855.86,862.59,867.90,867.89,866.83,866.70,869.50,878.39,888.84,899.31,908.39,913.87,918.11,922.47,932.41,951.49,970.31,981.72,989.22,994.18,996.22,998.11,999.75,1000.28,998.52,996.05,992.99,988.29,981.76,975.76,970.39,965.58,961.18,957.11,953.14,948.20,942.53,936.58,931.13,926.77,923.25,920.27,917.36,914.25,911.70,909.58,907.46,905.06,902.70,900.89,900.02,899.98,899.93,899.60,898.83,897.39,895.80,894.04,892.02,889.43,885.61,881.79,879.31,878.64,879.35,880.61,880.93,880.41,879.79,880.22,880.69,880.79,880.20,878.67,876.66,874.17,871.23
588.83,589.30,589.83,590.26,590.65,591.03,591.43,591.88,592.32,592.72,593.12,593.55,593.97,594.35,594.76,595.28,595.88,596.46,597.03,597.64,598.26,598.88,599.49,600.10,600.59,601.05,601.51,601.95,602.30,602.67,603.05,603.41,603.74,604.10,604.45,604.78,605.15,605.48,605.84,606.19,606.50,606.82,607.09,607.57,608.35,609.39,610.27,611.11,611.95,612.79,613.63,614.42,615.27,616.17,617.02,617.87,618.67,619.49,620.41,621.33,622.25,623.16,624.08,625.00,625.93,626.86,627.79,628.72,629.70,631.45,633.61,635.76,637.84,641.03,645.56,650.61,653.58,656.23,658.79,661.01,662.39,663.75,664.78,665.60,666.33,667.01,667.57,668.05,668.45,668.74,668.88,668.83,668.67,668.53,668.80,668.88,668.95,669.16,669.59,670.27,671.57,672.96,673.61,674.16,674.66,675.20,675.83,676.62,677.56,678.74,680.46,683.32,686.32,688.56,690.53,692.75,694.42,696.01,697.84,701.11,708.48,715.90,721.29,724.75,726.97,728.47,728.21,726.42,723.13,718.71,715.36,714.01,715.13,719.24,725.14,730.79,735.79,739.83,741.53,741.35,740.46,739.37,738.26,737.35,736.37,735.40,734.95,736.07,738.00,740.47,743.43,746.52,750.42,753.26,755.10,758.09,764.07,771.07,779.14,788.66,796.61,799.76,800.48,800.23,800.00,799.06,797.98,797.13,797.32,801.28,807.64,815.02,823.75,836.78,843.66,845.84,844.83,843.03,848.16,855.04,860.38,861.85,861.45,860.71,861.99,867.31,877.91,889.54,899.18,905.98,909.52,912.38,917.62,925.23,937.23,960.30,972.10,979.31,985.26,989.32,993.47,997.44,1000.10,999.81,997.47,993.66,988.15,981.29,975.89,971.07,966.56,962.38,958.75,955.04,950.89,946.26,941.08,935.33,930.24,925.55,921.45,918.75,915.88,913.10,910.83,909.62,908.95,908.39,907.53,906.17,904.54,903.65,902.81,901.78,900.63,899.45,897.48,895.03,892.41,889.56,885.44,881.46,878.30,876.07,876.32,876.35,875.84,875.47,875.71,876.18,876.43,876.09,874.84,872.96,870.67,868.00
588.93,589.39,589.85,590.28,590.70,591.08,591.47,591.92,592.37,592.78,593.17,593.59,594.01,594.43,594.83,595.32,595.84,596.39,596.99,597.60,598.18,598.78,599.38,599.90,600.34,600.76,601.18,601.60,601.95,602.30,602.66,603.04,603.39,603.74,604.09,604.43,604.78,605.13,605.48,605.81,606.15,606.62,607.09,607.64,608.32,609.20,610.08,610.92,611.74,612.59,613.44,614.26,615.12,615.99,616.84,617.69,618.52,619.35,620.20,621.16,622.13,623.08,624.00,624.93,625.86,626.78,627.71,628.64,629.64,631.29,633.29,635.32,637.30,639.74,643.49,648.10,651.15,653.49,655.67,657.62,659.02,660.38,661.41,662.21,662.85,663.38,663.87,664.33,664.78,665.22,665.66,665.88,665.96,666.09,666.60,666.73,666.88,667.26,667.90,668.65,669.74,670.91,671.69,672.44,673.19,673.94,674.77,675.83,677.30,679.06,681.38,684.89,688.00,690.43,692.64,694.93,696.72,698.40,701.36,706.55,714.09,719.80,722.53,723.36,724.12,725.06,724.74,722.97,719.42,714.03,711.66,712.10,714.84,719.34,725.23,730.86,735.30,737.54,737.64,736.74,735.66,734.63,733.46,732.67,732.52,732.89,733.74,735.48,737.54,739.89,742.61,745.64,748.99,752.51,756.42,761.49,768.64,775.17,781.41,788.11,793.15,795.34,795.74,794.84,793.05,791.55,790.73,790.76,792.38,797.87,805.23,812.67,819.91,829.60,834.63,836.17,835.81,836.58,845.01,851.20,853.50,852.97,852.84,855.17,860.13,868.24,879.61,889.53,896.63,901.08,903.39,905.63,910.54,917.32,927.23,947.11,961.29,970.76,977.11,982.08,987.58,993.20,997.85,999.72,998.17,994.45,989.27,983.24,978.24,973.38,968.74,964.62,961.51,958.63,955.19,951.12,946.38,941.04,935.67,930.75,926.67,923.84,920.87,917.66,914.78,913.08,912.39,911.92,911.06,909.51,907.58,906.15,904.94,903.81,902.73,901.37,899.70,897.65,895.13,892.50,888.70,884.56,880.61,877.35,875.79,874.07,872.38,871.83,871.77,872.15,872.44,872.13,870.83,868.96,866.75,864.35
589.05,589.50,589.89,590.32,590.75,591.15,591.55,592.00,592.47,592.91,593.30,593.67,594.10,594.54,594.94,595.40,595.87,596.39,596.99,597.60,598.15,598.73,599.29,599.72,600.10,600.47,600.84,601.22,601.60,601.94,602.29,602.66,603.04,603.38,603.73,604.09,604.41,604.78,605.16,605.54,605.97,606.58,607.25,607.88,608.47,609.12,609.97,610.79,611.58,612.42,613.25,614.10,614.95,615.80,616.63,617.45,618.28,619.11,619.96,620.98,621.98,622.93,623.85,624.77,625.69,626.62,627.55,628.49,629.45,630.90,632.70,634.62,636.53,638.29,641.00,644.69,647.76,650.04,651.90,653.52,654.95,656.22,657.24,658.14,658.98,659.67,660.19,660.72,661.29,661.84,662.54,662.98,663.33,663.83,664.52,664.78,665.09,665.71,666.54,667.42,668.34,669.28,670.19,671.12,672.00,672.89,673.91,675.36,677.32,679.62,682.48,686.48,689.68,692.37,694.91,697.53,700.13,702.27,706.31,712.75,718.69,721.43,721.25,719.91,719.88,720.68,720.27,718.43,714.93,709.90,709.22,711.42,715.23,719.58,725.32,730.45,733.67,733.92,732.97,732.00,731.12,730.24,729.18,728.99,729.91,731.61,733.57,735.59,737.50,739.76,742.74,745.98,749.32,753.70,759.39,766.10,773.14,778.31,782.15,785.56,787.98,789.50,789.92,788.91,786.50,784.84,784.80,786.25,789.32,795.81,803.59,810.61,815.99,821.74,824.89,826.31,827.50,831.61,841.53,845.90,845.39,844.30,846.04,851.85,860.15,870.14,880.85,888.04,892.53,895.34,897.35,899.37,903.42,909.47,918.40,933.05,949.51,961.97,969.38,975.26,981.43,987.95,994.06,998.06,997.77,994.85,990.63,985.75,980.96,975.84,971.15,967.28,964.59,962.30,959.44,955.87,951.58,946.88,941.50,936.50,932.44,929.43,926.35,922.76,919.25,916.88,915.63,914.69,913.49,911.82,909.89,908.16,906.74,905.54,904.35,902.75,901.40,899.88,897.64,895.09,891.61,887.75,883.92,880.60,877.60,874.51,871.88,870.73,869.93,869.76,869.59,868.86,867.33,865.56,863.61,861.72
589.17,589.57,589.96,590.35,590.77,591.22,591.67,592.13,592.60,593.04,593.42,593.76,594.16,594.60,595.01,595.52,596.00,596.48,596.99,597.60,598.15,598.70,599.20,599.53,599.86,600.18,600.50,600.83,601.21,601.59,601.94,602.27,602.66,603.03,603.38,603.71,604.08,604.41,604.95,605.58,606.21,606.84,607.51,608.20,608.79,609.21,609.94,610.72,611.50,612.28,613.07,613.90,614.75,615.59,616.37,617.10,617.86,618.70,619.69,620.87,621.84,622.73,623.65,624.52,625.43,626.36,627.30,628.27,629.11,630.22,631.73,633.64,635.45,637.04,638.73,640.83,643.68,646.37,647.99,648.94,649.99,650.78,651.48,652.59,654.26,655.74,656.42,657.16,658.04,658.61,659.38,660.00,660.65,661.59,662.42,662.97,663.63,664.52,665.33,666.32,667.33,668.29,669.16,670.08,671.00,672.01,673.34,675.30,677.42,680.03,683.40,687.75,691.25,694.28,697.32,701.00,705.97,709.14,713.23,718.38,720.18,718.66,716.47,714.98,715.13,715.57,714.22,711.75,709.10,707.64,709.20,712.37,716.35,720.87,727.39,730.88,731.20,729.49,728.64,728.19,727.66,726.93,726.30,727.79,730.01,732.36,734.64,736.74,738.50,741.09,745.16,748.83,752.57,757.12,763.06,770.71,776.22,778.81,779.82,780.86,783.33,784.59,784.35,782.64,780.18,779.03,780.87,784.73,788.67,794.03,799.83,805.01,808.94,812.42,814.43,816.32,819.87,828.03,836.89,839.06,837.45,838.16,845.22,853.62,862.81,872.29,879.42,883.34,886.26,889.26,892.71,895.00,897.77,902.25,909.50,919.03,936.16,951.65,962.16,969.75,975.53,981.54,987.90,993.48,995.13,994.18,991.69,987.90,983.05,977.58,973.31,970.29,967.65,965.03,962.47,959.56,955.97,951.97,946.91,941.55,936.74,933.67,930.75,926.97,923.13,920.62,918.70,917.04,915.36,913.50,911.48,909.80,908.45,907.17,905.58,903.96,902.63,901.38,899.80,897.45,893.90,890.53,887.86,885.52,882.55,880.06,877.88,875.41,872.91,871.10,869.32,867.20,865.24,863.84,862.68,861.89
589.25,589.63,590.02,590.43,590.87,591.34,591.80,592.26,592.72,593.17,593.55,593.88,594.25,594.67,595.08,595.60,596.08,596.56,597.07,597.61,598.12,598.59,598.99,599.29,599.60,599.91,600.22,600.54,600.88,601.26,601.63,601.97,602.32,602.70,603.04,603.42,603.95,604.45,605.09,605.79,606.47,607.13,607.82,608.50,609.09,609.50,610.15,610.90,611.67,612.45,613.22,614.02,614.85,615.68,616.46,617.20,617.97,618.83,619.79,620.74,621.61,622.49,623.40,624.26,625.17,626.12,627.06,627.95,628.74,629.64,630.88,632.60,634.20,635.73,637.21,638.82,640.92,643.30,644.92,646.04,647.31,648.08,648.80,649.76,651.03,652.21,653.24,654.33,655.48,656.46,657.37,658.30,659.23,660.09,660.78,661.51,662.37,663.33,664.27,665.35,666.38,667.32,668.22,669.17,670.16,671.39,673.06,675.11,677.25,679.88,683.25,687.55,691.45,694.97,698.69,703.32,708.80,712.07,714.90,717.31,716.40,713.83,711.44,710.04,710.13,710.06,708.79,707.20,706.44,707.96,710.59,713.98,717.91,722.10,726.37,727.82,727.05,725.48,725.27,725.09,724.63,724.25,725.27,728.00,730.83,733.39,735.82,738.03,740.56,743.94,748.35,752.62,756.52,761.01,766.24,771.38,773.99,774.56,774.40,774.85,776.68,777.75,777.35,775.58,774.38,776.94,780.63,784.19,787.09,790.26,793.64,796.72,799.36,802.75,806.66,811.35,817.05,823.77,828.04,829.55,831.90,839.59,849.96,858.59,865.59,871.00,874.34,876.70,879.33,882.73,886.95,889.77,892.29,895.97,901.95,909.50,923.24,939.46,954.53,963.35,969.90,975.86,981.76,987.34,990.88,991.79,990.64,987.52,982.86,978.20,974.51,971.64,968.81,965.86,963.32,960.65,957.28,953.50,949.00,944.04,939.24,936.03,933.05,929.68,926.26,923.44,920.99,918.88,916.97,915.14,913.13,911.32,909.80,908.38,906.76,905.18,903.77,902.45,901.00,899.11,895.99,893.03,890.85,889.26,887.19,884.85,882.29,879.41,876.19,873.28,870.56,868.01,865.90,864.22,863.29,863.18
589.30,589.69,590.09,590.55,591.01,591.47,591.93,592.39,592.86,593.30,593.68,594.02,594.37,594.75,595.17,595.68,596.16,596.65,597.14,597.57,598.00,598.38,598.70,599.01,599.34,599.65,599.96,600.26,600.58,600.94,601.32,601.69,602.02,602.39,602.77,603.25,603.94,604.63,605.33,606.04,606.74,607.44,608.14,608.80,609.39,609.90,610.51,611.24,612.00,612.77,613.54,614.32,615.13,615.95,616.73,617.51,618.32,619.18,620.04,620.68,621.44,622.27,623.14,624.01,624.93,625.87,626.80,627.57,628.36,629.14,630.16,631.63,633.07,634.57,636.09,637.56,638.96,640.83,642.48,643.97,645.54,646.42,647.25,648.01,648.66,649.36,650.64,652.04,653.41,654.81,655.87,657.11,658.27,658.93,659.45,660.29,661.24,662.20,663.28,664.41,665.44,666.38,667.33,668.35,669.45,670.90,672.87,674.98,677.08,679.60,682.79,686.95,691.23,695.27,699.64,704.81,709.63,712.37,713.67,713.47,711.01,708.59,706.56,705.28,705.22,704.75,704.09,704.00,705.46,709.12,712.12,715.27,718.87,722.42,723.95,723.71,722.68,721.89,722.29,722.29,721.92,722.05,724.85,728.57,731.95,734.79,737.29,739.62,743.04,747.18,751.69,756.42,760.14,764.08,768.03,770.10,770.07,769.18,768.42,768.55,769.36,770.13,770.15,769.59,770.44,776.29,781.04,783.52,784.99,786.03,787.34,788.89,791.10,795.64,802.00,808.88,815.03,818.41,818.99,821.59,829.25,843.75,855.70,862.87,866.42,867.26,867.57,869.38,872.62,876.90,881.56,884.80,887.26,890.36,895.30,901.82,911.25,926.60,945.16,956.25,964.19,970.36,975.67,980.71,985.61,987.99,987.95,985.54,981.49,977.89,974.72,971.77,968.77,965.56,962.88,960.16,956.81,953.15,949.30,945.01,940.61,937.36,934.36,931.52,928.64,925.56,922.72,920.25,918.07,916.09,913.94,911.96,910.26,908.75,907.20,905.66,904.19,902.79,901.45,899.99,897.44,894.93,893.06,891.94,890.71,888.32,885.19,882.11,878.53,874.83,871.58,869.10,867.04,865.22,864.51,864.81
589.30,589.70,590.19,590.71,591.19,591.60,592.06,592.52,592.99,593.43,593.82,594.19,594.53,594.90,595.35,595.82,596.29,596.74,597.12,597.35,597.63,597.95,598.32,598.69,599.06,599.39,599.68,599.94,600.30,600.64,601.00,601.38,601.75,602.13,602.69,603.37,604.07,604.76,605.50,606.25,607.00,607.70,608.44,609.13,609.75,610.39,611.07,611.81,612.56,613.28,614.05,614.87,615.68,616.47,617.25,618.07,618.87,619.65,620.37,620.95,621.54,622.18,622.91,623.81,624.73,625.60,626.41,627.19,628.01,628.81,629.73,630.97,632.50,633.96,635.35,636.72,638.11,639.61,641.17,642.76,644.30,645.18,646.01,646.79,647.49,648.29,649.34,650.69,652.19,653.54,654.84,656.23,657.42,658.10,658.69,659.41,660.28,661.29,662.37,663.46,664.50,665.48,666.50,667.65,668.93,670.52,672.63,675.18,677.20,679.49,682.52,686.64,691.13,695.65,700.32,704.86,707.24,708.40,708.65,707.89,706.12,704.26,702.48,701.14,700.81,700.54,701.05,702.93,706.48,710.29,712.60,714.78,717.36,719.92,720.35,719.95,719.44,719.24,719.59,719.67,719.76,720.72,724.34,728.75,733.22,737.08,739.52,742.04,745.70,750.06,754.69,759.21,761.84,763.90,765.76,766.81,766.46,765.31,763.93,762.76,762.11,762.04,763.92,768.00,771.99,776.29,779.46,781.34,782.21,782.50,783.34,785.51,789.97,797.31,804.55,809.06,810.32,810.13,813.89,821.71,833.47,848.52,858.62,861.30,860.70,859.35,859.23,861.93,867.35,873.85,878.55,881.63,883.50,885.90,890.14,895.26,901.85,913.56,930.50,947.79,957.90,964.58,969.78,974.23,978.70,981.42,982.23,981.09,978.76,975.74,972.70,969.79,966.91,963.68,960.55,957.38,953.97,950.60,947.34,943.84,940.27,937.46,934.74,932.10,929.38,926.41,923.49,920.63,917.73,914.78,911.96,909.83,908.21,906.80,905.26,903.76,902.37,901.26,900.47,899.12,897.05,895.16,893.75,892.47,890.95,888.33,884.91,881.28,877.45,873.32,870.13,868.42,866.70,865.96,866.05,866.30
588.93,589.55,590.22,590.87,591.43,591.85,592.28,592.71,593.14,593.56,593.95,594.30,594.63,594.99,595.44,595.85,596.19,596.50,596.76,596.93,597.15,597.47,597.85,598.24,598.63,598.98,599.31,599.62,600.00,600.35,600.71,601.12,601.57,602.08,602.75,603.50,604.19,604.89,605.64,606.40,607.13,607.87,608.60,609.29,609.98,610.77,611.51,612.26,613.03,613.80,614.57,615.38,616.17,616.94,617.72,618.53,619.32,620.07,620.79,621.38,621.91,622.45,623.06,623.77,624.52,625.31,626.12,626.92,627.74,628.55,629.42,630.48,631.98,633.44,634.83,636.19,637.61,639.01,640.49,641.97,643.20,644.10,645.02,645.93,646.81,647.75,648.74,649.95,651.30,652.53,653.93,655.38,656.59,657.31,657.97,658.72,659.62,660.65,661.81,663.24,664.65,665.97,667.11,668.04,669.22,671.01,673.60,676.36,678.26,680.55,683.71,687.73,691.82,695.94,699.72,702.40,703.15,703.42,703.33,702.79,701.88,700.67,699.40,698.54,698.71,699.25,700.86,703.54,706.97,709.58,711.11,712.50,714.28,716.69,717.55,717.50,717.16,717.02,717.29,717.84,718.77,720.89,726.11,730.69,735.20,739.24,741.71,744.42,747.49,750.78,754.19,757.38,759.41,761.06,762.50,763.29,762.76,761.57,760.09,758.61,757.94,758.70,761.76,766.95,771.25,773.94,775.84,777.28,778.26,779.28,781.24,785.14,791.58,798.44,803.03,804.44,803.95,806.02,813.37,824.25,837.02,849.38,854.61,854.59,852.96,852.01,854.12,858.47,864.75,870.99,873.89,877.05,879.29,881.67,885.32,890.00,895.63,904.41,917.78,935.83,948.98,957.41,963.12,967.84,972.39,975.49,977.02,976.94,975.81,973.41,970.78,968.16,965.32,962.02,958.00,954.04,950.86,948.13,945.32,942.06,938.49,935.47,933.13,931.06,928.82,925.99,923.18,920.30,917.19,913.85,910.71,908.39,906.45,904.68,903.06,901.44,899.88,898.56,897.53,896.14,894.81,893.54,892.26,890.67,888.80,886.32,883.25,879.59,875.26,871.65,869.36,868.44,867.46,867.29,867.62,867.64
588.34,589.28,590.17,590.98,591.64,592.09,592.44,592.78,593.15,593.52,593.90,594.24,594.58,594.96,595.40,595.71,595.91,596.08,596.25,596.40,596.63,596.95,597.33,597.72,598.11,598.49,598.89,599.27,599.67,600.07,600.48,600.92,601.48,602.14,602.87,603.62,604.31,605.01,605.76,606.50,607.21,607.96,608.67,609.38,610.13,611.02,611.82,612.60,613.40,614.23,615.00,615.78,616.55,617.33,618.10,618.88,619.66,620.43,621.18,621.83,622.38,622.90,623.44,623.93,624.45,625.13,625.93,626.73,627.51,628.34,629.19,630.16,631.55,633.00,634.43,635.83,637.28,638.67,640.09,641.37,642.28,643.22,644.25,645.34,646.41,647.48,648.51,649.56,650.65,651.78,653.13,654.56,655.77,656.56,657.30,658.20,659.18,660.27,661.64,663.51,665.44,667.20,668.49,669.17,670.26,672.30,675.36,678.11,679.92,682.32,685.63,689.30,692.61,695.80,698.17,698.87,698.69,698.56,698.49,698.44,698.29,697.65,697.13,697.13,698.14,699.63,701.94,704.54,706.78,707.86,708.79,709.68,710.95,713.46,715.25,715.66,715.32,715.08,715.55,716.87,719.00,722.62,729.06,733.38,737.28,740.85,743.14,745.77,747.91,749.79,751.61,753.14,754.76,756.58,758.34,759.21,758.60,757.53,756.40,755.49,755.76,757.95,761.56,765.90,769.12,770.55,771.72,773.10,774.71,777.05,780.63,786.22,793.60,798.14,798.84,797.97,798.40,805.15,815.35,827.31,838.89,846.81,846.90,845.56,844.78,845.96,851.39,857.48,863.42,867.84,868.68,872.08,874.99,877.65,880.99,885.76,891.39,897.94,907.01,922.21,938.43,949.23,955.79,961.03,965.94,969.58,971.88,972.73,972.54,970.92,968.97,966.85,964.02,960.66,955.64,950.85,948.01,945.87,943.36,940.00,936.00,932.56,930.59,929.14,927.41,924.76,922.12,919.39,916.38,913.07,909.90,907.37,904.96,902.68,900.90,899.04,897.18,895.38,893.72,892.26,891.53,890.67,889.26,887.29,885.24,883.17,880.78,877.46,873.07,870.57,869.54,869.37,869.22,869.29,869.51,869.20
