357.15,357.19,357.22,357.27,357.28,357.28,357.33,357.58,357.93,358.32,358.75,359.20,359.63,360.00,360.36,360.74,361.10,361.44,361.79,362.13,362.44,362.69,362.89,363.09,363.29,363.47,363.69,363.90,364.11,364.36,364.72,365.06,365.36,365.69,366.04,366.44,366.86,367.25,367.66,368.06,368.44,368.84,369.26,369.60,369.84,370.06,370.31,370.68,371.01,371.32,371.63,371.94,372.25,372.60,372.90,373.07,374.49,376.08,377.18,377.41,377.64,377.90,378.13,378.32,378.56,378.53,378.14,377.58,377.24,377.28,377.69,378.39,379.27,380.08,381.24,382.59,383.94,384.84,385.32,385.75,386.04,385.93,386.13,387.25,388.62,389.76,390.74,391.80,392.99,394.16,394.96,395.44,395.85,396.09,396.05,395.91,395.75,395.62,395.52,395.48,395.47,395.45,395.23,394.41,392.73,391.67,391.34,391.52,391.35,391.25,391.24,391.23,391.23,391.65,392.60,393.81,395.06,396.24,397.48,398.65,399.65,400.33,400.95,401.34,401.49,401.45,401.53,401.57,401.63,401.78,401.97,402.16,402.30,402.43,402.67,403.24,404.04,404.91,405.67,406.10,406.34,406.55,406.80,407.17,407.67,407.97,408.08,408.16,408.07,408.01,407.97,407.90,407.75,407.60,407.52,407.69,408.44,409.23,409.93,410.57,411.15,411.76,412.35,412.94,413.56,414.17,414.75,415.31,415.89,416.56,417.23,417.90,418.58,419.27,420.02,420.68,421.30,421.93,422.62,423.34,424.08,424.81,425.50,426.19,426.88,427.52,428.11,428.61,429.06,429.41,429.70,430.04,430.37,430.68,430.91,431.05,431.31,431.81,432.44,433.15,433.80,434.17,434.34,434.41,434.52,434.81,435.31,435.89,436.40,436.59,436.59,436.56,436.51,436.47,436.64,437.18,437.91,438.71,439.49,440.42,441.39,442.36,443.32,444.27,445.16,445.92,446.46,446.61,446.70,446.89,447.25,447.80,448.64,449.45,450.23,451.17,452.06,452.54,452.51,451.99,451.59,451.99,452.69,453.40,453.90,454.24,454.59,454.98,455.37,455.80,455.97,456.02,456.06,456.12,455.80,455.40
357.32,357.34,357.40,357.41,357.41,357.41,357.42,357.44,357.62,357.93,358.37,358.83,359.29,359.71,360.10,360.47,360.80,361.15,361.50,361.81,362.13,362.38,362.61,362.82,363.02,363.27,363.52,363.77,364.02,364.33,364.83,365.19,365.37,365.61,365.89,366.24,366.61,367.00,367.44,367.85,368.24,368.63,369.02,369.35,369.57,369.73,369.91,370.25,370.57,370.87,371.18,371.49,371.81,372.15,372.47,372.68,374.15,376.02,377.45,377.73,377.96,378.20,378.36,378.48,378.78,379.12,379.00,378.58,378.53,378.59,378.71,379.13,379.97,380.63,381.43,382.35,383.24,383.77,384.20,384.65,384.91,384.67,384.59,385.33,386.50,387.77,388.84,389.96,391.29,392.83,394.37,395.07,395.50,395.70,395.54,395.30,395.05,394.82,394.63,394.58,394.52,394.43,394.02,392.76,390.61,389.90,390.01,390.25,390.24,390.29,390.42,390.57,390.66,390.83,391.62,392.84,394.20,395.49,396.85,398.17,399.30,399.93,400.41,400.66,400.70,400.60,400.69,400.74,400.82,400.99,401.22,401.43,401.60,401.76,401.99,402.66,403.46,404.23,404.82,405.06,405.28,405.53,405.85,406.37,406.90,407.21,407.37,407.49,407.46,407.39,407.34,407.33,407.25,407.07,407.16,407.69,408.73,409.48,410.13,410.75,411.36,411.97,412.59,413.21,413.83,414.44,415.06,415.63,416.18,416.74,417.34,417.92,418.48,419.08,419.89,420.66,421.38,422.08,422.78,423.52,424.22,424.90,425.58,426.26,426.84,427.36,427.83,428.27,428.68,428.98,429.19,429.35,429.52,429.82,430.12,430.37,430.81,431.46,432.21,432.94,433.42,433.60,433.69,433.78,433.94,434.42,435.00,435.58,436.01,436.05,436.04,436.00,435.94,435.95,436.41,437.06,437.82,438.66,439.45,440.32,441.26,442.22,443.21,444.15,444.92,445.42,445.60,445.70,445.90,446.30,446.98,447.87,448.83,449.67,450.40,451.12,451.55,451.72,451.60,451.17,450.93,451.42,452.17,452.82,453.10,453.40,453.77,454.16,454.60,455.16,455.26,455.24,455.32,455.41,455.06,454.63
357.47,357.52,357.54,357.54,357.54,357.54,357.54,357.54,357.60,357.75,358.04,358.50,358.97,359.42,359.84,360.21,360.53,360.86,361.18,361.50,361.85,362.11,362.34,362.61,362.99,363.38,363.74,364.08,364.43,364.78,365.09,365.32,365.48,365.66,365.90,366.13,366.41,366.80,367.20,367.60,368.00,368.43,368.82,369.14,369.37,369.53,369.69,369.90,370.14,370.42,370.73,371.03,371.39,371.73,372.02,372.28,373.81,375.83,377.50,378.02,378.29,378.52,378.64,378.68,379.02,379.45,379.62,379.61,379.80,379.89,380.07,380.61,381.61,382.26,382.03,382.08,382.73,383.31,383.86,384.43,384.56,383.61,382.48,382.67,383.87,385.60,386.92,388.31,389.94,391.78,393.51,394.56,395.09,395.25,395.00,394.31,393.55,392.87,392.35,392.05,391.69,391.32,390.85,389.97,388.65,388.42,388.71,388.99,389.20,389.43,389.69,389.95,390.17,390.29,390.74,391.63,392.98,394.16,395.53,396.81,397.80,398.39,399.03,399.63,400.01,399.96,399.90,400.00,400.17,400.39,400.61,400.72,400.83,401.01,401.32,402.05,402.79,403.37,403.73,404.00,404.24,404.57,405.06,405.69,406.16,406.44,406.59,406.74,406.84,406.77,406.71,406.74,406.68,406.56,406.94,407.90,409.13,409.83,410.44,411.06,411.68,412.30,412.91,413.53,414.14,414.76,415.38,415.96,416.50,417.04,417.60,418.19,418.78,419.40,420.13,420.85,421.59,422.32,423.02,423.69,424.27,424.84,425.46,426.06,426.57,427.04,427.49,427.85,428.23,428.50,428.66,428.76,428.91,429.15,429.50,430.00,430.57,431.32,432.04,432.58,432.79,432.94,433.04,433.18,433.51,434.02,434.62,435.16,435.51,435.53,435.49,435.42,435.40,435.60,436.22,436.99,437.81,438.66,439.49,440.31,441.23,442.26,443.23,443.88,444.29,444.55,444.71,444.84,445.38,446.16,447.06,447.99,448.89,449.57,449.99,450.17,450.20,450.18,450.12,450.07,450.29,451.04,451.69,452.02,452.26,452.60,452.98,453.43,454.02,454.49,454.45,454.34,454.46,454.77,454.39,453.88
357.62,357.67,357.67,357.67,357.67,357.67,357.67,357.67,357.65,357.70,357.88,358.26,358.71,359.18,359.63,360.02,360.34,360.65,360.96,361.28,361.64,362.05,362.40,362.73,363.16,363.60,364.00,364.39,364.76,365.10,365.29,365.45,365.60,365.76,365.95,366.15,366.37,366.67,367.00,367.37,367.78,368.20,368.59,368.92,369.14,369.30,369.45,369.63,369.83,370.05,370.31,370.62,370.96,371.30,371.58,371.89,373.46,375.56,377.40,378.26,378.61,378.81,378.88,378.89,379.27,379.73,380.11,380.45,380.84,381.15,381.52,382.01,382.64,383.37,382.88,382.48,382.70,383.25,383.90,384.27,383.91,382.37,380.95,380.75,381.52,382.93,384.31,386.39,388.80,391.06,392.55,393.60,394.25,394.41,393.87,392.80,391.59,390.53,389.73,389.24,388.72,388.35,388.05,387.61,387.04,387.11,387.43,387.72,388.03,388.31,388.65,389.04,389.38,389.55,389.88,390.51,391.56,392.86,394.13,395.26,396.22,397.00,397.86,398.74,399.39,399.43,399.35,399.46,399.66,399.86,400.01,400.02,400.10,400.32,400.70,401.41,401.97,402.33,402.59,402.94,403.26,403.70,404.32,404.99,405.39,405.64,405.81,405.97,406.15,406.14,406.10,406.13,406.12,406.23,406.97,408.32,409.66,410.28,410.80,411.38,412.00,412.62,413.21,413.82,414.44,415.05,415.67,416.25,416.80,417.36,417.93,418.50,419.06,419.65,420.38,421.05,421.70,422.36,422.96,423.53,424.07,424.62,425.23,425.77,426.26,426.70,427.09,427.44,427.76,427.99,428.10,428.19,428.36,428.70,429.20,429.81,430.43,431.14,431.72,432.05,432.14,432.28,432.43,432.65,433.12,433.69,434.32,434.80,435.00,434.98,434.92,434.85,434.92,435.38,436.13,436.94,437.78,438.63,439.48,440.37,441.31,442.23,442.91,443.30,443.53,443.72,444.00,444.42,445.20,446.16,447.13,447.95,448.69,449.18,449.39,449.29,449.06,448.89,448.93,449.27,449.80,450.51,450.99,451.18,451.42,451.80,452.28,452.87,453.52,453.81,453.63,453.46,453.60,454.07,453.78,453.23
357.75,357.79,357.79,357.79,357.79,357.79,357.79,357.79,357.74,357.75,357.86,358.11,358.52,358.98,359.44,359.87,360.21,360.52,360.83,361.15,361.50,362.15,362.70,363.09,363.48,363.87,364.26,364.64,365.00,365.25,365.42,365.58,365.73,365.88,366.05,366.25,366.45,366.63,366.87,367.19,367.57,367.95,368.34,368.66,368.89,369.05,369.21,369.42,369.59,369.76,369.94,370.24,370.54,370.84,371.13,371.48,373.12,375.24,377.21,378.48,378.92,379.05,379.07,379.09,379.50,379.94,380.46,381.01,381.55,382.15,382.69,382.89,382.79,383.64,383.72,383.38,383.08,383.50,384.13,383.98,382.88,381.02,380.01,379.63,379.69,380.21,381.42,384.33,387.66,390.40,391.46,392.31,393.07,393.24,392.29,390.94,389.38,388.00,386.98,386.35,385.84,385.72,385.79,385.74,385.70,385.90,386.18,386.43,386.73,387.01,387.41,387.93,388.37,388.64,389.08,389.58,390.19,391.71,392.79,393.74,394.77,395.88,396.94,398.00,398.81,398.98,398.99,399.10,399.26,399.38,399.40,399.37,399.46,399.73,400.12,400.72,401.04,401.20,401.46,401.90,402.36,402.92,403.60,404.27,404.60,404.82,405.03,405.19,405.42,405.48,405.49,405.51,405.64,406.10,407.24,408.91,410.26,410.77,411.19,411.71,412.32,412.94,413.51,414.09,414.70,415.32,415.93,416.50,417.04,417.63,418.23,418.74,419.21,419.74,420.51,421.14,421.67,422.16,422.65,423.13,423.69,424.30,424.92,425.45,425.92,426.32,426.66,427.02,427.28,427.43,427.52,427.63,427.87,428.44,429.10,429.70,430.29,430.83,431.20,431.38,431.49,431.63,431.84,432.18,432.74,433.42,434.08,434.47,434.47,434.40,434.33,434.31,434.50,435.25,436.07,436.87,437.68,438.52,439.37,440.41,441.36,442.02,442.26,442.50,442.72,443.01,443.54,444.35,445.26,446.19,447.10,447.75,448.26,448.57,448.67,448.55,448.17,447.94,448.08,448.73,449.39,449.81,450.11,450.33,450.59,451.04,451.68,452.43,453.08,453.12,452.82,452.60,452.73,453.33,453.24,452.66
357.89,357.87,357.87,357.87,357.87,357.87,357.87,357.87,357.85,357.85,357.90,358.04,358.36,358.78,359.23,359.65,360.06,360.39,360.70,361.04,361.51,362.26,362.90,363.36,363.75,364.13,364.52,364.89,365.20,365.39,365.55,365.71,365.86,366.02,366.21,366.41,366.58,366.74,366.91,367.13,367.41,367.76,368.13,368.46,368.69,368.84,369.00,369.18,369.34,369.50,369.66,369.91,370.13,370.39,370.68,371.04,372.80,374.94,377.04,378.74,379.24,379.28,379.24,379.31,379.56,379.90,380.35,380.87,381.41,381.90,381.95,381.58,381.16,382.06,383.48,384.10,383.80,383.94,384.02,383.06,381.45,380.07,379.45,379.14,379.08,379.37,380.19,382.69,385.84,388.68,390.08,391.04,391.82,391.95,390.86,389.24,387.37,385.59,384.19,383.48,383.23,383.38,383.76,384.16,384.39,384.67,384.95,385.18,385.45,385.88,386.43,387.00,387.51,387.95,388.51,389.13,389.79,390.94,391.85,392.77,393.84,395.00,396.09,397.17,398.09,398.54,398.60,398.71,398.83,398.87,398.88,398.89,399.07,399.40,399.68,399.97,400.13,400.24,400.48,401.01,401.60,402.24,402.89,403.56,403.84,404.02,404.20,404.41,404.64,404.78,404.85,404.93,405.44,406.33,407.75,409.46,410.70,411.18,411.55,412.03,412.64,413.26,413.87,414.45,415.02,415.63,416.21,416.71,417.15,417.62,418.09,418.55,419.00,419.44,420.02,420.69,421.27,421.75,422.26,422.77,423.35,424.00,424.68,425.10,425.51,425.90,426.25,426.58,426.75,426.86,426.96,427.17,427.65,428.28,428.86,429.28,429.69,430.00,430.30,430.59,430.82,430.98,431.31,431.80,432.46,433.20,433.72,433.95,433.90,433.83,433.75,433.82,434.17,434.94,435.74,436.55,437.37,438.17,438.96,439.89,440.70,441.27,441.49,441.68,442.09,442.71,443.49,444.40,445.26,446.05,446.77,447.34,447.70,447.90,447.95,447.79,447.42,447.24,447.46,448.14,448.74,449.04,449.23,449.45,449.81,450.50,451.26,452.01,452.56,452.44,452.07,451.81,451.95,452.56,452.67,452.22
358.00,357.96,357.96,357.96,357.96,357.95,357.93,357.93,357.93,357.94,357.97,358.04,358.22,358.58,359.01,359.43,359.88,360.23,360.56,360.94,361.54,362.35,363.06,363.62,364.00,364.39,364.76,365.10,365.36,365.53,365.68,365.84,366.00,366.18,366.38,366.55,366.71,366.86,367.02,367.19,367.40,367.67,367.99,368.26,368.47,368.61,368.78,368.95,369.11,369.26,369.43,369.63,369.80,370.00,370.26,370.63,372.46,374.64,376.80,378.75,379.45,379.48,379.38,379.39,379.50,379.75,380.09,380.51,381.00,381.35,381.09,380.47,380.02,380.98,382.92,384.18,384.34,384.29,383.52,381.97,380.29,379.42,378.97,378.69,378.67,378.99,379.57,381.31,383.86,386.61,388.47,389.62,390.38,390.37,389.01,387.16,385.14,383.27,381.83,381.25,381.24,381.63,382.21,382.76,383.19,383.67,384.16,384.58,385.00,385.64,386.29,386.89,387.43,387.92,388.47,389.06,389.79,391.19,392.04,392.77,393.63,394.52,395.37,396.34,397.34,398.08,398.21,398.31,398.38,398.39,398.41,398.52,398.77,399.09,399.26,399.38,399.50,399.66,399.92,400.42,400.96,401.55,402.19,402.79,403.06,403.22,403.39,403.63,403.86,404.17,404.47,404.82,405.67,406.82,408.29,409.85,410.92,411.48,411.91,412.38,412.98,413.59,414.14,414.64,415.13,415.66,416.15,416.58,416.96,417.34,417.71,418.12,418.54,418.94,419.38,420.13,420.81,421.34,421.93,422.54,423.14,423.74,424.33,424.70,425.07,425.46,425.82,426.08,426.19,426.28,426.45,426.86,427.49,428.06,428.50,428.80,429.04,429.22,429.43,429.72,430.09,430.42,430.91,431.52,432.23,432.97,433.31,433.39,433.32,433.24,433.18,433.34,433.76,434.44,435.18,436.00,436.82,437.59,438.36,439.18,439.88,440.40,440.74,441.12,441.76,442.59,443.44,444.21,444.98,445.70,446.33,446.81,447.07,447.21,447.23,447.05,446.72,446.63,446.90,447.55,448.05,448.27,448.47,448.80,449.36,450.14,450.77,451.27,451.75,451.72,451.35,451.03,451.10,451.69,452.03,451.71
358.09,358.09,358.09,358.09,358.09,358.06,358.00,358.00,358.00,358.03,358.09,358.10,358.13,358.37,358.77,359.22,359.68,360.04,360.38,360.84,361.58,362.41,363.21,363.87,364.27,364.65,364.98,365.27,365.49,365.65,365.80,365.95,366.12,366.34,366.51,366.67,366.82,366.98,367.13,367.33,367.53,367.70,367.88,368.05,368.21,368.37,368.53,368.73,368.92,369.07,369.23,369.39,369.54,369.71,369.89,370.26,372.11,374.34,376.57,378.59,379.57,379.69,379.50,379.34,379.34,379.51,379.74,380.05,380.48,380.70,380.45,379.98,379.74,380.76,382.14,383.48,384.46,384.42,382.65,380.82,379.56,379.02,378.50,378.19,378.27,378.78,379.34,380.20,381.98,384.43,386.60,387.93,388.66,388.37,386.58,384.64,382.71,381.11,380.08,379.86,380.00,380.56,381.23,381.63,382.20,383.04,383.93,384.73,385.53,386.35,387.07,387.67,388.20,388.62,389.01,389.40,390.15,392.50,393.41,393.78,394.17,394.56,394.95,395.67,396.66,397.60,397.80,397.88,397.93,397.95,398.03,398.21,398.48,398.73,398.85,399.00,399.19,399.46,399.82,400.17,400.46,400.91,401.53,402.00,402.27,402.47,402.65,402.89,403.13,403.69,404.39,405.18,406.26,407.47,408.77,410.01,410.90,411.64,412.21,412.71,413.25,413.85,414.25,414.60,414.95,415.34,415.69,416.05,416.44,416.82,417.15,417.52,417.91,418.31,418.75,419.59,420.38,421.01,421.69,422.40,423.01,423.49,423.86,424.23,424.62,425.00,425.34,425.51,425.61,425.74,426.03,426.67,427.29,427.72,428.03,428.30,428.42,428.56,428.67,428.83,429.36,429.98,430.65,431.34,432.02,432.70,432.86,432.81,432.73,432.66,432.64,432.85,433.26,433.78,434.44,435.23,436.04,436.81,437.58,438.36,438.99,439.48,440.04,440.86,441.73,442.55,443.22,443.71,444.40,445.17,445.83,446.17,446.37,446.49,446.51,446.34,446.05,446.04,446.35,446.94,447.35,447.52,447.82,448.42,449.25,449.91,450.13,450.20,450.59,450.93,450.65,450.25,450.16,450.70,451.33,451.11
358.16,358.16,358.16,358.16,358.16,358.15,358.13,358.12,358.12,358.14,358.16,358.17,358.20,358.31,358.57,359.02,359.44,359.85,360.28,360.83,361.63,362.48,363.31,364.05,364.50,364.87,365.16,365.39,365.57,365.73,365.85,365.98,366.14,366.32,366.48,366.63,366.78,366.94,367.10,367.27,367.44,367.59,367.70,367.85,368.03,368.22,368.38,368.56,368.72,368.88,369.03,369.18,369.34,369.52,369.71,370.03,371.71,374.28,377.11,379.37,380.04,379.96,379.68,379.47,379.32,379.26,379.36,379.63,379.97,380.08,379.88,379.53,379.31,380.00,380.72,381.81,383.15,383.64,381.80,380.13,379.15,378.64,378.10,377.84,378.00,378.59,379.18,379.84,381.22,383.05,384.31,385.61,386.06,385.40,383.58,381.93,380.82,380.00,379.46,379.44,379.66,380.19,380.84,381.37,382.09,383.15,384.26,385.25,386.23,387.12,387.87,388.49,388.98,389.43,389.93,390.48,391.35,393.69,394.56,394.87,395.16,395.43,395.74,396.17,396.72,397.21,397.36,397.40,397.46,397.56,397.73,397.94,398.14,398.32,398.55,398.83,399.12,399.43,399.80,400.12,400.34,400.63,401.02,401.35,401.63,401.90,402.17,402.50,402.86,403.41,404.19,405.22,406.37,407.51,408.69,409.83,410.68,411.43,412.07,412.63,413.07,413.50,413.85,414.17,414.53,414.87,415.18,415.53,415.92,416.30,416.66,417.04,417.44,417.93,418.67,419.51,420.30,421.00,421.68,422.21,422.62,422.99,423.39,423.77,424.19,424.56,424.82,424.94,425.06,425.33,425.78,426.42,426.92,427.22,427.44,427.64,427.77,427.88,428.03,428.32,428.99,429.69,430.44,431.18,431.80,432.24,432.30,432.23,432.14,432.08,432.13,432.42,432.86,433.33,433.87,434.53,435.26,436.03,436.81,437.54,438.12,438.63,439.52,440.70,441.51,442.00,442.48,443.08,443.88,444.65,445.20,445.44,445.60,445.74,445.80,445.63,445.39,445.43,445.75,446.24,446.60,446.88,447.39,448.16,448.91,449.21,449.23,449.23,449.51,450.00,449.87,449.38,449.05,449.78,450.69,450.53
358.25,358.25,358.25,358.25,358.24,358.22,358.22,358.22,358.22,358.24,358.25,358.25,358.30,358.34,358.46,358.84,359.22,359.66,360.17,360.78,361.62,362.47,363.32,364.10,364.67,364.99,365.21,365.40,365.54,365.69,365.80,365.93,366.08,366.23,366.37,366.52,366.67,366.83,366.98,367.14,367.29,367.44,367.54,367.68,367.87,368.06,368.22,368.37,368.53,368.69,368.86,369.01,369.17,369.35,369.56,369.87,371.36,374.47,378.01,380.14,380.54,380.32,380.01,379.78,379.46,379.19,379.13,379.26,379.48,379.49,379.32,379.04,378.81,379.23,379.60,380.47,381.87,382.81,381.14,379.65,378.81,378.21,377.65,377.52,377.78,378.40,379.01,379.62,380.57,381.63,382.12,383.42,383.51,382.55,381.12,379.97,379.52,379.28,379.11,379.22,379.53,380.03,380.67,381.39,382.26,383.46,384.69,385.77,386.85,387.79,388.62,389.30,389.73,390.17,390.83,391.63,392.64,394.53,395.24,395.53,395.81,396.05,396.31,396.55,396.73,396.84,396.92,396.96,397.04,397.22,397.44,397.68,397.87,398.04,398.36,398.72,399.04,399.37,399.73,400.02,400.20,400.37,400.59,400.84,401.16,401.48,401.84,402.25,402.70,403.20,403.95,405.04,406.17,407.28,408.41,409.49,410.32,411.03,411.74,412.35,412.71,413.02,413.34,413.69,414.04,414.38,414.69,415.03,415.40,415.78,416.17,416.64,417.16,417.79,418.68,419.46,420.20,420.92,421.52,421.86,422.14,422.47,422.93,423.36,423.78,424.11,424.28,424.37,424.59,425.01,425.56,426.08,426.44,426.65,426.81,426.96,427.11,427.23,427.47,427.96,428.69,429.37,430.11,430.85,431.43,431.71,431.71,431.64,431.57,431.54,431.67,432.00,432.47,432.93,433.39,433.94,434.56,435.26,436.02,436.74,437.38,438.06,439.09,440.35,441.00,441.28,441.78,442.56,443.47,444.15,444.48,444.65,444.80,444.98,445.09,444.93,444.72,444.79,445.09,445.54,445.89,446.33,447.00,447.84,448.45,448.45,448.34,448.32,448.54,449.02,448.94,448.45,448.02,448.87,449.95,449.86
358.38,358.38,358.38,358.38,358.33,358.29,358.29,358.29,358.29,358.33,358.38,358.38,358.39,358.43,358.52,358.68,359.04,359.47,360.00,360.64,361.47,362.32,363.17,363.99,364.66,364.93,365.11,365.25,365.35,365.50,365.64,365.79,365.94,366.10,366.20,366.32,366.48,366.63,366.79,366.94,367.10,367.25,367.39,367.55,367.70,367.87,368.02,368.18,368.33,368.51,368.72,368.88,369.04,369.20,369.40,369.76,371.09,374.94,379.21,380.60,380.97,380.81,380.55,380.31,379.78,379.42,379.15,378.99,379.05,378.94,378.74,378.48,378.28,378.63,379.16,379.98,381.11,382.20,380.77,379.38,378.49,377.72,377.13,377.17,377.58,378.19,378.81,379.37,379.75,379.96,380.29,381.68,381.39,380.31,379.75,379.29,379.01,378.84,378.80,379.02,379.42,379.97,380.66,381.57,382.55,383.81,385.08,386.16,387.25,388.31,389.28,390.04,390.38,390.77,391.56,392.64,393.77,394.82,395.26,395.50,395.74,395.96,396.15,396.32,396.44,396.47,396.54,396.61,396.74,396.95,397.12,397.39,397.68,397.96,398.27,398.59,398.91,399.21,399.52,399.77,399.90,400.02,400.22,400.52,400.88,401.26,401.66,402.11,402.57,403.04,403.67,404.59,405.66,406.80,407.95,409.02,409.80,410.52,411.26,411.87,412.19,412.50,412.85,413.21,413.54,413.91,414.23,414.55,414.88,415.27,415.66,416.32,417.11,417.89,418.63,419.28,419.95,420.60,421.02,421.31,421.62,422.02,422.50,423.00,423.38,423.61,423.70,423.81,424.22,424.77,425.30,425.63,425.84,426.00,426.16,426.31,426.47,426.63,427.02,427.67,428.36,428.94,429.56,430.21,430.83,431.12,431.13,431.06,431.01,431.07,431.26,431.61,432.07,432.54,433.00,433.48,433.97,434.51,435.25,435.97,436.84,437.85,438.74,439.65,440.14,440.52,441.31,442.27,443.19,443.68,443.66,443.80,443.96,444.19,444.37,444.21,444.06,444.11,444.38,444.84,445.29,445.90,446.62,447.36,447.86,447.73,447.53,447.49,447.72,447.98,447.79,447.39,447.17,447.89,449.01,448.99
358.45,358.45,358.45,358.45,358.43,358.41,358.41,358.41,358.41,358.43,358.45,358.46,358.49,358.53,358.56,358.64,358.99,359.38,359.78,360.30,361.09,361.93,362.78,363.57,364.14,364.51,364.83,365.08,365.20,365.31,365.46,365.61,365.76,365.92,366.04,366.18,366.32,366.44,366.59,366.75,366.90,367.06,367.21,367.36,367.52,367.67,367.83,368.02,368.19,368.36,368.54,368.70,368.92,369.14,369.35,369.66,370.37,374.81,380.01,381.20,381.46,381.33,381.06,380.71,380.27,379.80,379.41,379.11,378.83,378.41,378.13,377.93,377.82,378.31,378.97,379.82,380.82,381.60,380.31,378.97,378.02,377.24,376.59,376.74,377.28,377.90,378.51,378.96,379.14,379.15,379.41,380.24,380.07,379.44,379.10,378.79,378.54,378.44,378.55,378.90,379.31,379.82,380.57,381.74,382.85,384.15,385.43,386.57,387.77,388.94,389.90,390.58,391.01,391.37,392.18,393.25,394.21,394.88,395.15,395.32,395.51,395.70,395.86,395.97,396.03,396.07,396.14,396.29,396.45,396.64,396.80,397.07,397.38,397.69,398.00,398.31,398.62,398.91,399.17,399.41,399.59,399.73,399.90,400.28,400.67,401.08,401.51,401.98,402.44,402.91,403.44,404.15,405.20,406.31,407.45,408.52,409.29,410.04,410.77,411.35,411.62,411.92,412.29,412.66,413.01,413.36,413.71,414.06,414.42,414.81,415.31,415.97,416.69,417.40,418.06,418.69,419.32,419.94,420.45,420.83,421.23,421.68,422.14,422.64,422.90,423.04,423.16,423.45,423.94,424.43,424.82,425.04,425.20,425.35,425.51,425.66,425.82,426.17,426.68,427.29,427.90,428.44,428.99,429.53,430.07,430.45,430.53,430.49,430.49,430.60,430.84,431.22,431.69,432.15,432.62,433.05,433.47,433.93,434.56,435.34,436.24,437.19,437.99,438.62,439.41,440.28,441.08,442.05,442.70,442.90,442.78,442.95,443.11,443.40,443.64,443.46,443.37,443.48,443.76,444.21,444.78,445.45,446.18,446.85,447.11,446.91,446.67,446.60,446.79,446.72,446.48,446.19,446.06,446.47,447.33,447.79
358.54,358.54,358.54,358.52,358.52,358.52,358.52,358.52,358.52,358.52,358.52,358.54,358.60,358.62,358.63,358.69,358.99,359.30,359.61,359.98,360.68,361.48,362.27,362.96,363.44,363.92,364.39,364.77,364.98,365.13,365.27,365.42,365.57,365.72,365.88,366.03,366.17,366.26,366.40,366.55,366.71,366.86,367.01,367.17,367.33,367.50,367.66,367.87,368.04,368.20,368.37,368.54,368.81,369.07,369.30,369.52,369.75,373.62,378.83,381.13,381.69,381.71,381.45,381.03,380.68,380.18,379.70,379.26,378.68,378.02,377.61,377.41,377.44,378.09,378.85,379.71,380.58,380.98,379.75,378.40,377.36,376.62,376.05,376.33,376.95,377.57,378.18,378.50,378.58,378.58,378.81,379.06,379.07,378.88,378.58,378.27,378.11,378.13,378.38,378.82,379.22,379.67,380.38,381.62,382.75,383.94,385.37,387.02,388.37,389.55,390.42,391.02,391.56,391.96,392.71,393.59,394.29,394.75,394.95,395.09,395.24,395.38,395.52,395.58,395.60,395.68,395.79,395.97,396.17,396.33,396.50,396.76,397.06,397.37,397.68,397.99,398.29,398.57,398.79,399.02,399.25,399.44,399.63,400.07,400.49,400.92,401.38,401.85,402.32,402.78,403.24,403.80,404.75,405.82,406.95,408.01,408.80,409.57,410.29,410.82,411.03,411.32,411.69,412.07,412.45,412.80,413.17,413.55,413.95,414.40,415.00,415.62,416.24,416.85,417.47,418.09,418.71,419.32,419.92,420.40,420.88,421.35,421.82,422.22,422.38,422.48,422.69,423.15,423.66,424.00,424.21,424.37,424.53,424.68,424.85,425.02,425.23,425.72,426.29,426.82,427.35,427.89,428.39,428.87,429.33,429.78,429.89,429.89,429.93,430.09,430.33,430.70,431.17,431.62,432.07,432.48,432.88,433.32,433.89,434.70,435.57,436.43,437.29,437.90,439.00,440.22,440.91,441.72,442.05,442.03,441.90,442.09,442.31,442.64,442.91,442.73,442.70,442.88,443.18,443.62,444.30,445.00,445.72,446.32,446.32,446.07,445.79,445.67,445.76,445.50,445.25,445.08,445.06,445.38,446.12,447.02
358.67,358.67,358.66,358.61,358.59,358.59,358.59,358.59,358.59,358.59,358.60,358.66,358.68,358.69,358.71,358.79,358.97,359.24,359.52,359.82,360.32,361.05,361.65,362.13,362.66,363.19,363.68,364.15,364.61,364.95,365.10,365.22,365.38,365.53,365.68,365.84,365.99,366.13,366.22,366.36,366.51,366.67,366.82,366.97,367.17,367.37,367.52,367.69,367.85,368.02,368.25,368.47,368.70,368.94,369.16,369.33,369.55,370.46,373.43,379.41,381.34,381.74,381.60,381.21,380.83,380.47,379.93,379.23,378.56,377.93,377.31,376.96,377.18,377.94,378.72,379.51,380.20,380.32,379.04,377.54,376.32,375.65,375.57,376.01,376.63,377.25,377.84,378.01,378.00,377.99,378.21,378.34,378.33,378.18,377.93,377.63,377.73,378.01,378.37,378.76,379.15,379.51,379.99,380.81,381.75,382.55,384.40,387.52,389.05,390.02,390.75,391.36,391.96,392.53,393.09,393.60,393.98,394.32,394.61,394.83,394.97,395.06,395.15,395.19,395.21,395.31,395.50,395.67,395.87,396.07,396.24,396.46,396.74,397.04,397.35,397.66,397.97,398.23,398.41,398.63,398.86,399.12,399.43,399.88,400.33,400.79,401.26,401.72,402.19,402.65,403.11,403.62,404.30,405.34,406.50,407.56,408.34,409.11,409.84,410.31,410.39,410.67,411.04,411.43,411.82,412.25,412.65,413.03,413.46,414.00,414.65,415.29,415.92,416.53,417.15,417.76,418.38,418.99,419.53,420.01,420.52,421.04,421.52,421.70,421.80,421.99,422.36,422.88,423.30,423.44,423.44,423.65,423.82,423.97,424.15,424.39,424.73,425.19,425.70,426.23,426.71,427.24,427.77,428.28,428.74,429.14,429.20,429.19,429.29,429.49,429.58,429.89,430.38,430.78,431.18,431.57,432.00,432.56,433.27,434.01,434.80,435.74,436.94,438.06,439.24,440.25,440.78,441.10,441.20,441.14,441.04,441.20,441.61,441.98,442.16,442.07,442.05,442.29,442.66,443.11,443.83,444.54,445.24,445.74,445.52,445.22,444.92,444.69,444.59,444.47,444.31,444.26,444.52,445.35,446.40,447.48
358.80,358.79,358.75,358.71,358.70,358.70,358.69,358.66,358.65,358.67,358.71,358.75,358.75,358.77,358.81,358.86,358.93,359.15,359.42,359.70,360.05,360.46,360.87,361.30,361.84,362.41,362.96,363.52,364.08,364.55,364.83,365.04,365.22,365.34,365.49,365.64,365.80,365.95,366.07,366.19,366.32,366.48,366.67,366.83,367.00,367.19,367.34,367.50,367.68,367.87,368.07,368.30,368.53,368.74,368.94,369.13,369.32,369.50,370.81,374.90,379.55,381.26,381.44,381.14,380.72,380.33,379.53,378.38,377.28,376.68,376.35,376.34,376.80,377.60,378.42,379.21,379.78,379.53,378.17,376.64,375.49,375.16,375.22,375.69,376.32,376.94,377.40,377.47,377.42,377.38,377.49,377.54,377.55,377.47,377.28,377.29,377.56,377.93,378.32,378.70,379.05,379.36,379.69,380.15,380.65,381.02,382.54,385.83,389.09,390.33,390.97,391.55,392.01,392.44,392.82,393.16,393.47,393.78,394.06,394.27,394.44,394.62,394.72,394.75,394.79,394.96,395.18,395.38,395.58,395.76,395.92,396.14,396.41,396.72,397.03,397.34,397.62,397.85,398.02,398.24,398.53,398.86,399.22,399.65,400.10,400.59,401.09,401.59,402.06,402.52,403.00,403.50,404.05,404.93,405.99,407.06,407.84,408.61,409.17,409.49,409.65,410.04,410.50,410.92,411.32,411.74,412.13,412.52,412.96,413.55,414.27,414.94,415.58,416.20,416.82,417.44,418.06,418.66,419.20,419.71,420.21,420.67,421.02,421.13,421.29,421.61,422.08,422.60,422.76,422.74,422.70,422.90,423.09,423.28,423.52,423.84,424.22,424.64,425.10,425.60,426.10,426.60,427.13,427.65,428.10,428.50,428.55,428.55,428.68,428.82,428.88,429.05,429.34,429.70,430.19,430.68,431.24,431.94,432.85,433.77,434.75,435.82,436.97,438.03,439.06,439.85,440.13,440.23,440.28,440.25,440.20,440.43,441.00,441.37,441.44,441.41,441.44,441.68,442.08,442.62,443.33,444.04,444.64,444.96,444.64,444.33,444.02,443.76,443.62,443.52,443.67,444.07,444.81,445.86,447.01,448.14
358.92,358.90,358.84,358.83,358.83,358.83,358.80,358.75,358.73,358.76,358.81,358.81,358.83,358.87,358.92,358.92,358.93,359.08,359.34,359.63,359.85,359.96,360.21,360.64,361.18,361.78,362.38,362.99,363.58,364.11,364.52,364.84,365.04,365.17,365.30,365.45,365.60,365.76,365.91,366.02,366.14,366.31,366.52,366.69,366.84,366.99,367.15,367.30,367.50,367.70,367.88,368.10,368.33,368.52,368.70,368.91,369.08,369.24,369.42,370.55,376.57,379.94,381.02,380.73,380.15,379.86,379.02,377.58,376.11,375.58,375.49,375.74,376.38,377.21,378.06,378.88,379.35,378.72,377.34,375.89,374.91,374.91,374.97,375.42,376.04,376.63,376.91,376.91,376.84,376.78,376.78,376.78,376.83,376.84,376.78,377.11,377.49,377.88,378.25,378.61,378.92,379.18,379.41,379.62,379.72,379.76,380.70,383.59,388.86,390.50,391.04,391.54,391.85,392.08,392.32,392.59,392.90,393.20,393.43,393.63,393.84,394.13,394.26,394.30,394.38,394.61,394.84,395.08,395.29,395.46,395.61,395.82,396.08,396.39,396.70,397.00,397.26,397.47,397.65,397.88,398.24,398.62,398.98,399.37,399.81,400.32,400.86,401.41,401.89,402.37,402.88,403.41,403.89,404.55,405.49,406.54,407.31,408.00,408.42,408.69,409.00,409.50,410.01,410.47,410.86,411.24,411.63,412.01,412.45,413.10,413.85,414.57,415.24,415.88,416.49,417.10,417.72,418.32,418.86,419.41,419.89,420.24,420.44,420.56,420.85,421.28,421.80,422.20,422.11,421.98,421.98,422.16,422.39,422.63,422.93,423.31,423.70,424.08,424.51,424.99,425.50,425.98,426.49,427.00,427.46,427.84,427.90,427.93,428.06,428.13,428.20,428.25,428.34,428.70,429.30,429.94,430.65,431.54,432.60,433.71,434.87,436.03,437.01,437.88,438.70,439.30,439.36,439.37,439.41,439.40,439.39,439.70,440.31,440.66,440.70,440.75,440.84,441.07,441.49,442.12,442.82,443.53,444.01,444.11,443.72,443.40,443.11,442.86,442.73,442.76,443.26,444.14,445.26,446.42,447.58,448.74
359.02,358.97,358.96,358.96,358.96,358.94,358.88,358.86,358.86,358.87,358.88,358.89,358.94,358.97,358.98,358.99,359.04,359.14,359.34,359.62,359.79,359.88,360.16,360.62,361.11,361.65,362.21,362.77,363.31,363.79,364.20,364.52,364.75,365.00,365.12,365.25,365.41,365.56,365.72,365.86,366.01,366.16,366.33,366.49,366.65,366.80,366.95,367.11,367.27,367.46,367.68,367.91,368.09,368.29,368.49,368.66,368.82,368.97,369.13,369.54,371.33,376.51,380.10,379.53,378.35,378.77,378.75,377.78,376.41,376.07,375.57,375.34,376.00,376.82,377.67,378.49,378.88,377.96,376.76,375.63,374.90,374.90,374.91,375.31,375.85,376.28,376.37,376.37,376.32,376.26,376.25,376.21,376.27,376.45,376.73,377.11,377.49,377.85,378.16,378.43,378.68,378.92,379.15,379.35,379.40,379.49,379.88,381.83,388.44,390.36,390.72,391.03,391.33,391.52,391.77,392.07,392.37,392.62,392.81,393.04,393.31,393.62,393.78,393.88,393.99,394.22,394.45,394.72,394.99,395.19,395.35,395.52,395.76,396.07,396.37,396.63,396.87,397.09,397.32,397.61,398.02,398.38,398.66,398.99,399.42,399.93,400.49,401.08,401.62,402.18,402.75,403.28,403.75,404.26,405.05,406.02,406.76,407.12,407.63,408.24,408.76,409.19,409.61,410.01,410.40,410.79,411.17,411.52,411.94,412.63,413.39,414.11,414.82,415.54,416.11,416.71,417.33,417.93,418.48,419.07,419.48,419.68,419.76,420.06,420.50,421.02,421.45,421.46,421.27,421.19,421.28,421.51,421.79,422.08,422.41,422.79,423.18,423.56,424.00,424.45,424.87,425.38,425.88,426.37,426.86,427.15,427.26,427.32,427.40,427.43,427.49,427.56,427.70,428.12,428.85,429.61,430.50,431.63,432.72,433.72,434.76,435.82,436.70,437.51,438.23,438.70,438.77,438.78,438.71,438.62,438.62,438.96,439.31,439.60,439.83,440.02,440.22,440.49,440.91,441.55,442.29,443.05,443.42,443.25,442.71,442.41,442.16,441.96,441.95,442.46,443.34,444.35,445.41,446.56,447.71,448.88
359.12,359.09,359.09,359.09,359.07,359.01,358.95,358.94,358.97,358.99,358.99,358.99,359.03,359.07,359.09,359.10,359.13,359.18,359.32,359.58,359.77,359.87,360.06,360.40,360.91,361.44,361.98,362.51,363.01,363.47,363.88,364.19,364.43,364.70,364.89,365.06,365.21,365.37,365.52,365.68,365.83,365.99,366.14,366.30,366.45,366.60,366.76,366.91,367.07,367.24,367.44,367.67,367.87,368.06,368.25,368.40,368.56,368.72,368.89,369.14,369.54,372.86,375.81,376.50,376.74,377.61,378.07,377.79,376.91,376.52,375.87,375.40,375.74,376.56,377.42,378.18,378.48,377.47,376.46,375.53,374.90,374.90,374.90,375.16,375.51,375.78,375.80,375.80,375.76,375.71,375.75,375.83,376.03,376.34,376.71,377.07,377.42,377.74,378.00,378.20,378.43,378.65,378.89,379.10,379.19,379.37,379.76,381.45,387.26,389.33,390.05,390.55,390.81,390.99,391.22,391.50,391.77,392.04,392.27,392.53,392.84,393.14,393.32,393.43,393.56,393.79,394.05,394.32,394.60,394.84,395.04,395.23,395.46,395.75,396.05,396.26,396.48,396.73,397.04,397.35,397.69,398.01,398.29,398.64,399.08,399.56,400.09,400.68,401.25,401.83,402.41,402.98,403.51,404.02,404.71,405.53,406.22,406.73,407.34,407.99,408.51,408.88,409.24,409.59,409.94,410.30,410.67,411.04,411.48,412.21,412.95,413.68,414.42,415.13,415.75,416.37,416.99,417.58,418.13,418.64,418.93,419.02,419.11,419.49,419.97,420.49,420.90,420.77,420.47,420.44,420.67,420.94,421.25,421.57,421.93,422.32,422.71,423.09,423.50,423.92,424.31,424.77,425.24,425.73,426.23,426.49,426.61,426.68,426.72,426.79,426.87,427.02,427.31,427.86,428.57,429.40,430.33,431.37,432.41,433.47,434.51,435.48,436.30,437.08,437.72,438.12,438.15,438.09,437.95,437.84,437.84,438.16,438.42,438.69,438.98,439.21,439.48,439.79,440.28,441.04,441.81,442.56,442.77,442.36,441.77,441.44,441.24,441.23,441.67,442.51,443.52,444.57,445.62,446.70,447.82,448.94
359.22,359.21,359.21,359.20,359.14,359.07,359.02,359.02,359.07,359.11,359.12,359.12,359.12,359.17,359.22,359.22,359.22,359.23,359.32,359.53,359.75,359.85,359.94,360.14,360.64,361.18,361.71,362.23,362.70,363.15,363.56,363.87,364.10,364.34,364.63,364.84,365.01,365.17,365.33,365.48,365.64,365.79,365.95,366.10,366.26,366.41,366.56,366.72,366.87,367.03,367.20,367.41,367.64,367.83,368.00,368.17,368.34,368.52,368.73,369.04,369.42,369.88,371.06,373.22,375.31,376.42,377.11,377.49,377.23,376.79,376.11,375.56,375.58,376.39,377.25,377.95,378.15,377.20,376.36,375.53,374.92,374.90,374.89,374.99,375.14,375.27,375.28,375.28,375.24,375.21,375.32,375.59,375.94,376.32,376.69,376.99,377.30,377.57,377.80,377.97,378.19,378.42,378.65,378.88,379.07,379.33,379.98,381.72,385.79,387.88,389.05,389.84,390.12,390.38,390.64,390.90,391.15,391.45,391.76,392.06,392.37,392.67,392.87,392.99,393.10,393.35,393.64,393.90,394.16,394.45,394.70,394.92,395.16,395.42,395.71,395.89,396.11,396.39,396.76,397.06,397.31,397.58,397.91,398.30,398.75,399.21,399.70,400.25,400.84,401.41,401.99,402.60,403.21,403.79,404.43,405.13,405.79,406.58,407.25,407.80,408.23,408.56,408.87,409.18,409.48,409.80,410.15,410.54,411.05,411.81,412.52,413.26,414.00,414.70,415.40,416.04,416.66,417.26,417.78,418.15,418.29,418.34,418.50,418.92,419.38,419.86,420.21,420.08,419.70,419.72,420.09,420.41,420.73,421.10,421.48,421.85,422.24,422.63,423.01,423.40,423.80,424.19,424.62,425.09,425.58,425.84,425.96,426.01,426.05,426.18,426.33,426.62,427.09,427.75,428.37,429.24,430.16,431.00,432.02,433.13,434.16,435.05,435.84,436.62,437.20,437.50,437.46,437.33,437.18,437.06,437.05,437.33,437.57,437.85,438.13,438.38,438.68,439.10,439.74,440.63,441.40,442.01,442.04,441.46,440.87,440.54,440.45,440.74,441.67,442.71,443.75,444.79,445.84,446.87,447.93,449.00
359.31,359.27,359.27,359.22,359.15,359.10,359.08,359.14,359.16,359.20,359.25,359.25,359.25,359.29,359.35,359.35,359.35,359.35,359.40,359.52,359.69,359.79,359.87,360.02,360.41,360.92,361.42,361.92,362.43,362.84,363.23,363.54,363.77,364.01,364.31,364.56,364.77,364.97,365.13,365.29,365.44,365.60,365.75,365.91,366.06,366.22,366.37,366.52,366.68,366.83,366.99,367.16,367.38,367.57,367.76,368.02,368.29,368.56,368.84,369.16,369.54,369.77,370.52,372.16,374.21,375.15,375.77,376.33,376.64,376.44,375.82,375.37,375.59,376.34,377.18,377.83,378.02,377.36,376.51,375.65,375.01,374.90,374.84,374.85,374.91,375.00,375.00,375.00,374.99,375.01,375.17,375.49,375.87,376.24,376.56,376.82,377.07,377.34,377.61,377.83,378.05,378.25,378.46,378.75,379.08,379.39,380.24,382.07,384.60,386.36,387.50,388.21,388.75,389.44,389.97,390.33,390.63,390.93,391.24,391.55,391.85,392.16,392.44,392.56,392.66,392.94,393.20,393.48,393.75,394.01,394.30,394.54,394.80,395.08,395.33,395.55,395.81,396.12,396.43,396.69,396.93,397.19,397.53,397.96,398.38,398.85,399.36,399.85,400.41,400.99,401.60,402.22,402.83,403.52,404.26,405.01,405.74,406.53,407.10,407.52,407.86,408.17,408.48,408.77,409.03,409.33,409.61,410.05,410.65,411.37,412.11,412.84,413.57,414.31,415.01,415.69,416.33,416.93,417.38,417.55,417.59,417.68,418.01,418.46,418.92,419.26,419.40,419.25,418.94,419.03,419.47,419.88,420.26,420.64,421.00,421.34,421.73,422.11,422.50,422.90,423.33,423.73,424.13,424.54,424.94,425.19,425.32,425.38,425.45,425.56,425.96,426.48,427.05,427.63,428.19,429.04,429.98,430.88,432.07,432.86,433.63,434.49,435.32,436.15,436.65,436.83,436.70,436.56,436.40,436.27,436.26,436.49,436.73,437.00,437.29,437.54,437.88,438.60,439.53,440.47,441.15,441.26,441.02,440.54,439.97,439.84,440.16,440.86,441.90,442.92,443.98,445.02,446.05,447.11,448.14,449.14
359.37,359.33,359.29,359.23,359.17,359.15,359.18,359.23,359.26,359.30,359.34,359.38,359.38,359.41,359.45,359.47,359.48,359.48,359.50,359.56,359.68,359.76,359.83,359.92,360.17,360.63,361.13,361.63,362.13,362.55,362.90,363.19,363.45,363.68,363.96,364.22,364.48,364.70,364.89,365.08,365.25,365.40,365.56,365.71,365.85,365.99,366.17,366.33,366.48,366.64,366.79,366.95,367.19,367.42,367.66,368.00,368.31,368.62,368.94,369.28,369.63,369.85,370.27,371.25,373.00,373.85,374.45,375.07,375.63,375.78,375.49,375.30,375.73,376.38,377.14,377.66,377.72,377.29,376.72,376.02,375.40,375.08,374.89,374.82,374.81,374.82,374.82,374.82,374.84,374.90,375.11,375.44,375.77,376.09,376.38,376.63,376.86,377.11,377.38,377.62,377.87,378.13,378.40,378.74,379.12,379.45,380.30,381.93,383.50,385.06,386.22,387.02,387.82,388.80,389.48,389.90,390.18,390.45,390.76,391.07,391.38,391.69,392.00,392.14,392.25,392.52,392.78,393.06,393.32,393.56,393.87,394.14,394.41,394.68,394.95,395.21,395.48,395.76,396.04,396.30,396.54,396.82,397.18,397.61,398.02,398.49,399.00,399.50,400.06,400.69,401.34,401.99,402.67,403.42,404.19,404.97,405.72,406.34,406.79,407.12,407.40,407.71,408.01,408.29,408.53,408.84,409.06,409.44,410.05,410.89,411.64,412.38,413.12,413.88,414.58,415.30,415.98,416.52,416.82,416.87,416.93,417.13,417.58,418.04,418.46,418.65,418.56,418.41,418.23,418.39,418.83,419.29,419.71,420.13,420.51,420.86,421.24,421.63,422.02,422.41,422.84,423.24,423.64,424.04,424.37,424.56,424.67,424.78,424.97,425.23,425.75,426.34,426.93,427.50,428.04,428.81,429.70,430.63,431.66,432.34,433.08,433.96,434.87,435.73,436.11,436.12,435.97,435.81,435.66,435.52,435.48,435.66,435.88,436.16,436.46,436.75,437.33,438.21,439.19,440.04,440.57,440.50,440.13,439.66,439.39,439.62,440.27,441.19,442.23,443.21,444.24,445.24,446.16,447.15,448.10,449.04
359.41,359.38,359.30,359.24,359.21,359.24,359.29,359.31,359.36,359.40,359.43,359.49,359.51,359.51,359.54,359.60,359.61,359.61,359.60,359.62,359.69,359.76,359.79,359.83,359.96,360.34,360.84,361.35,361.81,362.27,362.56,362.83,363.11,363.35,363.59,363.87,364.15,364.39,364.63,364.84,365.04,365.20,365.35,365.51,365.63,365.75,365.97,366.14,366.29,366.45,366.62,366.79,367.05,367.36,367.67,368.03,368.35,368.66,368.99,369.35,369.68,369.89,370.04,370.44,371.78,372.58,373.20,373.83,374.46,375.00,375.15,375.33,375.92,376.48,377.09,377.38,377.25,376.95,376.79,376.40,375.85,375.36,375.04,374.88,374.79,374.73,374.71,374.70,374.74,374.85,375.07,375.37,375.63,375.89,376.19,376.42,376.68,376.93,377.18,377.43,377.73,378.07,378.43,378.81,379.19,379.52,380.24,381.52,382.63,384.04,385.28,386.29,387.30,388.41,389.14,389.56,389.79,390.03,390.31,390.61,390.91,391.22,391.53,391.71,391.83,392.08,392.38,392.63,392.88,393.12,393.41,393.72,393.99,394.24,394.55,394.86,395.12,395.36,395.60,395.90,396.15,396.45,396.83,397.23,397.68,398.14,398.64,399.22,399.84,400.51,401.21,401.92,402.69,403.46,404.21,404.93,405.62,406.02,406.35,406.64,406.89,407.19,407.50,407.77,408.02,408.31,408.50,408.79,409.35,410.37,411.13,411.88,412.66,413.42,414.13,414.90,415.58,416.04,416.14,416.16,416.31,416.65,417.17,417.64,417.97,417.99,417.73,417.57,417.55,417.77,418.19,418.65,419.11,419.57,420.00,420.39,420.78,421.17,421.55,421.94,422.34,422.73,423.16,423.56,423.83,423.95,424.05,424.24,424.59,425.10,425.63,426.18,426.75,427.35,427.90,428.55,429.35,430.26,430.96,431.71,432.55,433.50,434.47,435.31,435.56,435.42,435.26,435.11,434.95,434.79,434.68,434.82,435.04,435.31,435.63,436.03,436.87,437.79,438.66,439.36,439.72,439.71,439.34,438.86,439.04,439.67,440.54,441.51,442.49,443.41,444.38,445.28,446.08,446.94,447.80,448.69
359.44,359.38,359.31,359.28,359.30,359.35,359.38,359.43,359.46,359.49,359.54,359.57,359.62,359.64,359.66,359.73,359.74,359.70,359.67,359.68,359.70,359.72,359.76,359.82,359.91,360.14,360.55,361.02,361.49,361.95,362.24,362.48,362.74,363.02,363.26,363.54,363.84,364.13,364.42,364.58,364.74,364.94,365.10,365.25,365.39,365.55,365.77,365.94,366.09,366.29,366.55,366.81,367.07,367.35,367.65,367.94,368.24,368.55,368.87,369.19,369.50,369.78,369.97,370.17,370.87,371.56,372.23,372.91,373.64,374.39,374.94,375.44,376.00,376.54,376.79,376.74,376.46,376.22,376.11,375.96,375.80,375.68,375.35,375.07,374.91,374.82,374.72,374.66,374.67,374.77,374.96,375.20,375.44,375.68,375.94,376.17,376.56,376.93,377.23,377.56,377.92,378.27,378.60,378.94,379.27,379.58,380.26,381.44,382.51,383.74,384.96,386.11,387.22,388.33,388.94,389.24,389.46,389.64,389.88,390.13,390.40,390.71,391.01,391.23,391.40,391.68,391.94,392.22,392.48,392.71,392.97,393.27,393.53,393.80,394.15,394.47,394.76,395.02,395.21,395.51,395.76,396.06,396.46,396.89,397.31,397.78,398.36,399.12,399.84,400.58,401.33,402.09,402.91,403.69,404.31,404.75,405.14,405.51,405.84,406.13,406.37,406.67,406.98,407.28,407.54,407.75,407.96,408.21,408.68,409.69,410.57,411.37,412.14,412.91,413.67,414.56,415.17,415.41,415.44,415.49,415.75,416.19,416.72,417.19,417.31,417.17,416.88,416.69,416.82,417.15,417.60,418.06,418.53,418.99,419.45,419.88,420.26,420.65,421.04,421.44,421.87,422.27,422.70,423.08,423.26,423.36,423.55,423.89,424.37,424.91,425.44,426.01,426.61,427.17,427.71,428.32,429.02,429.79,430.47,431.30,432.23,433.20,434.13,434.78,434.92,434.76,434.61,434.45,434.26,434.03,433.85,433.98,434.20,434.47,434.83,435.38,436.13,436.94,437.69,438.26,438.64,438.81,438.62,438.32,438.88,439.66,440.47,441.27,442.12,442.94,443.78,444.59,445.38,446.22,447.07,447.88
359.47,359.42,359.35,359.36,359.40,359.44,359.47,359.52,359.55,359.59,359.64,359.67,359.71,359.75,359.78,359.83,359.84,359.80,359.77,359.76,359.74,359.75,359.79,359.85,359.90,360.00,360.29,360.70,361.16,361.60,361.90,362.14,362.39,362.69,362.96,363.25,363.56,363.87,364.18,364.32,364.43,364.59,364.77,364.95,365.14,365.36,365.58,365.77,365.97,366.21,366.52,366.83,367.10,367.37,367.64,367.88,368.18,368.47,368.76,369.07,369.38,369.69,369.92,370.08,370.39,370.88,371.50,372.21,373.00,373.83,374.68,375.43,375.96,376.47,376.48,376.20,375.81,375.51,375.35,375.32,375.41,375.55,375.39,375.11,374.89,374.79,374.66,374.57,374.59,374.70,374.86,375.03,375.28,375.58,375.92,376.28,376.80,377.23,377.50,377.86,378.22,378.56,378.88,379.13,379.39,379.70,380.33,381.39,382.50,383.67,384.86,386.06,387.20,388.18,388.68,388.90,389.10,389.28,389.50,389.74,389.98,390.23,390.53,390.77,390.98,391.25,391.52,391.79,392.06,392.29,392.55,392.85,393.13,393.41,393.77,394.11,394.43,394.69,394.88,395.13,395.39,395.70,396.10,396.54,397.00,397.68,398.54,399.40,400.12,400.81,401.54,402.31,403.07,403.67,404.06,404.32,404.61,404.96,405.30,405.62,405.88,406.16,406.46,406.76,407.05,407.21,407.43,407.75,408.28,409.20,410.08,410.92,411.75,412.57,413.42,414.21,414.65,414.73,414.75,414.89,415.26,415.77,416.28,416.64,416.58,416.32,416.04,415.88,416.13,416.55,417.02,417.48,417.94,418.41,418.87,419.32,419.74,420.15,420.55,420.96,421.42,421.81,422.21,422.54,422.67,422.88,423.19,423.63,424.18,424.71,425.25,425.82,426.42,427.05,427.71,428.43,429.15,429.80,430.38,431.14,432.00,432.91,433.79,434.23,434.25,434.07,433.89,433.71,433.50,433.24,433.03,433.14,433.35,433.64,434.04,434.61,435.29,436.01,436.66,437.11,437.50,437.81,437.88,437.90,438.64,439.39,440.13,440.86,441.63,442.40,443.18,443.96,444.76,445.59,446.41,447.18
359.50,359.47,359.42,359.47,359.50,359.53,359.59,359.60,359.66,359.70,359.72,359.78,359.80,359.86,359.91,359.92,359.92,359.91,359.90,359.89,359.83,359.86,359.89,359.90,359.92,359.94,360.11,360.42,360.84,361.23,361.55,361.82,362.07,362.38,362.69,362.99,363.31,363.62,363.93,364.06,364.13,364.21,364.42,364.65,364.91,365.18,365.42,365.64,365.92,366.22,366.52,366.83,367.13,367.41,367.65,367.89,368.18,368.44,368.70,369.01,369.32,369.62,369.89,370.11,370.29,370.54,371.02,371.70,372.45,373.31,374.37,375.29,375.81,376.28,376.17,375.80,375.35,374.92,374.65,374.64,374.80,375.00,375.12,374.95,374.72,374.59,374.51,374.46,374.52,374.68,374.81,374.94,375.22,375.65,376.18,376.76,377.36,377.76,377.96,378.25,378.57,378.92,379.22,379.39,379.57,379.89,380.46,381.36,382.50,383.70,384.89,386.06,387.19,387.95,388.35,388.56,388.73,388.95,389.18,389.41,389.63,389.81,390.09,390.34,390.57,390.82,391.11,391.37,391.61,391.85,392.14,392.45,392.76,393.07,393.39,393.76,394.09,394.38,394.61,394.79,395.05,395.38,395.75,396.17,396.78,397.84,399.09,399.98,400.59,401.14,401.77,402.48,403.08,403.32,403.49,403.70,404.07,404.40,404.75,405.10,405.40,405.65,405.94,406.25,406.52,406.71,406.96,407.45,408.14,408.93,409.71,410.58,411.49,412.40,413.34,413.82,414.00,414.02,414.06,414.38,414.85,415.38,415.84,415.97,415.78,415.48,415.22,415.17,415.51,415.98,416.44,416.90,417.36,417.83,418.30,418.75,419.22,419.67,420.10,420.51,420.96,421.36,421.70,421.95,422.11,422.50,422.95,423.44,423.97,424.52,425.07,425.63,426.25,427.02,427.88,428.81,429.65,430.23,430.61,431.19,431.87,432.62,433.44,433.66,433.56,433.34,433.11,432.88,432.65,432.42,432.24,432.30,432.51,432.83,433.24,433.73,434.38,435.06,435.64,436.00,436.40,436.81,437.19,437.64,438.38,439.00,439.69,440.45,441.23,442.00,442.77,443.57,444.40,445.19,445.97,446.74
359.54,359.50,359.53,359.55,359.60,359.64,359.67,359.72,359.75,359.79,359.83,359.87,359.95,360.04,360.10,360.15,360.16,360.12,360.09,360.08,360.00,359.97,359.97,359.98,360.03,360.12,360.24,360.39,360.58,360.91,361.22,361.52,361.81,362.12,362.43,362.76,363.11,363.41,363.72,363.83,363.95,364.19,364.43,364.66,364.88,365.11,365.38,365.67,365.97,366.26,366.53,366.83,367.14,367.44,367.70,367.94,368.19,368.44,368.69,368.99,369.26,369.56,369.83,370.06,370.26,370.45,370.75,371.18,371.76,372.78,374.10,375.18,375.57,375.98,375.85,375.49,375.05,374.55,374.19,374.14,374.31,374.48,374.60,374.55,374.44,374.35,374.32,374.49,374.73,374.92,374.96,375.28,375.65,376.12,376.71,377.32,377.90,378.28,378.45,378.66,378.95,379.25,379.50,379.66,379.86,380.22,380.73,381.43,382.55,383.73,384.90,386.07,387.21,387.74,388.00,388.19,388.39,388.63,388.86,389.06,389.25,389.46,389.71,389.95,390.18,390.42,390.68,390.95,391.21,391.45,391.71,392.00,392.34,392.69,393.00,393.38,393.71,394.04,394.39,394.57,394.80,395.03,395.29,395.84,396.80,398.03,399.31,400.27,400.84,401.36,401.86,402.26,402.54,402.70,402.87,403.11,403.49,403.86,404.20,404.55,404.89,405.18,405.45,405.71,405.98,406.29,406.81,407.48,408.23,408.99,409.68,410.50,411.39,412.28,413.00,413.25,413.30,413.34,413.51,413.98,414.49,414.95,415.26,415.15,414.92,414.64,414.42,414.53,414.96,415.44,415.91,416.38,416.83,417.31,417.76,418.23,418.69,419.15,419.63,420.10,420.51,420.90,421.18,421.44,421.83,422.28,422.78,423.29,423.79,424.33,424.99,425.67,426.40,427.22,428.05,428.93,429.71,430.25,430.68,431.28,431.94,432.55,433.00,432.99,432.80,432.56,432.33,432.10,431.83,431.60,431.44,431.43,431.69,432.07,432.50,432.93,433.46,434.07,434.66,435.18,435.76,436.38,437.10,437.91,438.63,439.28,440.00,440.78,441.55,442.32,443.09,443.90,444.73,445.51,446.28,447.06
359.58,359.57,359.62,359.65,359.71,359.75,359.77,359.84,359.88,359.92,359.99,360.04,360.16,360.26,360.33,360.38,360.41,360.38,360.34,360.30,360.22,360.15,360.12,360.13,360.22,360.34,360.44,360.50,360.55,360.77,361.00,361.26,361.58,361.88,362.19,362.54,362.88,363.19,363.50,363.63,363.87,364.27,364.52,364.75,364.94,365.13,365.41,365.70,366.00,366.29,366.55,366.86,367.15,367.45,367.74,367.98,368.22,368.46,368.72,368.99,369.21,369.48,369.73,369.94,370.15,370.31,370.51,370.77,371.17,372.07,373.67,375.04,375.38,375.68,375.55,375.19,374.67,374.04,373.69,373.68,373.85,373.99,374.07,374.15,374.18,374.18,374.26,374.57,374.92,375.15,375.17,375.66,376.20,376.75,377.34,377.90,378.45,378.83,378.98,379.12,379.36,379.62,379.86,380.06,380.31,380.66,381.10,381.67,382.62,383.74,384.90,386.05,387.10,387.45,387.64,387.84,388.07,388.30,388.52,388.71,388.89,389.10,389.35,389.61,389.85,390.05,390.26,390.53,390.80,391.05,391.28,391.58,391.93,392.30,392.61,392.97,393.28,393.64,394.12,394.45,394.67,394.80,395.00,395.65,396.83,398.14,399.36,400.25,400.80,401.33,401.70,401.82,401.90,402.04,402.25,402.55,402.94,403.31,403.65,403.99,404.35,404.69,404.94,405.22,405.60,406.10,406.82,407.59,408.36,409.12,409.78,410.53,411.33,412.06,412.47,412.56,412.58,412.69,413.05,413.60,414.13,414.50,414.54,414.28,414.03,413.79,413.63,413.93,414.41,414.91,415.39,415.85,416.31,416.78,417.25,417.71,418.18,418.66,419.14,419.62,420.03,420.44,420.72,421.02,421.55,422.03,422.55,423.07,423.56,424.10,424.71,425.41,426.20,427.04,427.82,428.65,429.38,429.92,430.41,431.06,431.72,432.24,432.39,432.26,432.03,431.79,431.55,431.30,431.02,430.78,430.64,430.61,430.94,431.42,431.92,432.40,432.92,433.51,434.13,434.78,435.47,436.29,437.24,438.25,439.06,439.81,440.56,441.32,442.09,442.84,443.61,444.39,445.19,445.94,446.67,447.40
359.64,359.69,359.70,359.76,359.84,359.89,359.91,359.98,360.05,360.13,360.21,360.34,360.44,360.52,360.57,360.59,360.65,360.67,360.63,360.57,360.48,360.41,360.38,360.40,360.47,360.55,360.64,360.71,360.78,360.88,360.93,361.10,361.39,361.69,362.00,362.31,362.63,362.94,363.25,363.49,363.87,364.40,364.65,364.88,365.07,365.25,365.49,365.73,366.01,366.31,366.61,366.92,367.18,367.45,367.75,367.99,368.27,368.53,368.76,368.99,369.16,369.38,369.58,369.74,369.90,370.06,370.25,370.48,370.76,371.20,372.98,374.74,375.18,375.35,375.27,374.89,374.17,373.30,373.10,373.22,373.42,373.57,373.67,373.83,374.00,374.14,374.35,374.70,375.05,375.30,375.43,376.02,376.78,377.49,378.03,378.47,379.03,379.42,379.56,379.66,379.83,380.07,380.36,380.65,380.95,381.22,381.58,382.11,382.73,383.75,384.90,386.00,386.80,387.08,387.29,387.51,387.74,387.97,388.15,388.34,388.56,388.73,389.01,389.31,389.57,389.74,389.90,390.11,390.37,390.65,390.89,391.19,391.53,391.90,392.21,392.52,392.80,393.16,393.76,394.40,394.65,394.75,394.96,395.66,396.84,398.13,399.25,399.91,400.46,400.99,401.27,401.19,401.25,401.39,401.66,402.03,402.41,402.74,403.10,403.46,403.78,404.15,404.44,404.84,405.45,406.16,406.93,407.70,408.47,409.24,409.93,410.63,411.25,411.67,411.77,411.78,411.86,412.12,412.67,413.23,413.75,413.99,413.68,413.38,413.12,412.93,412.90,413.37,413.85,414.36,414.87,415.33,415.80,416.26,416.72,417.19,417.65,418.16,418.63,419.05,419.50,419.96,420.32,420.70,421.23,421.71,422.23,422.77,423.31,423.83,424.17,424.71,425.49,426.33,427.11,427.94,428.67,429.20,429.73,430.39,431.05,431.54,431.58,431.51,431.29,431.01,430.75,430.45,430.22,430.02,429.88,429.96,430.39,430.94,431.55,432.20,432.87,433.51,434.15,434.84,435.55,436.52,437.55,438.56,439.58,440.44,441.20,441.93,442.69,443.40,444.15,444.89,445.60,446.30,446.95,447.59
359.76,359.81,359.82,359.89,359.97,360.03,360.09,360.21,360.29,360.38,360.46,360.61,360.66,360.72,360.79,360.83,360.87,360.91,360.90,360.83,360.75,360.71,360.67,360.66,360.73,360.80,360.88,360.96,361.03,361.07,361.11,361.20,361.35,361.57,361.86,362.14,362.42,362.73,363.04,363.45,363.98,364.52,364.78,365.01,365.20,365.37,365.61,365.84,366.09,366.35,366.63,366.93,367.21,367.51,367.80,368.03,368.30,368.54,368.76,368.94,369.10,369.27,369.43,369.55,369.70,369.85,370.00,370.18,370.46,370.79,371.79,373.03,373.98,374.43,374.65,374.42,373.74,372.98,372.91,373.08,373.30,373.50,373.67,373.85,374.02,374.19,374.42,374.78,375.15,375.46,375.73,376.43,377.25,378.06,378.75,379.29,379.78,380.13,380.32,380.45,380.63,380.82,381.03,381.34,381.65,381.93,382.21,382.52,383.01,383.85,384.93,385.97,386.48,386.74,386.95,387.19,387.41,387.60,387.80,387.99,388.18,388.39,388.71,389.04,389.31,389.47,389.62,389.80,390.00,390.23,390.50,390.80,391.13,391.45,391.72,392.02,392.34,392.75,393.39,394.07,394.54,394.79,395.02,395.84,396.95,398.03,398.91,399.48,400.06,400.53,400.70,400.54,400.56,400.79,401.13,401.51,401.89,402.22,402.58,402.95,403.30,403.64,404.07,404.64,405.35,406.08,406.84,407.62,408.39,409.15,409.86,410.46,410.85,410.95,411.04,411.06,411.27,411.73,412.29,412.84,413.16,413.16,412.79,412.47,412.21,412.13,412.32,412.80,413.31,413.81,414.30,414.76,415.22,415.69,416.16,416.67,417.13,417.59,418.03,418.47,418.94,419.43,419.91,420.38,420.92,421.47,422.01,422.55,423.09,423.57,423.86,424.22,424.77,425.62,426.40,427.22,427.92,428.38,428.88,429.56,430.26,430.79,430.84,430.75,430.54,430.23,429.81,429.33,429.41,429.67,429.86,430.11,430.53,431.02,431.57,432.18,432.86,433.53,434.20,434.88,435.78,436.83,437.85,438.82,439.84,440.65,441.40,442.15,442.91,443.62,444.30,444.97,445.63,446.31,446.95,447.60
359.89,359.95,359.99,360.07,360.15,360.22,360.31,360.46,360.55,360.63,360.72,360.85,360.88,360.93,360.99,361.06,361.09,361.14,361.16,361.11,361.03,361.00,360.95,360.92,360.99,361.07,361.15,361.22,361.28,361.30,361.36,361.39,361.42,361.54,361.77,362.01,362.27,362.58,362.98,363.53,364.12,364.65,364.91,365.13,365.31,365.50,365.71,365.94,366.19,366.43,366.67,366.96,367.25,367.55,367.84,368.08,368.29,368.50,368.68,368.83,368.99,369.14,369.27,369.38,369.53,369.68,369.80,369.92,370.17,370.44,370.79,371.47,372.59,373.25,373.75,373.75,373.23,372.78,372.83,373.03,373.27,373.50,373.73,373.92,374.09,374.27,374.49,374.84,375.23,375.60,375.97,376.71,377.54,378.39,379.21,379.83,380.32,380.77,381.15,381.33,381.52,381.63,381.77,382.08,382.39,382.68,382.89,383.04,383.40,384.00,384.92,385.86,386.16,386.40,386.62,386.84,387.06,387.22,387.43,387.64,387.82,388.05,388.43,388.79,389.07,389.23,389.38,389.53,389.66,389.85,390.11,390.40,390.69,390.97,391.22,391.52,391.89,392.37,393.00,393.68,394.33,394.80,395.18,396.01,396.95,397.78,398.47,399.01,399.62,400.02,400.14,399.98,399.99,400.31,400.70,401.09,401.45,401.78,402.13,402.50,402.87,403.18,403.73,404.42,405.19,405.91,406.65,407.42,408.19,408.93,409.60,410.08,410.27,410.17,410.20,410.35,410.75,411.37,411.93,412.41,412.50,412.27,411.88,411.54,411.34,411.39,411.77,412.25,412.75,413.25,413.74,414.19,414.66,415.14,415.63,416.13,416.59,417.03,417.50,418.00,418.51,419.02,419.57,420.13,420.67,421.25,421.80,422.34,422.87,423.32,423.60,423.83,424.19,424.92,425.69,426.51,427.17,427.54,427.98,428.68,429.38,429.88,429.95,429.76,429.50,429.26,429.13,428.89,429.27,429.78,430.16,430.54,430.95,431.37,431.83,432.35,432.97,433.60,434.24,434.97,435.97,437.00,437.97,438.88,439.83,440.55,441.28,442.07,442.86,443.58,444.26,444.92,445.59,446.26,446.87,447.46
360.02,360.12,360.24,360.32,360.41,360.48,360.57,360.72,360.82,360.89,360.97,361.05,361.13,361.16,361.19,361.26,361.33,361.36,361.39,361.42,361.35,361.28,361.21,361.18,361.25,361.32,361.41,361.48,361.54,361.55,361.61,361.65,361.66,361.69,361.78,361.96,362.19,362.50,363.15,363.75,364.30,364.79,365.03,365.22,365.41,365.61,365.79,366.01,366.28,366.56,366.79,367.03,367.27,367.55,367.83,368.06,368.24,368.37,368.48,368.64,368.79,368.95,369.09,369.24,369.39,369.55,369.67,369.75,369.87,370.03,370.34,370.77,371.31,371.86,372.53,372.78,372.58,372.63,372.81,373.04,373.27,373.50,373.73,373.96,374.18,374.39,374.57,374.91,375.29,375.68,376.08,376.75,377.54,378.39,379.18,379.76,380.39,381.19,381.99,382.26,382.40,382.45,382.55,382.85,383.17,383.43,383.63,383.76,383.89,384.21,384.86,385.59,385.84,386.07,386.26,386.45,386.67,386.83,387.05,387.27,387.48,387.67,388.13,388.56,388.88,389.03,389.19,389.30,389.41,389.57,389.74,389.97,390.21,390.47,390.76,391.07,391.47,391.98,392.61,393.30,393.98,394.69,395.41,396.07,396.70,397.33,397.94,398.50,399.10,399.51,399.66,399.59,399.66,400.02,400.44,400.81,401.13,401.50,401.84,402.16,402.48,402.79,403.38,404.11,404.87,405.63,406.35,407.09,407.84,408.53,409.11,409.42,409.50,409.39,409.18,409.63,410.31,410.98,411.56,411.89,411.79,411.41,410.97,410.59,410.52,410.74,411.19,411.72,412.20,412.71,413.22,413.69,414.16,414.67,415.15,415.58,416.04,416.60,417.19,417.78,418.38,418.87,419.43,420.00,420.52,421.02,421.54,422.08,422.61,423.06,423.34,423.57,423.84,424.26,424.97,425.79,426.42,426.69,427.09,427.76,428.36,428.71,428.75,428.39,427.96,428.00,429.01,429.76,430.27,430.58,430.76,431.13,431.57,432.00,432.39,432.81,433.29,433.75,434.31,435.13,436.00,436.87,437.74,438.60,439.45,440.07,440.80,441.64,442.47,443.24,444.05,444.84,445.57,446.19,446.75,447.17
360.25,360.36,360.49,360.59,360.67,360.75,360.88,360.99,361.07,361.15,361.22,361.30,361.34,361.38,361.42,361.46,361.54,361.59,361.63,361.65,361.62,361.55,361.49,361.47,361.51,361.59,361.67,361.72,361.76,361.80,361.84,361.88,361.91,361.92,361.94,362.05,362.25,362.62,363.34,364.01,364.56,364.97,365.17,365.33,365.51,365.70,365.90,366.13,366.38,366.64,366.88,367.14,367.32,367.51,367.73,367.92,368.08,368.19,368.29,368.44,368.60,368.75,368.91,369.06,369.21,369.37,369.52,369.67,369.75,369.85,370.04,370.28,370.57,371.05,371.61,372.01,372.26,372.60,372.86,373.09,373.32,373.55,373.78,374.01,374.25,374.47,374.63,374.97,375.36,375.75,376.20,376.78,377.49,378.22,378.84,379.36,379.94,380.73,381.74,382.70,383.19,383.34,383.40,383.60,383.93,384.20,384.31,384.27,384.27,384.45,384.83,385.27,385.47,385.70,385.90,386.10,386.29,386.49,386.68,386.89,387.13,387.42,387.88,388.31,388.63,388.79,388.94,389.05,389.15,389.31,389.45,389.64,389.83,390.04,390.31,390.62,391.04,391.60,392.27,392.96,393.65,394.34,395.02,395.63,396.23,396.83,397.44,398.02,398.63,399.04,399.23,399.27,399.46,399.80,400.14,400.45,400.76,401.14,401.45,401.73,402.06,402.47,403.10,403.81,404.55,405.32,406.03,406.75,407.44,408.04,408.48,408.64,408.61,408.48,408.32,408.75,409.48,410.29,410.92,411.23,411.11,410.72,410.27,409.87,409.91,410.25,410.76,411.29,411.77,412.28,412.82,413.37,413.95,414.54,415.09,415.60,416.11,416.70,417.33,418.00,418.69,419.23,419.67,420.06,420.41,420.83,421.34,421.88,422.39,422.77,423.06,423.31,423.55,423.85,424.34,425.08,425.66,425.81,426.17,426.67,427.11,427.37,427.34,427.40,427.49,428.00,429.32,430.27,430.88,431.21,431.35,431.76,432.18,432.61,433.02,433.41,433.83,434.23,434.70,435.31,435.94,436.60,437.31,438.12,438.93,439.72,440.55,441.39,442.24,443.06,443.90,444.73,445.47,445.91,446.32,446.64
360.51,360.61,360.75,360.84,360.93,361.03,361.17,361.25,361.34,361.40,361.47,361.54,361.57,361.61,361.66,361.68,361.75,361.82,361.86,361.87,361.87,361.82,361.78,361.77,361.76,361.84,361.93,361.98,361.99,362.05,362.07,362.10,362.16,362.17,362.18,362.21,362.36,362.73,363.32,364.04,364.68,365.10,365.29,365.46,365.62,365.79,366.01,366.24,366.47,366.69,366.91,367.17,367.29,367.41,367.57,367.73,367.87,367.99,368.11,368.28,368.44,368.59,368.75,368.92,369.07,369.23,369.43,369.62,369.69,369.76,369.83,369.93,370.11,370.47,370.87,371.38,371.99,372.51,372.86,373.13,373.38,373.60,373.83,374.06,374.30,374.53,374.71,375.03,375.41,375.83,376.30,376.80,377.38,377.95,378.42,378.90,379.41,380.08,381.04,382.40,383.40,383.90,384.03,384.06,384.26,384.38,384.36,384.25,384.26,384.44,384.69,384.93,385.12,385.32,385.54,385.75,385.91,386.13,386.32,386.51,386.77,387.18,387.63,388.05,388.38,388.53,388.68,388.79,388.90,389.05,389.19,389.36,389.53,389.69,389.92,390.20,390.62,391.19,391.89,392.60,393.27,393.89,394.46,395.08,395.70,396.32,396.94,397.56,398.18,398.61,398.85,398.99,399.27,399.56,399.83,400.07,400.37,400.72,401.01,401.27,401.62,402.16,402.82,403.52,404.24,405.00,405.69,406.37,406.99,407.49,407.77,407.79,407.69,407.56,407.55,407.95,408.69,409.59,410.24,410.52,410.41,410.06,409.63,409.25,409.42,409.88,410.44,411.00,411.50,412.03,412.62,413.24,413.92,414.57,415.20,415.81,416.37,416.99,417.65,418.36,419.11,419.66,419.99,420.19,420.36,420.67,421.14,421.67,422.16,422.48,422.77,423.05,423.29,423.53,423.81,424.41,424.90,425.01,425.37,425.69,426.02,426.28,426.30,426.81,427.44,428.31,429.61,430.52,431.25,431.72,431.95,432.38,432.78,433.20,433.63,434.02,434.41,434.79,435.19,435.60,436.06,436.51,437.09,437.80,438.53,439.52,440.46,441.33,442.18,443.03,443.83,444.58,445.20,445.48,445.78,446.05
360.77,360.88,361.01,361.11,361.19,361.29,361.43,361.51,361.59,361.64,361.67,361.74,361.81,361.84,361.87,361.94,362.01,362.04,362.08,362.13,362.13,362.12,362.08,362.02,361.97,362.08,362.19,362.24,362.25,362.32,362.34,362.34,362.36,362.42,362.44,362.44,362.49,362.62,362.75,363.47,364.38,365.09,365.35,365.56,365.75,365.91,366.08,366.31,366.53,366.72,366.83,366.94,367.03,367.17,367.38,367.53,367.63,367.79,368.00,368.21,368.38,368.52,368.71,368.91,369.07,369.23,369.43,369.62,369.69,369.71,369.76,369.85,369.94,370.03,370.43,371.00,371.60,372.14,372.69,373.13,373.43,373.61,373.83,374.06,374.32,374.60,374.83,375.08,375.44,375.89,376.35,376.77,377.16,377.56,378.04,378.56,379.05,379.53,379.99,380.51,382.19,383.53,384.07,383.77,383.45,382.99,382.75,382.99,383.29,383.78,384.22,384.56,384.83,384.97,385.15,385.36,385.52,385.75,385.97,386.16,386.40,386.90,387.37,387.79,388.11,388.27,388.42,388.56,388.69,388.79,388.94,389.14,389.33,389.49,389.66,389.90,390.20,390.67,391.37,392.13,392.75,393.33,393.94,394.56,395.23,395.87,396.49,397.11,397.73,398.22,398.56,398.78,399.02,399.26,399.50,399.74,399.98,400.24,400.52,400.82,401.18,401.81,402.50,403.22,403.97,404.68,405.33,405.92,406.46,406.88,406.94,406.89,406.78,406.69,406.91,407.52,408.29,409.06,409.65,409.85,409.70,409.38,409.05,408.72,409.05,409.66,410.32,410.92,411.52,412.15,412.81,413.43,414.12,414.81,415.46,416.08,416.69,417.35,418.04,418.75,419.49,419.91,420.15,420.31,420.46,420.60,420.98,421.46,421.90,422.22,422.48,422.75,423.02,423.26,423.50,423.85,424.20,424.48,424.85,425.18,425.55,425.99,426.42,427.00,427.69,428.53,429.52,430.39,431.26,432.01,432.57,432.98,433.37,433.76,434.15,434.54,434.93,435.31,435.73,436.18,436.64,437.05,437.51,438.01,438.52,439.64,440.69,441.59,442.44,443.28,443.91,444.31,444.53,444.82,445.13,445.43
361.03,361.13,361.27,361.37,361.44,361.55,361.69,361.77,361.82,361.86,361.90,361.94,362.01,362.07,362.11,362.15,362.22,362.27,362.31,362.35,362.39,362.39,362.35,362.28,362.21,362.30,362.40,362.46,362.49,362.53,362.57,362.60,362.61,362.68,362.69,362.69,362.71,362.78,362.80,363.17,363.69,364.24,364.85,365.29,365.56,365.75,365.95,366.18,366.36,366.49,366.57,366.64,366.78,366.97,367.18,367.34,367.46,367.64,367.89,368.14,368.34,368.51,368.69,368.91,369.07,369.23,369.43,369.62,369.69,369.74,369.79,369.86,369.91,369.98,370.30,370.75,371.25,371.76,372.36,372.91,373.36,373.67,373.89,374.11,374.36,374.62,374.82,375.01,375.41,375.94,376.37,376.73,377.05,377.39,377.79,378.25,378.72,379.14,379.49,379.75,380.83,381.72,382.19,382.29,381.90,381.62,381.64,382.06,382.62,383.23,383.72,384.10,384.43,384.64,384.83,385.01,385.17,385.37,385.59,385.82,386.11,386.64,387.21,387.63,387.90,388.05,388.21,388.36,388.55,388.77,389.00,389.20,389.38,389.52,389.65,389.83,390.16,390.66,391.32,391.99,392.58,393.17,393.79,394.38,395.05,395.70,396.33,396.98,397.53,397.87,398.09,398.30,398.53,398.75,398.99,399.23,399.50,399.77,400.06,400.39,400.82,401.48,402.18,402.89,403.57,404.06,404.66,405.27,405.81,406.08,406.02,405.93,405.90,406.00,406.47,407.20,407.94,408.55,408.95,409.03,408.88,408.64,408.39,408.25,408.78,409.54,410.30,411.03,411.70,412.35,413.01,413.67,414.36,415.06,415.72,416.35,417.00,417.66,418.31,418.98,419.61,419.98,420.20,420.36,420.54,420.66,420.93,421.29,421.69,421.96,422.20,422.46,422.73,422.99,423.23,423.56,423.94,424.33,424.72,425.04,425.43,425.91,426.49,427.10,427.81,428.59,429.38,430.29,431.27,432.14,432.80,433.27,433.73,434.19,434.63,435.06,435.45,435.86,436.28,436.72,437.18,437.58,437.99,438.41,438.88,439.92,440.92,441.80,442.60,443.09,443.42,443.66,443.87,444.17,444.48,444.81
361.30,361.40,361.54,361.63,361.71,361.81,361.94,362.02,362.05,362.08,362.14,362.16,362.21,362.28,362.34,362.36,362.42,362.49,362.54,362.56,362.63,362.65,362.61,362.55,362.48,362.53,362.61,362.68,362.75,362.75,362.82,362.86,362.87,362.93,362.95,362.95,362.97,363.03,363.05,363.06,363.12,363.36,364.21,364.79,365.18,365.47,365.71,365.95,366.09,366.18,366.26,366.35,366.55,366.78,366.99,367.15,367.31,367.52,367.78,368.07,368.30,368.50,368.69,368.91,369.07,369.23,369.43,369.62,369.71,369.77,369.85,369.90,369.94,370.09,370.32,370.62,371.01,371.48,372.04,372.62,373.19,373.67,373.93,374.18,374.42,374.63,374.79,374.98,375.41,375.98,376.36,376.68,376.99,377.29,377.62,377.99,378.41,378.81,379.18,379.43,379.69,379.86,380.13,380.66,380.41,380.50,380.86,381.38,382.08,382.71,383.20,383.58,383.97,384.30,384.53,384.70,384.86,385.02,385.22,385.51,385.92,386.48,387.10,387.50,387.71,387.86,388.01,388.18,388.43,388.78,389.10,389.32,389.50,389.65,389.77,389.99,390.40,390.94,391.53,392.08,392.67,393.27,393.87,394.42,395.06,395.69,396.32,396.96,397.35,397.47,397.55,397.72,397.94,398.17,398.41,398.67,398.99,399.28,399.60,399.96,400.46,401.15,401.83,402.47,403.02,403.33,403.91,404.56,405.08,405.18,405.07,404.99,405.07,405.44,406.11,406.89,407.54,407.97,408.19,408.17,408.04,407.87,407.70,407.83,408.56,409.45,410.30,411.15,411.91,412.57,413.20,413.84,414.48,415.12,415.75,416.37,417.05,417.70,418.33,418.95,419.50,419.91,420.16,420.34,420.55,420.72,420.89,421.14,421.47,421.71,421.94,422.18,422.43,422.73,422.99,423.39,423.86,424.31,424.71,425.04,425.43,425.93,426.55,427.19,427.90,428.63,429.31,430.22,431.23,432.11,432.76,433.30,433.84,434.39,434.92,435.39,435.83,436.31,436.76,437.18,437.63,438.06,438.46,438.87,439.37,440.24,441.11,441.90,442.52,442.63,442.72,442.91,443.21,443.52,443.84,444.19
361.59,361.71,361.80,361.88,362.00,362.10,362.14,362.22,362.28,362.32,362.34,362.40,362.43,362.48,362.55,362.61,362.63,362.69,362.76,362.81,362.83,362.88,362.90,362.87,362.80,362.80,362.87,362.94,363.00,363.01,363.07,363.12,363.12,363.13,363.19,363.21,363.22,363.24,363.29,363.32,363.34,363.45,363.69,364.03,364.51,365.03,365.32,365.61,365.80,365.91,366.00,366.14,366.39,366.63,366.80,366.95,367.16,367.42,367.70,367.94,368.18,368.44,368.69,368.91,369.07,369.23,369.43,369.63,369.76,369.79,369.85,369.92,370.00,370.21,370.48,370.76,371.07,371.52,371.96,372.41,372.86,373.34,373.85,374.25,374.52,374.69,374.86,375.20,375.60,375.97,376.30,376.61,376.92,377.23,377.54,377.87,378.16,378.49,378.87,379.21,379.42,379.57,379.75,380.00,380.00,380.20,380.60,381.13,381.66,382.21,382.68,383.06,383.46,383.88,384.21,384.44,384.59,384.75,384.92,385.32,385.99,386.63,387.08,387.34,387.51,387.67,387.82,388.02,388.28,388.61,388.97,389.31,389.59,389.81,390.09,390.62,391.10,391.54,392.05,392.59,393.13,393.70,394.25,394.79,395.31,395.85,396.43,396.97,396.89,396.87,396.96,397.13,397.36,397.59,397.85,398.16,398.51,398.79,399.11,399.51,400.02,400.80,401.39,401.80,402.10,402.53,403.25,403.89,404.26,404.23,404.14,404.15,404.42,405.08,405.83,406.47,406.90,407.14,407.35,407.32,407.20,407.04,406.99,407.56,408.42,409.32,410.19,411.15,412.04,412.78,413.33,413.73,414.13,414.52,414.98,415.56,416.25,416.92,417.60,418.28,418.94,419.61,420.00,420.20,420.38,420.59,420.80,421.01,421.22,421.45,421.69,421.92,422.17,422.48,422.83,423.29,423.79,424.25,424.70,425.04,425.45,426.00,426.62,427.34,428.06,428.78,429.51,430.22,431.03,431.76,432.33,432.87,433.41,433.98,434.56,435.10,435.76,436.38,436.94,437.44,437.91,438.40,438.88,439.33,439.81,440.47,441.15,441.66,441.78,441.85,442.01,442.25,442.56,442.87,443.23,443.61
361.86,361.99,362.07,362.15,362.25,362.34,362.38,362.42,362.49,362.54,362.58,362.62,362.66,362.71,362.78,362.83,362.86,362.90,362.96,363.03,363.07,363.11,363.14,363.15,363.08,363.07,363.13,363.19,363.26,363.27,363.30,363.34,363.37,363.37,363.41,363.45,363.46,363.48,363.54,363.57,363.59,363.63,363.64,363.77,364.09,364.51,364.88,365.23,365.47,365.62,365.71,365.93,366.21,366.45,366.61,366.80,367.05,367.32,367.59,367.82,368.08,368.36,368.61,368.84,369.06,369.23,369.43,369.64,369.78,369.83,369.90,370.00,370.15,370.37,370.64,370.89,371.17,371.59,371.98,372.37,372.77,373.21,373.75,374.19,374.53,374.80,375.00,375.30,375.60,375.89,376.20,376.50,376.81,377.12,377.43,377.70,377.98,378.28,378.64,379.01,379.21,379.38,379.56,379.71,379.82,380.07,380.45,380.93,381.42,381.93,382.39,382.79,383.15,383.54,383.88,384.16,384.38,384.57,384.78,385.28,386.06,386.62,386.96,387.16,387.32,387.47,387.66,387.85,388.10,388.42,388.80,389.19,389.52,389.83,390.16,390.74,391.30,391.84,392.43,393.01,393.56,394.10,394.63,395.11,395.57,395.98,396.34,396.56,396.29,396.25,396.38,396.55,396.78,397.03,397.31,397.64,398.02,398.30,398.67,399.12,399.67,400.31,400.70,400.95,401.24,401.94,402.74,403.21,403.35,403.27,403.25,403.48,403.98,404.73,405.38,405.84,406.14,406.33,406.50,406.45,406.35,406.38,406.73,407.51,408.37,409.25,410.14,411.06,411.83,412.32,412.61,412.89,413.19,413.52,413.96,414.58,415.27,415.99,416.72,417.45,418.18,418.94,419.55,419.97,420.22,420.45,420.68,420.87,421.01,421.23,421.44,421.65,421.92,422.27,422.70,423.19,423.70,424.19,424.65,425.02,425.48,426.07,426.73,427.48,428.20,428.90,429.59,430.16,430.73,431.28,431.83,432.41,433.01,433.66,434.33,434.98,435.74,436.38,436.95,437.48,437.95,438.47,439.00,439.48,439.91,440.39,440.82,441.06,441.01,441.10,441.32,441.63,442.00,442.34,442.70,443.08
362.11,362.25,362.32,362.41,362.48,362.56,362.62,362.63,362.69,362.76,362.82,362.84,362.89,362.96,363.02,363.04,363.10,363.13,363.17,363.23,363.30,363.33,363.37,363.40,363.34,363.32,363.38,363.45,363.51,363.52,363.53,363.57,363.62,363.63,363.63,363.68,363.73,363.74,363.80,363.81,363.82,363.82,363.82,363.83,363.89,364.07,364.47,364.83,365.12,365.31,365.44,365.72,366.02,366.26,366.44,366.68,366.96,367.22,367.46,367.71,368.00,368.25,368.49,368.73,369.02,369.21,369.42,369.64,369.78,369.87,369.96,370.10,370.33,370.56,370.79,371.03,371.30,371.67,372.05,372.44,372.82,373.22,373.68,374.09,374.49,374.88,375.12,375.30,375.50,375.76,376.07,376.37,376.67,376.96,377.26,377.50,377.78,378.09,378.43,378.79,378.98,379.17,379.38,379.54,379.70,379.95,380.28,380.69,381.21,381.69,382.16,382.61,382.95,383.32,383.65,383.96,384.25,384.49,384.79,385.37,386.13,386.53,386.78,386.97,387.13,387.30,387.50,387.69,387.91,388.24,388.62,389.00,389.37,389.72,390.07,390.59,391.22,391.94,392.68,393.32,393.88,394.43,394.94,395.32,395.71,395.95,396.02,395.88,395.63,395.64,395.80,395.96,396.20,396.49,396.80,397.12,397.50,397.83,398.25,398.77,399.34,399.73,399.91,400.10,400.54,401.52,402.26,402.48,402.38,402.34,402.44,402.94,403.65,404.34,404.81,405.10,405.32,405.53,405.67,405.60,405.61,405.92,406.74,407.58,408.38,409.21,410.10,410.93,411.42,411.54,411.49,411.69,411.96,412.33,412.86,413.57,414.28,415.04,415.82,416.60,417.38,418.16,418.97,419.66,420.07,420.32,420.54,420.70,420.82,421.03,421.21,421.41,421.68,422.09,422.60,423.10,423.59,424.11,424.59,425.00,425.50,426.12,426.80,427.55,428.25,428.93,429.52,430.00,430.36,430.79,431.37,432.00,432.69,433.42,434.19,434.95,435.72,436.35,436.89,437.42,437.89,438.40,438.92,439.41,439.79,440.09,440.26,440.30,440.26,440.39,440.68,441.06,441.48,441.87,442.21,442.61
362.38,362.50,362.59,362.67,362.75,362.80,362.82,362.88,362.91,362.95,363.03,363.08,363.11,363.16,363.23,363.28,363.31,363.36,363.40,363.43,363.50,363.56,363.60,363.61,363.59,363.59,363.64,363.70,363.72,363.77,363.78,363.80,363.83,363.88,363.88,363.94,363.99,363.99,364.01,364.02,364.02,364.02,364.01,363.97,363.99,364.09,364.28,364.49,364.79,365.08,365.29,365.59,365.85,366.09,366.31,366.60,366.86,367.09,367.34,367.63,367.88,368.12,368.37,368.66,368.91,369.13,369.38,369.64,369.78,369.87,370.02,370.23,370.46,370.69,370.92,371.18,371.46,371.75,372.11,372.50,372.89,373.28,373.74,374.14,374.50,374.78,375.01,375.14,375.34,375.63,375.93,376.19,376.45,376.70,376.95,377.18,377.43,377.76,378.15,378.42,378.60,378.80,379.01,379.17,379.38,379.62,379.88,380.20,380.72,381.20,381.69,382.22,382.75,383.33,383.78,384.12,384.42,384.66,385.07,385.61,386.13,386.41,386.61,386.81,387.00,387.16,387.33,387.53,387.78,388.10,388.48,388.82,389.15,389.49,389.88,390.44,391.13,391.90,392.70,393.35,393.95,394.52,395.00,395.27,395.34,395.31,395.22,395.07,394.97,395.06,395.21,395.39,395.67,395.97,396.28,396.60,396.99,397.41,397.92,398.48,398.93,399.13,399.32,399.70,400.39,401.30,401.57,401.53,401.42,401.51,401.92,402.58,403.27,403.82,404.14,404.35,404.52,404.69,404.84,404.92,405.29,405.95,406.79,407.64,408.44,409.23,410.03,410.73,410.89,410.79,410.64,410.65,410.73,411.16,411.87,412.71,413.47,414.28,415.11,415.94,416.77,417.60,418.44,419.25,419.91,420.19,420.38,420.52,420.62,420.85,421.01,421.21,421.49,421.94,422.47,423.00,423.50,423.99,424.51,425.01,425.55,426.12,426.70,427.34,428.00,428.63,429.21,429.60,429.91,430.39,431.10,431.83,432.58,433.34,434.12,434.89,435.66,436.28,436.82,437.35,437.82,438.26,438.69,439.11,439.47,439.57,439.59,439.60,439.61,439.79,440.19,440.61,440.97,441.36,441.77,442.21
362.66,362.76,362.84,362.90,362.96,363.02,363.06,363.10,363.13,363.19,363.26,363.31,363.34,363.38,363.44,363.51,363.54,363.58,363.63,363.66,363.71,363.78,363.83,363.85,363.85,363.85,363.90,363.94,363.95,364.00,364.03,364.05,364.07,364.13,364.14,364.18,364.20,364.18,364.18,364.18,364.18,364.18,364.17,364.14,364.13,364.16,364.27,364.42,364.65,364.90,365.12,365.42,365.69,365.94,366.19,366.49,366.73,366.96,367.22,367.52,367.76,368.01,368.28,368.55,368.79,369.04,369.31,369.58,369.78,369.93,370.13,370.36,370.59,370.82,371.05,371.32,371.61,371.86,372.19,372.56,372.95,373.34,373.74,374.10,374.38,374.61,374.81,374.96,375.16,375.42,375.69,375.93,376.16,376.39,376.63,376.86,377.11,377.44,377.81,378.04,378.21,378.41,378.62,378.79,379.01,379.26,379.51,379.77,380.18,380.60,381.07,381.63,382.23,382.95,383.59,384.11,384.53,384.84,385.23,385.66,386.05,386.26,386.45,386.64,386.84,387.02,387.18,387.37,387.61,387.93,388.32,388.66,389.03,389.43,389.86,390.44,391.14,391.90,392.68,393.34,393.87,394.36,394.75,394.92,394.84,394.68,394.53,394.41,394.37,394.47,394.63,394.81,395.11,395.43,395.77,396.13,396.58,397.06,397.60,398.11,398.47,398.55,398.93,399.49,400.14,400.69,400.67,400.58,400.61,400.89,401.52,402.18,402.76,403.22,403.45,403.59,403.73,403.90,404.13,404.48,405.08,405.85,406.67,407.46,408.22,408.95,409.62,410.07,410.09,409.96,409.84,409.79,410.03,410.51,411.20,412.06,412.84,413.67,414.52,415.37,416.22,417.07,417.92,418.75,419.48,419.88,420.15,420.32,420.42,420.62,420.76,420.97,421.31,421.81,422.35,422.92,423.49,424.02,424.59,425.13,425.67,426.20,426.69,427.19,427.71,428.26,428.86,429.28,429.74,430.32,431.07,431.84,432.59,433.34,434.09,434.86,435.61,436.18,436.68,437.17,437.61,438.01,438.41,438.79,439.02,439.02,438.99,438.96,439.00,439.20,439.63,440.09,440.49,440.88,441.32,441.82
362.95,363.02,363.09,363.11,363.16,363.23,363.29,363.32,363.37,363.44,363.50,363.52,363.57,363.61,363.64,363.71,363.78,363.81,363.84,363.90,363.92,363.97,364.05,364.10,364.11,364.11,364.16,364.20,364.21,364.21,364.27,364.29,364.31,364.38,364.39,364.40,364.38,364.32,364.30,364.30,364.30,364.30,364.30,364.30,364.26,364.26,364.39,364.54,364.67,364.79,364.97,365.25,365.54,365.80,366.05,366.35,366.59,366.83,367.09,367.38,367.62,367.91,368.18,368.42,368.66,368.94,369.21,369.46,369.74,369.97,370.19,370.43,370.68,370.94,371.18,371.45,371.74,371.97,372.26,372.61,373.00,373.36,373.69,373.95,374.19,374.41,374.58,374.79,374.98,375.15,375.38,375.61,375.84,376.07,376.30,376.54,376.82,377.13,377.42,377.65,377.82,378.02,378.23,378.40,378.63,378.90,379.17,379.41,379.66,379.97,380.39,380.91,381.47,382.26,383.07,383.84,384.48,384.91,385.22,385.54,385.88,386.06,386.27,386.46,386.65,386.87,387.04,387.20,387.43,387.75,388.14,388.54,389.00,389.52,390.00,390.59,391.26,391.95,392.60,393.25,393.66,394.00,394.27,394.35,394.25,394.10,393.97,393.88,393.81,393.88,394.05,394.23,394.54,394.90,395.30,395.73,396.25,396.78,397.27,397.68,397.95,398.01,398.63,399.31,399.71,399.78,399.68,399.72,399.96,400.45,401.18,401.71,402.14,402.56,402.74,402.85,402.98,403.19,403.52,404.17,404.88,405.61,406.37,407.09,407.77,408.41,408.93,409.08,409.08,409.11,409.16,409.24,409.81,410.30,410.84,411.60,412.34,413.16,414.00,414.85,415.70,416.55,417.40,418.19,418.83,419.37,419.80,420.07,420.19,420.34,420.46,420.73,421.18,421.72,422.26,422.90,423.56,424.17,424.78,425.33,425.88,426.39,426.79,427.15,427.52,427.98,428.56,429.12,429.81,430.54,431.25,432.01,432.73,433.42,434.12,434.85,435.54,436.03,436.45,436.91,437.31,437.70,438.11,438.45,438.49,438.49,438.44,438.39,438.41,438.59,438.99,439.49,440.00,440.42,440.88,441.42
363.21,363.27,363.30,363.35,363.38,363.43,363.50,363.55,363.59,363.64,363.71,363.76,363.79,363.83,363.88,363.91,363.98,364.04,364.08,364.11,364.16,364.19,364.24,364.31,364.36,364.37,364.42,364.46,364.46,364.46,364.49,364.50,364.51,364.53,364.53,364.53,364.53,364.50,364.45,364.44,364.44,364.44,364.44,364.44,364.42,364.41,364.48,364.62,364.75,364.89,365.04,365.20,365.44,365.65,365.86,366.16,366.41,366.67,366.94,367.20,367.43,367.72,368.00,368.24,368.51,368.78,369.02,369.26,369.51,369.70,369.92,370.20,370.60,371.03,371.31,371.58,371.86,372.05,372.25,372.56,372.92,373.20,373.51,373.76,374.00,374.22,374.43,374.61,374.78,374.93,375.07,375.28,375.52,375.75,375.98,376.21,376.50,376.79,377.03,377.27,377.43,377.63,377.84,378.01,378.28,378.54,378.79,379.02,379.26,379.55,379.87,380.24,380.76,381.50,382.27,383.03,383.81,384.48,384.92,385.26,385.53,385.74,385.97,386.19,386.39,386.63,386.84,387.04,387.29,387.63,388.11,388.59,389.11,389.66,390.22,390.79,391.44,392.03,392.42,392.80,393.13,393.44,393.69,393.72,393.64,393.54,393.43,393.31,393.23,393.31,393.48,393.71,394.06,394.44,394.91,395.44,395.93,396.46,396.92,397.25,397.41,397.61,398.12,398.64,398.97,398.99,398.95,399.16,399.62,400.17,400.62,401.03,401.44,401.84,401.98,402.14,402.38,402.72,403.15,403.73,404.42,405.16,405.89,406.63,407.19,407.67,408.08,408.25,408.16,408.44,409.04,409.57,410.00,410.39,410.85,411.41,411.98,412.69,413.48,414.33,415.18,416.03,416.88,417.57,417.94,418.50,419.06,419.51,419.81,419.98,420.19,420.65,421.28,421.87,422.47,423.09,423.75,424.41,425.03,425.59,426.13,426.65,427.09,427.50,427.87,428.23,428.68,429.39,430.19,430.96,431.66,432.38,433.12,433.76,434.30,434.81,435.35,435.79,436.18,436.60,437.03,437.43,437.78,438.01,437.97,437.96,437.92,437.85,437.81,437.88,438.26,438.81,439.39,439.94,440.46,441.05
363.44,363.50,363.53,363.58,363.61,363.65,363.70,363.78,363.81,363.85,363.91,363.98,364.02,364.06,364.11,364.13,364.18,364.25,364.31,364.34,364.39,364.42,364.47,364.54,364.59,364.62,364.66,364.69,364.69,364.69,364.69,364.69,364.69,364.67,364.67,364.67,364.67,364.66,364.61,364.58,364.56,364.56,364.56,364.56,364.56,364.56,364.58,364.71,364.87,365.00,365.10,365.18,365.34,365.51,365.69,365.97,366.21,366.49,366.77,367.01,367.26,367.54,367.80,368.05,368.35,368.60,368.83,369.05,369.26,369.42,369.61,369.88,370.29,370.76,371.10,371.37,371.62,371.82,372.03,372.38,372.78,373.04,373.32,373.57,373.80,374.03,374.28,374.44,374.59,374.72,374.81,375.00,375.20,375.42,375.65,375.88,376.15,376.42,376.65,376.88,377.05,377.24,377.46,377.65,377.92,378.17,378.41,378.66,378.90,379.19,379.46,379.73,380.14,380.70,381.35,382.07,382.89,383.72,384.35,384.81,385.15,385.41,385.64,385.87,386.11,386.34,386.57,386.82,387.13,387.56,388.10,388.63,389.19,389.77,390.37,390.87,391.35,391.75,391.97,392.22,392.51,392.83,393.09,393.08,393.03,392.97,392.88,392.75,392.67,392.75,392.94,393.20,393.57,394.01,394.54,395.11,395.60,396.12,396.50,396.75,396.88,397.14,397.50,397.89,398.20,398.28,398.41,398.76,399.28,399.77,400.04,400.36,400.75,401.14,401.32,401.58,401.94,402.36,402.81,403.31,403.97,404.69,405.33,405.98,406.44,406.82,407.19,407.47,407.66,408.30,409.24,409.92,410.22,410.52,410.91,411.37,411.83,412.44,413.12,413.87,414.67,415.51,416.30,416.90,417.20,417.77,418.34,418.87,419.34,419.66,420.07,420.67,421.40,422.06,422.71,423.34,423.98,424.66,425.29,425.83,426.36,426.88,427.37,427.84,428.26,428.62,429.01,429.86,430.66,431.37,432.00,432.60,433.26,433.81,434.24,434.66,435.09,435.50,435.89,436.30,436.74,437.14,437.42,437.52,437.45,437.42,437.37,437.28,437.20,437.23,437.61,438.17,438.79,439.43,440.05,440.69
363.65,363.71,363.78,363.80,363.85,363.90,363.92,363.99,364.06,364.10,364.13,364.20,364.27,364.31,364.33,364.39,364.41,364.47,364.54,364.61,364.62,364.68,364.75,364.81,364.82,364.88,364.90,364.89,364.89,364.89,364.89,364.89,364.88,364.82,364.80,364.80,364.80,364.80,364.79,364.74,364.70,364.70,364.70,364.70,364.70,364.70,364.71,364.84,364.98,365.08,365.11,365.18,365.26,365.38,365.55,365.79,366.02,366.30,366.58,366.82,367.11,367.37,367.61,367.85,368.16,368.40,368.63,368.84,369.00,369.15,369.31,369.51,369.78,370.16,370.53,370.81,371.01,371.30,371.60,372.08,372.61,372.90,373.14,373.37,373.61,373.86,374.14,374.28,374.40,374.54,374.62,374.77,374.92,375.11,375.33,375.56,375.80,376.03,376.26,376.49,376.66,376.86,377.10,377.33,377.56,377.80,378.06,378.34,378.59,378.88,379.14,379.38,379.64,379.92,380.41,381.08,381.86,382.75,383.54,384.20,384.73,385.05,385.31,385.54,385.78,386.01,386.25,386.54,386.97,387.55,388.10,388.63,389.21,389.81,390.38,390.75,390.94,391.09,391.27,391.56,391.86,392.20,392.48,392.44,392.43,392.38,392.31,392.22,392.14,392.23,392.41,392.68,393.07,393.62,394.19,394.74,395.27,395.74,396.02,396.19,396.35,396.57,396.83,397.13,397.47,397.65,398.01,398.45,398.88,399.21,399.46,399.76,400.11,400.49,400.79,401.20,401.65,402.10,402.50,402.96,403.57,404.23,404.78,405.23,405.63,406.02,406.42,406.82,407.61,408.67,409.68,410.14,410.41,410.65,410.98,411.43,411.90,412.44,412.96,413.51,414.21,415.01,415.70,416.25,416.74,417.36,417.84,418.33,418.93,419.50,420.13,420.81,421.51,422.25,422.95,423.59,424.24,424.92,425.54,426.05,426.56,427.10,427.62,428.10,428.59,429.05,429.45,430.38,431.08,431.63,432.15,432.59,433.06,433.50,433.92,434.37,434.77,435.17,435.58,436.03,436.44,436.81,437.00,437.00,436.93,436.85,436.77,436.68,436.59,436.73,437.13,437.67,438.28,438.94,439.67,440.36
363.92,363.96,364.04,364.09,364.16,364.23,364.27,364.30,364.37,364.43,364.49,364.56,364.64,364.67,364.69,364.76,364.82,364.88,364.97,365.03,365.04,365.10,365.17,365.25,365.28,365.23,365.18,365.14,365.14,365.14,365.11,365.09,365.08,365.05,365.00,364.98,364.98,364.98,364.94,364.90,364.88,364.88,364.84,364.83,364.83,364.83,364.84,364.92,365.00,365.06,365.10,365.13,365.16,365.25,365.42,365.65,365.84,366.10,366.38,366.63,366.93,367.18,367.41,367.66,367.96,368.21,368.41,368.58,368.69,368.84,368.99,369.17,369.42,369.75,370.05,370.33,370.58,370.89,371.25,371.84,372.46,372.71,372.95,373.18,373.43,373.71,373.97,374.16,374.30,374.41,374.53,374.64,374.75,374.88,375.06,375.25,375.43,375.64,375.87,376.10,376.31,376.55,376.84,377.11,377.35,377.58,377.82,378.08,378.36,378.63,378.88,379.11,379.34,379.61,380.02,380.54,381.21,382.01,382.80,383.50,384.08,384.49,384.87,385.19,385.46,385.69,385.92,386.34,386.90,387.54,388.10,388.63,389.19,389.72,390.08,390.28,390.37,390.44,390.61,390.90,391.21,391.54,391.79,391.74,391.81,391.80,391.73,391.64,391.57,391.65,391.86,392.18,392.69,393.25,393.83,394.42,394.98,395.30,395.50,395.66,395.82,396.05,396.28,396.56,396.89,397.19,397.59,397.97,398.33,398.63,398.92,399.28,399.68,400.07,400.47,400.92,401.38,401.84,402.28,402.73,403.31,403.97,404.63,405.13,405.61,406.07,406.52,407.02,407.96,409.06,409.99,410.30,410.55,410.81,411.13,411.51,412.01,412.51,412.99,413.47,414.03,414.63,415.35,416.11,416.87,417.67,418.24,418.80,419.44,419.98,420.56,421.18,421.83,422.46,423.15,423.82,424.50,425.18,425.76,426.28,426.81,427.34,427.83,428.34,428.84,429.30,429.69,430.36,430.87,431.32,431.76,432.20,432.61,433.04,433.49,433.99,434.40,434.81,435.26,435.72,436.15,436.40,436.48,436.43,436.35,436.23,436.14,436.07,436.09,436.59,437.22,437.81,438.27,438.70,439.39,440.11
364.32,364.36,364.43,364.50,364.56,364.64,364.71,364.74,364.80,364.87,364.93,365.00,365.08,365.13,365.16,365.24,365.31,365.38,365.45,365.51,365.54,365.61,365.66,365.69,365.69,365.58,365.47,365.42,365.43,365.41,365.36,365.33,365.30,365.30,365.25,365.22,365.20,365.20,365.15,365.12,365.11,365.10,365.04,365.01,365.00,365.00,364.98,365.00,365.00,365.02,365.07,365.07,365.09,365.16,365.31,365.52,365.69,365.92,366.19,366.43,366.73,366.98,367.23,367.49,367.77,368.00,368.16,368.29,368.39,368.52,368.67,368.85,369.09,369.39,369.64,369.91,370.19,370.49,370.95,371.63,372.29,372.52,372.75,373.00,373.27,373.54,373.78,374.01,374.18,374.32,374.48,374.57,374.65,374.75,374.88,375.01,375.20,375.42,375.67,375.92,376.17,376.46,376.76,377.04,377.30,377.54,377.78,378.04,378.33,378.59,378.82,379.06,379.30,379.61,379.97,380.37,380.88,381.51,382.15,382.79,383.38,383.87,384.35,384.77,385.11,385.37,385.68,386.22,386.88,387.54,388.10,388.63,389.13,389.51,389.71,389.83,389.85,389.87,390.00,390.28,390.61,390.91,391.10,391.01,391.15,391.20,391.14,391.07,390.98,391.07,391.31,391.72,392.32,392.89,393.48,394.09,394.63,394.86,395.01,395.16,395.33,395.55,395.80,396.08,396.40,396.76,397.20,397.60,397.98,398.37,398.74,399.17,399.59,399.94,400.35,400.79,401.26,401.72,402.18,402.65,403.18,403.84,404.63,405.31,405.93,406.49,406.99,407.54,408.48,409.47,410.24,410.50,410.73,410.98,411.27,411.61,412.12,412.59,413.03,413.45,413.87,414.42,415.24,416.21,417.17,418.08,418.78,419.44,420.09,420.57,421.09,421.68,422.27,422.83,423.46,424.13,424.80,425.43,425.94,426.44,426.94,427.43,427.88,428.37,428.84,429.25,429.63,430.02,430.44,430.86,431.28,431.74,432.20,432.68,433.16,433.62,434.03,434.47,434.94,435.39,435.81,435.94,435.93,435.84,435.75,435.61,435.51,435.52,435.81,436.58,437.38,438.03,438.48,438.76,439.31,439.98
364.86,364.94,365.01,365.03,365.09,365.16,365.24,365.31,365.38,365.42,365.45,365.53,365.61,365.67,365.75,365.82,365.90,365.93,365.97,366.04,366.11,366.17,366.18,366.10,365.98,365.88,365.76,365.69,365.74,365.69,365.66,365.62,365.57,365.57,365.56,365.52,365.47,365.47,365.46,365.41,365.37,365.36,365.35,365.30,365.26,365.24,365.17,365.05,365.01,365.00,365.01,365.01,365.06,365.14,365.24,365.40,365.56,365.76,366.00,366.24,366.54,366.79,367.05,367.34,367.58,367.75,367.88,367.98,368.12,368.21,368.35,368.54,368.78,369.08,369.33,369.56,369.81,370.08,370.72,371.48,372.10,372.33,372.56,372.84,373.12,373.36,373.59,373.82,374.04,374.26,374.46,374.57,374.65,374.74,374.82,374.92,375.16,375.45,375.75,376.04,376.35,376.65,376.94,377.19,377.49,377.74,378.00,378.29,378.53,378.82,379.08,379.32,379.56,379.91,380.25,380.58,380.92,381.28,381.65,382.13,382.72,383.25,383.76,384.28,384.74,385.07,385.55,386.18,386.87,387.54,388.10,388.62,388.99,389.18,389.34,389.49,389.50,389.44,389.45,389.72,390.07,390.36,390.44,390.28,390.47,390.59,390.56,390.49,390.41,390.50,390.79,391.32,391.93,392.54,393.15,393.74,394.19,394.40,394.55,394.71,394.88,395.10,395.39,395.70,396.02,396.37,396.91,397.46,397.99,398.56,399.08,399.56,399.93,400.19,400.44,400.86,401.32,401.78,402.25,402.71,403.19,403.80,404.72,405.66,406.46,407.15,407.73,408.25,409.09,409.88,410.45,410.73,410.98,411.17,411.39,411.73,412.18,412.63,413.02,413.34,413.66,414.43,415.43,416.49,417.53,418.42,419.25,420.01,420.67,421.14,421.67,422.24,422.83,423.37,423.92,424.52,425.11,425.64,426.06,426.47,426.87,427.28,427.68,428.07,428.47,428.83,429.16,429.43,429.89,430.38,430.84,431.32,431.92,432.50,432.96,433.26,433.68,434.14,434.61,435.06,435.38,435.41,435.34,435.25,435.11,435.01,434.95,435.12,435.81,436.64,437.44,438.20,438.84,439.18,439.49,440.03
365.21,365.43,365.54,365.59,365.66,365.74,365.81,365.84,365.91,365.97,366.02,366.10,366.17,366.23,366.27,366.35,366.43,366.49,366.54,366.60,366.59,366.59,366.51,366.40,366.29,366.17,366.03,365.94,365.97,365.98,365.95,365.91,365.88,365.88,365.85,365.80,365.78,365.77,365.74,365.70,365.67,365.63,365.62,365.57,365.50,365.45,365.37,365.22,365.11,365.04,365.00,365.00,365.02,365.08,365.16,365.28,365.46,365.66,365.86,366.09,366.36,366.60,366.86,367.14,367.34,367.47,367.58,367.70,367.81,367.93,368.13,368.37,368.61,368.87,369.11,369.34,369.57,369.84,370.55,371.34,371.96,372.20,372.46,372.73,372.98,373.21,373.45,373.68,373.91,374.14,374.37,374.54,374.68,374.78,374.88,375.03,375.31,375.61,375.91,376.18,376.48,376.79,377.09,377.37,377.68,377.93,378.19,378.49,378.73,379.02,379.29,379.53,379.81,380.15,380.46,380.77,381.09,381.44,381.76,382.13,382.57,382.98,383.39,383.85,384.35,384.88,385.42,386.10,386.82,387.50,388.08,388.46,388.70,388.85,389.01,389.16,389.20,389.16,389.18,389.45,389.75,389.95,389.96,389.81,389.95,390.05,390.04,390.01,389.98,390.10,390.43,390.98,391.60,392.18,392.77,393.34,393.69,393.89,394.07,394.26,394.43,394.74,395.08,395.47,395.93,396.46,397.09,397.71,398.30,398.92,399.50,399.89,400.16,400.38,400.58,400.91,401.34,401.80,402.25,402.72,403.19,403.80,404.73,405.69,406.57,407.40,408.16,408.81,409.54,410.15,410.57,410.79,411.02,411.23,411.45,411.73,412.01,412.34,412.64,412.95,413.48,414.44,415.54,416.65,417.72,418.76,419.65,420.44,421.10,421.61,422.07,422.55,423.03,423.48,423.94,424.41,424.90,425.38,425.78,426.16,426.55,426.94,427.31,427.63,427.93,428.27,428.71,429.12,429.65,430.20,430.71,431.26,431.72,432.14,432.53,432.86,433.30,433.79,434.32,434.80,434.93,434.86,434.73,434.62,434.51,434.43,434.61,435.09,435.87,436.71,437.50,438.29,439.05,439.55,439.86,440.36
365.50,365.84,366.03,366.14,366.22,366.30,366.37,366.39,366.46,366.52,366.59,366.66,366.74,366.78,366.81,366.89,366.95,367.03,367.08,367.09,367.02,366.93,366.80,366.67,366.58,366.44,366.30,366.19,366.18,366.26,366.23,366.20,366.19,366.18,366.13,366.10,366.09,366.08,366.00,365.98,365.93,365.87,365.86,365.80,365.72,365.65,365.56,365.42,365.26,365.13,365.05,365.02,365.01,365.03,365.10,365.18,365.37,365.55,365.73,365.96,366.18,366.40,366.66,366.92,367.07,367.21,367.39,367.56,367.65,367.79,368.03,368.31,368.54,368.78,369.03,369.28,369.53,369.85,370.54,371.25,371.77,372.04,372.36,372.66,372.92,373.15,373.38,373.61,373.85,374.08,374.31,374.54,374.72,374.85,374.97,375.20,375.50,375.80,376.08,376.34,376.64,376.94,377.25,377.56,377.85,378.12,378.38,378.67,378.92,379.21,379.48,379.74,380.06,380.37,380.68,380.99,381.31,381.67,382.00,382.31,382.62,382.94,383.25,383.63,384.13,384.80,385.39,386.08,386.81,387.46,387.98,388.22,388.37,388.53,388.70,388.85,388.91,388.92,388.97,389.24,389.46,389.58,389.55,389.45,389.54,389.59,389.60,389.62,389.65,389.84,390.19,390.69,391.26,391.82,392.40,392.92,393.20,393.38,393.61,393.86,394.09,394.44,394.87,395.38,396.00,396.69,397.38,398.04,398.67,399.28,399.86,400.15,400.34,400.57,400.73,400.99,401.36,401.80,402.25,402.72,403.18,403.77,404.70,405.63,406.56,407.49,408.38,409.18,409.83,410.29,410.59,410.72,410.94,411.16,411.38,411.59,411.75,411.94,412.16,412.49,413.25,414.35,415.53,416.69,417.81,418.98,419.89,420.63,421.26,421.78,422.20,422.58,422.97,423.36,423.74,424.13,424.53,424.97,425.37,425.75,426.14,426.53,426.94,427.26,427.55,427.91,428.45,428.97,429.53,430.07,430.57,431.12,431.44,431.73,432.07,432.48,432.95,433.48,434.03,434.47,434.43,434.30,434.15,434.01,433.93,433.96,434.40,435.13,435.91,436.74,437.54,438.35,439.15,439.79,440.19,440.63
365.76,366.13,366.47,366.64,366.74,366.82,366.89,366.96,367.04,367.08,367.11,367.18,367.26,367.33,367.39,367.47,367.49,367.54,367.53,367.42,367.34,367.21,367.06,366.93,366.84,366.69,366.59,366.48,366.40,366.51,366.54,366.50,366.45,366.44,366.43,366.39,366.35,366.34,366.26,366.19,366.13,366.07,366.05,365.99,365.92,365.84,365.75,365.61,365.46,365.31,365.18,365.11,365.04,365.01,365.03,365.11,365.26,365.42,365.60,365.82,365.99,366.21,366.45,366.67,366.78,367.07,367.41,367.69,367.78,367.92,368.13,368.37,368.61,368.90,369.20,369.50,369.83,370.25,370.81,371.20,371.48,371.84,372.21,372.63,372.98,373.21,373.44,373.68,373.91,374.14,374.37,374.61,374.78,374.94,375.11,375.39,375.69,375.97,376.23,376.52,376.83,377.14,377.45,377.75,378.00,378.28,378.56,378.81,379.11,379.41,379.68,379.95,380.31,380.63,380.94,381.25,381.56,381.88,382.19,382.50,382.82,383.19,383.51,383.83,384.25,384.88,385.55,386.25,386.92,387.47,387.73,387.89,388.05,388.22,388.43,388.59,388.65,388.68,388.77,388.99,389.13,389.18,389.18,389.16,389.23,389.27,389.29,389.36,389.49,389.78,390.13,390.49,390.91,391.47,392.05,392.51,392.71,392.92,393.24,393.59,393.94,394.26,394.82,395.52,396.24,396.94,397.64,398.32,398.99,399.59,400.04,400.28,400.49,400.76,400.93,401.15,401.44,401.80,402.25,402.72,403.14,403.72,404.64,405.56,406.50,407.42,408.33,409.22,409.84,410.22,410.43,410.48,410.68,410.86,411.06,411.26,411.37,411.52,411.68,412.00,412.91,414.08,415.30,416.52,417.74,418.96,419.81,420.44,420.93,421.41,421.81,422.19,422.58,422.97,423.35,423.74,424.13,424.53,424.92,425.31,425.69,426.11,426.62,427.12,427.58,428.04,428.57,429.05,429.48,429.87,430.23,430.63,430.96,431.30,431.70,432.16,432.67,433.25,433.74,433.96,433.86,433.76,433.63,433.48,433.39,433.73,434.37,435.13,435.90,436.69,437.50,438.32,439.10,439.83,440.28,440.61
365.97,366.37,366.77,367.03,367.21,367.34,367.41,367.49,367.57,367.63,367.67,367.75,367.79,367.86,367.93,367.99,367.97,367.93,367.86,367.74,367.62,367.47,367.34,367.22,367.11,366.95,366.86,366.75,366.64,366.72,366.78,366.78,366.75,366.71,366.70,366.66,366.59,366.54,366.48,366.40,366.34,366.30,366.26,366.19,366.11,366.03,365.95,365.81,365.65,365.50,365.36,365.27,365.16,365.06,365.01,365.05,365.15,365.31,365.51,365.70,365.85,366.14,366.48,366.79,367.07,367.43,367.77,368.01,368.06,368.17,368.30,368.50,368.78,369.08,369.39,369.72,370.06,370.41,370.76,370.99,371.20,371.56,371.97,372.40,372.77,373.09,373.44,373.72,373.97,374.21,374.48,374.68,374.85,375.03,375.28,375.58,375.89,376.16,376.41,376.71,377.02,377.31,377.59,377.89,378.17,378.47,378.75,378.99,379.30,379.57,379.90,380.28,380.58,380.89,381.18,381.46,381.77,382.08,382.39,382.71,383.06,383.40,383.72,384.05,384.48,385.10,385.75,386.38,386.92,387.29,387.47,387.62,387.78,387.94,388.13,388.29,388.37,388.44,388.56,388.70,388.80,388.84,388.84,388.85,388.91,388.99,389.08,389.21,389.46,389.79,390.13,390.48,390.84,391.30,391.78,392.21,392.52,392.84,393.22,393.63,394.01,394.36,394.88,395.56,396.35,397.09,397.80,398.49,399.18,399.80,400.15,400.38,400.61,400.87,401.06,401.32,401.57,401.84,402.26,402.72,403.13,403.70,404.63,405.55,406.48,407.27,407.93,408.78,409.33,409.71,409.99,410.19,410.38,410.55,410.72,410.90,411.02,411.17,411.26,411.56,412.73,413.96,415.20,416.44,417.64,418.63,419.37,420.00,420.60,421.07,421.47,421.86,422.24,422.63,423.01,423.43,423.85,424.29,424.75,425.21,425.68,426.15,426.65,427.18,427.68,428.17,428.69,429.05,429.37,429.64,429.88,430.15,430.51,430.92,431.38,431.92,432.46,433.02,433.41,433.42,433.32,433.20,433.05,432.92,433.06,433.56,434.23,434.98,435.75,436.52,437.32,438.13,438.90,439.48,439.81,440.04
366.17,366.58,367.02,367.36,367.64,367.84,367.93,368.01,368.10,368.18,368.24,368.31,368.34,368.38,368.43,368.45,368.39,368.25,368.13,368.04,367.89,367.75,367.63,367.53,367.37,367.23,367.12,367.00,366.89,366.93,367.03,367.08,367.05,366.98,366.95,366.90,366.82,366.75,366.67,366.59,366.55,366.54,366.46,366.38,366.31,366.23,366.15,366.00,365.85,365.69,365.55,365.46,365.33,365.17,365.05,365.02,365.06,365.21,365.44,365.65,365.87,366.26,366.69,367.10,367.55,367.95,368.23,368.38,368.40,368.46,368.52,368.66,368.92,369.23,369.53,369.87,370.19,370.40,370.57,370.72,370.92,371.24,371.69,372.09,372.48,372.88,373.33,373.69,373.98,374.26,374.57,374.77,374.94,375.16,375.46,375.77,376.08,376.36,376.61,376.91,377.22,377.48,377.74,378.05,378.36,378.65,378.93,379.19,379.47,379.77,380.18,380.62,380.87,381.16,381.42,381.68,381.98,382.29,382.59,382.93,383.30,383.61,383.93,384.28,384.72,385.33,385.92,386.44,386.82,387.03,387.19,387.34,387.50,387.65,387.81,387.96,388.07,388.17,388.33,388.40,388.47,388.51,388.52,388.54,388.59,388.72,388.90,389.11,389.46,389.80,390.14,390.51,390.83,391.19,391.59,392.00,392.44,392.85,393.28,393.73,394.13,394.53,395.00,395.64,396.44,397.20,397.91,398.61,399.30,399.93,400.23,400.45,400.69,400.94,401.18,401.47,401.71,401.93,402.29,402.74,403.14,403.69,404.60,405.43,406.25,406.83,407.23,407.96,408.40,408.79,409.18,409.53,409.76,410.07,410.36,410.53,410.67,410.79,410.82,411.11,412.53,413.87,415.13,416.33,417.43,418.19,418.86,419.57,420.28,420.76,421.17,421.57,421.97,422.37,422.78,423.23,423.71,424.19,424.73,425.26,425.80,426.32,426.80,427.32,427.80,428.26,428.71,428.96,429.18,429.37,429.53,429.69,430.09,430.58,431.11,431.71,432.26,432.76,433.00,432.86,432.76,432.62,432.45,432.41,432.86,433.45,434.10,434.80,435.56,436.33,437.10,437.88,438.58,438.96,439.23,439.46
