558.80,555.38,551.89,548.65,545.48,542.31,539.18,536.16,533.06,530.21,527.77,525.63,523.51,521.42,519.69,518.76,517.95,517.13,516.29,515.44,514.59,513.74,512.89,512.04,511.19,510.34,509.30,508.14,507.03,506.20,505.42,504.69,504.06,503.71,503.53,503.21,502.76,502.31,501.89,501.45,501.01,500.40,498.83,493.73,489.59,487.34,486.02,485.72,485.99,486.53,487.22,487.77,488.23,488.80,489.45,489.81,489.71,489.06,488.05,487.02,487.06,487.05,486.90,486.66,486.43,486.20,485.94,485.57,485.02,484.91,484.87,484.82,484.80,484.74,484.72,484.68,484.63,484.61,484.56,484.52,484.38,483.90,483.31,482.72,482.16,481.62,481.13,480.67,480.25,479.81,479.18,478.21,477.10,475.91,474.72,473.64,472.62,472.14,472.30,472.61,473.03,473.69,474.56,475.50,476.14,476.31,476.27,476.20,476.18,476.01,476.08,476.35,476.50,476.36,476.19,476.06,475.96,475.82,475.67,475.55,475.44,475.29,475.00,474.64,474.23,473.74,473.27,472.81,472.38,471.98,471.53,471.07,470.63,470.24,469.94,469.71,469.48,469.26,469.04,468.82,468.49,468.09,467.60,466.90,466.21,465.47,464.69,463.90,463.07,462.27,461.54,460.93,460.42,460.17,460.20,460.44,460.84,461.21,460.98,460.36,459.71,459.20,458.67,458.13,457.58,457.05,456.50,455.96,455.44,455.01,454.82,454.80,454.81,454.70,454.31,453.87,453.66,453.68,453.74,454.01,454.03,454.10,454.63,455.31,456.00,456.57,456.89,456.73,456.38,455.96,455.52,455.13,454.74,454.58,454.47,454.25,454.08,453.92,453.75,453.59,453.42,453.22,453.07,452.92,452.66,452.21,451.58,450.87,450.25,450.25,450.61,451.13,451.69,452.23,452.78,453.34,453.92,454.55,455.18,455.31,455.22,455.06,454.91,454.56,454.16,453.75,453.37,452.98,452.84,452.87,452.98,453.07,453.20,453.48,453.81,453.95,453.98,453.98,454.01,454.02,453.74,453.30,452.85,452.44,452.06,451.73,451.43,451.02,450.38,449.58,448.75,447.90,447.04,446.21,445.82,445.70
559.71,556.24,552.78,549.47,546.27,543.10,539.94,536.78,533.59,530.63,528.05,525.85,523.74,521.69,519.98,518.95,518.14,517.28,516.40,515.52,514.63,513.78,512.91,512.03,511.18,510.30,509.32,508.34,507.42,506.71,506.01,505.32,504.72,504.44,504.23,503.88,503.43,503.00,502.58,502.00,501.35,500.56,499.15,494.57,490.59,488.21,487.04,486.53,486.73,487.45,488.42,488.85,489.23,489.77,490.40,490.70,490.34,489.51,488.52,487.79,487.99,488.06,487.94,487.70,487.47,487.13,486.69,486.17,485.61,485.55,485.51,485.46,485.45,485.38,485.36,485.32,485.25,485.22,485.18,485.08,484.81,484.28,483.73,483.21,482.69,482.17,481.70,481.23,480.79,480.30,479.57,478.49,477.29,476.07,474.88,473.73,473.06,473.07,473.63,474.10,474.49,475.06,475.81,476.65,477.36,477.62,477.66,477.63,477.48,477.07,477.00,477.27,477.35,477.18,476.98,476.81,476.69,476.54,476.41,476.30,476.16,475.93,475.61,475.24,474.83,474.37,473.90,473.46,473.04,472.61,472.15,471.71,471.30,470.93,470.60,470.34,470.09,469.81,469.51,469.24,468.89,468.45,467.91,467.23,466.50,465.77,465.03,464.28,463.44,462.65,461.95,461.42,461.11,461.02,461.07,461.27,461.61,461.84,461.44,460.67,459.91,459.41,458.95,458.44,457.91,457.40,456.86,456.35,455.96,455.96,456.15,456.38,456.55,456.62,456.63,456.38,456.15,456.00,455.84,455.76,455.56,455.44,455.75,456.39,457.06,457.51,457.61,457.38,457.03,456.60,456.16,455.77,455.39,455.29,455.27,455.17,455.02,454.86,454.69,454.51,454.35,454.16,454.06,453.96,453.71,453.30,452.70,452.05,451.52,451.45,451.81,452.31,452.85,453.39,453.93,454.45,454.98,455.54,455.95,456.00,455.90,455.76,455.56,455.24,454.87,454.50,454.16,453.87,453.84,453.94,454.09,454.17,454.31,454.51,454.70,454.75,454.75,454.75,454.74,454.66,454.30,453.86,453.44,453.08,452.70,452.26,451.79,451.23,450.49,449.71,448.92,448.07,447.23,446.60,446.39,446.36
560.52,556.98,553.62,550.32,547.08,543.88,540.65,537.35,534.11,531.12,528.51,526.31,524.27,522.31,520.56,519.31,518.46,517.57,516.64,515.72,514.80,513.92,513.03,512.14,511.31,510.41,509.55,508.76,508.05,507.36,506.64,505.95,505.40,505.16,504.91,504.53,504.08,503.64,503.10,502.31,501.36,500.22,498.55,494.85,491.32,488.88,487.92,487.31,487.51,488.40,489.67,490.00,490.36,490.83,491.31,491.42,490.71,489.80,489.01,488.68,488.93,489.04,488.95,488.72,488.43,487.93,487.30,486.66,486.20,486.17,486.15,486.11,486.09,486.03,486.00,485.96,485.89,485.82,485.80,485.63,485.25,484.72,484.24,483.76,483.26,482.75,482.28,481.82,481.34,480.79,479.97,478.81,477.50,476.20,475.03,473.93,473.75,474.21,475.00,475.54,475.97,476.49,477.13,477.83,478.57,478.93,479.06,479.03,478.71,478.10,477.91,478.14,478.21,478.03,477.78,477.56,477.41,477.27,477.16,477.02,476.82,476.52,476.22,475.88,475.48,475.01,474.55,474.14,473.72,473.26,472.80,472.40,472.01,471.62,471.25,470.98,470.71,470.38,470.00,469.66,469.28,468.82,468.24,467.54,466.79,466.06,465.37,464.65,463.83,463.05,462.39,461.97,461.86,461.84,461.91,462.10,462.38,462.38,461.82,460.95,460.10,459.56,459.14,458.68,458.16,457.69,457.19,456.70,456.52,457.09,457.78,458.22,458.40,458.48,458.84,458.84,458.60,458.25,457.89,457.51,457.13,456.87,456.95,457.50,458.09,458.37,458.25,458.02,457.67,457.25,456.81,456.42,456.03,455.94,456.02,456.09,455.99,455.83,455.64,455.44,455.28,455.13,455.07,455.00,454.74,454.37,453.95,453.53,453.16,452.89,453.14,453.61,454.15,454.68,455.22,455.71,456.18,456.61,456.77,456.69,456.58,456.46,456.21,455.92,455.56,455.21,454.94,454.81,454.88,455.02,455.16,455.25,455.39,455.52,455.60,455.54,455.53,455.52,455.45,455.24,454.88,454.44,454.02,453.65,453.22,452.64,451.99,451.27,450.53,449.86,449.11,448.28,447.47,447.08,447.01,447.01
561.13,557.49,554.27,551.12,547.80,544.40,541.01,537.69,534.51,531.67,529.25,527.23,525.27,523.30,521.38,519.73,518.75,517.83,516.90,515.97,515.05,514.14,513.25,512.42,511.68,510.88,510.12,509.40,508.71,508.01,507.18,506.53,506.17,505.93,505.59,505.18,504.68,504.06,503.13,502.02,500.85,499.36,496.92,494.06,491.50,489.60,488.69,488.09,488.38,489.41,490.81,491.36,491.81,492.17,492.27,491.76,491.00,490.29,489.78,489.66,489.82,489.93,489.89,489.65,489.15,488.51,487.80,487.14,486.82,486.78,486.77,486.74,486.68,486.66,486.61,486.57,486.54,486.47,486.40,486.23,485.88,485.30,484.82,484.31,483.81,483.33,482.86,482.40,481.88,481.24,480.37,479.20,477.76,476.28,475.08,474.53,474.78,475.46,476.31,476.90,477.38,477.89,478.49,479.17,479.79,480.23,480.43,480.26,479.79,479.10,478.81,478.94,479.04,478.87,478.56,478.28,478.13,478.03,477.86,477.63,477.36,477.05,476.79,476.49,476.13,475.67,475.20,474.79,474.38,473.91,473.45,473.04,472.66,472.27,471.90,471.59,471.33,471.01,470.57,470.14,469.70,469.19,468.56,467.81,467.09,466.38,465.69,464.98,464.20,463.47,462.94,462.72,462.69,462.69,462.74,462.89,463.19,462.86,462.15,461.30,460.46,459.80,459.30,458.84,458.36,457.89,457.47,457.09,457.11,458.15,459.15,459.63,459.81,459.90,460.11,460.23,460.13,459.86,459.58,459.17,458.75,458.45,458.39,458.64,458.95,459.05,458.85,458.61,458.30,457.90,457.46,457.07,456.69,456.53,456.62,456.88,456.93,456.77,456.58,456.40,456.26,456.15,456.11,456.02,455.73,455.40,455.34,455.23,454.91,454.61,454.59,454.91,455.43,455.93,456.46,456.94,457.31,457.47,457.46,457.38,457.27,457.10,456.81,456.50,456.19,455.88,455.68,455.77,455.88,456.00,456.14,456.23,456.37,456.42,456.39,456.32,456.31,456.27,456.12,455.78,455.46,455.02,454.49,453.90,453.34,452.73,452.03,451.31,450.67,450.13,449.43,448.62,447.87,447.63,447.63,447.65
562.51,558.66,555.57,552.50,549.02,545.27,541.53,538.18,535.20,532.53,530.15,528.09,526.08,524.00,521.88,519.96,518.96,518.05,517.12,516.24,515.51,514.70,513.88,513.09,512.39,511.63,510.91,510.17,509.34,508.53,507.77,507.24,506.93,506.63,506.23,505.77,505.17,504.29,503.16,501.97,500.75,499.29,497.06,495.19,493.24,491.20,489.53,488.88,489.18,490.13,491.46,492.31,492.92,493.18,492.97,492.24,491.48,490.90,490.56,490.51,490.61,490.70,490.63,490.29,489.69,488.98,488.25,487.63,487.40,487.37,487.37,487.35,487.31,487.27,487.23,487.19,487.15,487.07,486.97,486.82,486.53,485.95,485.42,484.88,484.38,483.91,483.41,482.94,482.37,481.64,480.76,479.56,478.04,476.47,475.33,475.61,476.21,476.90,477.61,478.23,478.72,479.15,479.61,480.13,480.62,481.09,481.31,481.12,480.64,480.07,479.81,479.87,479.89,479.68,479.36,479.06,478.88,478.71,478.44,478.16,477.88,477.60,477.37,477.11,476.77,476.31,475.85,475.44,475.02,474.56,474.10,473.69,473.31,472.92,472.54,472.22,471.94,471.62,471.18,470.69,470.17,469.58,468.88,468.15,467.42,466.71,466.01,465.31,464.55,463.96,463.61,463.54,463.53,463.53,463.57,463.68,463.83,463.28,462.47,461.63,460.83,460.09,459.54,459.10,458.75,458.46,458.07,457.64,457.64,458.83,459.84,460.40,460.71,460.94,461.13,461.19,461.09,460.85,460.58,460.23,459.91,459.68,459.61,459.65,459.72,459.68,459.47,459.24,458.94,458.57,458.15,457.76,457.38,457.13,457.17,457.52,457.70,457.66,457.53,457.38,457.24,457.17,457.15,457.06,456.79,456.78,456.97,456.96,456.66,456.36,456.15,456.29,456.70,457.19,457.64,457.97,458.17,458.23,458.16,458.06,457.93,457.74,457.44,457.10,456.81,456.60,456.52,456.74,456.87,456.98,457.12,457.20,457.28,457.29,457.20,457.10,457.08,456.95,456.69,456.29,455.86,455.33,454.72,454.06,453.41,452.79,452.21,451.68,451.18,450.63,449.94,449.18,448.50,448.25,448.27,448.31
564.59,560.49,557.34,554.25,550.59,546.51,542.36,538.87,536.11,533.60,531.17,528.87,526.73,524.51,522.22,520.13,519.14,518.29,517.43,516.65,516.18,515.52,514.77,514.02,513.31,512.55,511.81,510.99,509.97,508.99,508.39,507.99,507.67,507.28,506.82,506.30,505.59,504.50,503.35,502.18,501.02,499.80,498.35,497.45,495.92,493.52,490.80,489.80,489.95,490.73,491.88,493.00,493.78,493.94,493.50,492.82,492.06,491.57,491.35,491.29,491.35,491.41,491.26,490.76,490.13,489.40,488.68,488.12,487.98,487.96,487.96,487.96,487.94,487.88,487.85,487.81,487.74,487.65,487.51,487.40,487.19,486.64,486.05,485.49,484.96,484.48,483.95,483.46,482.81,481.98,481.06,479.81,478.26,476.72,475.87,477.01,477.86,478.43,478.91,479.46,479.91,480.24,480.50,480.83,481.23,481.67,481.92,481.78,481.35,481.00,480.85,480.83,480.73,480.46,480.15,479.86,479.61,479.30,478.95,478.64,478.41,478.17,477.94,477.70,477.41,476.96,476.50,476.09,475.67,475.21,474.76,474.35,473.97,473.58,473.20,472.88,472.56,472.23,471.81,471.28,470.67,469.97,469.22,468.51,467.76,467.04,466.33,465.63,464.92,464.52,464.38,464.37,464.37,464.37,464.41,464.45,464.35,463.65,462.82,462.01,461.25,460.50,459.90,459.49,459.28,459.22,458.86,458.32,458.16,459.22,460.11,460.73,461.24,461.67,461.97,461.91,461.73,461.48,461.18,460.94,460.75,460.64,460.62,460.56,460.44,460.29,460.11,459.88,459.59,459.25,458.86,458.46,458.08,457.75,457.70,458.07,458.38,458.51,458.48,458.34,458.22,458.19,458.19,458.11,457.96,458.35,458.65,458.65,458.36,458.07,457.78,457.73,457.95,458.42,458.73,458.84,458.89,458.94,458.87,458.74,458.58,458.39,458.08,457.73,457.49,457.38,457.42,457.69,457.84,457.95,458.08,458.15,458.16,458.12,458.03,457.89,457.83,457.57,457.17,456.73,456.14,455.47,454.82,454.19,453.57,452.99,452.59,452.29,451.90,451.27,450.61,449.91,449.24,448.91,448.91,448.95
567.65,563.40,559.52,556.05,552.41,548.41,544.04,540.01,537.21,534.80,532.33,529.55,527.20,524.94,522.68,520.58,519.40,518.75,518.24,517.71,517.25,516.52,515.77,515.04,514.28,513.52,512.72,511.76,510.57,509.56,509.01,508.65,508.32,507.87,507.32,506.73,506.07,505.19,504.07,502.88,501.71,500.66,499.88,499.43,498.52,496.75,493.83,491.32,490.88,491.60,492.57,493.71,494.47,494.54,493.98,493.38,492.65,492.25,492.14,492.12,492.14,492.12,491.87,491.26,490.55,489.83,489.18,488.70,488.56,488.59,488.61,488.61,488.59,488.52,488.46,488.42,488.37,488.19,488.08,487.99,487.79,487.30,486.74,486.16,485.57,485.01,484.51,483.92,483.10,482.09,481.00,479.68,478.16,477.07,477.19,478.64,479.44,479.86,480.15,480.38,480.63,480.87,481.11,481.38,481.80,482.22,482.50,482.49,482.07,481.81,481.72,481.66,481.42,481.12,480.81,480.49,480.15,479.78,479.44,479.16,478.93,478.69,478.46,478.23,477.96,477.60,477.15,476.74,476.32,475.87,475.45,475.06,474.68,474.29,473.91,473.54,473.21,472.86,472.39,471.82,471.08,470.31,469.55,468.84,468.08,467.36,466.65,465.94,465.50,465.29,465.22,465.22,465.22,465.22,465.23,465.16,464.75,464.02,463.26,462.55,461.88,461.22,460.61,460.15,459.92,459.88,459.60,459.04,458.70,459.42,460.16,460.76,461.34,461.96,462.56,462.54,462.32,462.07,461.77,461.57,461.48,461.43,461.36,461.24,461.09,460.92,460.70,460.47,460.22,459.92,459.56,459.13,458.73,458.36,458.28,458.66,459.02,459.25,459.32,459.28,459.24,459.23,459.23,459.25,459.37,459.76,460.01,460.02,459.83,459.62,459.42,459.27,459.23,459.44,459.54,459.57,459.60,459.65,459.54,459.38,459.20,458.98,458.73,458.46,458.29,458.23,458.33,458.65,458.81,458.92,459.04,459.02,458.97,458.90,458.81,458.65,458.44,458.04,457.50,456.90,456.28,455.61,454.94,454.39,454.06,453.73,453.42,453.06,452.53,452.00,451.47,450.78,449.96,449.52,449.50,449.59
571.32,566.61,562.20,558.37,554.68,550.77,546.48,542.09,538.83,535.99,533.13,530.00,527.63,525.45,523.27,521.28,520.17,519.68,519.32,518.86,518.33,517.52,516.75,516.03,515.24,514.48,513.57,512.51,511.35,510.41,509.82,509.36,508.91,508.39,507.79,507.18,506.53,505.79,504.78,503.62,502.47,501.51,501.07,500.82,500.30,499.09,496.46,492.82,491.93,492.64,493.49,494.46,495.13,495.12,494.52,493.97,493.31,492.98,492.92,492.93,492.95,492.83,492.44,491.75,491.01,490.40,489.97,489.69,489.47,489.38,489.31,489.24,489.21,489.13,489.08,489.03,488.94,488.75,488.63,488.54,488.37,487.97,487.42,486.84,486.23,485.62,484.98,484.15,483.13,481.99,480.81,479.51,478.11,477.49,478.48,479.90,480.62,480.96,481.13,481.22,481.34,481.49,481.68,481.94,482.35,482.75,483.09,483.22,482.82,482.62,482.52,482.38,482.05,481.73,481.41,481.07,480.73,480.38,480.04,479.73,479.47,479.22,478.98,478.75,478.50,478.21,477.81,477.40,476.97,476.52,476.13,475.74,475.36,474.97,474.58,474.20,473.84,473.44,472.91,472.25,471.44,470.63,469.87,469.17,468.41,467.67,466.98,466.42,466.21,466.11,466.06,466.06,466.06,466.06,466.03,465.87,465.32,464.61,463.91,463.25,462.64,462.02,461.41,460.88,460.51,460.36,460.10,459.59,459.19,459.63,460.33,461.00,461.65,462.36,463.10,463.12,462.89,462.63,462.39,462.27,462.19,462.12,462.01,461.86,461.70,461.52,461.28,461.05,460.82,460.56,460.25,459.84,459.48,459.10,458.95,459.23,459.63,459.99,460.15,460.11,460.03,460.02,460.02,460.08,460.32,460.76,461.06,461.13,460.98,460.82,460.66,460.50,460.38,460.43,460.46,460.47,460.47,460.44,460.29,460.07,459.84,459.62,459.42,459.23,459.11,459.09,459.23,459.53,459.70,459.81,459.90,459.84,459.78,459.72,459.58,459.25,458.85,458.31,457.69,457.03,456.38,455.82,455.36,455.00,454.79,454.56,454.31,453.96,453.38,452.90,452.42,451.74,450.89,450.49,450.45,450.51
575.41,569.92,565.14,561.01,557.14,553.32,549.33,544.85,540.88,537.20,533.66,530.26,528.03,526.00,523.99,522.26,521.47,521.06,520.65,520.08,519.42,518.54,517.73,517.00,516.17,515.43,514.39,513.28,512.30,511.49,510.77,510.11,509.48,508.86,508.24,507.62,506.98,506.27,505.43,504.36,503.24,502.32,501.97,501.74,501.31,500.42,498.40,494.29,493.11,493.75,494.52,495.26,495.76,495.70,495.10,494.55,494.02,493.76,493.71,493.71,493.76,493.51,492.98,492.24,491.59,491.16,491.05,491.05,490.70,490.42,490.18,490.00,489.91,489.82,489.78,489.70,489.52,489.34,489.18,489.06,488.94,488.66,488.10,487.53,486.94,486.24,485.33,484.18,482.96,481.74,480.57,479.35,478.17,478.01,479.62,480.79,481.44,481.78,481.92,482.00,482.08,482.16,482.29,482.53,482.88,483.28,483.69,483.96,483.60,483.43,483.26,483.01,482.64,482.33,481.98,481.65,481.40,481.09,480.72,480.38,480.06,479.76,479.50,479.27,479.04,478.79,478.48,478.08,477.62,477.18,476.78,476.40,476.01,475.63,475.24,474.85,474.45,473.97,473.33,472.59,471.76,470.95,470.19,469.48,468.72,467.97,467.35,467.07,467.01,466.96,466.90,466.90,466.89,466.88,466.80,466.57,466.05,465.38,464.72,464.11,463.49,462.87,462.24,461.64,461.09,460.71,460.43,460.00,459.65,459.90,460.64,461.43,462.17,462.88,463.63,463.68,463.45,463.19,463.04,462.99,462.89,462.75,462.60,462.44,462.29,462.10,461.87,461.64,461.41,461.17,460.91,460.59,460.27,459.92,459.71,459.82,460.23,460.73,460.95,460.85,460.65,460.60,460.60,460.64,460.87,461.42,461.87,462.03,461.88,461.73,461.59,461.47,461.41,461.42,461.48,461.50,461.45,461.30,461.13,460.81,460.50,460.27,460.11,460.01,459.93,459.92,460.08,460.32,460.50,460.62,460.68,460.62,460.59,460.54,460.32,459.71,459.10,458.44,457.79,457.17,456.55,456.20,456.05,455.93,455.65,455.45,455.26,454.97,454.43,453.94,453.42,452.76,452.05,451.78,451.73,451.69
579.63,572.97,567.38,562.90,558.85,555.06,551.39,547.26,542.98,538.72,534.52,530.57,528.29,526.41,524.81,523.87,523.30,522.93,522.43,521.66,520.74,519.65,518.74,517.99,517.22,516.30,515.30,514.31,513.43,512.64,511.77,510.89,510.04,509.28,508.63,508.02,507.39,506.74,506.00,505.03,504.00,503.17,502.90,502.42,501.70,500.75,499.27,496.00,494.55,494.63,495.40,496.14,496.44,496.23,495.63,495.10,494.72,494.56,494.54,494.49,494.46,494.11,493.52,492.86,492.46,492.39,492.54,492.64,492.32,492.05,491.78,491.50,491.24,491.10,490.99,490.77,490.40,490.01,489.77,489.64,489.55,489.36,488.85,488.27,487.56,486.63,485.47,484.16,482.86,481.59,480.39,479.24,478.63,478.92,480.30,481.37,482.16,482.62,482.76,482.83,482.87,482.92,483.02,483.17,483.44,483.82,484.25,484.56,484.38,484.16,483.91,483.61,483.28,483.01,482.70,482.40,482.16,481.86,481.49,481.12,480.75,480.35,480.04,479.79,479.56,479.32,479.07,478.70,478.29,477.88,477.49,477.11,476.72,476.32,475.90,475.54,475.01,474.35,473.62,472.86,472.06,471.25,470.45,469.70,468.93,468.30,467.90,467.86,467.90,467.83,467.75,467.74,467.69,467.56,467.41,467.21,466.85,466.21,465.57,464.94,464.33,463.71,463.10,462.47,461.87,461.34,460.88,460.45,460.16,460.38,461.05,461.88,462.71,463.45,464.21,464.26,464.06,463.83,463.73,463.63,463.49,463.34,463.18,463.03,462.88,462.69,462.45,462.22,461.99,461.76,461.51,461.20,460.89,460.60,460.47,460.65,460.96,461.44,461.68,461.56,461.29,461.16,461.12,461.17,461.39,462.00,462.58,462.86,462.79,462.64,462.57,462.50,462.44,462.45,462.52,462.54,462.45,462.20,461.99,461.61,461.22,460.92,460.72,460.62,460.57,460.60,460.76,460.99,461.20,461.35,461.41,461.38,461.34,461.22,460.87,460.02,459.28,458.57,457.95,457.47,457.21,457.09,457.00,456.85,456.58,456.62,456.52,456.16,455.58,455.01,454.42,453.87,453.44,453.24,453.16,453.04
581.62,574.40,568.40,563.73,559.68,556.01,552.63,548.92,544.56,539.98,535.42,531.21,528.79,527.20,526.16,525.72,525.24,524.81,524.20,523.25,522.12,520.93,519.93,519.10,518.26,517.24,516.27,515.37,514.52,513.67,512.67,511.61,510.57,509.64,508.99,508.37,507.77,507.16,506.50,505.66,504.77,504.00,503.56,502.81,501.88,500.88,499.71,497.27,495.75,495.44,496.22,496.98,497.11,496.77,496.18,495.68,495.44,495.37,495.33,495.25,495.09,494.65,494.14,493.73,493.62,493.77,494.04,494.24,494.03,493.80,493.50,493.14,492.76,492.54,492.38,492.07,491.61,491.13,490.83,490.66,490.55,490.30,489.60,488.85,487.97,486.83,485.53,484.18,482.84,481.54,480.30,479.27,479.11,479.70,480.82,481.86,482.79,483.38,483.57,483.65,483.67,483.71,483.79,483.88,484.02,484.38,484.81,485.14,485.13,484.88,484.58,484.29,483.99,483.75,483.46,483.19,482.94,482.64,482.27,481.88,481.48,481.00,480.65,480.36,480.11,479.88,479.64,479.32,478.95,478.57,478.20,477.86,477.50,477.09,476.60,476.15,475.47,474.66,473.87,473.09,472.29,471.49,470.68,469.93,469.22,468.78,468.64,468.72,468.77,468.69,468.57,468.52,468.39,468.20,468.02,467.86,467.62,467.03,466.41,465.79,465.18,464.56,463.94,463.32,462.69,462.06,461.44,460.93,460.68,460.97,461.61,462.41,463.24,464.01,464.76,464.84,464.67,464.48,464.38,464.23,464.07,463.92,463.77,463.62,463.46,463.27,463.04,462.81,462.57,462.35,462.10,461.81,461.50,461.26,461.23,461.49,461.74,462.18,462.39,462.26,461.97,461.75,461.64,461.67,461.92,462.55,463.21,463.62,463.70,463.60,463.58,463.54,463.48,463.49,463.53,463.52,463.38,463.08,462.81,462.38,461.93,461.56,461.31,461.20,461.18,461.26,461.44,461.67,461.90,462.06,462.13,462.13,462.09,461.84,461.27,460.29,459.49,458.84,458.35,458.06,458.07,458.08,457.98,457.76,457.63,457.85,457.79,457.39,456.77,456.11,455.47,454.94,454.59,454.45,454.36,454.20
580.84,573.88,568.03,563.34,559.47,556.06,552.90,549.59,545.35,540.79,536.26,532.22,529.65,528.53,528.14,527.72,527.19,526.61,525.84,524.79,523.53,522.40,521.37,520.35,519.30,518.26,517.30,516.39,515.51,514.53,513.41,512.24,511.04,509.94,509.29,508.70,508.10,507.54,506.93,506.24,505.51,504.75,503.91,502.96,501.96,500.96,499.85,498.00,496.63,496.24,497.00,497.76,497.77,497.36,496.77,496.33,496.18,496.13,496.11,496.00,495.68,495.20,494.87,494.87,495.05,495.22,495.50,495.78,495.74,495.54,495.21,494.80,494.38,494.06,493.87,493.57,493.12,492.73,492.41,492.20,491.98,491.47,490.31,489.25,488.14,486.85,485.54,484.22,482.90,481.59,480.35,479.49,479.60,480.31,481.28,482.33,483.34,484.03,484.34,484.43,484.44,484.49,484.56,484.63,484.66,484.94,485.34,485.74,485.82,485.60,485.33,485.07,484.77,484.52,484.24,483.96,483.71,483.42,483.05,482.66,482.24,481.72,481.31,480.97,480.70,480.46,480.23,479.94,479.60,479.24,478.92,478.66,478.33,477.89,477.33,476.63,475.78,474.90,474.06,473.28,472.46,471.64,470.88,470.20,469.63,469.44,469.53,469.60,469.62,469.51,469.36,469.21,469.00,468.83,468.67,468.51,468.32,467.84,467.25,466.63,466.01,465.39,464.78,464.16,463.52,462.82,462.09,461.46,461.19,461.66,462.32,463.03,463.77,464.54,465.29,465.40,465.28,465.12,464.98,464.82,464.67,464.51,464.36,464.20,464.04,463.86,463.62,463.39,463.16,462.93,462.69,462.45,462.15,461.94,461.96,462.26,462.57,462.94,463.11,462.98,462.68,462.38,462.18,462.15,462.44,463.08,463.77,464.32,464.61,464.62,464.62,464.58,464.52,464.52,464.53,464.43,464.22,463.91,463.60,463.13,462.63,462.21,461.91,461.79,461.80,461.92,462.14,462.38,462.61,462.78,462.85,462.85,462.82,462.38,461.54,460.58,459.79,459.29,459.03,458.96,459.07,459.11,458.95,458.71,458.82,459.09,459.02,458.61,457.97,457.23,456.57,455.96,455.46,455.32,455.24,455.07
578.59,571.83,566.27,561.65,558.00,554.78,551.63,548.42,544.61,540.62,536.66,532.92,531.14,530.48,530.17,529.67,529.05,528.33,527.42,526.31,525.15,524.09,522.97,521.76,520.50,519.34,518.28,517.29,516.32,515.19,513.96,512.72,511.48,510.27,509.57,509.00,508.42,507.83,507.26,506.67,505.97,505.11,504.14,503.14,502.14,501.13,500.08,498.64,497.53,497.19,497.85,498.59,498.42,497.90,497.38,497.02,496.89,496.86,496.84,496.71,496.32,495.91,495.79,496.09,496.45,496.69,496.99,497.31,497.42,497.24,496.88,496.44,495.99,495.63,495.38,495.06,494.63,494.33,494.03,493.78,493.38,492.39,490.89,489.55,488.26,486.91,485.60,484.28,482.97,481.68,480.53,480.00,480.35,481.15,482.04,483.02,483.99,484.72,485.12,485.21,485.22,485.26,485.33,485.36,485.36,485.53,485.87,486.28,486.50,486.35,486.10,485.85,485.54,485.26,485.00,484.74,484.50,484.19,483.83,483.40,482.91,482.38,481.93,481.59,481.32,481.05,480.81,480.56,480.30,480.05,479.79,479.48,479.05,478.49,477.80,476.96,476.05,475.14,474.26,473.43,472.62,471.83,471.10,470.55,470.24,470.15,470.24,470.34,470.32,470.16,469.98,469.81,469.59,469.41,469.28,469.17,468.99,468.63,468.10,467.47,466.86,466.24,465.63,464.97,464.25,463.51,462.74,462.02,461.69,462.34,463.03,463.73,464.44,465.16,465.88,466.02,465.92,465.77,465.62,465.46,465.31,465.15,465.00,464.84,464.65,464.44,464.21,463.97,463.75,463.51,463.28,463.04,462.74,462.63,462.73,463.05,463.36,463.69,463.82,463.69,463.39,463.08,462.81,462.71,463.00,463.65,464.38,465.04,465.52,465.64,465.66,465.62,465.56,465.56,465.56,465.34,465.03,464.74,464.35,463.87,463.40,462.94,462.56,462.39,462.44,462.62,462.81,463.03,463.27,463.47,463.61,463.61,463.35,462.71,461.84,461.04,460.38,459.99,459.81,459.81,459.95,460.01,459.99,459.95,460.14,460.39,460.27,459.75,459.00,458.27,457.59,456.92,456.33,456.00,455.84,455.63
575.27,568.79,563.53,559.32,555.94,552.90,549.87,546.67,543.22,539.83,536.63,533.82,532.86,532.48,532.12,531.54,530.83,529.98,529.00,527.90,526.84,525.76,524.55,523.19,521.77,520.44,519.20,518.04,516.91,515.67,514.38,513.09,511.85,510.69,509.99,509.40,508.81,508.22,507.66,507.03,506.25,505.30,504.35,503.39,502.40,501.40,500.36,499.19,498.42,498.26,498.77,499.33,499.04,498.49,498.01,497.74,497.63,497.59,497.57,497.43,497.01,496.71,496.75,497.19,497.68,498.05,498.44,498.81,498.93,498.81,498.48,498.06,497.63,497.22,496.92,496.58,496.19,495.94,495.65,495.28,494.52,492.95,491.22,489.72,488.35,487.00,485.68,484.37,483.09,481.88,480.89,480.74,481.30,482.14,482.98,483.90,484.83,485.54,485.91,485.97,485.99,486.03,486.08,486.09,486.08,486.15,486.40,486.83,487.14,487.08,486.87,486.61,486.32,486.03,485.76,485.52,485.27,484.95,484.59,484.13,483.59,483.05,482.55,482.20,481.94,481.66,481.42,481.19,480.99,480.82,480.59,480.19,479.65,478.97,478.15,477.25,476.32,475.38,474.45,473.59,472.80,472.03,471.36,470.99,470.86,470.84,470.88,471.00,470.93,470.75,470.56,470.38,470.17,470.01,469.90,469.79,469.63,469.38,468.92,468.33,467.70,467.04,466.39,465.67,464.88,464.07,463.27,462.57,462.31,463.07,463.77,464.47,465.17,465.85,466.50,466.63,466.54,466.39,466.24,466.09,465.93,465.77,465.62,465.46,465.25,465.02,464.79,464.56,464.33,464.10,463.87,463.63,463.34,463.34,463.54,463.85,464.14,464.44,464.56,464.44,464.13,463.82,463.51,463.35,463.58,464.25,464.99,465.73,466.36,466.60,466.68,466.66,466.60,466.59,466.53,466.21,465.83,465.54,465.10,464.64,464.17,463.69,463.25,463.02,463.09,463.31,463.49,463.71,463.93,464.15,464.33,464.30,463.84,463.12,462.31,461.67,461.11,460.77,460.63,460.67,460.80,460.90,460.98,461.08,461.31,461.49,461.22,460.58,459.77,459.07,458.41,457.75,457.12,456.63,456.39,456.17
570.79,564.73,559.81,556.44,553.40,550.56,547.88,544.67,541.41,538.48,536.22,535.21,534.73,534.37,533.92,533.28,532.47,531.52,530.55,529.58,528.56,527.33,525.99,524.56,523.04,521.52,520.02,518.59,517.25,515.94,514.63,513.33,512.12,511.24,510.63,510.00,509.36,508.78,508.17,507.32,506.36,505.40,504.58,503.72,502.79,501.77,500.70,499.61,499.26,499.43,499.77,499.89,499.60,499.14,498.69,498.50,498.41,498.38,498.33,498.14,497.73,497.57,497.68,498.06,498.64,499.21,499.78,500.21,500.19,500.15,499.97,499.67,499.27,498.83,498.45,498.10,497.80,497.56,497.26,496.59,495.25,493.00,491.20,489.71,488.38,487.11,485.81,484.51,483.31,482.25,481.49,481.75,482.46,483.29,484.10,485.01,485.93,486.55,486.74,486.71,486.75,486.78,486.81,486.86,486.80,486.80,486.97,487.36,487.72,487.79,487.62,487.34,487.10,486.86,486.58,486.30,486.05,485.69,485.30,484.84,484.30,483.76,483.23,482.83,482.54,482.30,482.07,481.84,481.64,481.46,481.22,480.70,480.06,479.33,478.43,477.50,476.57,475.62,474.65,473.78,473.00,472.26,471.68,471.53,471.45,471.45,471.52,471.58,471.47,471.31,471.12,470.91,470.74,470.64,470.52,470.38,470.22,470.05,469.68,469.16,468.51,467.77,467.02,466.22,465.37,464.46,463.62,463.08,463.08,463.84,464.55,465.25,465.95,466.62,467.17,467.24,467.13,466.98,466.82,466.67,466.51,466.36,466.20,466.05,465.84,465.61,465.38,465.14,464.91,464.68,464.45,464.22,463.98,464.09,464.38,464.68,464.93,465.22,465.34,465.21,464.91,464.60,464.29,464.06,464.13,464.86,465.61,466.34,467.03,467.47,467.67,467.69,467.64,467.60,467.37,467.02,466.65,466.33,465.88,465.42,464.92,464.41,463.95,463.69,463.75,463.98,464.19,464.43,464.61,464.80,464.98,464.90,464.36,463.69,463.06,462.50,461.95,461.62,461.49,461.56,461.65,461.78,461.86,461.94,462.20,462.21,461.72,460.92,460.16,459.51,458.93,458.37,457.80,457.23,456.99,456.79
566.46,561.43,557.47,554.30,551.33,548.56,546.03,543.39,540.85,538.87,537.66,537.11,536.66,536.20,535.66,534.92,534.02,533.00,532.00,531.06,530.04,528.70,527.16,525.55,523.91,522.21,520.53,518.96,517.57,516.17,514.84,513.61,512.58,511.93,511.41,510.82,510.09,509.23,508.43,507.49,506.48,505.51,504.69,503.88,503.03,502.12,501.09,500.16,499.98,500.13,500.20,500.17,500.00,499.73,499.44,499.28,499.19,499.13,499.04,498.84,498.55,498.50,498.63,498.95,499.51,500.05,500.56,500.95,500.99,500.96,500.88,500.71,500.40,500.06,499.72,499.44,499.23,499.06,498.75,497.77,495.93,493.21,491.04,489.50,488.25,487.05,485.83,484.73,483.73,482.80,482.11,482.72,483.63,484.52,485.35,486.19,487.02,487.52,487.58,487.48,487.49,487.50,487.51,487.53,487.47,487.45,487.59,487.93,488.26,488.44,488.37,488.11,487.88,487.64,487.39,487.12,486.83,486.45,486.00,485.50,484.96,484.42,483.88,483.47,483.18,482.95,482.72,482.49,482.29,482.07,481.61,480.95,480.30,479.61,478.69,477.76,476.81,475.84,474.89,473.99,473.19,472.56,472.21,472.15,472.08,472.07,472.12,472.16,472.04,471.86,471.66,471.48,471.33,471.23,471.13,471.01,470.86,470.71,470.34,469.79,469.14,468.31,467.45,466.58,465.68,464.75,463.85,463.53,463.81,464.58,465.32,466.03,466.74,467.41,467.80,467.84,467.71,467.56,467.40,467.25,467.10,466.94,466.79,466.63,466.43,466.19,465.96,465.73,465.50,465.26,465.04,464.86,464.71,464.87,465.18,465.48,465.75,466.06,466.15,465.99,465.69,465.42,465.05,464.66,464.54,465.37,466.20,466.98,467.71,468.26,468.56,468.67,468.66,468.55,468.23,467.86,467.46,467.06,466.61,466.14,465.66,465.15,464.63,464.42,464.52,464.77,464.96,465.19,465.37,465.56,465.72,465.60,465.10,464.48,463.88,463.34,462.76,462.43,462.34,462.43,462.54,462.65,462.73,462.82,463.04,462.78,462.15,461.36,460.64,459.94,459.34,458.81,458.28,457.79,457.67,457.54
563.29,559.30,556.22,553.09,550.24,547.59,545.13,543.04,541.19,540.04,539.54,539.09,538.56,538.00,537.36,536.52,535.52,534.45,533.38,532.32,531.16,529.67,527.97,526.18,524.43,522.59,520.78,519.15,517.75,516.30,515.05,514.00,513.20,512.72,512.26,511.66,510.79,509.58,508.61,507.62,506.61,505.64,504.78,503.98,503.20,502.38,501.44,500.74,500.64,500.70,500.58,500.50,500.41,500.31,500.15,500.01,499.93,499.84,499.72,499.53,499.39,499.40,499.53,499.80,500.27,500.73,501.14,501.49,501.66,501.64,501.62,501.55,501.34,501.12,500.81,500.54,500.36,500.23,499.92,498.89,496.88,493.73,491.05,489.39,488.20,487.12,486.00,485.06,484.20,483.37,482.73,483.57,484.69,485.73,486.60,487.37,488.08,488.46,488.43,488.30,488.24,488.23,488.23,488.19,488.13,488.11,488.21,488.50,488.82,489.08,489.09,488.88,488.65,488.42,488.19,487.93,487.61,487.21,486.71,486.17,485.63,485.08,484.52,484.10,483.82,483.60,483.37,483.14,482.91,482.60,481.92,481.15,480.49,479.83,478.93,478.00,477.04,476.07,475.14,474.21,473.45,472.96,472.81,472.79,472.73,472.70,472.72,472.75,472.61,472.41,472.21,472.06,471.91,471.81,471.74,471.64,471.48,471.28,470.85,470.28,469.63,468.74,467.81,466.88,465.94,465.02,464.14,464.01,464.56,465.31,466.08,466.82,467.54,468.19,468.41,468.41,468.31,468.16,468.01,467.84,467.68,467.53,467.38,467.22,467.01,466.77,466.54,466.31,466.09,465.88,465.68,465.53,465.46,465.66,465.99,466.28,466.59,466.89,466.97,466.79,466.49,466.24,465.79,465.23,464.91,465.80,466.76,467.62,468.37,468.98,469.32,469.48,469.50,469.36,469.07,468.69,468.27,467.80,467.34,466.87,466.38,465.86,465.28,465.12,465.30,465.59,465.77,465.99,466.17,466.34,466.48,466.34,465.89,465.31,464.72,464.16,463.56,463.25,463.19,463.29,463.43,463.53,463.61,463.71,463.82,463.32,462.60,461.84,461.13,460.38,459.75,459.20,458.69,458.35,458.36,458.29
562.69,559.38,556.57,553.58,551.10,548.76,546.31,544.32,542.88,541.91,541.31,540.90,540.38,539.76,539.01,538.08,536.97,535.87,534.62,533.15,531.56,529.90,528.10,526.22,524.38,522.47,520.65,519.01,517.63,516.24,515.30,514.63,514.10,513.63,513.16,512.41,511.28,509.80,508.75,507.75,506.74,505.77,504.91,504.07,503.27,502.47,501.66,501.31,501.26,501.25,501.15,501.08,501.00,500.89,500.75,500.66,500.58,500.46,500.33,500.24,500.21,500.21,500.28,500.49,500.82,501.21,501.60,501.98,502.29,502.33,502.33,502.30,502.18,502.02,501.64,501.25,500.93,500.71,500.46,500.00,498.50,494.87,491.52,489.58,488.46,487.64,486.63,485.59,484.68,483.91,483.37,484.17,485.51,486.82,487.81,488.56,489.06,489.30,489.28,489.19,489.01,488.97,488.98,488.86,488.83,488.79,488.82,489.03,489.39,489.71,489.80,489.67,489.44,489.20,488.97,488.71,488.38,487.94,487.43,486.88,486.34,485.79,485.15,484.69,484.42,484.24,484.02,483.79,483.48,482.99,482.20,481.42,480.69,479.98,479.11,478.20,477.26,476.33,475.40,474.47,473.86,473.53,473.45,473.44,473.38,473.34,473.35,473.33,473.14,472.96,472.80,472.64,472.50,472.40,472.32,472.23,472.05,471.68,471.14,470.56,469.95,469.06,468.14,467.18,466.20,465.29,464.57,464.68,465.39,466.10,466.87,467.63,468.34,468.88,468.97,468.97,468.92,468.81,468.65,468.45,468.26,468.11,467.96,467.81,467.59,467.36,467.13,466.90,466.72,466.56,466.39,466.25,466.22,466.51,466.88,467.13,467.44,467.69,467.77,467.63,467.33,467.03,466.51,465.80,465.26,466.13,467.23,468.22,469.01,469.62,469.84,469.93,469.98,469.95,469.84,469.50,469.04,468.58,468.12,467.60,467.04,466.44,465.87,465.75,466.01,466.38,466.61,466.84,467.01,467.14,467.21,467.11,466.67,466.12,465.55,464.95,464.39,464.10,464.05,464.19,464.28,464.41,464.52,464.58,464.50,463.88,463.12,462.35,461.60,460.89,460.20,459.58,459.11,458.91,458.98,459.00
562.11,559.22,556.77,554.23,551.99,549.82,547.62,545.94,544.71,543.77,543.10,542.62,542.00,541.25,540.35,539.23,537.87,536.29,534.60,532.88,531.21,529.49,527.69,525.80,523.84,521.90,520.20,518.76,517.60,516.65,515.99,515.47,514.95,514.26,513.47,512.48,511.21,509.72,508.71,507.78,506.84,505.89,505.00,504.14,503.37,502.67,502.00,501.83,501.80,501.78,501.74,501.66,501.59,501.47,501.34,501.25,501.17,501.06,500.93,500.90,500.89,500.89,500.94,501.10,501.44,501.81,502.18,502.53,502.86,503.00,503.05,503.03,502.94,502.63,502.19,501.75,501.33,500.94,500.56,500.11,498.94,496.13,492.90,490.72,489.26,488.23,487.18,486.11,485.15,484.40,484.14,485.28,486.71,488.03,489.08,489.74,490.13,490.29,490.26,490.11,489.89,489.79,489.75,489.61,489.56,489.52,489.53,489.65,489.98,490.36,490.64,490.75,490.59,490.30,489.95,489.55,489.12,488.66,488.11,487.48,486.79,486.15,485.68,485.34,485.08,484.85,484.66,484.38,483.95,483.29,482.46,481.68,480.92,480.16,479.30,478.36,477.39,476.44,475.53,474.70,474.35,474.21,474.14,474.10,474.03,473.98,473.94,473.88,473.70,473.54,473.38,473.24,473.12,473.00,472.90,472.78,472.50,471.97,471.34,470.69,470.04,469.18,468.26,467.31,466.31,465.42,465.12,465.48,466.24,466.98,467.74,468.49,469.12,469.51,469.55,469.51,469.46,469.37,469.25,469.07,468.90,468.75,468.59,468.40,468.18,467.96,467.77,467.58,467.41,467.26,467.08,466.89,466.96,467.30,467.69,467.97,468.27,468.47,468.53,468.43,468.16,467.80,467.18,466.38,465.77,466.53,467.61,468.68,469.56,469.93,470.10,470.17,470.20,470.19,470.13,469.92,469.63,469.29,468.81,468.25,467.63,466.98,466.41,466.37,466.70,467.14,467.44,467.64,467.81,467.91,467.92,467.80,467.41,466.90,466.35,465.78,465.23,464.97,464.94,465.06,465.17,465.29,465.40,465.43,465.14,464.49,463.76,463.03,462.30,461.60,460.90,460.25,459.75,459.54,459.66,459.78
561.81,559.20,557.04,554.95,552.92,550.91,549.02,547.69,546.58,545.65,544.89,544.22,543.38,542.41,541.30,539.97,538.33,536.25,534.13,532.22,530.54,528.80,527.02,525.18,523.17,521.31,519.83,518.67,517.82,517.31,516.79,516.23,515.56,514.57,513.42,512.20,510.90,509.50,508.56,507.72,506.87,506.00,505.12,504.30,503.59,502.97,502.42,502.34,502.32,502.32,502.31,502.24,502.17,502.06,501.92,501.84,501.76,501.64,501.55,501.54,501.53,501.53,501.56,501.71,502.06,502.45,502.79,503.10,503.39,503.63,503.70,503.66,503.49,502.99,502.50,502.02,501.54,501.01,500.48,499.81,498.78,496.95,494.24,491.96,490.17,488.80,487.71,486.63,485.62,484.92,485.11,486.61,488.08,489.28,490.29,490.89,491.22,491.33,491.27,491.06,490.84,490.71,490.61,490.47,490.37,490.33,490.32,490.38,490.65,491.06,491.51,491.86,491.81,491.44,490.92,490.36,489.81,489.28,488.67,487.94,487.13,486.49,486.22,486.01,485.76,485.48,485.28,484.91,484.33,483.55,482.71,481.92,481.14,480.34,479.48,478.49,477.48,476.50,475.62,475.01,474.92,474.92,474.85,474.77,474.69,474.61,474.52,474.42,474.28,474.13,473.99,473.84,473.75,473.61,473.48,473.30,472.85,472.19,471.50,470.80,470.08,469.25,468.36,467.41,466.44,465.59,465.68,466.26,467.05,467.82,468.60,469.28,469.77,470.00,470.02,469.96,469.89,469.82,469.75,469.63,469.50,469.36,469.21,469.00,468.78,468.59,468.44,468.28,468.13,467.96,467.76,467.53,467.69,468.08,468.50,468.81,469.08,469.20,469.24,469.18,468.97,468.54,467.83,466.97,466.32,466.99,468.02,469.09,469.96,470.12,470.26,470.34,470.35,470.34,470.27,470.19,470.08,469.88,469.42,468.84,468.18,467.51,466.94,466.98,467.38,467.88,468.26,468.45,468.58,468.65,468.62,468.48,468.15,467.68,467.15,466.62,466.05,465.81,465.82,465.92,466.07,466.17,466.25,466.24,465.80,465.15,464.47,463.78,463.09,462.39,461.69,461.04,460.50,460.30,460.45,460.70
562.44,559.89,557.70,555.70,553.89,552.20,550.64,549.53,548.50,547.57,546.66,545.50,544.21,542.79,541.33,539.83,537.91,535.74,533.52,531.43,529.66,527.89,526.12,524.34,522.60,521.11,520.02,519.24,518.68,518.21,517.46,516.51,515.40,514.16,512.84,511.56,510.35,509.20,508.26,507.44,506.72,506.09,505.41,504.74,504.10,503.50,503.00,502.91,502.87,502.84,502.84,502.82,502.75,502.64,502.50,502.42,502.35,502.26,502.20,502.19,502.13,502.12,502.17,502.35,502.66,503.03,503.38,503.68,503.92,504.15,504.20,503.96,503.41,502.87,502.34,501.81,501.30,500.81,500.28,499.26,497.86,496.30,494.49,492.59,490.80,489.28,488.22,487.15,486.12,485.56,486.47,488.15,489.53,490.55,491.31,491.92,492.29,492.39,492.26,492.09,491.92,491.80,491.72,491.62,491.43,491.33,491.31,491.39,491.52,491.86,492.29,492.70,492.86,492.36,491.67,490.99,490.36,489.61,488.86,488.10,487.41,487.11,486.89,486.66,486.42,486.17,485.90,485.29,484.53,483.74,482.91,482.12,481.31,480.47,479.60,478.58,477.54,476.55,475.70,475.58,475.63,475.64,475.56,475.48,475.41,475.29,475.16,475.01,474.87,474.75,474.63,474.48,474.34,474.19,474.01,473.72,473.08,472.34,471.63,470.91,470.15,469.37,468.52,467.65,466.77,465.98,466.19,466.88,467.70,468.48,469.30,469.80,470.04,470.15,470.16,470.10,470.05,470.04,470.01,469.99,469.92,469.85,469.80,469.64,469.47,469.31,469.15,469.00,468.84,468.65,468.43,468.24,468.46,468.86,469.29,469.62,469.77,469.86,469.87,469.81,469.72,469.22,468.48,467.57,466.81,467.55,468.60,469.50,470.07,470.24,470.39,470.49,470.54,470.53,470.46,470.39,470.28,470.11,469.88,469.36,468.73,468.09,467.48,467.58,468.05,468.63,469.09,469.29,469.36,469.35,469.28,469.18,468.90,468.46,467.95,467.50,466.76,466.56,466.69,466.82,466.98,467.07,467.07,466.91,466.50,465.91,465.28,464.63,463.93,463.24,462.54,461.88,461.37,461.36,461.59,461.92
563.23,560.81,558.71,556.93,555.30,553.75,552.34,551.19,549.90,548.56,547.12,545.33,543.75,542.22,540.72,539.17,537.18,535.07,532.93,530.90,529.27,527.69,526.12,524.55,523.05,521.71,520.87,520.19,519.38,518.58,517.57,516.42,515.17,513.85,512.47,511.24,510.12,509.10,508.39,507.75,507.16,506.60,505.95,505.30,504.65,504.03,503.57,503.47,503.42,503.39,503.39,503.36,503.32,503.24,503.13,503.05,502.98,502.90,502.84,502.83,502.77,502.75,502.79,502.96,503.29,503.63,503.95,504.21,504.44,504.71,504.62,504.19,503.50,502.89,502.28,501.69,501.12,500.57,499.89,498.69,497.17,495.70,494.19,492.49,490.81,489.38,488.37,487.34,486.61,486.57,487.90,489.38,490.55,491.45,492.21,492.90,493.33,493.44,493.29,493.17,493.05,492.93,492.83,492.73,492.46,492.31,492.29,492.38,492.46,492.69,493.07,493.47,493.56,492.94,492.15,491.38,490.64,489.83,489.05,488.40,487.98,487.80,487.59,487.34,487.07,486.78,486.33,485.59,484.76,483.94,483.10,482.31,481.50,480.64,479.73,478.66,477.62,476.71,476.14,476.24,476.34,476.35,476.28,476.20,476.09,475.93,475.75,475.60,475.45,475.35,475.24,475.09,474.93,474.77,474.48,473.97,473.25,472.48,471.75,471.04,470.30,469.50,468.69,467.87,467.08,466.42,466.66,467.34,468.17,468.94,469.66,470.02,470.19,470.28,470.29,470.23,470.19,470.19,470.19,470.19,470.14,470.10,470.11,470.01,469.89,469.78,469.70,469.61,469.50,469.37,469.24,469.11,469.26,469.53,469.80,470.03,470.15,470.21,470.21,470.16,470.06,469.63,468.84,467.94,467.36,468.10,469.09,469.82,470.16,470.36,470.52,470.63,470.69,470.68,470.65,470.56,470.43,470.28,470.12,469.66,469.06,468.46,468.09,468.30,468.78,469.32,469.72,469.91,469.93,469.88,469.81,469.75,469.58,469.25,468.79,468.25,467.53,467.40,467.57,467.73,467.88,467.93,467.82,467.57,467.21,466.64,466.02,465.39,464.73,464.07,463.41,462.76,462.30,462.47,462.78,463.15
564.15,561.91,559.96,558.36,556.81,555.26,553.78,552.42,550.73,548.87,546.82,544.46,542.67,541.17,539.77,538.23,536.30,534.31,532.36,530.56,529.19,527.91,526.63,525.32,524.00,522.71,521.93,521.14,519.89,518.64,517.41,516.17,514.94,513.69,512.39,511.28,510.26,509.29,508.84,508.38,507.87,507.29,506.61,505.91,505.23,504.60,504.17,504.04,504.01,504.01,503.99,503.91,503.89,503.85,503.77,503.70,503.63,503.55,503.49,503.48,503.41,503.39,503.42,503.55,503.90,504.23,504.50,504.73,504.98,505.25,504.98,504.38,503.69,502.99,502.31,501.64,501.02,500.38,499.48,498.16,496.62,495.12,493.65,492.03,490.51,489.30,488.35,487.46,487.16,487.72,489.23,490.38,491.32,492.18,493.02,493.82,494.34,494.49,494.36,494.27,494.19,494.06,493.93,493.79,493.44,493.28,493.27,493.35,493.43,493.56,493.86,494.19,494.08,493.36,492.52,491.69,490.88,490.11,489.37,488.88,488.68,488.50,488.28,488.00,487.69,487.32,486.66,485.84,484.99,484.14,483.31,482.51,481.68,480.80,479.85,478.73,477.69,476.96,476.78,476.95,477.06,477.07,476.99,476.88,476.74,476.54,476.34,476.18,476.03,475.92,475.81,475.66,475.51,475.34,474.92,474.23,473.48,472.73,472.02,471.33,470.62,469.80,468.99,468.18,467.41,466.92,467.13,467.75,468.53,469.26,469.82,470.10,470.26,470.40,470.41,470.35,470.33,470.34,470.33,470.32,470.28,470.25,470.31,470.25,470.17,470.13,470.12,470.11,470.04,470.04,470.07,469.98,470.00,470.06,470.15,470.26,470.39,470.43,470.41,470.35,470.19,469.85,469.06,468.21,467.97,468.66,469.52,470.09,470.25,470.47,470.63,470.75,470.82,470.83,470.83,470.73,470.57,470.40,470.24,469.87,469.35,468.86,468.78,469.05,469.49,469.93,470.22,470.39,470.38,470.31,470.24,470.23,470.16,469.98,469.61,468.96,468.33,468.26,468.48,468.63,468.78,468.74,468.54,468.23,467.91,467.35,466.73,466.12,465.50,464.88,464.26,463.68,463.30,463.61,464.00,464.39
565.29,563.40,561.47,559.68,557.99,556.18,554.14,552.31,550.30,548.16,545.90,543.53,541.53,540.01,538.67,537.15,535.31,533.46,531.82,530.50,529.44,528.50,527.46,526.28,524.98,523.82,522.72,521.48,519.98,518.56,517.24,515.98,514.81,513.89,512.96,512.09,511.20,510.25,509.70,509.15,508.56,507.94,507.25,506.56,505.90,505.30,504.88,504.74,504.72,504.69,504.63,504.56,504.54,504.48,504.37,504.34,504.27,504.19,504.14,504.13,504.06,504.04,504.05,504.13,504.44,504.75,505.02,505.26,505.54,505.69,505.28,504.57,503.88,503.19,502.49,501.81,501.13,500.42,499.30,497.83,496.17,494.56,493.06,491.52,490.16,489.16,488.30,487.87,487.99,488.72,490.06,491.04,491.91,492.78,493.69,494.63,495.33,495.62,495.51,495.38,495.29,495.17,494.99,494.73,494.36,494.23,494.25,494.32,494.40,494.45,494.68,494.91,494.52,493.75,492.94,492.17,491.44,490.72,490.18,489.74,489.39,489.17,488.89,488.59,488.25,487.77,486.97,486.07,485.19,484.35,483.55,482.73,481.83,480.86,479.86,478.73,477.81,477.35,477.50,477.73,477.81,477.78,477.68,477.50,477.28,477.09,476.93,476.77,476.62,476.48,476.33,476.19,476.08,475.85,475.39,474.75,474.10,473.44,472.79,472.15,471.49,470.66,469.78,468.82,467.89,467.47,467.75,468.23,468.77,469.40,469.86,470.11,470.28,470.46,470.47,470.46,470.48,470.52,470.52,470.47,470.44,470.45,470.50,470.44,470.41,470.39,470.38,470.33,470.26,470.48,470.76,470.57,470.37,470.31,470.37,470.50,470.60,470.62,470.54,470.37,470.20,469.90,469.22,468.58,468.62,469.26,469.89,470.26,470.38,470.54,470.70,470.85,470.97,471.01,471.02,470.92,470.74,470.53,470.32,470.09,469.86,469.66,469.65,469.78,470.03,470.32,470.56,470.73,470.71,470.64,470.58,470.57,470.51,470.43,470.25,469.77,469.12,469.08,469.34,469.53,469.64,469.47,469.19,468.89,468.56,468.04,467.45,466.83,466.21,465.60,465.02,464.60,464.49,464.84,465.23,465.65
566.12,564.25,562.27,560.38,558.47,556.41,554.11,551.91,549.69,547.42,545.09,542.72,540.57,538.98,537.71,536.41,535.05,533.49,532.04,530.85,529.78,528.92,528.01,526.99,525.84,524.60,523.10,521.44,519.76,518.41,517.36,516.43,515.57,514.76,513.99,513.16,512.24,511.24,510.61,509.96,509.28,508.61,507.94,507.20,506.40,505.73,505.56,505.51,505.51,505.48,505.40,505.33,505.26,505.16,505.03,504.99,504.95,504.88,504.82,504.78,504.71,504.69,504.69,504.74,505.00,505.28,505.55,505.82,506.06,506.04,505.54,504.81,504.11,503.42,502.75,502.06,501.37,500.64,499.57,498.07,496.33,494.58,492.89,491.20,489.87,489.12,488.61,488.58,488.98,489.77,490.88,491.82,492.73,493.65,494.58,495.58,496.38,496.73,496.63,496.49,496.39,496.26,496.02,495.65,495.30,495.19,495.22,495.29,495.34,495.37,495.53,495.60,495.03,494.25,493.48,492.75,492.07,491.46,491.01,490.60,490.17,489.86,489.51,489.16,488.75,488.12,487.25,486.34,485.45,484.58,483.77,482.88,481.93,480.92,479.91,478.86,478.23,478.07,478.31,478.49,478.53,478.45,478.27,478.04,477.84,477.65,477.48,477.35,477.20,477.04,476.89,476.75,476.63,476.46,476.09,475.52,474.90,474.28,473.66,473.02,472.31,471.40,470.33,469.23,468.30,468.03,468.40,468.85,469.25,469.67,469.98,470.18,470.36,470.53,470.57,470.60,470.64,470.68,470.68,470.64,470.62,470.64,470.70,470.64,470.64,470.64,470.61,470.56,470.50,470.92,471.46,471.19,470.80,470.61,470.61,470.72,470.80,470.77,470.63,470.41,470.21,469.95,469.39,468.93,469.10,469.65,470.15,470.48,470.61,470.74,470.84,470.96,471.11,471.20,471.22,471.09,470.90,470.71,470.54,470.42,470.32,470.24,470.27,470.32,470.45,470.67,470.89,471.05,471.04,470.97,470.93,470.90,470.83,470.76,470.63,470.26,469.82,469.81,470.02,470.20,470.23,470.04,469.78,469.50,469.21,468.76,468.20,467.60,467.04,466.46,465.86,465.53,465.66,466.16,466.53,466.91
566.54,564.53,562.49,560.59,558.48,556.21,553.86,551.41,549.07,546.79,544.49,542.17,539.99,538.36,537.17,536.21,535.43,534.20,532.82,531.51,530.25,529.30,528.43,527.55,526.58,525.16,523.31,521.33,519.59,518.48,517.86,517.42,516.93,516.08,515.27,514.35,513.31,512.23,511.53,510.80,510.03,509.29,508.61,507.79,506.81,506.04,506.22,506.32,506.35,506.32,506.25,506.17,506.01,505.85,505.74,505.66,505.64,505.60,505.52,505.44,505.36,505.34,505.34,505.38,505.60,505.83,506.11,506.39,506.57,506.34,505.78,505.08,504.39,503.70,503.05,502.39,501.70,500.98,500.07,498.63,496.81,494.91,492.93,491.06,489.76,489.29,489.25,489.53,490.12,490.93,491.83,492.80,493.77,494.72,495.63,496.62,497.45,497.83,497.74,497.60,497.50,497.32,497.02,496.59,496.25,496.16,496.19,496.25,496.26,496.31,496.37,496.26,495.59,494.83,494.10,493.41,492.76,492.27,491.86,491.43,490.99,490.61,490.17,489.72,489.20,488.41,487.51,486.63,485.77,484.89,484.03,483.04,482.00,480.97,479.98,479.09,478.85,479.00,479.20,479.28,479.25,479.09,478.81,478.57,478.40,478.20,478.02,477.92,477.77,477.62,477.47,477.31,477.17,477.13,476.89,476.41,475.80,475.18,474.56,473.88,473.05,471.98,470.69,469.49,468.67,468.57,469.03,469.50,469.81,469.98,470.15,470.31,470.47,470.62,470.69,470.76,470.80,470.81,470.81,470.81,470.81,470.85,470.90,470.84,470.87,470.88,470.82,470.80,470.75,471.37,472.16,471.82,471.33,470.99,470.86,470.92,470.98,470.88,470.69,470.46,470.23,470.00,469.60,469.29,469.47,469.89,470.35,470.70,470.91,471.01,471.03,471.12,471.26,471.38,471.40,471.26,471.08,470.94,470.86,470.83,470.75,470.66,470.71,470.74,470.83,471.00,471.21,471.37,471.36,471.32,471.30,471.23,471.16,471.04,470.85,470.59,470.45,470.48,470.59,470.70,470.64,470.50,470.30,470.07,469.83,469.48,468.98,468.43,467.94,467.40,466.75,466.45,466.79,467.49,467.88,468.21
566.10,564.06,562.13,560.51,558.38,556.00,553.58,550.99,548.67,546.51,544.45,542.49,540.69,539.30,538.28,537.50,536.54,535.22,533.81,532.47,531.21,530.15,529.20,528.27,527.21,525.79,523.94,522.02,520.48,519.74,519.35,518.99,518.45,517.46,516.51,515.47,514.35,513.25,512.47,511.67,510.87,510.07,509.19,508.21,507.26,506.66,506.94,507.13,507.20,507.17,507.09,507.01,506.67,506.45,506.44,506.37,506.36,506.31,506.22,506.10,506.01,505.99,505.99,506.02,506.19,506.41,506.69,506.98,507.13,506.73,506.10,505.42,504.76,504.08,503.40,502.74,502.07,501.26,500.41,498.91,496.90,494.73,492.61,491.08,490.26,490.18,490.38,490.77,491.44,492.35,493.35,494.26,495.13,495.95,496.74,497.67,498.49,498.89,498.85,498.75,498.63,498.35,497.95,497.55,497.23,497.13,497.14,497.17,497.22,497.21,497.13,496.87,496.22,495.47,494.75,494.09,493.53,493.10,492.67,492.24,491.83,491.44,490.94,490.32,489.56,488.69,487.82,486.96,486.18,485.48,484.58,483.40,482.12,480.93,480.01,479.49,479.52,479.90,480.34,480.32,479.99,479.63,479.38,479.15,478.94,478.75,478.58,478.45,478.30,478.14,477.99,477.85,477.75,477.72,477.57,477.20,476.64,476.03,475.42,474.68,473.64,472.38,471.02,469.85,469.11,469.03,469.51,469.88,470.03,470.14,470.29,470.44,470.60,470.74,470.82,470.90,470.94,470.94,470.94,470.98,471.04,471.08,471.10,471.08,471.10,471.10,471.06,471.01,470.99,471.82,472.85,472.43,471.95,471.49,471.19,471.12,471.13,470.97,470.75,470.52,470.30,470.11,469.87,469.72,469.85,470.18,470.53,470.88,471.18,471.32,471.35,471.40,471.49,471.53,471.54,471.49,471.41,471.32,471.29,471.24,471.16,471.10,471.17,471.23,471.28,471.37,471.54,471.65,471.66,471.64,471.63,471.56,471.52,471.38,471.15,471.07,471.03,471.04,471.11,471.21,471.06,470.89,470.73,470.54,470.31,470.08,469.78,469.38,468.85,468.27,467.61,467.36,467.83,468.62,469.23,469.61
565.67,563.99,562.33,560.87,559.01,556.88,554.54,551.63,549.15,547.10,545.35,543.68,542.14,540.91,539.90,538.94,537.69,536.29,534.86,533.48,532.24,531.11,530.04,528.96,527.72,526.27,524.56,522.84,521.52,521.09,520.85,520.48,519.81,518.70,517.63,516.51,515.36,514.26,513.38,512.51,511.65,510.80,509.83,508.77,507.82,507.29,507.62,507.88,508.00,508.01,507.91,507.71,507.25,507.03,507.12,507.08,507.05,506.99,506.88,506.72,506.65,506.64,506.63,506.64,506.78,507.00,507.27,507.54,507.62,507.09,506.44,505.77,505.13,504.46,503.77,503.09,502.38,501.53,500.62,498.96,496.74,494.42,492.46,491.50,491.25,491.46,491.76,492.17,492.87,493.83,494.89,495.82,496.66,497.43,498.15,498.87,499.51,499.84,499.83,499.77,499.59,499.27,498.86,498.49,498.19,498.09,498.07,498.07,498.07,497.99,497.80,497.46,496.84,496.11,495.41,494.79,494.30,493.90,493.48,493.06,492.68,492.28,491.75,490.99,490.08,489.20,488.41,487.68,487.03,486.44,485.62,484.36,482.97,481.69,480.80,480.32,480.37,480.80,481.37,481.42,480.95,480.47,480.16,479.85,479.54,479.31,479.15,478.98,478.82,478.66,478.51,478.38,478.32,478.31,478.24,478.01,477.45,476.87,476.29,475.53,474.34,472.97,471.58,470.37,469.56,469.42,469.81,470.09,470.19,470.30,470.42,470.57,470.72,470.86,471.06,471.29,471.43,471.49,471.53,471.56,471.59,471.56,471.44,471.33,471.32,471.32,471.29,471.25,471.21,472.24,473.52,473.05,472.57,472.06,471.62,471.33,471.27,471.11,470.90,470.69,470.49,470.31,470.17,470.14,470.26,470.50,470.79,471.12,471.45,471.63,471.69,471.73,471.77,471.80,471.80,471.80,471.79,471.74,471.71,471.64,471.58,471.56,471.63,471.70,471.74,471.78,471.90,471.98,471.98,471.97,471.96,471.91,471.88,471.74,471.57,471.57,471.57,471.57,471.61,471.66,471.48,471.30,471.13,470.97,470.76,470.60,470.38,470.07,469.63,469.12,468.50,468.28,468.76,469.53,470.20,470.62
565.61,564.56,563.23,561.80,560.38,558.80,556.66,553.37,550.59,548.57,547.12,545.61,544.14,542.91,541.73,540.27,538.75,537.31,535.91,534.50,533.23,532.04,530.85,529.59,528.15,526.63,525.10,523.68,522.62,522.41,522.26,521.83,520.99,519.75,518.56,517.41,516.29,515.23,514.23,513.30,512.38,511.46,510.52,509.45,508.46,507.88,508.25,508.57,508.79,508.85,508.70,508.29,507.78,507.61,507.78,507.78,507.73,507.65,507.52,507.32,507.29,507.29,507.25,507.23,507.37,507.58,507.85,508.08,508.02,507.44,506.79,506.14,505.47,504.83,504.15,503.42,502.61,501.72,500.68,498.80,496.37,494.07,492.63,492.38,492.65,493.00,493.32,493.70,494.37,495.33,496.39,497.39,498.27,499.06,499.74,500.13,500.49,500.68,500.67,500.64,500.39,500.08,499.75,499.39,499.13,499.01,498.97,498.93,498.81,498.65,498.42,498.04,497.43,496.75,496.10,495.53,495.08,494.69,494.30,493.91,493.52,493.11,492.53,491.72,490.79,489.98,489.31,488.78,488.26,487.71,487.06,485.85,484.48,483.23,482.32,481.61,481.44,481.73,482.25,482.51,482.11,481.58,481.14,480.69,480.25,479.94,479.73,479.51,479.35,479.19,479.03,478.91,478.89,478.89,478.91,478.82,478.26,477.72,477.21,476.45,475.14,473.74,472.34,471.02,470.01,469.74,469.95,470.18,470.33,470.48,470.61,470.83,471.03,471.23,471.64,472.12,472.43,472.56,472.69,472.68,472.62,472.47,472.13,471.86,471.80,471.74,471.60,471.52,471.46,472.66,474.16,473.66,473.07,472.56,472.05,471.54,471.42,471.29,471.13,470.97,470.81,470.60,470.51,470.55,470.70,470.86,471.12,471.43,471.72,471.95,472.05,472.09,472.12,472.18,472.20,472.20,472.19,472.18,472.12,472.04,472.00,472.01,472.09,472.16,472.19,472.21,472.29,472.36,472.34,472.29,472.29,472.28,472.23,472.15,472.09,472.09,472.09,472.09,472.09,472.08,471.93,471.72,471.52,471.37,471.21,471.05,470.80,470.51,470.25,469.93,469.42,469.21,469.60,470.25,470.84,471.25
567.30,566.32,564.98,563.58,562.33,560.98,559.05,555.94,553.17,550.95,549.19,547.58,546.13,544.66,543.06,541.25,539.41,537.97,536.71,535.43,533.92,532.57,531.33,530.09,528.65,527.08,525.54,524.41,523.98,523.83,523.72,523.13,521.94,520.39,518.99,517.85,516.84,515.87,514.90,513.97,513.04,512.11,511.12,509.94,508.94,508.42,508.84,509.21,509.57,509.69,509.37,508.84,508.37,508.25,508.44,508.49,508.43,508.36,508.21,507.97,507.93,507.90,507.86,507.86,507.96,508.16,508.41,508.58,508.38,507.81,507.15,506.49,505.84,505.18,504.49,503.66,502.66,501.56,500.32,498.33,495.92,493.92,493.53,493.79,494.19,494.57,494.93,495.27,495.89,496.82,497.88,498.86,499.59,500.17,500.66,500.99,501.30,501.47,501.45,501.34,501.07,500.76,500.45,500.17,499.94,499.81,499.73,499.62,499.46,499.27,498.99,498.59,498.06,497.39,496.81,496.32,495.91,495.52,495.13,494.75,494.35,493.91,493.24,492.50,491.76,491.07,490.49,489.99,489.52,489.02,488.48,487.36,486.17,485.12,484.24,483.39,482.96,482.91,483.17,483.58,483.26,482.74,482.29,481.86,481.37,480.81,480.31,480.08,479.92,479.74,479.57,479.48,479.48,479.48,479.52,479.51,479.23,478.81,478.24,477.35,475.96,474.49,472.93,471.52,470.47,470.00,470.07,470.25,470.40,470.60,471.07,471.88,472.70,473.29,473.81,474.27,474.52,474.60,474.75,474.87,474.88,474.71,474.40,474.22,473.87,473.30,472.56,471.96,471.96,473.27,474.76,474.06,472.99,472.31,471.92,471.70,471.66,471.57,471.44,471.29,471.13,470.95,470.94,471.04,471.15,471.31,471.50,471.73,471.99,472.27,472.38,472.45,472.49,472.53,472.62,472.64,472.63,472.58,472.55,472.49,472.44,472.46,472.53,472.62,472.64,472.65,472.69,472.71,472.66,472.62,472.62,472.62,472.59,472.59,472.61,472.61,472.61,472.61,472.59,472.52,472.38,472.17,471.97,471.82,471.66,471.46,471.20,470.91,470.68,470.47,470.21,470.16,470.47,470.95,471.48,471.85
569.43,568.29,566.90,565.51,564.27,562.90,561.01,558.27,555.66,553.32,551.25,549.39,547.75,546.02,544.14,542.16,540.22,538.79,537.59,536.33,534.65,533.12,531.74,530.40,528.99,527.40,526.14,525.47,525.47,525.34,525.10,524.29,522.82,521.05,519.49,518.34,517.43,516.50,515.58,514.60,513.60,512.58,511.50,510.27,509.33,508.93,509.35,509.80,510.28,510.44,510.02,509.43,509.00,508.93,509.13,509.20,509.13,509.02,508.87,508.62,508.57,508.52,508.48,508.48,508.57,508.76,508.95,509.01,508.75,508.17,507.50,506.86,506.24,505.51,504.57,503.50,502.33,501.07,499.74,497.83,495.70,494.25,494.58,495.10,495.57,496.02,496.45,496.82,497.42,498.27,499.19,500.00,500.59,501.03,501.43,501.76,502.08,502.25,502.21,502.03,501.73,501.41,501.11,500.86,500.63,500.50,500.39,500.24,500.09,499.85,499.54,499.16,498.70,498.08,497.56,497.14,496.75,496.37,495.98,495.60,495.20,494.77,494.10,493.43,492.81,492.21,491.67,491.19,490.73,490.27,489.76,488.85,487.93,487.10,486.25,485.33,484.65,484.28,484.32,484.66,484.40,483.94,483.48,483.06,482.51,481.76,481.03,480.69,480.50,480.30,480.13,480.08,480.15,480.21,480.28,480.35,480.29,479.94,479.25,478.19,476.69,475.12,473.45,472.01,470.98,470.20,470.16,470.30,470.50,470.99,472.07,473.43,474.70,475.64,476.24,476.63,476.80,476.83,476.97,477.20,477.29,477.22,477.02,476.92,476.41,475.52,474.37,473.38,473.06,473.73,474.49,473.67,472.66,472.09,471.88,471.88,471.88,471.86,471.77,471.61,471.44,471.34,471.39,471.53,471.62,471.76,471.91,472.09,472.31,472.56,472.70,472.78,472.85,472.88,473.00,473.06,473.05,473.00,472.98,472.93,472.90,472.92,472.99,473.05,473.06,473.04,473.04,473.02,472.97,472.94,472.94,472.94,472.96,473.01,473.07,473.07,473.07,473.09,473.08,472.98,472.84,472.62,472.43,472.27,472.09,471.87,471.59,471.31,471.12,471.03,470.98,471.05,471.33,471.71,472.18,472.45
571.71,570.26,568.86,567.46,566.07,564.44,562.36,560.03,557.66,555.38,553.14,550.92,548.88,546.93,545.02,543.11,541.29,539.90,538.63,537.24,535.50,533.81,532.15,530.56,529.15,527.61,527.01,526.98,527.02,526.94,526.37,525.26,523.67,521.86,520.21,519.04,518.14,517.21,516.27,515.19,514.02,512.82,511.61,510.44,509.68,509.44,509.78,510.34,510.90,511.10,510.68,510.10,509.71,509.65,509.84,509.92,509.81,509.66,509.48,509.26,509.18,509.15,509.11,509.08,509.22,509.37,509.46,509.42,509.14,508.53,507.89,507.28,506.66,505.79,504.32,502.83,501.54,500.24,498.98,497.36,495.80,495.17,495.61,496.17,496.73,497.30,497.83,498.30,498.91,499.64,500.22,500.76,501.24,501.69,502.14,502.53,502.86,503.02,502.97,502.74,502.40,502.05,501.75,501.45,501.21,501.09,500.98,500.82,500.66,500.39,500.08,499.75,499.35,498.82,498.38,497.99,497.60,497.21,496.83,496.44,496.07,495.73,495.16,494.54,493.92,493.32,492.83,492.37,491.90,491.42,490.88,490.27,489.66,489.02,488.20,487.32,486.45,485.85,485.77,485.81,485.56,485.16,484.70,484.23,483.59,482.77,481.93,481.33,481.10,480.89,480.72,480.71,480.96,481.13,481.26,481.39,481.39,481.00,480.17,478.93,477.27,475.59,473.90,472.53,471.50,470.35,470.22,470.35,470.69,471.79,473.71,475.43,476.84,477.92,478.55,478.87,479.00,479.01,479.11,479.36,479.54,479.62,479.58,479.51,479.04,478.18,477.02,475.96,474.88,474.05,473.37,472.61,472.31,472.19,472.12,472.09,472.08,472.13,472.08,471.92,471.73,471.74,471.85,471.98,472.07,472.22,472.38,472.55,472.72,472.90,473.05,473.17,473.25,473.32,473.40,473.47,473.53,473.54,473.50,473.45,473.40,473.38,473.43,473.45,473.42,473.37,473.36,473.30,473.27,473.27,473.27,473.28,473.33,473.40,473.46,473.46,473.46,473.51,473.52,473.44,473.29,473.08,472.88,472.71,472.49,472.25,471.98,471.72,471.61,471.69,471.73,471.85,472.17,472.54,472.94,473.07
573.96,572.40,570.91,569.40,567.75,565.85,563.59,561.14,558.72,556.38,554.10,551.88,549.77,547.89,546.09,544.18,542.47,541.08,539.71,538.16,536.40,534.61,532.75,530.97,529.66,528.62,528.37,528.49,528.57,528.41,527.64,526.36,524.69,522.94,521.29,519.92,518.79,517.80,516.75,515.55,514.30,513.08,511.85,510.86,510.24,510.03,510.25,510.88,511.54,511.82,511.44,510.90,510.56,510.49,510.63,510.73,510.62,510.44,510.22,509.97,509.91,509.87,509.81,509.78,509.91,510.04,510.09,510.01,509.66,509.14,508.57,507.88,506.89,505.46,503.68,502.04,500.66,499.39,498.19,496.93,495.99,496.06,496.60,497.16,497.73,498.34,498.93,499.45,500.01,500.57,501.02,501.48,501.91,502.36,502.86,503.30,503.64,503.78,503.69,503.41,503.05,502.68,502.34,502.04,501.84,501.70,501.56,501.39,501.15,500.86,500.57,500.29,499.95,499.59,499.21,498.83,498.44,498.06,497.67,497.31,496.98,496.70,496.22,495.64,495.03,494.48,494.00,493.53,493.05,492.51,491.85,491.18,490.59,490.09,489.60,489.09,488.37,487.68,487.33,487.17,486.80,486.35,485.87,485.35,484.65,483.81,482.92,482.18,481.75,481.50,481.41,481.51,481.80,481.98,482.14,482.23,482.08,481.41,480.53,479.35,477.69,476.00,474.39,472.98,471.71,470.43,470.25,470.52,471.28,473.11,475.32,477.32,478.82,479.66,480.13,480.31,480.35,480.35,480.36,480.54,480.66,480.71,480.70,480.67,480.37,479.83,479.06,478.14,476.83,475.67,474.77,474.08,473.59,473.20,472.79,472.37,472.29,472.30,472.28,472.21,472.13,472.18,472.31,472.45,472.58,472.77,473.00,473.25,473.49,473.74,473.94,474.15,474.32,474.36,474.43,474.47,474.66,475.06,475.18,474.93,474.42,473.88,473.80,473.79,473.77,473.74,473.69,473.61,473.59,473.59,473.60,473.64,473.71,473.79,473.86,473.90,473.91,473.96,473.98,473.89,473.74,473.57,473.37,473.16,472.88,472.60,472.37,472.22,472.26,472.40,472.50,472.67,472.95,473.34,473.72,473.84
576.18,574.58,572.94,571.21,569.23,567.03,564.62,562.00,559.49,557.11,554.85,552.67,550.54,548.72,547.00,545.12,543.47,542.03,540.55,538.90,537.08,535.18,533.18,531.38,530.50,530.10,530.06,530.19,530.30,529.97,528.91,527.42,525.73,524.05,522.40,520.83,519.44,518.34,517.15,515.86,514.56,513.32,512.13,511.38,510.92,510.70,510.83,511.49,512.19,512.52,512.22,511.73,511.46,511.37,511.44,511.57,511.48,511.28,511.02,510.78,510.73,510.70,510.65,510.63,510.73,510.81,510.84,510.73,510.31,509.83,509.20,508.26,506.82,504.94,503.01,501.30,499.89,498.71,497.73,496.92,496.54,496.98,497.57,498.13,498.70,499.30,499.89,500.44,500.95,501.40,501.81,502.24,502.66,503.09,503.60,504.07,504.40,504.51,504.37,504.05,503.69,503.31,502.94,502.63,502.45,502.31,502.13,501.93,501.64,501.34,501.06,500.81,500.52,500.27,499.96,499.62,499.26,498.92,498.55,498.22,497.94,497.67,497.28,496.74,496.15,495.63,495.16,494.69,494.16,493.53,492.78,492.00,491.35,490.88,490.63,490.39,489.89,489.28,488.79,488.51,488.04,487.54,487.05,486.45,485.71,484.85,483.94,483.12,482.47,482.15,482.11,482.32,482.62,482.82,482.98,483.02,482.62,481.72,480.80,479.72,478.19,476.56,474.88,473.28,471.82,470.62,470.49,471.13,472.51,474.88,477.11,479.03,480.39,481.02,481.36,481.42,481.42,481.39,481.34,481.44,481.49,481.51,481.50,481.49,481.30,480.98,480.52,479.81,478.63,477.58,476.80,476.23,475.58,475.01,474.34,473.53,473.19,472.84,472.70,472.78,472.84,472.96,473.13,473.32,473.52,473.76,474.06,474.35,474.63,474.93,475.16,475.42,475.63,475.64,475.68,475.86,476.34,477.10,477.38,477.04,476.34,475.60,475.41,475.12,474.87,474.63,474.32,474.00,473.93,473.94,473.95,474.03,474.11,474.18,474.26,474.35,474.38,474.43,474.44,474.35,474.20,474.03,473.82,473.56,473.25,472.98,472.81,472.80,472.96,473.11,473.27,473.46,473.74,474.11,474.45,474.56
578.37,576.71,574.85,572.78,570.39,567.86,565.30,562.63,560.10,557.76,555.57,553.34,551.12,549.25,547.52,545.63,544.04,542.47,540.91,539.27,537.32,535.29,533.26,531.76,531.82,532.10,532.18,532.26,532.37,531.72,530.15,528.39,526.70,525.06,523.39,521.70,520.13,518.80,517.50,516.14,514.80,513.54,512.47,512.00,511.69,511.47,511.55,512.21,512.84,513.15,513.00,512.57,512.38,512.30,512.28,512.42,512.37,512.16,511.90,511.74,511.66,511.68,511.70,511.70,511.73,511.79,511.79,511.61,511.14,510.56,509.62,508.21,506.31,504.37,502.43,500.72,499.36,498.38,497.90,497.68,497.67,497.98,498.54,499.11,499.65,500.20,500.75,501.29,501.79,502.25,502.70,503.11,503.50,503.92,504.39,504.86,505.14,505.20,505.01,504.65,504.31,503.95,503.57,503.22,503.04,502.88,502.68,502.39,502.15,501.86,501.58,501.34,501.04,500.79,500.55,500.30,500.04,499.79,499.49,499.21,498.96,498.66,498.34,497.85,497.27,496.80,496.33,495.82,495.20,494.46,493.69,492.92,492.16,491.53,491.22,490.98,490.66,490.32,490.03,489.73,489.26,488.76,488.24,487.51,486.75,485.89,484.98,484.13,483.32,482.87,482.81,483.09,483.40,483.64,483.82,483.78,483.06,482.12,481.17,480.16,478.91,477.43,475.36,473.38,471.92,471.06,471.16,472.48,474.68,477.19,479.18,480.44,481.30,481.93,482.26,482.33,482.30,482.25,482.24,482.25,482.30,482.35,482.34,482.28,482.04,481.67,481.21,480.70,480.12,479.48,478.89,478.49,478.11,477.80,477.23,476.20,475.28,474.07,473.57,473.88,474.10,474.35,474.63,474.92,475.20,475.50,475.80,476.06,476.26,476.56,476.75,476.95,477.13,477.12,477.07,477.67,478.66,479.61,479.92,479.81,479.59,479.38,479.14,478.15,477.25,476.47,475.54,474.62,474.38,474.40,474.40,474.48,474.56,474.64,474.74,474.88,474.95,474.99,474.96,474.86,474.68,474.45,474.19,473.88,473.59,473.39,473.39,473.52,473.67,473.83,473.98,474.19,474.51,474.88,475.11,475.12
581.00,578.38,576.05,573.55,570.82,568.03,565.32,562.66,559.99,557.54,555.32,553.04,550.76,548.60,546.55,544.60,543.04,541.63,540.18,538.56,536.66,534.88,533.70,533.32,533.84,534.31,534.50,534.58,534.44,533.03,531.13,529.24,527.52,525.85,524.12,522.34,520.61,519.11,517.74,516.39,515.04,513.81,513.12,512.76,512.49,512.27,512.27,512.88,513.46,513.81,513.82,513.49,513.34,513.26,513.22,513.27,513.18,513.03,512.85,512.71,512.62,512.62,512.66,512.71,512.75,512.78,512.63,512.22,511.56,510.93,509.93,508.39,506.23,504.13,502.06,500.40,499.35,498.92,498.78,498.76,498.82,499.04,499.50,500.02,500.55,501.06,501.60,502.13,502.63,503.10,503.56,503.95,504.39,504.86,505.32,505.74,505.96,505.93,505.66,505.28,504.93,504.58,504.22,503.86,503.64,503.44,503.20,502.91,502.67,502.38,502.11,501.86,501.60,501.37,501.13,500.91,500.72,500.53,500.29,500.05,499.86,499.63,499.33,498.91,498.42,497.91,497.41,496.85,496.19,495.42,494.64,493.84,493.05,492.34,491.84,491.57,491.31,491.04,490.77,490.50,490.12,489.72,489.27,488.60,487.80,486.93,486.01,485.11,484.10,483.66,483.65,483.92,484.19,484.46,484.59,484.37,483.50,482.65,481.83,480.98,479.92,478.29,476.01,473.84,472.41,472.32,472.75,474.21,476.46,478.87,480.40,481.39,482.17,482.84,483.18,483.21,483.17,483.14,483.09,483.06,483.11,483.18,483.13,483.06,482.78,482.37,481.88,481.50,481.19,480.78,480.38,480.27,480.02,479.78,479.28,478.19,476.52,475.35,475.14,475.71,476.02,476.23,476.41,476.63,476.94,477.21,477.45,477.66,477.88,478.18,478.39,478.55,478.60,478.52,478.41,479.00,479.99,480.91,481.32,481.28,481.17,481.06,480.82,480.05,479.40,478.87,478.18,477.40,476.73,476.30,476.18,476.20,476.33,476.54,476.78,477.00,477.06,477.05,476.91,476.50,475.74,475.02,474.52,474.23,474.01,473.98,474.08,474.23,474.39,474.54,474.70,474.92,475.24,475.61,475.74,475.68
583.44,579.71,576.85,573.95,570.98,568.02,565.20,562.51,559.66,557.00,554.61,552.30,550.00,547.59,545.20,543.12,541.58,540.37,539.09,537.58,536.07,534.86,534.64,535.23,535.96,536.55,536.86,536.92,536.43,534.37,532.18,530.13,528.27,526.52,524.74,522.86,521.00,519.35,517.91,516.55,515.31,514.34,513.96,513.63,513.33,513.09,513.00,513.53,514.07,514.46,514.65,514.44,514.31,514.24,514.17,514.15,514.03,513.93,513.83,513.68,513.60,513.56,513.59,513.68,513.72,513.55,513.14,512.50,511.68,511.01,509.95,508.30,505.98,503.73,501.74,500.35,499.76,499.86,499.97,500.04,500.11,500.30,500.66,501.12,501.60,502.06,502.59,503.10,503.55,503.97,504.43,504.85,505.33,505.83,506.28,506.63,506.77,506.65,506.31,505.93,505.54,505.19,504.86,504.50,504.22,503.99,503.72,503.43,503.19,502.91,502.63,502.39,502.16,501.94,501.72,501.54,501.39,501.24,501.02,500.83,500.67,500.51,500.24,499.91,499.49,498.98,498.47,497.86,497.15,496.38,495.60,494.78,493.98,493.22,492.54,492.18,491.92,491.66,491.36,491.12,490.85,490.54,490.17,489.57,488.77,487.86,486.89,485.87,484.79,484.46,484.56,484.79,485.02,485.31,485.34,484.94,484.02,483.27,482.55,481.76,480.69,478.87,476.46,474.35,473.26,473.88,474.62,476.04,478.06,480.14,481.25,482.13,482.98,483.72,484.08,484.09,484.05,484.02,483.94,483.87,483.92,484.00,483.93,483.83,483.50,483.05,482.57,482.30,482.14,481.87,481.63,481.74,481.50,481.13,480.54,479.39,477.26,476.58,476.92,477.71,478.06,478.21,478.27,478.40,478.67,478.91,479.09,479.29,479.54,479.85,480.07,480.15,480.09,479.91,479.76,480.22,481.03,481.86,482.39,482.39,482.27,482.15,481.89,481.50,481.20,480.95,480.59,480.08,479.17,478.44,478.22,478.22,478.38,478.66,478.99,479.24,479.28,479.25,479.04,478.42,477.25,475.89,474.95,474.60,474.51,474.62,474.77,474.93,475.08,475.22,475.36,475.60,475.97,476.37,476.43,476.26
585.01,580.47,577.10,574.00,570.98,568.02,565.17,562.34,559.35,556.31,553.46,551.13,548.92,546.52,543.99,541.61,540.07,538.99,537.85,536.69,536.28,536.26,536.59,537.15,537.83,538.70,539.20,539.13,538.23,536.06,533.63,531.22,528.97,527.06,525.21,523.32,521.38,519.50,517.99,516.54,515.64,515.44,515.07,514.65,514.25,513.91,513.71,514.15,514.65,515.11,515.44,515.38,515.28,515.21,515.13,515.07,514.98,514.90,514.80,514.65,514.57,514.50,514.52,514.63,514.55,513.73,512.89,512.18,511.35,510.64,509.27,507.31,504.95,502.70,501.35,500.80,500.88,501.20,501.43,501.59,501.74,501.98,502.35,502.70,503.08,503.49,503.96,504.38,504.66,504.89,505.41,505.87,506.33,506.81,507.23,507.45,507.51,507.34,506.96,506.58,506.19,505.81,505.45,505.13,504.77,504.50,504.24,503.94,503.71,503.46,503.19,502.91,502.69,502.51,502.34,502.20,502.10,501.95,501.74,501.54,501.39,501.23,501.00,500.71,500.37,499.95,499.54,498.85,498.06,497.28,496.51,495.73,494.95,494.18,493.44,492.86,492.50,492.25,491.95,491.70,491.46,491.19,490.83,490.28,489.48,488.52,487.39,486.13,485.23,485.22,485.54,485.77,486.00,486.24,486.12,485.57,484.77,484.00,483.20,482.16,480.62,478.74,476.25,474.71,474.77,475.62,476.50,477.88,479.51,480.78,481.76,482.68,483.64,484.56,484.98,485.00,484.93,484.86,484.79,484.71,484.74,484.79,484.75,484.57,484.19,483.72,483.32,483.18,483.08,482.87,482.67,482.75,482.30,481.44,480.38,479.09,477.32,477.65,478.74,479.69,479.91,480.11,480.16,480.18,480.37,480.60,480.82,481.04,481.30,481.65,481.76,481.74,481.62,481.36,481.24,481.52,482.08,482.81,483.46,483.49,483.38,483.24,482.89,482.60,482.25,481.83,481.38,480.92,480.44,480.13,480.03,480.03,480.11,480.27,480.46,480.62,480.65,480.68,480.59,480.19,479.51,477.40,475.67,475.05,475.12,475.27,475.42,475.58,475.72,475.82,475.91,476.20,476.75,477.25,477.26,476.90
586.20,581.11,577.26,574.02,570.98,567.98,564.99,561.88,558.76,555.62,552.63,550.10,547.84,545.52,543.16,541.04,539.69,538.92,538.30,537.80,537.84,538.13,538.73,539.44,539.88,540.42,540.86,540.78,539.69,537.66,535.24,532.73,530.23,527.79,525.47,523.19,521.06,519.29,517.88,516.92,516.52,516.54,516.22,515.78,515.34,514.90,514.53,514.83,515.31,515.78,516.14,516.17,516.12,516.04,515.96,515.85,515.83,515.80,515.74,515.63,515.54,515.47,515.42,515.29,514.57,513.35,512.31,511.54,510.75,509.86,508.16,505.95,503.74,502.46,501.96,501.92,502.18,502.56,502.91,503.21,503.45,503.68,504.11,504.38,504.66,505.05,505.47,505.69,505.73,505.81,506.34,506.84,507.32,507.75,508.11,508.29,508.24,508.00,507.62,507.23,506.84,506.44,506.02,505.64,505.29,505.02,504.77,504.50,504.24,504.00,503.74,503.49,503.30,503.17,503.03,502.89,502.78,502.66,502.45,502.26,502.09,501.90,501.71,501.47,501.15,500.68,500.15,499.45,498.69,497.95,497.18,496.44,495.70,494.97,494.24,493.54,493.11,492.84,492.58,492.34,492.08,491.75,491.28,490.67,489.83,488.77,487.52,486.26,485.89,486.16,486.53,486.70,486.92,487.07,486.81,486.16,485.38,484.42,483.31,482.00,480.34,478.35,476.50,475.71,476.20,477.05,477.98,479.23,480.61,481.69,482.73,483.74,484.76,485.65,485.84,485.84,485.79,485.71,485.63,485.55,485.57,485.61,485.54,485.30,484.89,484.49,484.22,484.13,484.06,483.87,483.68,483.61,482.77,481.59,480.35,479.17,478.09,478.73,479.91,480.94,481.39,481.66,481.75,481.83,482.11,482.41,482.66,482.89,483.14,483.47,483.48,483.37,483.18,482.89,482.81,483.03,483.47,484.05,484.59,484.59,484.48,484.32,483.88,483.51,483.10,482.62,482.13,481.66,481.31,481.09,481.04,481.07,481.17,481.33,481.51,481.65,481.71,481.75,481.65,481.26,480.69,479.11,477.24,475.73,475.45,475.50,475.64,475.78,475.89,475.98,476.29,476.82,477.50,478.13,478.09,477.63
587.12,581.78,577.55,574.15,571.01,567.95,564.88,561.58,558.38,555.25,552.22,549.48,547.18,544.92,542.76,541.02,540.10,539.84,539.88,540.07,540.40,540.74,541.39,542.08,542.13,542.16,542.36,542.13,540.91,539.07,536.72,534.20,531.57,528.69,525.77,522.90,520.48,519.06,517.97,517.62,517.62,517.67,517.37,516.93,516.45,515.92,515.37,515.55,516.01,516.48,516.82,516.92,516.88,516.80,516.71,516.59,516.64,516.68,516.65,516.57,516.49,516.39,516.18,515.61,514.25,512.80,511.64,510.77,509.92,508.79,506.88,504.66,502.91,502.76,503.01,503.28,503.55,503.92,504.38,504.81,505.13,505.38,505.88,506.10,506.30,506.65,506.95,506.94,506.76,506.71,507.25,507.78,508.27,508.68,508.95,509.13,508.97,508.64,508.25,507.85,507.44,507.00,506.55,506.12,505.80,505.54,505.31,505.06,504.76,504.52,504.31,504.12,503.96,503.86,503.74,503.59,503.44,503.35,503.16,502.97,502.80,502.58,502.40,502.13,501.71,501.11,500.43,499.75,499.07,498.37,497.62,496.91,496.20,495.51,494.87,494.19,493.75,493.48,493.25,493.02,492.66,492.16,491.50,490.78,489.91,488.78,487.50,486.51,486.68,487.17,487.53,487.63,487.82,487.84,487.47,486.75,485.94,484.71,483.23,481.67,480.04,477.98,477.03,477.03,477.73,478.40,479.24,480.38,481.67,482.77,483.89,484.99,486.02,486.78,486.72,486.66,486.62,486.55,486.48,486.40,486.41,486.43,486.32,486.02,485.62,485.31,485.17,485.09,485.01,484.86,484.65,484.31,483.13,481.77,480.50,479.50,479.10,479.75,480.80,481.87,482.65,483.07,483.27,483.46,483.84,484.22,484.51,484.76,485.02,485.28,485.21,485.00,484.74,484.47,484.44,484.63,484.98,485.42,485.75,485.71,485.59,485.39,484.87,484.38,483.89,483.39,482.86,482.39,482.03,481.81,481.78,481.87,482.01,482.20,482.41,482.55,482.65,482.69,482.55,482.10,481.47,480.64,478.98,476.82,475.97,475.67,475.69,475.80,475.89,476.03,476.69,477.55,478.35,479.02,478.92,478.39
587.62,582.77,578.36,574.64,571.16,567.99,565.21,562.20,559.06,555.90,552.84,550.10,547.92,545.60,543.30,541.70,541.86,542.55,543.26,543.92,544.72,545.23,545.56,545.54,544.81,544.50,544.09,543.23,541.70,539.96,537.61,535.04,532.48,529.97,526.50,522.77,519.90,519.15,518.92,518.87,518.87,518.83,518.48,518.04,517.48,516.79,516.11,516.31,516.75,517.19,517.53,517.64,517.60,517.52,517.44,517.37,517.51,517.56,517.49,517.41,517.33,517.17,516.49,515.13,513.78,512.34,511.07,509.93,508.63,507.30,505.59,504.10,503.57,503.88,504.31,504.64,504.90,505.24,505.77,506.24,506.63,507.05,507.63,507.86,508.01,508.22,508.20,507.99,507.72,507.62,508.15,508.70,509.19,509.56,509.75,509.96,509.70,509.27,508.82,508.38,507.88,507.40,506.97,506.63,506.31,506.06,505.83,505.59,505.28,505.08,504.94,504.82,504.67,504.53,504.42,504.30,504.15,504.01,503.85,503.69,503.51,503.29,503.07,502.50,501.67,500.84,500.13,499.51,498.92,498.26,497.56,496.86,496.13,495.47,495.07,494.71,494.46,494.25,494.03,493.80,493.14,492.23,491.19,490.37,489.56,488.47,487.44,487.27,487.63,488.18,488.55,488.58,488.68,488.56,488.10,487.34,486.48,484.93,483.20,481.52,479.87,477.98,477.93,478.75,479.67,479.90,480.21,481.38,483.04,484.17,485.22,486.28,487.23,487.77,487.64,487.50,487.43,487.39,487.32,487.24,487.22,487.21,487.08,486.69,486.41,486.22,486.08,486.00,485.93,485.83,485.53,484.63,483.47,482.22,481.08,480.29,480.09,480.60,481.50,482.58,483.57,484.39,484.85,485.15,485.53,485.92,486.28,486.61,486.88,487.06,486.92,486.63,486.31,486.09,486.10,486.25,486.54,486.93,486.93,486.85,486.71,486.44,485.90,485.33,484.74,484.17,483.64,483.17,482.77,482.55,482.57,482.75,482.92,483.08,483.25,483.40,483.54,483.63,483.48,482.93,482.16,481.32,480.29,478.99,477.48,476.13,475.66,475.75,475.87,476.26,477.37,478.62,479.56,479.99,479.79,479.18
587.25,582.82,578.52,574.60,571.00,567.84,565.19,562.49,559.61,556.66,553.74,551.01,548.52,545.97,543.93,543.38,544.25,545.40,546.48,547.38,548.14,548.53,548.54,548.03,546.75,545.67,544.48,543.10,541.50,539.83,537.53,535.09,532.69,530.15,526.64,522.99,520.35,519.98,520.26,520.32,520.20,519.97,519.58,519.03,518.36,517.61,516.88,517.05,517.47,517.90,518.21,518.31,518.30,518.25,518.20,518.18,518.36,518.43,518.37,518.25,518.12,517.62,516.52,514.79,513.24,511.67,510.19,508.74,507.24,506.02,504.93,504.29,504.46,504.96,505.47,505.92,506.29,506.59,507.11,507.64,508.16,508.74,509.21,509.42,509.50,509.49,509.31,508.98,508.69,508.65,509.14,509.60,509.99,510.30,510.53,510.75,510.38,509.82,509.28,508.81,508.28,507.81,507.42,507.14,506.84,506.58,506.35,506.11,505.84,505.69,505.61,505.54,505.38,505.23,505.10,504.99,504.86,504.71,504.55,504.40,504.21,503.87,503.35,502.54,501.54,500.61,499.86,499.26,498.70,498.11,497.48,496.85,496.28,495.84,495.60,495.38,495.22,495.04,494.75,494.16,493.19,492.01,490.83,489.93,489.16,488.46,488.04,488.37,488.81,489.26,489.55,489.57,489.52,489.30,488.83,488.06,486.94,485.21,483.41,481.65,479.97,478.48,478.94,480.16,481.19,481.08,481.00,482.07,483.92,485.46,486.63,487.65,488.42,488.73,488.55,488.38,488.28,488.24,488.16,488.09,488.06,488.00,487.80,487.45,487.26,487.15,487.03,486.96,486.88,486.73,486.30,485.24,484.09,482.91,481.94,481.43,481.29,481.56,482.26,483.29,484.36,485.37,486.10,486.64,487.10,487.58,488.04,488.42,488.65,488.74,488.58,488.24,487.89,487.74,487.76,487.85,488.02,488.22,488.11,487.99,487.80,487.48,486.94,486.34,485.71,485.11,484.54,484.00,483.56,483.34,483.44,483.62,483.79,483.94,484.09,484.25,484.40,484.53,484.36,483.66,482.86,482.02,481.18,480.27,478.96,477.41,476.55,476.31,476.45,477.17,478.47,479.78,480.67,480.96,480.59,479.89
586.38,582.35,578.27,574.25,570.60,567.44,564.82,562.36,559.82,557.19,554.51,551.82,548.93,546.26,544.77,545.58,546.87,548.22,549.43,550.36,550.75,550.76,550.38,549.50,547.83,545.94,544.04,542.28,540.70,539.05,536.86,534.61,532.38,529.74,526.41,523.44,521.52,521.33,521.80,521.84,521.54,521.11,520.68,519.99,519.19,518.37,517.64,517.79,518.20,518.60,518.87,518.97,518.98,518.98,518.98,519.02,519.22,519.31,519.25,519.05,518.81,517.88,516.42,514.59,512.69,510.91,509.16,507.47,506.08,505.20,504.84,504.94,505.45,505.99,506.54,507.10,507.63,507.93,508.44,509.02,509.68,510.36,510.65,510.83,510.82,510.58,510.35,509.97,509.73,509.77,510.17,510.50,510.77,511.02,511.31,511.50,511.04,510.35,509.69,509.19,508.67,508.24,507.90,507.66,507.36,507.10,506.87,506.65,506.42,506.30,506.27,506.24,506.10,505.94,505.79,505.66,505.56,505.42,505.27,505.09,504.83,504.31,503.43,502.45,501.47,500.50,499.71,499.10,498.57,498.05,497.52,497.00,496.66,496.48,496.32,496.17,496.00,495.78,495.35,494.30,493.06,491.76,490.54,489.64,488.97,488.76,489.00,489.56,490.06,490.38,490.56,490.57,490.35,490.04,489.60,488.82,487.35,485.59,483.80,482.03,480.33,479.25,479.95,481.34,482.45,482.19,481.83,482.67,484.56,486.64,488.03,488.98,489.53,489.62,489.43,489.26,489.15,489.07,489.00,488.93,488.89,488.80,488.53,488.29,488.16,488.08,488.00,487.92,487.83,487.56,486.99,485.98,484.86,483.76,482.99,482.76,482.61,482.64,483.09,484.00,485.09,486.16,487.14,487.94,488.51,489.11,489.67,490.06,490.23,490.22,490.03,489.69,489.36,489.29,489.28,489.32,489.37,489.35,489.22,489.08,488.87,488.53,487.99,487.38,486.75,486.12,485.49,484.85,484.35,484.16,484.33,484.50,484.66,484.80,484.97,485.13,485.28,485.42,485.20,484.36,483.56,482.72,481.87,481.04,480.26,479.00,477.94,477.34,477.46,478.40,479.71,480.89,481.64,481.90,481.34,480.56
585.30,581.75,577.81,573.76,569.87,566.45,563.71,561.18,558.93,556.63,554.18,551.63,548.94,546.91,546.31,547.83,549.24,550.69,551.81,552.30,552.11,551.27,550.19,548.85,546.94,544.99,543.06,541.22,539.55,537.82,535.75,533.60,531.44,529.16,526.00,524.18,523.53,523.29,523.42,523.20,522.79,522.31,521.80,521.04,520.09,519.09,518.36,518.54,518.94,519.29,519.53,519.67,519.70,519.70,519.73,519.85,520.10,520.22,520.10,519.72,519.33,518.02,516.38,514.61,512.31,510.20,508.25,506.67,506.08,505.74,505.70,505.94,506.44,507.02,507.57,508.13,508.68,509.20,509.78,510.39,511.04,511.68,511.88,512.02,511.95,511.58,511.39,511.12,510.97,510.98,511.13,511.41,511.67,511.91,512.12,512.15,511.63,510.90,510.18,509.55,509.09,508.72,508.42,508.18,507.88,507.62,507.41,507.22,507.00,506.89,506.88,506.90,506.80,506.66,506.50,506.35,506.23,506.13,505.98,505.70,505.19,504.40,503.48,502.56,501.65,500.73,499.99,499.39,498.89,498.47,498.10,497.72,497.47,497.31,497.16,497.00,496.81,496.41,495.55,494.38,493.13,491.88,490.72,489.97,489.62,489.67,490.00,490.51,491.08,491.46,491.62,491.54,491.21,490.81,490.27,489.40,487.83,486.16,484.49,482.82,481.23,480.11,480.81,482.25,483.54,483.72,483.09,483.52,485.23,487.67,489.28,490.06,490.36,490.37,490.21,490.05,489.94,489.85,489.78,489.75,489.71,489.61,489.41,489.24,489.13,489.06,488.98,488.89,488.73,488.27,487.53,486.58,485.55,484.76,484.29,484.13,484.02,483.93,484.12,484.74,485.86,486.94,487.97,488.87,489.56,490.19,490.75,491.09,491.12,491.01,490.80,490.57,490.38,490.36,490.36,490.34,490.30,490.24,490.14,490.04,489.89,489.62,489.08,488.43,487.76,487.07,486.33,485.55,485.07,484.98,485.24,485.45,485.62,485.77,485.94,486.14,486.31,486.39,486.07,485.12,484.23,483.37,482.52,481.71,481.00,480.17,479.44,478.94,478.89,479.59,480.59,481.58,482.34,482.66,482.04,481.15
583.55,580.39,576.75,572.75,568.88,565.30,562.19,559.75,557.72,555.62,553.34,551.07,548.76,547.79,548.35,550.28,551.84,552.95,553.36,552.92,552.00,550.62,548.97,547.11,545.00,543.04,541.30,539.64,537.96,536.34,534.41,532.39,530.44,528.70,526.83,525.99,525.75,525.32,525.01,524.53,524.00,523.48,522.82,521.89,520.81,519.78,519.24,519.47,519.88,520.20,520.37,520.53,520.61,520.63,520.67,520.83,521.09,521.24,521.11,520.54,519.86,518.12,516.03,513.97,511.48,509.38,507.73,506.68,506.57,506.53,506.67,506.94,507.38,507.98,508.54,509.13,509.79,510.41,511.07,511.73,512.39,513.01,513.13,513.18,513.02,512.63,512.40,512.25,512.16,512.14,512.15,512.32,512.56,512.81,512.96,512.73,512.13,511.42,510.69,510.03,509.55,509.20,508.94,508.70,508.42,508.20,507.99,507.78,507.58,507.50,507.50,507.53,507.47,507.36,507.21,507.06,506.92,506.83,506.68,506.27,505.57,504.68,503.76,502.86,501.96,501.08,500.43,499.94,499.56,499.24,498.95,498.63,498.35,498.15,498.00,497.82,497.51,496.90,495.79,494.56,493.39,492.30,491.34,490.72,490.53,490.63,490.93,491.45,492.01,492.46,492.55,492.12,491.57,491.00,490.34,489.48,488.12,486.69,485.20,483.65,482.09,481.02,481.84,483.37,484.79,485.36,484.45,484.20,485.38,488.11,489.87,490.68,491.01,491.07,490.95,490.81,490.70,490.61,490.56,490.53,490.47,490.36,490.22,490.08,490.00,489.92,489.84,489.78,489.54,488.97,488.15,487.28,486.40,485.89,485.63,485.49,485.40,485.27,485.25,485.57,486.52,487.60,488.68,489.64,490.34,491.00,491.56,491.89,491.88,491.73,491.52,491.34,491.25,491.25,491.23,491.16,491.08,491.01,490.93,490.83,490.71,490.50,489.96,489.29,488.56,487.80,487.02,486.18,485.76,485.77,486.12,486.38,486.60,486.78,486.95,487.15,487.31,487.32,486.94,485.97,485.01,484.11,483.23,482.39,481.70,481.14,480.64,480.23,480.12,480.67,481.48,482.35,483.14,483.48,482.80,481.85
581.24,578.39,575.13,571.35,567.79,564.25,560.74,558.44,556.52,554.46,552.27,550.34,548.73,549.02,550.71,552.78,554.32,554.57,553.84,552.36,550.76,549.07,547.02,544.72,542.52,540.59,539.15,537.79,536.24,534.90,533.19,531.41,529.82,528.73,528.63,528.45,527.97,527.29,526.57,525.88,525.23,524.59,523.72,522.59,521.41,520.48,520.26,520.54,520.97,521.30,521.39,521.52,521.66,521.74,521.78,521.93,522.15,522.29,522.13,521.38,520.37,518.17,515.52,512.91,510.41,508.59,507.59,507.29,507.34,507.39,507.61,507.92,508.31,508.92,509.51,510.22,511.02,511.66,512.39,513.10,513.78,514.36,514.45,514.35,514.09,513.71,513.42,513.34,513.29,513.25,513.25,513.26,513.45,513.71,513.78,513.27,512.61,511.92,511.25,510.63,510.09,509.71,509.46,509.23,509.00,508.81,508.59,508.31,508.16,508.12,508.12,508.13,508.12,508.05,507.93,507.77,507.63,507.54,507.32,506.80,505.97,505.12,504.21,503.29,502.37,501.51,500.98,500.67,500.42,500.18,499.94,499.60,499.27,499.01,498.84,498.60,498.11,497.29,496.09,494.88,493.82,492.94,492.24,491.74,491.57,491.59,491.81,492.38,492.88,493.34,493.26,492.37,491.53,490.75,489.99,489.18,488.20,487.05,485.79,484.37,482.85,481.99,483.02,484.66,486.16,487.04,485.95,484.91,485.27,488.14,489.97,490.95,491.50,491.75,491.65,491.56,491.45,491.34,491.31,491.25,491.18,491.08,490.94,490.85,490.78,490.70,490.63,490.60,490.29,489.66,488.86,488.10,487.40,487.11,486.99,486.86,486.77,486.62,486.47,486.52,487.13,488.16,489.28,490.25,490.89,491.58,492.17,492.53,492.59,492.45,492.23,492.09,492.03,492.01,491.95,491.88,491.80,491.72,491.63,491.50,491.39,491.20,490.65,489.97,489.19,488.38,487.60,486.77,486.43,486.52,486.94,487.26,487.57,487.80,487.97,488.13,488.28,488.23,487.80,486.85,485.86,484.92,483.99,483.13,482.50,482.04,481.62,481.27,481.13,481.65,482.39,483.23,484.02,484.32,483.60,482.65
578.57,575.81,572.88,569.83,567.08,564.19,560.98,558.46,556.21,553.91,551.64,549.97,549.95,551.24,553.14,554.82,555.11,553.54,551.69,550.24,548.64,546.76,544.59,542.36,540.49,538.87,537.55,536.42,535.45,534.45,533.25,532.10,531.19,530.79,530.63,530.29,529.71,528.91,528.13,527.34,526.50,525.56,524.45,523.24,522.11,521.34,521.47,521.77,522.22,522.56,522.59,522.63,522.73,522.80,522.88,523.03,523.20,523.09,522.60,521.67,520.56,518.20,515.20,512.16,509.81,508.47,508.01,508.10,508.16,508.20,508.41,508.77,509.28,509.98,510.80,511.73,512.65,513.29,513.99,514.69,515.31,515.70,515.80,515.56,515.16,514.76,514.50,514.40,514.37,514.35,514.35,514.35,514.44,514.54,514.40,513.80,513.19,512.58,511.95,511.38,510.84,510.38,510.04,509.81,509.57,509.36,509.12,508.85,508.78,508.73,508.73,508.77,508.77,508.75,508.64,508.49,508.34,508.20,507.81,507.17,506.37,505.51,504.64,503.74,502.84,502.07,501.66,501.38,501.15,500.92,500.69,500.42,500.14,499.90,499.67,499.32,498.59,497.61,496.52,495.45,494.54,493.74,493.08,492.74,492.61,492.59,492.74,493.20,493.71,493.85,493.39,492.28,491.27,490.36,489.56,488.81,487.92,486.89,485.75,484.50,483.34,483.14,484.30,485.93,487.50,488.57,488.04,486.60,485.88,488.19,490.01,491.07,491.75,492.24,492.33,492.28,492.19,492.10,492.05,491.97,491.89,491.81,491.71,491.63,491.56,491.48,491.40,491.33,490.97,490.39,489.70,489.06,488.59,488.40,488.31,488.21,488.13,487.91,487.73,487.69,487.89,488.70,489.65,490.51,491.19,491.88,492.54,493.05,493.29,493.16,492.95,492.83,492.79,492.74,492.67,492.59,492.51,492.43,492.30,492.19,492.08,491.83,491.20,490.47,489.69,488.92,488.19,487.40,487.14,487.28,487.68,488.05,488.41,488.71,488.95,489.10,489.21,489.11,488.64,487.71,486.71,485.72,484.76,483.99,483.72,483.19,482.68,482.28,482.07,482.62,483.36,484.15,484.87,485.12,484.42,483.51
576.44,573.74,571.05,568.60,566.36,563.97,561.25,558.75,556.39,554.00,551.87,551.04,552.06,553.82,555.63,556.69,555.35,552.46,549.98,548.57,547.04,545.23,543.20,541.18,539.59,538.37,537.42,536.68,536.11,535.29,534.36,533.54,532.98,532.77,532.36,531.81,531.10,530.19,529.40,528.53,527.54,526.38,525.13,523.89,522.91,522.42,522.73,523.04,523.49,523.81,523.81,523.81,523.85,523.90,523.98,524.11,524.25,523.86,522.96,521.74,520.54,517.99,514.75,511.61,509.57,508.71,508.64,508.91,509.00,509.00,509.16,509.65,510.56,511.41,512.32,513.31,514.29,514.99,515.67,516.32,516.84,517.04,517.06,516.74,516.27,515.80,515.51,515.39,515.37,515.38,515.38,515.38,515.42,515.37,515.05,514.44,513.88,513.30,512.70,512.15,511.61,511.11,510.70,510.49,510.28,510.00,509.72,509.49,509.40,509.35,509.37,509.42,509.42,509.42,509.34,509.19,509.01,508.81,508.25,507.53,506.72,505.88,505.04,504.16,503.30,502.68,502.34,502.10,501.86,501.63,501.40,501.17,500.94,500.71,500.48,500.01,499.14,498.09,497.09,496.13,495.31,494.56,493.96,493.77,493.69,493.63,493.69,494.01,494.52,494.34,493.54,492.29,491.13,490.12,489.23,488.43,487.60,486.66,485.60,484.59,484.08,484.72,486.13,487.62,488.86,489.75,489.60,488.26,487.00,488.11,489.92,491.06,491.81,492.48,492.90,492.97,492.92,492.84,492.76,492.69,492.61,492.53,492.45,492.38,492.30,492.22,492.14,492.05,491.62,491.08,490.52,490.03,489.69,489.53,489.46,489.38,489.33,489.11,488.94,488.87,488.85,489.37,490.08,490.80,491.45,492.14,492.83,493.46,493.88,493.86,493.66,493.56,493.54,493.46,493.38,493.29,493.19,493.11,492.98,492.89,492.76,492.44,491.73,490.95,490.16,489.41,488.71,487.97,487.83,488.05,488.44,488.83,489.23,489.60,489.91,490.13,490.23,490.00,489.41,488.44,487.37,486.32,485.55,485.22,485.30,484.80,484.21,483.64,483.15,483.63,484.37,485.14,485.82,486.06,485.45,484.61
574.95,572.35,569.85,567.76,565.66,563.49,561.31,559.12,556.94,554.69,552.99,553.53,554.89,556.58,558.10,558.44,555.50,552.04,549.39,547.82,546.34,544.81,543.13,541.39,539.96,539.14,538.78,538.54,538.11,537.29,536.32,535.50,534.88,534.36,533.77,533.05,532.19,531.15,530.34,529.41,528.33,527.09,525.79,524.55,523.84,523.72,524.03,524.34,524.75,525.05,525.05,525.05,525.06,525.05,525.07,525.15,525.25,524.56,523.23,521.63,520.31,517.54,514.21,511.28,509.65,509.22,509.40,509.77,509.91,509.88,510.00,510.70,512.18,513.21,514.05,514.94,515.89,516.71,517.36,517.92,518.33,518.38,518.22,517.87,517.38,516.82,516.45,516.31,516.30,516.35,516.36,516.36,516.34,516.18,515.73,515.19,514.65,514.08,513.47,512.93,512.39,511.85,511.43,511.26,511.09,510.74,510.41,510.24,510.05,509.99,510.03,510.08,510.08,510.08,510.03,509.90,509.67,509.35,508.70,507.90,507.06,506.22,505.42,504.56,503.77,503.32,503.05,502.81,502.58,502.36,502.12,501.89,501.66,501.44,501.22,500.68,499.78,498.74,497.77,496.89,496.09,495.40,494.90,494.85,494.78,494.71,494.69,494.84,495.29,494.84,493.78,492.48,491.20,490.08,489.05,488.11,487.31,486.53,485.60,484.95,485.24,486.74,488.41,489.62,490.21,490.58,490.48,489.63,488.44,487.93,489.69,490.92,491.70,492.49,493.31,493.61,493.63,493.56,493.48,493.40,493.32,493.25,493.18,493.09,493.02,492.95,492.86,492.74,492.25,491.73,491.30,490.97,490.65,490.49,490.40,490.33,490.31,490.18,490.06,489.98,489.94,490.18,490.63,491.19,491.76,492.43,493.11,493.78,494.35,494.53,494.38,494.27,494.25,494.17,494.09,493.97,493.85,493.77,493.69,493.61,493.42,493.00,492.25,491.42,490.63,489.88,489.17,488.51,488.53,488.86,489.25,489.63,490.08,490.49,490.86,491.18,491.25,490.82,490.04,489.00,487.84,486.74,486.39,486.81,487.17,486.82,486.18,485.32,484.34,484.71,485.42,486.19,486.87,487.14,486.66,485.93
573.84,571.47,569.56,567.59,565.51,563.41,561.33,559.26,557.27,555.65,554.95,556.24,557.82,559.13,559.95,559.79,557.33,554.07,551.17,549.09,547.53,546.01,544.43,542.92,541.81,541.03,540.80,540.64,540.12,539.26,538.21,537.29,536.55,535.74,535.05,534.14,533.03,531.86,530.99,530.07,529.00,527.75,526.44,525.23,524.79,525.02,525.33,525.64,526.05,526.33,526.29,526.28,526.28,526.21,526.13,526.20,525.88,524.77,523.15,521.41,519.74,517.05,514.00,511.30,509.90,509.79,510.35,511.09,511.39,511.38,511.74,512.68,514.18,515.15,515.96,516.78,517.63,518.46,519.00,519.37,519.59,519.59,519.39,518.98,518.40,517.77,517.45,517.29,517.22,517.22,517.26,517.27,517.15,516.86,516.39,515.90,515.38,514.82,514.25,513.71,513.13,512.60,512.19,511.99,511.78,511.43,511.12,510.97,510.84,510.77,510.79,510.84,510.84,510.80,510.77,510.70,510.49,509.89,509.12,508.31,507.50,506.65,505.82,505.02,504.37,504.06,503.82,503.58,503.36,503.13,502.89,502.66,502.43,502.17,501.79,501.14,500.31,499.42,498.52,497.66,496.91,496.31,495.97,495.90,495.87,495.81,495.76,495.81,496.00,495.26,494.04,492.73,491.47,490.31,489.19,488.14,487.34,487.08,486.84,486.79,487.42,488.78,489.91,490.67,491.07,491.31,490.96,490.25,489.13,487.86,489.50,490.74,491.55,492.43,493.34,494.02,494.31,494.28,494.24,494.13,494.04,493.97,493.94,493.86,493.79,493.72,493.61,493.38,492.92,492.48,492.14,491.88,491.57,491.32,491.14,491.03,491.02,490.90,490.79,490.73,490.76,491.00,491.38,491.86,492.40,492.94,493.50,494.09,494.71,495.18,495.13,495.02,494.97,494.88,494.77,494.65,494.56,494.48,494.40,494.32,494.04,493.48,492.71,491.92,491.13,490.37,489.68,489.27,489.46,489.86,490.25,490.63,491.08,491.50,491.87,492.08,491.70,491.01,490.14,489.13,488.09,487.55,487.67,488.33,488.84,488.73,487.99,486.71,485.33,485.84,486.63,487.38,487.98,488.03,487.79,487.23
573.30,570.93,569.38,567.47,565.43,563.40,561.46,559.60,557.87,556.94,557.18,558.70,560.28,561.31,561.62,560.97,559.23,556.48,553.61,551.16,549.31,547.69,546.23,544.99,544.13,543.30,543.01,542.71,541.90,540.95,539.89,538.89,537.99,537.00,536.11,535.02,533.77,532.51,531.59,530.66,529.61,528.39,527.13,526.07,525.87,526.30,526.65,526.94,527.33,527.60,527.55,527.54,527.51,527.37,527.20,527.24,526.48,524.95,523.07,521.18,519.11,516.43,513.71,511.53,510.64,510.82,511.64,512.61,513.04,513.19,513.80,514.89,516.23,517.12,517.86,518.56,519.24,519.88,520.28,520.53,520.65,520.62,520.42,519.97,519.36,518.74,518.46,518.28,518.16,518.10,518.14,518.09,517.86,517.48,517.02,516.55,516.05,515.53,515.01,514.46,513.88,513.34,512.93,512.69,512.42,512.12,511.87,511.75,511.67,511.59,511.58,511.63,511.62,511.56,511.53,511.45,511.16,510.39,509.55,508.73,507.92,507.07,506.22,505.55,505.08,504.83,504.60,504.37,504.13,503.90,503.67,503.44,503.17,502.83,502.28,501.57,500.83,500.07,499.26,498.43,497.72,497.25,497.05,496.97,496.94,496.89,496.81,496.76,496.73,495.86,494.58,493.30,492.08,490.89,489.69,488.53,487.69,487.84,488.15,488.57,489.32,490.34,491.02,491.51,491.86,491.87,491.30,490.58,489.55,488.07,489.41,490.57,491.43,492.35,493.28,494.21,494.79,494.97,494.99,494.88,494.78,494.72,494.69,494.62,494.54,494.47,494.35,494.06,493.67,493.31,493.01,492.76,492.45,492.14,491.88,491.71,491.65,491.54,491.44,491.42,491.56,491.83,492.19,492.62,493.13,493.60,494.08,494.60,495.19,495.78,495.84,495.76,495.68,495.57,495.44,495.35,495.27,495.19,495.12,495.02,494.72,494.16,493.42,492.66,491.91,491.16,490.49,490.26,490.52,490.92,491.31,491.72,492.16,492.56,492.84,492.78,492.08,491.22,490.34,489.45,488.65,488.47,488.82,489.51,490.08,490.07,489.29,487.83,486.23,486.93,487.86,488.60,489.01,488.88,488.77,488.41
573.52,570.76,569.15,567.28,565.30,563.42,561.78,560.29,558.98,558.71,559.56,560.77,562.09,563.05,563.19,562.05,560.73,558.71,556.35,553.88,551.47,549.66,548.37,547.43,546.69,545.80,545.28,544.62,543.37,542.28,541.29,540.26,539.16,538.12,536.91,535.67,534.41,533.15,532.18,531.21,530.16,529.04,527.84,527.12,527.10,527.56,527.98,528.26,528.60,528.84,528.83,528.83,528.72,528.51,528.29,528.25,527.11,525.23,523.07,520.94,518.45,515.64,513.30,512.05,512.03,512.51,513.36,514.30,514.78,515.25,516.06,517.11,518.22,519.02,519.64,520.17,520.61,520.86,521.10,521.34,521.50,521.47,521.27,520.81,520.26,519.75,519.44,519.25,519.10,518.99,518.97,518.79,518.47,518.07,517.60,517.14,516.67,516.19,515.71,515.17,514.63,514.10,513.65,513.39,513.04,512.82,512.68,512.59,512.51,512.43,512.40,512.40,512.40,512.34,512.30,512.11,511.57,510.82,510.00,509.15,508.31,507.46,506.63,506.15,505.91,505.62,505.38,505.15,504.92,504.68,504.45,504.22,503.87,503.38,502.71,502.01,501.35,500.69,499.97,499.20,498.54,498.18,498.13,498.05,497.97,497.90,497.79,497.60,497.51,496.71,495.53,494.30,493.12,491.90,490.60,489.30,488.42,488.67,489.20,489.81,490.51,491.20,491.79,492.33,492.64,492.22,491.51,490.75,489.80,488.64,489.46,490.45,491.37,492.29,493.22,494.15,494.99,495.59,495.69,495.63,495.55,495.48,495.41,495.34,495.26,495.18,495.07,494.84,494.53,494.21,493.90,493.61,493.30,492.99,492.69,492.42,492.27,492.17,492.12,492.17,492.38,492.68,493.03,493.44,493.91,494.38,494.89,495.40,495.88,496.34,496.49,496.47,496.37,496.24,496.14,496.06,495.98,495.90,495.82,495.69,495.49,495.13,494.46,493.75,493.05,492.35,491.71,491.50,491.69,492.04,492.43,492.88,493.28,493.62,493.72,493.24,492.51,491.64,490.82,490.19,489.67,489.46,489.67,490.24,490.79,490.65,489.91,488.61,487.11,487.93,489.05,489.79,489.94,489.75,489.58,489.42
574.24,571.08,569.08,567.29,565.51,563.82,562.42,561.64,561.06,561.18,562.05,563.15,564.17,564.68,564.44,563.21,562.01,560.49,558.94,557.25,554.66,552.45,550.91,549.95,549.26,548.22,547.26,546.19,544.83,543.61,542.58,541.50,540.28,539.01,537.67,536.33,535.01,533.74,532.73,531.70,530.64,529.55,528.49,528.15,528.34,528.79,529.20,529.57,529.83,529.97,529.96,529.92,529.83,529.62,529.36,529.14,527.70,525.50,523.04,520.50,517.16,514.80,513.57,513.40,513.69,514.21,515.04,515.95,516.53,517.30,518.17,519.03,519.77,520.34,520.82,521.21,521.51,521.71,521.91,522.12,522.31,522.36,522.17,521.65,521.10,520.68,520.41,520.23,520.07,519.93,519.77,519.49,519.09,518.65,518.19,517.72,517.26,516.80,516.32,515.83,515.33,514.84,514.39,514.07,513.73,513.58,513.51,513.43,513.35,513.28,513.22,513.19,513.18,513.15,512.94,512.51,511.83,511.11,510.32,509.51,508.70,507.86,507.15,506.86,506.75,506.45,506.21,505.98,505.73,505.47,505.23,504.96,504.52,503.91,503.26,502.57,501.92,501.28,500.59,499.94,499.42,499.09,498.96,498.80,498.67,498.54,498.40,498.23,498.13,497.65,496.75,495.54,494.37,493.12,491.58,489.98,489.11,489.22,489.73,490.37,491.07,491.77,492.45,492.99,493.14,492.52,491.73,490.94,490.09,489.24,489.61,490.43,491.35,492.28,493.21,494.17,495.10,495.90,496.34,496.36,496.28,496.20,496.13,496.09,496.03,495.95,495.84,495.62,495.36,495.07,494.76,494.45,494.14,493.83,493.53,493.23,492.98,492.83,492.83,492.99,493.23,493.52,493.85,494.23,494.69,495.16,495.67,496.18,496.62,496.95,497.11,497.13,497.04,496.93,496.85,496.78,496.68,496.57,496.49,496.38,496.26,496.05,495.61,494.96,494.26,493.57,492.95,492.77,492.96,493.26,493.58,494.00,494.39,494.47,494.20,493.60,492.89,492.06,491.31,490.82,490.56,490.48,490.68,491.15,491.60,491.19,490.30,489.15,488.19,489.03,490.03,490.74,490.99,490.71,490.46,490.30
