514.52,514.63,514.65,514.70,514.77,514.84,514.88,514.95,515.00,515.03,515.05,515.09,515.17,515.62,516.18,516.58,517.14,517.27,517.24,517.27,517.52,517.72,517.89,518.07,518.28,518.45,518.65,518.86,518.98,519.03,518.99,518.91,518.85,518.84,518.77,518.83,518.98,519.18,519.33,519.50,519.67,519.82,520.01,520.30,520.60,520.89,521.28,521.67,522.06,522.44,522.83,523.21,523.55,523.81,524.00,524.19,524.27,524.38,524.60,525.00,525.33,525.71,526.06,526.38,526.76,527.15,527.50,527.80,528.11,528.41,528.67,528.91,529.15,529.44,529.70,529.93,530.13,530.30,530.39,530.45,530.49,530.57,530.63,530.70,530.80,530.95,531.10,531.20,531.28,531.36,531.52,531.69,531.89,532.08,532.24,532.45,532.58,532.70,532.86,533.00,533.16,533.31,533.47,533.63,533.78,533.94,534.09,534.25,534.40,534.60,534.83,535.05,535.22,535.25,535.13,534.94,534.75,534.75,535.03,535.38,535.72,536.10,536.47,536.85,537.24,537.60,537.93,538.30,538.68,539.07,539.46,539.83,540.13,540.36,540.59,540.82,541.05,541.28,541.52,541.75,541.98,542.21,542.42,542.59,542.81,543.04,543.27,543.50,543.73,543.91,544.10,544.33,544.56,544.79,545.02,545.28,545.57,545.82,546.10,546.38,546.62,546.92,547.17,547.39,547.57,547.74,547.85,547.99,548.12,548.20,548.35,548.45,548.56,548.69,548.75,548.98,549.28,549.57,549.82,550.15,550.48,550.81,551.14,551.53,551.90,552.28,552.70,553.14,553.61,554.02,554.40,554.74,555.10,555.42,555.75,556.12,556.48,556.59,556.61,556.63,556.72,556.95,557.33,557.78,558.24,558.69,559.10,559.47,559.81,560.20,560.64,561.07,561.45,561.84,562.22,562.67,563.10,563.44,563.75,564.10,564.46,564.85,565.31,565.79,566.30,566.84,567.37,567.83,568.29,568.66,568.92,569.13,569.35,569.51,569.64,569.74,569.79,569.97,570.23,570.55,571.05,571.67,572.47,573.37,574.07,574.74,575.40,576.04,576.60,576.96,577.52,578.25,579.06,579.80,580.96,582.50
514.40,514.53,514.56,514.63,514.69,514.73,514.77,514.84,514.86,514.86,514.86,514.89,514.90,515.16,515.61,516.15,516.65,516.76,516.81,516.98,517.28,517.47,517.62,517.79,518.02,518.18,518.37,518.57,518.74,518.85,518.84,518.79,518.75,518.72,518.65,518.71,518.89,519.12,519.31,519.47,519.64,519.82,519.99,520.24,520.49,520.74,521.07,521.42,521.79,522.18,522.56,522.91,523.19,523.40,523.60,523.82,523.95,524.15,524.49,524.99,525.32,525.66,526.01,526.35,526.71,527.06,527.40,527.74,528.05,528.36,528.62,528.84,529.09,529.39,529.62,529.85,530.08,530.20,530.26,530.29,530.34,530.42,530.50,530.59,530.73,530.88,531.03,531.10,531.16,531.26,531.44,531.61,531.81,532.01,532.17,532.37,532.53,532.67,532.82,532.95,533.10,533.25,533.40,533.56,533.71,533.87,534.02,534.18,534.37,534.60,534.81,535.00,535.14,535.19,535.10,534.91,534.67,534.60,534.90,535.28,535.63,536.02,536.40,536.77,537.13,537.51,537.86,538.23,538.62,539.00,539.39,539.78,540.10,540.36,540.59,540.82,541.05,541.28,541.51,541.71,541.94,542.17,542.39,542.58,542.81,543.04,543.27,543.50,543.70,543.89,544.10,544.33,544.56,544.77,545.00,545.26,545.54,545.80,546.08,546.35,546.61,546.86,547.07,547.25,547.39,547.52,547.63,547.75,547.86,547.97,548.10,548.21,548.36,548.56,548.69,548.95,549.26,549.56,549.83,550.17,550.52,550.85,551.16,551.51,551.89,552.27,552.68,553.13,553.54,553.90,554.21,554.49,554.76,555.01,555.31,555.71,555.97,556.02,556.07,556.20,556.45,556.81,557.25,557.71,558.17,558.61,559.00,559.36,559.68,560.07,560.49,560.89,561.28,561.66,562.05,562.47,562.88,563.25,563.59,563.97,564.35,564.76,565.22,565.68,566.17,566.69,567.22,567.69,568.06,568.34,568.53,568.69,568.90,569.07,569.16,569.21,569.30,569.53,569.92,570.51,571.30,572.16,573.17,574.18,574.86,575.53,576.23,576.88,577.34,577.63,578.04,578.66,579.53,580.50,581.70,583.05
514.28,514.41,514.49,514.56,514.59,514.63,514.70,514.77,514.79,514.80,514.82,514.88,514.90,514.92,515.18,515.82,516.13,516.32,516.53,516.80,517.02,517.20,517.36,517.53,517.75,517.92,518.08,518.27,518.48,518.63,518.68,518.68,518.66,518.59,518.51,518.58,518.76,518.99,519.22,519.40,519.59,519.81,519.97,520.19,520.43,520.67,520.92,521.21,521.56,521.93,522.30,522.60,522.81,523.01,523.24,523.47,523.65,523.94,524.39,524.97,525.31,525.63,525.97,526.33,526.66,526.97,527.32,527.68,527.98,528.27,528.52,528.76,529.00,529.28,529.48,529.71,529.97,530.06,530.08,530.13,530.20,530.29,530.38,530.51,530.66,530.81,530.95,530.98,531.03,531.15,531.37,531.54,531.74,531.94,532.11,532.26,532.46,532.65,532.81,532.90,533.04,533.19,533.34,533.50,533.65,533.80,533.96,534.14,534.36,534.59,534.77,534.93,535.06,535.14,535.07,534.87,534.58,534.42,534.75,535.18,535.56,535.95,536.33,536.68,537.02,537.40,537.78,538.17,538.55,538.94,539.33,539.71,540.06,540.35,540.58,540.81,541.03,541.26,541.48,541.66,541.88,542.11,542.34,542.57,542.81,543.03,543.26,543.48,543.66,543.87,544.10,544.33,544.55,544.72,544.96,545.25,545.49,545.79,546.04,546.30,546.56,546.74,546.89,547.05,547.18,547.28,547.41,547.52,547.63,547.77,547.88,548.03,548.26,548.54,548.72,548.98,549.27,549.57,549.88,550.20,550.55,550.90,551.21,551.53,551.89,552.27,552.68,553.10,553.43,553.69,553.92,554.16,554.40,554.63,554.95,555.33,555.44,555.49,555.63,555.92,556.36,556.76,557.19,557.65,558.10,558.50,558.88,559.23,559.56,559.94,560.34,560.72,561.11,561.49,561.88,562.26,562.67,563.12,563.51,563.90,564.29,564.69,565.15,565.62,566.08,566.57,567.08,567.52,567.75,567.92,568.08,568.23,568.45,568.63,568.76,568.81,569.04,569.39,569.96,570.85,572.00,573.14,574.29,575.31,575.89,576.48,577.18,577.79,578.09,578.39,578.65,579.21,580.21,581.44,582.76,584.04
514.18,514.29,514.41,514.45,514.50,514.56,514.63,514.65,514.70,514.76,514.80,514.83,514.88,514.90,515.05,515.47,515.83,516.11,516.35,516.54,516.72,516.92,517.10,517.26,517.44,517.65,517.82,518.00,518.22,518.38,518.50,518.56,518.54,518.46,518.38,518.45,518.63,518.87,519.10,519.31,519.53,519.75,519.91,520.13,520.39,520.66,520.90,521.15,521.41,521.71,522.03,522.29,522.55,522.80,523.03,523.27,523.52,523.87,524.33,524.91,525.30,525.63,525.95,526.28,526.64,526.96,527.32,527.66,527.91,528.12,528.34,528.57,528.80,529.00,529.21,529.47,529.73,529.86,529.88,529.93,530.03,530.16,530.29,530.44,530.60,530.74,530.84,530.86,530.93,531.07,531.25,531.46,531.64,531.83,532.03,532.19,532.37,532.56,532.75,532.88,532.99,533.12,533.27,533.43,533.58,533.74,533.92,534.13,534.36,534.55,534.71,534.85,534.95,534.98,534.92,534.72,534.39,534.23,534.63,535.11,535.50,535.88,536.22,536.57,536.94,537.33,537.72,538.10,538.49,538.88,539.26,539.65,540.02,540.34,540.52,540.75,540.94,541.14,541.38,541.63,541.88,542.11,542.34,542.57,542.81,543.00,543.19,543.42,543.64,543.87,544.10,544.32,544.50,544.70,544.93,545.20,545.48,545.74,546.01,546.25,546.40,546.55,546.70,546.83,546.94,547.07,547.17,547.29,547.43,547.59,547.83,548.08,548.39,548.73,548.94,549.10,549.30,549.58,549.94,550.26,550.58,550.90,551.22,551.58,551.92,552.27,552.65,552.95,553.21,553.41,553.61,553.84,554.07,554.34,554.63,554.89,554.99,555.13,555.41,555.83,556.29,556.74,557.16,557.58,558.03,558.43,558.77,559.12,559.49,559.87,560.26,560.65,561.03,561.42,561.81,562.15,562.53,562.99,563.38,563.81,564.22,564.63,565.09,565.55,566.02,566.47,566.87,567.13,567.31,567.46,567.62,567.78,567.95,568.15,568.34,568.54,568.95,569.43,570.25,571.60,573.01,574.24,575.39,576.43,577.03,577.50,578.12,578.66,578.87,579.12,579.36,580.12,581.50,582.58,583.97,585.32
514.09,514.21,514.35,514.39,514.45,514.52,514.57,514.59,514.66,514.73,514.77,514.80,514.87,514.90,515.00,515.28,515.61,515.88,516.10,516.27,516.43,516.65,516.85,516.99,517.16,517.38,517.56,517.74,517.93,518.12,518.27,518.38,518.41,518.33,518.25,518.34,518.54,518.77,518.97,519.20,519.43,519.65,519.84,520.08,520.36,520.63,520.86,521.11,521.38,521.65,521.95,522.19,522.48,522.75,522.99,523.22,523.54,523.89,524.32,524.89,525.30,525.65,525.97,526.29,526.67,526.95,527.23,527.51,527.71,527.89,528.11,528.33,528.53,528.72,528.93,529.18,529.41,529.56,529.63,529.70,529.83,530.06,530.25,530.41,530.55,530.66,530.72,530.73,530.83,531.00,531.16,531.36,531.55,531.74,531.94,532.12,532.28,532.46,532.66,532.84,532.96,533.09,533.24,533.37,533.52,533.69,533.90,534.12,534.30,534.43,534.54,534.64,534.71,534.69,534.61,534.42,534.14,534.08,534.52,535.02,535.43,535.81,536.14,536.49,536.88,537.27,537.65,538.04,538.42,538.81,539.19,539.56,539.93,540.27,540.46,540.68,540.88,541.08,541.32,541.60,541.84,542.07,542.30,542.53,542.77,542.97,543.17,543.39,543.60,543.82,544.06,544.28,544.47,544.69,544.91,545.14,545.43,545.68,545.90,546.09,546.21,546.35,546.49,546.60,546.72,546.87,546.98,547.15,547.37,547.62,547.91,548.23,548.57,548.92,549.16,549.27,549.40,549.62,549.97,550.31,550.63,550.94,551.25,551.58,551.88,552.16,552.45,552.69,552.92,553.12,553.32,553.55,553.78,554.05,554.31,554.53,554.70,555.00,555.40,555.84,556.30,556.74,557.13,557.50,557.90,558.29,558.64,559.00,559.39,559.77,560.16,560.55,560.94,561.35,561.71,562.04,562.39,562.83,563.25,563.70,564.12,564.53,564.99,565.48,565.92,566.28,566.54,566.70,566.86,567.01,567.16,567.33,567.52,567.79,568.11,568.44,568.90,569.45,570.46,572.22,574.03,575.34,576.50,577.53,578.15,578.57,579.22,579.91,580.40,580.96,581.28,582.04,583.38,584.32,585.44,586.64
514.00,514.15,514.29,514.37,514.45,514.50,514.52,514.59,514.66,514.70,514.73,514.79,514.86,514.89,514.98,515.20,515.44,515.62,515.80,516.01,516.18,516.39,516.58,516.74,516.90,517.12,517.29,517.46,517.63,517.85,518.01,518.17,518.26,518.20,518.13,518.24,518.47,518.69,518.86,519.08,519.31,519.54,519.78,520.06,520.33,520.57,520.81,521.10,521.41,521.71,522.01,522.25,522.54,522.81,523.05,523.30,523.65,524.00,524.38,524.90,525.30,525.69,526.03,526.34,526.68,526.89,527.06,527.24,527.40,527.62,527.85,528.05,528.23,528.45,528.67,528.87,529.03,529.17,529.33,529.45,529.64,529.98,530.23,530.40,530.52,530.59,530.60,530.60,530.73,530.93,531.09,531.25,531.45,531.66,531.83,532.04,532.21,532.38,532.55,532.76,532.93,533.08,533.22,533.32,533.47,533.66,533.88,534.07,534.16,534.24,534.28,534.31,534.37,534.32,534.20,534.02,533.84,533.96,534.41,534.92,535.36,535.75,536.07,536.43,536.81,537.20,537.59,537.97,538.36,538.75,539.12,539.45,539.81,540.16,540.39,540.62,540.84,541.07,541.31,541.55,541.78,542.02,542.25,542.48,542.71,542.93,543.16,543.38,543.56,543.77,544.00,544.23,544.45,544.68,544.88,545.07,545.36,545.59,545.74,545.85,546.01,546.15,546.25,546.37,546.52,546.70,546.86,547.11,547.43,547.78,548.11,548.42,548.76,549.12,549.36,549.48,549.55,549.69,550.00,550.35,550.67,550.98,551.27,551.52,551.76,551.97,552.16,552.39,552.62,552.85,553.09,553.32,553.55,553.79,554.03,554.28,554.58,555.03,555.48,555.88,556.33,556.73,557.07,557.39,557.72,558.10,558.48,558.86,559.25,559.63,560.03,560.42,560.83,561.26,561.60,561.91,562.25,562.65,563.11,563.56,563.99,564.39,564.86,565.37,565.75,565.98,566.09,566.24,566.40,566.57,566.76,566.95,567.25,567.63,568.08,568.53,568.92,569.44,570.59,572.74,575.05,576.50,577.67,578.75,579.48,580.00,580.82,581.83,582.84,583.98,584.48,585.05,585.98,586.73,587.40,588.35
513.99,514.14,514.28,514.33,514.38,514.46,514.51,514.59,514.66,514.70,514.72,514.79,514.83,514.86,514.94,515.08,515.25,515.38,515.54,515.75,515.91,516.09,516.29,516.47,516.63,516.81,517.01,517.20,517.37,517.59,517.75,517.91,518.04,518.06,518.00,518.11,518.34,518.57,518.78,519.00,519.24,519.48,519.76,520.02,520.29,520.56,520.81,521.10,521.41,521.72,522.02,522.31,522.57,522.84,523.13,523.41,523.74,524.09,524.47,524.91,525.35,525.75,526.06,526.26,526.44,526.60,526.78,526.97,527.14,527.36,527.56,527.74,527.96,528.18,528.38,528.54,528.69,528.80,529.03,529.28,529.55,529.92,530.17,530.35,530.45,530.46,530.47,530.51,530.63,530.82,531.02,531.18,531.39,531.59,531.75,531.93,532.13,532.31,532.47,532.65,532.85,533.02,533.17,533.31,533.46,533.63,533.76,533.83,533.87,533.93,533.97,533.99,534.05,533.95,533.83,533.68,533.54,533.80,534.32,534.86,535.29,535.63,535.99,536.36,536.75,537.14,537.52,537.91,538.29,538.67,539.01,539.37,539.74,540.09,540.32,540.55,540.78,541.04,541.31,541.55,541.78,542.01,542.24,542.47,542.70,542.91,543.10,543.33,543.54,543.77,544.00,544.22,544.40,544.63,544.81,545.00,545.24,545.39,545.51,545.65,545.80,545.91,546.03,546.17,546.36,546.66,546.93,547.24,547.60,547.93,548.29,548.62,548.95,549.32,549.61,549.72,549.78,549.85,550.06,550.33,550.60,550.86,551.11,551.34,551.58,551.80,552.01,552.24,552.47,552.73,553.00,553.23,553.46,553.73,554.01,554.30,554.61,555.06,555.47,555.83,556.23,556.58,556.89,557.21,557.52,557.90,558.29,558.67,559.05,559.39,559.90,560.35,560.75,561.14,561.47,561.78,562.12,562.51,562.97,563.39,563.82,564.25,564.67,565.10,565.37,565.49,565.58,565.73,565.92,566.20,566.58,567.03,567.45,567.89,568.37,568.87,569.22,569.54,570.68,573.28,576.28,577.96,579.25,580.60,582.05,583.18,584.46,585.82,587.14,588.81,589.60,590.02,590.32,590.37,591.08,592.13
513.99,514.13,514.25,514.29,514.35,514.43,514.50,514.56,514.63,514.68,514.72,514.78,514.80,514.85,514.93,515.01,515.16,515.27,515.42,515.60,515.75,515.90,516.07,516.25,516.40,516.56,516.75,516.93,517.10,517.30,517.49,517.65,517.79,517.88,517.86,517.98,518.21,518.45,518.70,518.96,519.20,519.45,519.75,520.00,520.28,520.57,520.83,521.13,521.44,521.75,522.06,522.37,522.62,522.88,523.20,523.50,523.84,524.18,524.54,524.89,525.30,525.65,525.91,526.06,526.16,526.31,526.49,526.69,526.87,527.08,527.26,527.46,527.69,527.90,528.08,528.28,528.46,528.63,528.89,529.19,529.51,529.86,530.10,530.26,530.34,530.34,530.34,530.42,530.55,530.72,530.92,531.11,531.31,531.50,531.68,531.83,532.03,532.23,532.40,532.56,532.76,532.94,533.11,533.24,533.37,533.49,533.54,533.54,533.55,533.61,533.64,533.65,533.69,533.59,533.48,533.37,533.31,533.68,534.25,534.79,535.22,535.57,535.94,536.33,536.71,537.07,537.46,537.84,538.23,538.61,538.94,539.32,539.70,540.06,540.29,540.52,540.75,541.00,541.28,541.51,541.75,541.98,542.21,542.44,542.67,542.87,543.07,543.30,543.53,543.75,543.95,544.15,544.31,544.51,544.69,544.85,545.05,545.17,545.31,545.46,545.61,545.72,545.89,546.10,546.33,546.68,547.02,547.37,547.73,548.07,548.45,548.78,549.12,549.49,549.80,549.94,550.02,550.09,550.22,550.42,550.63,550.83,551.04,551.25,551.46,551.67,551.90,552.14,552.37,552.64,552.94,553.19,553.43,553.71,554.01,554.30,554.58,554.95,555.30,555.63,556.01,556.35,556.67,556.99,557.36,557.74,558.13,558.50,558.86,559.21,559.79,560.27,560.64,561.02,561.34,561.65,561.99,562.38,562.82,563.23,563.64,564.05,564.41,564.77,564.96,565.04,565.16,565.33,565.65,566.09,566.63,567.23,567.76,568.25,568.72,569.25,569.82,570.35,571.66,574.40,577.65,579.72,581.35,583.02,584.98,586.81,588.75,590.68,592.41,594.28,595.18,595.63,595.87,595.87,596.72,597.85
513.99,514.12,514.21,514.27,514.35,514.43,514.49,514.51,514.57,514.65,514.72,514.78,514.80,514.85,514.93,515.01,515.16,515.31,515.43,515.54,515.69,515.84,515.96,516.07,516.23,516.38,516.54,516.70,516.85,517.01,517.22,517.40,517.55,517.69,517.72,517.86,518.09,518.34,518.63,518.93,519.20,519.45,519.75,520.00,520.28,520.59,520.89,521.20,521.50,521.81,522.12,522.42,522.68,522.95,523.26,523.57,523.93,524.27,524.56,524.81,525.12,525.39,525.59,525.74,525.89,526.05,526.21,526.38,526.60,526.78,526.98,527.22,527.44,527.62,527.83,528.09,528.38,528.66,528.91,529.19,529.50,529.80,530.04,530.16,530.21,530.21,530.22,530.33,530.48,530.65,530.81,531.02,531.21,531.39,531.61,531.77,531.93,532.12,532.33,532.49,532.65,532.84,533.01,533.09,533.17,533.21,533.22,533.22,533.22,533.28,533.32,533.32,533.32,533.24,533.12,533.07,533.20,533.62,534.18,534.73,535.18,535.56,535.94,536.32,536.69,537.02,537.39,537.78,538.17,538.56,538.93,539.31,539.69,540.04,540.28,540.51,540.74,540.98,541.21,541.45,541.68,541.92,542.15,542.38,542.62,542.84,543.07,543.29,543.51,543.70,543.86,544.02,544.17,544.33,544.48,544.64,544.81,544.96,545.12,545.27,545.42,545.59,545.85,546.14,546.45,546.77,547.13,547.48,547.81,548.19,548.57,548.90,549.24,549.61,549.92,550.11,550.26,550.39,550.49,550.63,550.80,550.96,551.13,551.28,551.45,551.64,551.87,552.09,552.32,552.59,552.89,553.17,553.42,553.70,553.98,554.22,554.46,554.71,555.00,555.34,555.72,556.10,556.45,556.81,557.25,557.64,558.04,558.40,558.74,559.12,559.72,560.18,560.52,560.89,561.21,561.52,561.86,562.24,562.63,563.07,563.45,563.78,564.09,564.41,564.58,564.68,564.86,565.09,565.62,566.26,566.87,567.49,568.10,568.63,569.12,569.71,570.76,571.98,573.68,576.21,579.26,581.80,583.98,586.01,588.22,590.76,593.46,596.05,598.23,599.95,600.82,601.50,602.29,603.00,603.98,605.09
513.93,514.08,514.18,514.23,514.29,514.37,514.44,514.49,514.60,514.68,514.72,514.78,514.80,514.85,514.93,515.01,515.16,515.32,515.43,515.52,515.68,515.83,515.94,516.04,516.20,516.35,516.47,516.60,516.75,516.91,517.08,517.23,517.35,517.50,517.61,517.78,518.03,518.32,518.62,518.89,519.16,519.44,519.75,520.04,520.33,520.64,520.95,521.26,521.54,521.82,522.13,522.43,522.72,523.01,523.32,523.63,523.92,524.20,524.45,524.68,524.90,525.13,525.30,525.42,525.57,525.76,525.94,526.12,526.34,526.55,526.81,527.08,527.35,527.56,527.82,528.11,528.41,528.67,528.95,529.25,529.53,529.75,529.98,530.06,530.08,530.08,530.09,530.21,530.39,530.58,530.74,530.91,531.11,531.31,531.50,531.69,531.86,532.05,532.26,532.42,532.57,532.69,532.76,532.80,532.83,532.87,532.89,532.89,532.90,532.96,533.00,533.00,532.98,532.88,532.83,532.93,533.26,533.67,534.17,534.68,535.17,535.56,535.90,536.27,536.64,537.01,537.38,537.77,538.16,538.54,538.88,539.26,539.62,539.94,540.22,540.46,540.69,540.92,541.15,541.38,541.62,541.87,542.14,542.37,542.61,542.84,543.05,543.24,543.38,543.53,543.68,543.83,543.94,544.09,544.24,544.39,544.55,544.74,544.95,545.13,545.31,545.59,545.89,546.23,546.57,546.88,547.22,547.57,547.93,548.31,548.66,548.98,549.30,549.63,549.94,550.24,550.49,550.66,550.75,550.88,551.05,551.19,551.36,551.50,551.66,551.83,552.00,552.14,552.36,552.58,552.80,553.02,553.29,553.56,553.81,554.05,554.32,554.56,554.88,555.29,555.67,556.10,556.51,556.94,557.40,557.84,558.30,558.73,559.07,559.37,559.76,560.11,560.43,560.77,561.08,561.39,561.71,562.06,562.43,562.81,563.15,563.46,563.77,564.08,564.27,564.44,564.70,565.06,565.67,566.36,567.02,567.68,568.35,568.95,569.63,570.70,572.40,574.27,576.29,578.68,581.64,584.35,586.86,589.41,592.52,595.69,598.39,600.70,602.69,604.28,605.33,606.38,607.62,608.72,609.70,610.60
513.89,514.03,514.16,514.19,514.25,514.33,514.41,514.49,514.63,514.71,514.74,514.79,514.80,514.85,514.93,515.01,515.14,515.27,515.39,515.50,515.65,515.79,515.90,516.01,516.17,516.31,516.42,516.53,516.68,516.82,516.97,517.10,517.20,517.34,517.49,517.71,517.98,518.31,518.62,518.87,519.13,519.44,519.75,520.07,520.38,520.68,520.99,521.30,521.57,521.85,522.15,522.46,522.75,523.02,523.28,523.57,523.79,524.00,524.21,524.42,524.60,524.80,524.97,525.10,525.29,525.53,525.75,525.96,526.19,526.44,526.73,527.04,527.32,527.57,527.87,528.17,528.44,528.68,528.94,529.22,529.46,529.61,529.81,529.87,529.88,529.90,529.93,530.10,530.32,530.51,530.67,530.84,531.04,531.24,531.42,531.63,531.81,532.00,532.20,532.33,532.45,532.49,532.49,532.49,532.49,532.54,532.57,532.57,532.57,532.62,532.65,532.67,532.63,532.56,532.64,532.91,533.35,533.76,534.20,534.67,535.17,535.55,535.88,536.23,536.62,537.00,537.37,537.75,538.13,538.48,538.79,539.15,539.51,539.85,540.17,540.42,540.65,540.88,541.12,541.35,541.59,541.86,542.13,542.35,542.55,542.75,542.94,543.07,543.17,543.31,543.45,543.58,543.68,543.83,543.97,544.11,544.29,544.51,544.77,545.03,545.26,545.63,545.96,546.30,546.68,546.99,547.24,547.56,547.93,548.31,548.65,548.98,549.31,549.63,549.94,550.28,550.58,550.80,550.95,551.12,551.28,551.43,551.59,551.74,551.89,552.05,552.19,552.30,552.49,552.67,552.83,553.01,553.27,553.50,553.71,553.93,554.20,554.47,554.85,555.31,555.73,556.20,556.67,557.13,557.60,558.06,558.58,559.07,559.46,559.72,559.96,560.21,560.49,560.79,561.09,561.39,561.70,562.01,562.36,562.67,562.97,563.26,563.55,563.86,564.11,564.34,564.64,565.08,565.72,566.43,567.13,567.85,568.55,569.22,570.10,571.70,573.82,576.04,578.32,580.84,583.94,586.94,589.86,592.92,596.54,599.90,602.50,604.63,606.62,608.38,609.99,611.60,613.14,614.22,615.06,615.70
513.89,514.02,514.11,514.18,514.25,514.33,514.41,514.49,514.63,514.74,514.79,514.80,514.80,514.85,514.93,515.00,515.09,515.17,515.29,515.43,515.58,515.68,515.80,515.95,516.10,516.20,516.32,516.47,516.61,516.71,516.85,516.99,517.12,517.22,517.36,517.61,517.93,518.30,518.61,518.87,519.13,519.44,519.75,520.07,520.38,520.69,521.00,521.30,521.61,521.90,522.21,522.51,522.76,522.93,523.07,523.30,523.47,523.64,523.81,523.98,524.20,524.37,524.56,524.80,525.10,525.39,525.69,525.96,526.20,526.49,526.79,527.08,527.33,527.62,527.93,528.20,528.43,528.66,528.85,529.06,529.25,529.35,529.50,529.55,529.58,529.64,529.74,530.03,530.28,530.45,530.61,530.82,531.01,531.19,531.40,531.58,531.78,531.97,532.11,532.19,532.22,532.23,532.23,532.23,532.23,532.24,532.25,532.25,532.25,532.25,532.30,532.33,532.28,532.32,532.62,533.02,533.43,533.87,534.28,534.71,535.16,535.54,535.87,536.22,536.61,536.99,537.31,537.68,538.03,538.35,538.66,538.98,539.37,539.80,540.16,540.42,540.65,540.88,541.12,541.35,541.63,541.89,542.11,542.27,542.39,542.52,542.66,542.76,542.89,543.05,543.17,543.27,543.41,543.56,543.68,543.80,544.02,544.26,544.58,544.95,545.31,545.69,546.02,546.36,546.71,547.01,547.16,547.39,547.73,548.12,548.49,548.87,549.25,549.61,549.92,550.19,550.47,550.76,551.03,551.27,551.45,551.61,551.77,551.93,552.09,552.24,552.40,552.54,552.71,552.87,553.04,553.25,553.43,553.60,553.76,553.93,554.11,554.43,554.88,555.39,555.85,556.37,556.86,557.32,557.79,558.25,558.77,559.30,559.78,560.10,560.35,560.55,560.76,561.05,561.30,561.59,561.90,562.20,562.45,562.75,563.03,563.27,563.52,563.82,564.15,564.45,564.67,565.10,565.78,566.51,567.21,567.97,568.68,569.41,570.51,572.52,574.66,576.83,579.27,582.28,585.77,589.28,592.79,596.29,599.65,602.61,605.18,607.60,610.09,612.51,615.09,617.42,619.06,619.61,620.24,620.62
513.89,514.02,514.10,514.13,514.19,514.29,514.40,514.49,514.63,514.74,514.80,514.80,514.84,514.88,514.93,515.00,515.04,515.10,515.21,515.36,515.47,515.59,515.73,515.88,515.99,516.11,516.25,516.39,516.50,516.62,516.77,516.90,517.02,517.13,517.24,517.48,517.80,518.14,518.50,518.82,519.13,519.44,519.75,520.07,520.40,520.74,521.05,521.36,521.64,521.89,522.11,522.33,522.49,522.61,522.71,522.89,523.05,523.23,523.41,523.58,523.80,523.94,524.22,524.70,525.09,525.42,525.70,525.97,526.25,526.55,526.84,527.10,527.37,527.60,527.85,528.08,528.28,528.50,528.67,528.82,528.95,529.03,529.13,529.19,529.25,529.37,529.61,529.93,530.20,530.39,530.59,530.78,530.98,531.17,531.36,531.55,531.71,531.82,531.88,531.92,531.92,531.92,531.92,531.92,531.92,531.92,531.92,531.92,531.92,531.92,531.96,532.02,532.06,532.31,532.69,533.10,533.49,533.90,534.30,534.70,535.10,535.45,535.80,536.15,536.51,536.88,537.20,537.53,537.85,538.13,538.48,538.86,539.29,539.74,540.16,540.46,540.70,540.94,541.17,541.40,541.60,541.78,541.95,542.07,542.18,542.30,542.41,542.53,542.64,542.78,542.91,543.00,543.14,543.27,543.38,543.52,543.72,544.06,544.49,544.93,545.32,545.70,545.97,546.19,546.40,546.62,546.84,547.12,547.49,547.87,548.21,548.59,548.98,549.34,549.62,549.92,550.26,550.59,550.86,551.13,551.36,551.57,551.81,552.01,552.24,552.44,552.59,552.75,552.94,553.12,553.27,553.46,553.62,553.77,553.93,554.08,554.25,554.54,554.99,555.51,555.98,556.51,557.00,557.47,557.94,558.44,558.94,559.45,559.98,560.46,560.77,560.98,561.15,561.38,561.61,561.86,562.14,562.45,562.73,563.02,563.32,563.58,563.82,564.12,564.42,564.70,564.97,565.37,565.98,566.70,567.43,568.16,568.86,569.74,571.06,573.14,575.26,577.35,579.73,582.71,586.13,589.58,593.27,597.15,600.75,603.73,606.44,609.31,612.64,615.97,618.48,620.36,621.68,622.55,623.49,624.39
513.87,514.00,514.07,514.10,514.15,514.26,514.40,514.49,514.63,514.74,514.80,514.82,514.88,514.91,514.94,514.99,515.00,515.06,515.15,515.27,515.37,515.51,515.66,515.78,515.88,516.03,516.17,516.29,516.40,516.55,516.69,516.80,516.91,517.04,517.13,517.34,517.64,517.98,518.36,518.73,519.08,519.41,519.73,520.06,520.41,520.76,521.07,521.35,521.57,521.75,521.91,522.06,522.14,522.21,522.31,522.46,522.62,522.81,523.00,523.17,523.38,523.57,523.98,524.64,525.12,525.48,525.75,526.00,526.29,526.57,526.80,527.04,527.32,527.50,527.72,527.91,528.08,528.29,528.44,528.54,528.62,528.71,528.78,528.85,528.94,529.11,529.49,529.85,530.13,530.35,530.56,530.74,530.94,531.14,531.31,531.50,531.59,531.62,531.62,531.62,531.62,531.62,531.62,531.62,531.62,531.62,531.62,531.62,531.62,531.62,531.66,531.75,531.90,532.31,532.71,533.10,533.48,533.87,534.26,534.64,535.00,535.33,535.70,536.04,536.37,536.71,537.03,537.33,537.58,537.82,538.23,538.71,539.19,539.67,540.14,540.49,540.74,540.95,541.17,541.37,541.47,541.59,541.73,541.83,541.96,542.07,542.18,542.31,542.41,542.53,542.65,542.75,542.89,542.98,543.10,543.26,543.46,543.89,544.40,544.89,545.27,545.58,545.76,545.88,545.99,546.18,546.48,546.83,547.21,547.58,547.91,548.27,548.65,549.02,549.33,549.69,550.05,550.37,550.61,550.90,551.17,551.43,551.72,551.98,552.27,552.53,552.73,552.92,553.14,553.33,553.49,553.64,553.81,553.97,554.12,554.28,554.44,554.73,555.15,555.66,556.13,556.65,557.13,557.60,558.07,558.61,559.09,559.59,560.14,560.73,561.13,561.41,561.61,561.77,561.96,562.17,562.42,562.73,563.04,563.35,563.66,563.95,564.19,564.49,564.77,565.05,565.36,565.73,566.26,566.92,567.68,568.38,569.06,570.06,571.52,573.56,575.60,577.59,579.82,582.56,585.75,588.98,592.58,596.55,600.40,603.44,606.27,609.50,613.61,617.70,620.15,621.61,622.59,623.68,624.89,626.25
513.80,513.94,514.01,514.08,514.15,514.26,514.40,514.49,514.63,514.74,514.82,514.87,514.90,514.94,514.99,515.00,515.00,515.06,515.11,515.16,515.30,515.45,515.56,515.67,515.82,515.96,516.07,516.18,516.33,516.48,516.59,516.70,516.83,516.92,517.00,517.18,517.47,517.84,518.23,518.57,518.91,519.28,519.66,520.03,520.38,520.69,520.99,521.18,521.31,521.43,521.59,521.74,521.78,521.83,521.92,522.07,522.23,522.39,522.55,522.70,522.87,523.31,523.92,524.58,525.11,525.52,525.81,526.05,526.28,526.47,526.64,526.83,527.08,527.30,527.53,527.72,527.87,528.03,528.14,528.22,528.32,528.44,528.47,528.53,528.66,528.92,529.36,529.80,530.13,530.34,530.51,530.72,530.91,531.09,531.28,531.33,531.35,531.36,531.36,531.36,531.36,531.36,531.36,531.36,531.36,531.36,531.36,531.36,531.36,531.36,531.40,531.53,531.81,532.19,532.58,532.97,533.35,533.74,534.13,534.48,534.81,535.18,535.57,535.91,536.20,536.47,536.77,537.03,537.21,537.39,537.88,538.45,539.02,539.54,540.06,540.46,540.70,540.87,541.03,541.13,541.22,541.33,541.48,541.62,541.72,541.84,541.97,542.06,542.20,542.31,542.42,542.55,542.64,542.72,542.84,543.01,543.26,543.74,544.28,544.76,545.10,545.19,545.27,545.38,545.56,545.84,546.20,546.54,546.88,547.27,547.64,547.98,548.33,548.73,549.21,549.63,549.91,550.11,550.35,550.65,550.95,551.23,551.48,551.77,552.08,552.40,552.75,553.03,553.27,553.46,553.61,553.78,553.99,554.16,554.32,554.47,554.63,554.96,555.39,555.86,556.33,556.80,557.27,557.73,558.20,558.74,559.22,559.72,560.26,560.81,561.32,561.77,562.13,562.27,562.38,562.53,562.75,563.06,563.37,563.67,563.99,564.28,564.51,564.81,565.15,565.50,565.81,566.13,566.58,567.18,567.94,568.63,569.28,570.28,571.74,573.62,575.51,577.39,579.38,581.71,584.63,587.57,590.72,594.21,598.04,601.08,603.82,607.13,611.73,616.05,619.06,620.84,621.62,622.32,623.43,624.66
513.79,513.91,513.95,514.02,514.13,514.26,514.40,514.49,514.63,514.74,514.82,514.89,514.93,514.98,515.00,515.00,515.00,515.06,515.10,515.12,515.23,515.35,515.46,515.59,515.74,515.86,515.98,516.11,516.26,516.38,516.46,516.58,516.71,516.79,516.87,517.04,517.31,517.67,518.05,518.41,518.75,519.09,519.37,519.86,520.27,520.55,520.73,520.90,521.00,521.11,521.26,521.41,521.45,521.45,521.48,521.63,521.79,521.94,522.11,522.32,522.62,523.18,523.85,524.52,525.06,525.44,525.71,525.90,526.09,526.24,526.43,526.65,526.91,527.11,527.30,527.43,527.53,527.68,527.80,527.89,528.00,528.13,528.15,528.20,528.40,528.78,529.27,529.74,530.07,530.30,530.49,530.69,530.83,530.94,531.04,531.05,531.05,531.05,531.05,531.05,531.05,531.05,531.05,531.05,531.05,531.05,531.05,531.06,531.09,531.13,531.21,531.37,531.64,532.01,532.40,532.79,533.17,533.52,533.89,534.27,534.62,535.00,535.32,535.63,535.93,536.19,536.43,536.61,536.71,536.82,537.22,537.80,538.38,538.97,539.68,540.26,540.52,540.65,540.80,540.88,540.99,541.10,541.22,541.38,541.50,541.62,541.73,541.85,541.96,542.08,542.21,542.36,542.48,542.59,542.75,542.95,543.16,543.58,544.07,544.50,544.77,544.84,544.88,544.99,545.21,545.56,545.93,546.27,546.61,546.99,547.34,547.69,548.05,548.46,548.95,549.36,549.65,549.87,550.18,550.49,550.82,551.14,551.42,551.72,552.06,552.41,552.75,553.06,553.30,553.51,553.70,553.90,554.09,554.28,554.46,554.62,554.78,555.17,555.64,556.10,556.57,557.07,557.55,558.00,558.47,558.93,559.39,559.89,560.43,560.97,561.48,561.99,562.45,562.77,562.92,563.04,563.18,563.38,563.65,563.98,564.31,564.61,564.88,565.19,565.54,565.90,566.21,566.52,566.92,567.44,568.10,568.75,569.38,570.30,571.62,573.40,575.20,577.00,578.78,580.75,583.37,586.14,588.74,591.29,594.28,597.33,600.31,603.78,608.33,612.65,615.73,617.68,618.69,619.44,620.66,621.89
513.78,513.89,513.91,513.98,514.11,514.26,514.40,514.49,514.63,514.74,514.82,514.90,514.98,515.00,515.00,515.00,515.01,515.06,515.10,515.11,515.18,515.25,515.37,515.52,515.66,515.76,515.89,516.04,516.17,516.25,516.34,516.46,516.59,516.66,516.75,516.91,517.16,517.49,517.87,518.23,518.55,518.81,519.03,519.61,520.08,520.34,520.44,520.58,520.67,520.78,520.94,521.07,521.11,521.08,521.06,521.19,521.35,521.50,521.68,521.95,522.42,523.06,523.76,524.43,524.98,525.32,525.52,525.68,525.84,526.00,526.22,526.48,526.75,526.89,527.03,527.10,527.14,527.29,527.44,527.56,527.66,527.79,527.81,527.90,528.17,528.65,529.18,529.66,530.00,530.24,530.47,530.62,530.71,530.75,530.75,530.74,530.73,530.72,530.72,530.72,530.72,530.72,530.72,530.72,530.72,530.73,530.74,530.77,530.84,530.93,531.05,531.23,531.47,531.83,532.20,532.58,532.95,533.28,533.65,534.02,534.37,534.70,534.98,535.29,535.60,535.86,536.03,536.13,536.18,536.23,536.48,537.01,537.59,538.25,539.18,539.96,540.28,540.39,540.54,540.63,540.76,540.88,540.99,541.13,541.29,541.41,541.54,541.69,541.80,541.95,542.12,542.28,542.44,542.60,542.80,543.01,543.18,543.47,543.86,544.22,544.42,544.53,544.57,544.69,544.94,545.30,545.67,546.02,546.36,546.73,547.06,547.42,547.79,548.19,548.63,549.03,549.35,549.66,550.06,550.39,550.75,551.11,551.41,551.72,552.09,552.44,552.75,553.04,553.29,553.53,553.77,554.00,554.18,554.38,554.57,554.74,554.94,555.40,555.90,556.36,556.84,557.36,557.85,558.32,558.77,559.18,559.62,560.10,560.62,561.15,561.63,562.13,562.68,563.18,563.43,563.57,563.67,563.77,563.97,564.27,564.60,564.92,565.26,565.59,565.94,566.29,566.60,566.91,567.28,567.71,568.24,568.83,569.43,570.26,571.43,573.07,574.80,576.52,578.17,579.87,582.18,584.66,586.74,588.46,590.55,593.37,596.39,599.82,604.03,608.13,611.17,613.24,614.45,615.37,616.63,617.81
513.75,513.84,513.90,513.98,514.11,514.26,514.40,514.49,514.63,514.74,514.83,514.96,515.00,515.00,515.00,515.01,515.06,515.09,515.10,515.10,515.12,515.19,515.30,515.45,515.54,515.67,515.82,515.95,516.04,516.13,516.25,516.37,516.46,516.54,516.67,516.79,516.98,517.35,517.74,517.99,518.18,518.39,518.74,519.26,519.73,520.03,520.17,520.27,520.35,520.46,520.60,520.69,520.71,520.71,520.72,520.81,520.96,521.11,521.29,521.58,522.18,522.87,523.57,524.25,524.89,525.12,525.26,525.41,525.58,525.79,526.06,526.33,526.54,526.59,526.62,526.67,526.75,526.90,527.06,527.20,527.33,527.40,527.42,527.65,528.04,528.52,529.05,529.53,529.90,530.18,530.40,530.51,530.55,530.56,530.55,530.49,530.43,530.40,530.40,530.40,530.40,530.40,530.40,530.40,530.40,530.44,530.50,530.57,530.65,530.77,530.92,531.10,531.34,531.65,531.97,532.32,532.70,533.08,533.45,533.75,533.94,534.10,534.47,534.89,535.23,535.37,535.51,535.61,535.66,535.67,535.74,536.19,536.78,537.50,538.60,539.57,539.99,540.13,540.28,540.43,540.53,540.64,540.79,540.94,541.09,541.28,541.48,541.70,541.90,542.11,542.33,542.53,542.69,542.90,543.13,543.34,543.48,543.51,543.70,543.94,544.11,544.31,544.46,544.60,544.79,545.05,545.41,545.79,546.15,546.48,546.85,547.18,547.53,547.92,548.32,548.66,549.07,549.55,550.05,550.38,550.75,551.11,551.41,551.72,552.09,552.44,552.74,552.99,553.27,553.53,553.78,554.07,554.30,554.48,554.64,554.83,555.16,555.66,556.16,556.62,557.10,557.62,558.11,558.58,559.04,559.49,559.90,560.31,560.75,561.28,561.76,562.26,562.81,563.34,563.75,564.06,564.25,564.34,564.44,564.52,564.75,565.15,565.63,566.02,566.36,566.68,566.99,567.30,567.67,568.04,568.42,568.91,569.46,570.26,571.35,572.71,574.32,576.00,577.67,579.34,581.28,583.10,584.79,586.44,588.23,590.09,592.23,594.93,598.44,601.84,605.02,607.19,608.13,609.05,610.01,610.87
513.75,513.82,513.90,513.98,514.11,514.25,514.37,514.48,514.63,514.74,514.84,514.98,515.00,515.00,515.01,515.05,515.09,515.10,515.10,515.11,515.14,515.18,515.25,515.34,515.45,515.57,515.71,515.84,515.92,516.03,516.15,516.25,516.33,516.45,516.56,516.66,516.82,517.12,517.41,517.60,517.75,517.95,518.33,518.75,519.14,519.47,519.72,519.88,520.03,520.16,520.27,520.32,520.33,520.33,520.34,520.39,520.49,520.67,520.95,521.36,522.02,522.69,523.34,523.93,524.41,524.62,524.82,525.06,525.35,525.62,525.89,526.11,526.21,526.19,526.19,526.24,526.36,526.51,526.70,526.89,527.02,527.02,527.02,527.26,527.63,528.12,528.65,529.15,529.67,530.11,530.28,530.35,530.34,530.32,530.31,530.27,530.20,530.16,530.15,530.08,530.01,529.99,530.00,530.08,530.14,530.22,530.30,530.38,530.49,530.64,530.81,531.00,531.20,531.44,531.74,532.11,532.47,532.76,533.05,533.25,533.37,533.50,533.84,534.25,534.60,534.75,534.90,535.00,535.08,535.13,535.15,535.41,535.76,536.28,537.27,538.30,539.09,539.67,540.10,540.31,540.47,540.64,540.82,541.01,541.20,541.42,541.66,541.92,542.16,542.39,542.62,542.85,543.04,543.23,543.45,543.66,543.81,543.85,543.97,544.14,544.33,544.52,544.66,544.75,544.82,544.96,545.29,545.70,546.11,546.49,546.87,547.25,547.62,547.98,548.36,548.66,549.06,549.56,550.05,550.38,550.75,551.11,551.41,551.72,552.09,552.44,552.73,552.97,553.27,553.53,553.79,554.09,554.33,554.53,554.72,554.96,555.40,555.89,556.39,556.88,557.35,557.88,558.37,558.85,559.34,559.77,560.14,560.49,560.88,561.38,561.88,562.39,562.94,563.48,563.98,564.39,564.70,564.86,564.95,564.99,565.13,565.43,565.89,566.32,566.72,567.07,567.38,567.69,568.06,568.41,568.74,569.13,569.59,570.37,571.46,572.68,574.06,575.64,577.33,579.07,580.88,582.54,584.13,585.68,587.21,588.50,589.82,591.41,593.46,595.66,598.52,601.01,602.64,604.02,605.09,606.04
513.73,513.81,513.90,513.98,514.11,514.23,514.33,514.47,514.63,514.75,514.85,514.98,515.00,515.00,515.03,515.09,515.10,515.10,515.10,515.11,515.17,515.20,515.20,515.25,515.38,515.47,515.59,515.71,515.81,515.95,516.04,516.12,516.22,516.36,516.46,516.55,516.68,516.88,517.05,517.21,517.36,517.55,517.89,518.19,518.49,518.80,519.15,519.41,519.65,519.83,519.90,519.91,519.91,519.92,519.94,519.96,520.04,520.26,520.63,521.20,521.87,522.47,523.00,523.45,523.71,523.94,524.26,524.68,525.15,525.48,525.69,525.82,525.80,525.74,525.74,525.82,525.97,526.14,526.36,526.58,526.72,526.66,526.64,526.78,527.09,527.56,528.08,528.59,529.25,529.87,529.99,530.03,529.99,529.92,529.87,529.84,529.83,529.81,529.75,529.63,529.49,529.43,529.48,529.67,529.84,529.98,530.09,530.21,530.35,530.52,530.71,530.91,531.08,531.24,531.54,531.91,532.24,532.43,532.60,532.74,532.85,533.02,533.30,533.62,533.92,534.14,534.30,534.42,534.54,534.67,534.70,534.78,534.88,535.13,535.90,536.95,538.10,539.18,539.96,540.26,540.50,540.74,540.98,541.20,541.45,541.68,541.94,542.23,542.47,542.70,542.93,543.16,543.39,543.58,543.78,543.99,544.14,544.31,544.43,544.56,544.76,544.91,545.00,545.02,544.97,545.00,545.32,545.75,546.21,546.65,547.05,547.49,547.89,548.23,548.61,548.88,549.20,549.62,550.06,550.38,550.75,551.11,551.42,551.73,552.10,552.44,552.73,552.97,553.27,553.53,553.78,554.08,554.32,554.57,554.82,555.12,555.63,556.11,556.61,557.13,557.61,558.14,558.63,559.12,559.63,560.03,560.36,560.67,561.01,561.46,561.99,562.52,563.07,563.61,564.14,564.63,565.04,565.35,565.48,565.55,565.62,565.77,566.13,566.56,567.01,567.43,567.76,568.08,568.45,568.80,569.11,569.43,569.81,570.58,571.66,572.83,574.00,575.47,577.18,578.98,580.70,582.36,583.92,585.37,586.70,587.63,588.31,588.89,589.55,590.56,592.75,595.28,597.65,599.77,601.18,602.33
513.67,513.76,513.89,513.98,514.11,514.25,514.38,514.48,514.63,514.77,514.90,514.98,515.00,515.00,515.03,515.09,515.10,515.10,515.10,515.10,515.13,515.18,515.20,515.23,515.32,515.40,515.49,515.60,515.73,515.83,515.91,516.02,516.14,516.25,516.38,516.51,516.64,516.76,516.91,517.06,517.19,517.31,517.52,517.72,517.90,518.14,518.46,518.75,519.05,519.28,519.39,519.40,519.40,519.46,519.56,519.63,519.75,519.99,520.39,521.00,521.63,522.04,522.33,522.58,522.81,523.04,523.61,524.40,525.05,525.31,525.37,525.35,525.30,525.28,525.32,525.42,525.59,525.81,526.03,526.23,526.34,526.32,526.26,526.25,526.42,526.84,527.32,527.71,528.36,529.03,529.08,529.18,529.17,529.01,528.74,528.57,528.78,528.86,528.72,528.67,528.58,528.51,528.59,528.96,529.25,529.55,529.83,530.06,530.23,530.43,530.62,530.80,531.01,531.17,531.44,531.72,531.94,532.15,532.36,532.57,532.76,532.98,533.22,533.38,533.52,533.74,533.90,534.09,534.26,534.41,534.53,534.66,534.76,534.96,535.55,536.65,537.80,538.93,539.94,540.31,540.60,540.89,541.16,541.40,541.68,541.97,542.25,542.50,542.74,542.97,543.20,543.42,543.66,543.92,544.14,544.31,544.48,544.73,544.91,545.04,545.15,545.26,545.29,545.32,545.35,545.38,545.69,546.12,546.57,546.98,547.42,547.83,548.25,548.67,549.05,549.32,549.52,549.73,550.07,550.38,550.75,551.11,551.42,551.78,552.12,552.44,552.73,552.97,553.27,553.53,553.77,554.03,554.31,554.60,554.94,555.36,555.84,556.35,556.85,557.34,557.86,558.40,558.89,559.38,559.89,560.24,560.55,560.87,561.19,561.60,562.12,562.65,563.20,563.73,564.22,564.73,565.26,565.75,566.02,566.09,566.14,566.25,566.47,566.79,567.22,567.66,568.08,568.45,568.84,569.19,569.50,569.81,570.23,570.96,571.98,573.14,574.30,575.77,577.44,579.12,580.52,581.96,583.40,584.78,586.00,586.73,587.30,587.89,588.59,589.26,590.14,591.33,593.18,596.32,598.24,599.42
513.64,513.74,513.89,513.98,514.11,514.26,514.40,514.49,514.63,514.76,514.88,514.98,515.00,515.00,515.03,515.09,515.07,515.06,515.06,515.06,515.06,515.13,515.16,515.17,515.22,515.29,515.39,515.51,515.63,515.74,515.85,515.96,516.08,516.20,516.34,516.50,516.63,516.71,516.86,516.99,517.11,517.23,517.38,517.53,517.67,517.84,518.11,518.36,518.61,518.80,518.91,518.95,519.01,519.12,519.25,519.34,519.51,519.77,520.16,520.70,521.18,521.45,521.61,521.75,521.95,522.25,522.94,523.81,524.35,524.56,524.59,524.48,524.25,523.91,524.02,524.57,525.27,525.51,525.75,525.90,525.96,525.95,525.88,525.80,525.84,526.09,526.50,526.73,526.92,527.08,527.23,527.57,527.58,527.33,527.03,527.13,527.45,527.63,527.65,527.77,527.96,528.20,528.52,528.96,529.26,529.58,529.87,530.10,530.29,530.51,530.70,530.88,531.10,531.27,531.52,531.81,532.07,532.36,532.60,532.83,533.06,533.27,533.60,533.76,533.85,534.07,534.18,534.35,534.52,534.68,534.80,534.90,534.98,535.18,535.79,536.84,537.80,538.71,539.62,540.16,540.51,540.83,541.13,541.43,541.76,542.06,542.34,542.60,542.86,543.13,543.39,543.64,543.88,544.17,544.43,544.64,544.84,545.10,545.30,545.43,545.51,545.62,545.66,545.72,545.78,545.84,546.11,546.49,546.92,547.34,547.77,548.17,548.58,549.01,549.45,549.73,549.87,549.96,550.21,550.48,550.79,551.11,551.42,551.81,552.13,552.44,552.73,552.97,553.24,553.53,553.81,554.08,554.38,554.69,555.08,555.57,556.07,556.57,557.06,557.54,558.08,558.62,559.11,559.59,560.07,560.40,560.71,561.03,561.38,561.77,562.23,562.73,563.25,563.78,564.28,564.79,565.35,565.96,566.41,566.60,566.70,566.80,566.95,567.16,567.49,567.91,568.37,568.79,569.19,569.55,569.90,570.30,570.76,571.42,572.34,573.47,574.63,576.14,577.83,579.41,580.49,581.56,582.79,584.11,585.16,585.85,586.47,587.14,587.88,588.42,588.85,589.45,590.72,593.43,595.42,596.84
513.62,513.72,513.87,513.96,514.10,514.25,514.39,514.49,514.63,514.74,514.84,514.98,515.00,515.00,515.03,515.07,515.02,515.00,515.00,515.00,515.00,515.06,515.09,515.10,515.11,515.18,515.31,515.43,515.53,515.68,515.83,515.94,516.04,516.19,516.34,516.49,516.62,516.71,516.85,516.95,517.07,517.21,517.37,517.52,517.64,517.77,517.99,518.16,518.33,518.47,518.55,518.64,518.76,518.89,519.01,519.10,519.28,519.54,519.88,520.29,520.56,520.75,520.87,520.97,521.13,521.50,522.17,522.89,523.21,523.40,523.47,523.33,522.88,522.08,522.22,523.32,524.75,525.15,525.44,525.56,525.57,525.56,525.50,525.37,525.18,525.08,525.39,525.51,525.16,524.73,525.06,525.65,525.78,525.61,525.50,526.08,526.44,526.69,526.96,527.26,527.76,528.40,529.01,529.42,529.67,529.89,530.09,530.26,530.49,530.71,530.90,531.08,531.30,531.47,531.73,532.06,532.44,532.81,533.09,533.33,533.56,533.75,534.21,534.46,534.58,534.76,534.80,534.93,535.09,535.23,535.32,535.36,535.40,535.63,536.32,537.26,537.99,538.59,539.23,539.92,540.34,540.65,540.99,541.35,541.73,542.03,542.29,542.60,542.90,543.21,543.51,543.81,544.05,544.35,544.65,544.94,545.18,545.43,545.62,545.75,545.84,545.98,546.08,546.16,546.25,546.33,546.53,546.85,547.26,547.71,548.11,548.50,548.89,549.29,549.79,550.10,550.23,550.27,550.44,550.66,550.89,551.15,551.47,551.82,552.13,552.44,552.73,552.98,553.22,553.54,553.89,554.19,554.50,554.82,555.23,555.77,556.31,556.80,557.28,557.75,558.29,558.82,559.31,559.77,560.21,560.54,560.86,561.21,561.60,561.99,562.37,562.78,563.25,563.78,564.32,564.81,565.37,566.04,566.64,567.04,567.25,567.37,567.52,567.62,567.84,568.18,568.62,569.09,569.50,569.91,570.35,570.87,571.34,571.92,572.71,573.77,574.93,576.50,578.25,579.78,580.57,581.25,582.24,583.46,584.30,585.00,585.73,586.48,587.22,587.74,588.26,588.85,589.69,591.31,593.10,594.82
513.47,513.60,513.76,513.89,514.03,514.19,514.34,514.48,514.63,514.74,514.84,514.98,515.00,515.00,515.01,515.02,515.01,515.00,515.00,514.99,514.94,514.95,514.99,515.03,515.04,515.11,515.23,515.38,515.51,515.67,515.83,515.94,516.04,516.19,516.34,516.46,516.58,516.70,516.80,516.93,517.04,517.15,517.31,517.46,517.60,517.75,517.92,518.08,518.27,518.45,518.58,518.71,518.77,518.83,518.87,518.90,519.00,519.14,519.34,519.62,519.81,519.98,520.10,520.18,520.28,520.55,520.95,521.40,521.70,521.97,522.09,522.00,521.58,520.71,520.63,521.57,523.18,524.30,524.91,525.14,525.18,525.18,525.16,524.74,523.90,522.96,523.11,523.37,523.49,523.57,523.95,524.41,525.08,525.77,526.34,527.12,527.57,527.84,528.04,528.26,528.72,529.22,529.65,529.89,530.07,530.21,530.35,530.51,530.74,530.93,531.12,531.32,531.50,531.71,531.99,532.32,532.70,533.09,533.40,533.71,534.03,534.26,534.69,534.97,535.08,535.15,535.21,535.37,535.56,535.70,535.83,535.90,535.97,536.17,536.78,537.59,538.27,538.83,539.34,539.84,540.24,540.60,540.96,541.29,541.67,542.00,542.29,542.60,542.91,543.21,543.53,543.83,544.12,544.42,544.73,545.05,545.38,545.68,545.91,546.08,546.17,546.31,546.45,546.58,546.70,546.78,546.90,547.20,547.64,548.04,548.44,548.86,549.26,549.60,549.97,550.36,550.58,550.66,550.81,550.99,551.20,551.43,551.69,551.91,552.16,552.44,552.74,553.03,553.32,553.63,553.96,554.26,554.57,554.96,555.43,555.98,556.56,557.10,557.59,558.06,558.54,559.03,559.50,559.95,560.35,560.72,561.08,561.48,561.91,562.29,562.64,562.92,563.25,563.78,564.27,564.78,565.37,566.05,566.67,567.26,567.67,567.89,568.04,568.13,568.29,568.52,568.84,569.29,569.77,570.32,570.91,571.44,571.93,572.43,573.05,573.95,575.12,576.74,578.51,579.98,580.71,581.33,582.14,583.07,583.71,584.35,585.04,585.77,586.52,587.11,587.75,588.54,589.62,591.14,592.80,594.50
513.19,513.29,513.42,513.57,513.73,513.88,514.04,514.19,514.35,514.47,514.61,514.83,514.96,515.00,515.00,515.00,515.00,514.98,514.89,514.75,514.67,514.68,514.76,514.89,515.00,515.08,515.20,515.36,515.51,515.67,515.80,515.92,516.03,516.16,516.30,516.43,516.54,516.66,516.77,516.89,517.01,517.12,517.25,517.40,517.55,517.71,517.87,518.04,518.24,518.42,518.58,518.73,518.83,518.88,518.90,518.91,518.95,519.00,519.09,519.26,519.37,519.47,519.55,519.60,519.65,519.81,520.01,520.25,520.50,520.73,520.86,520.83,520.56,519.95,519.84,520.45,521.67,522.95,523.78,523.96,523.82,523.71,523.46,523.11,522.49,521.80,522.00,522.38,522.78,523.17,523.57,524.04,525.05,526.25,527.32,528.27,528.77,529.02,529.15,529.29,529.58,529.88,530.12,530.27,530.40,530.51,530.64,530.80,531.00,531.17,531.35,531.55,531.73,531.94,532.21,532.55,532.93,533.32,533.67,534.01,534.36,534.65,535.04,535.33,535.47,535.49,535.58,535.77,535.98,536.13,536.28,536.39,536.50,536.70,537.20,537.84,538.44,538.96,539.39,539.80,540.19,540.57,540.92,541.26,541.64,542.00,542.32,542.61,542.91,543.24,543.56,543.87,544.18,544.49,544.80,545.12,545.47,545.79,546.05,546.25,546.41,546.60,546.78,546.96,547.13,547.23,547.32,547.60,548.02,548.40,548.74,549.11,549.45,549.73,550.05,550.50,550.83,551.01,551.19,551.35,551.54,551.75,551.98,552.14,552.35,552.60,552.88,553.14,553.44,553.75,554.06,554.37,554.67,555.11,555.63,556.20,556.79,557.34,557.86,558.34,558.80,559.27,559.73,560.18,560.59,560.98,561.36,561.79,562.23,562.62,562.96,563.22,563.45,563.83,564.26,564.75,565.33,566.02,566.67,567.36,567.94,568.35,568.55,568.65,568.77,568.94,569.18,569.57,570.08,570.67,571.33,571.95,572.53,573.05,573.55,574.22,575.29,576.88,578.62,580.07,580.77,581.48,582.33,583.23,583.86,584.43,585.04,585.69,586.34,586.86,587.55,588.48,589.69,591.15,592.71,594.35
512.80,512.84,512.93,513.06,513.21,513.36,513.51,513.67,513.82,513.98,514.18,514.51,514.79,514.90,514.92,514.92,514.90,514.84,514.62,514.33,514.28,514.34,514.50,514.74,514.98,515.08,515.21,515.36,515.51,515.66,515.76,515.88,516.01,516.11,516.25,516.39,516.52,516.62,516.75,516.86,516.97,517.11,517.20,517.34,517.50,517.65,517.81,518.02,518.20,518.36,518.52,518.68,518.88,519.03,519.09,519.10,519.11,519.12,519.15,519.22,519.25,519.26,519.27,519.28,519.29,519.36,519.44,519.55,519.70,519.79,519.87,519.90,519.85,519.67,519.73,519.97,520.43,521.32,522.16,522.18,521.77,521.51,520.93,520.93,521.22,521.59,522.03,522.49,522.91,523.30,523.71,524.36,525.46,526.78,528.09,529.23,529.73,529.94,530.03,530.12,530.22,530.33,530.45,530.59,530.68,530.81,530.97,531.11,531.27,531.42,531.59,531.76,531.99,532.15,532.40,532.73,533.10,533.49,533.87,534.22,534.55,534.91,535.25,535.56,535.78,535.82,535.96,536.16,536.36,536.51,536.66,536.81,536.97,537.17,537.56,538.02,538.50,538.94,539.35,539.79,540.19,540.55,540.88,541.25,541.64,542.02,542.36,542.61,542.92,543.27,543.62,543.93,544.24,544.55,544.86,545.17,545.48,545.78,546.04,546.29,546.57,546.81,547.03,547.25,547.47,547.63,547.73,547.99,548.37,548.73,548.99,549.24,549.49,549.74,550.05,550.52,550.96,551.30,551.53,551.70,551.88,552.08,552.30,552.46,552.67,552.91,553.13,553.31,553.59,553.89,554.18,554.49,554.82,555.29,555.85,556.45,557.00,557.55,558.08,558.60,559.07,559.54,560.00,560.45,560.90,561.29,561.68,562.11,562.55,562.94,563.33,563.63,563.83,563.97,564.31,564.74,565.29,565.98,566.67,567.37,568.09,568.72,569.03,569.16,569.29,569.45,569.63,569.93,570.40,570.97,571.62,572.36,573.11,573.71,574.18,574.63,575.55,577.00,578.64,580.08,580.82,581.68,582.75,583.85,584.61,585.14,585.66,586.18,586.65,587.00,587.67,588.61,589.78,591.12,592.62,594.20
512.44,512.49,512.52,512.61,512.69,512.78,512.94,513.14,513.31,513.46,513.64,513.86,514.03,514.19,514.32,514.38,514.21,514.03,513.94,514.02,514.23,514.42,514.65,514.90,515.06,515.14,515.24,515.36,515.51,515.62,515.74,515.85,515.96,516.09,516.20,516.33,516.48,516.60,516.71,516.83,516.95,517.06,517.18,517.33,517.49,517.64,517.80,517.98,518.14,518.32,518.51,518.67,518.88,519.09,519.25,519.34,519.36,519.36,519.37,519.39,519.39,519.43,519.45,519.45,519.46,519.48,519.48,519.48,519.53,519.56,519.59,519.61,519.61,519.60,519.68,519.80,519.99,520.35,520.69,520.68,520.51,520.41,520.25,520.54,521.03,521.57,522.08,522.60,523.04,523.43,523.86,524.64,525.79,527.12,528.43,529.59,530.06,530.26,530.38,530.50,530.55,530.63,530.77,530.92,531.00,531.13,531.27,531.38,531.53,531.68,531.85,532.01,532.24,532.40,532.63,532.88,533.14,533.51,533.90,534.25,534.58,534.95,535.32,535.65,535.92,536.13,536.33,536.52,536.69,536.84,537.00,537.15,537.34,537.54,537.79,538.14,538.53,538.96,539.39,539.80,540.19,540.55,540.87,541.25,541.64,542.00,542.32,542.61,542.96,543.30,543.63,543.93,544.25,544.56,544.87,545.17,545.47,545.74,545.98,546.22,546.49,546.77,547.01,547.24,547.48,547.73,547.92,548.16,548.46,548.79,549.03,549.26,549.50,549.74,550.05,550.46,550.87,551.25,551.57,551.84,552.12,552.40,552.63,552.79,553.00,553.23,553.45,553.66,553.87,554.08,554.30,554.59,555.07,555.56,556.10,556.70,557.25,557.80,558.34,558.87,559.38,559.85,560.29,560.71,561.17,561.56,561.99,562.41,562.83,563.26,563.65,564.01,564.27,564.37,564.54,564.84,565.33,566.03,566.73,567.46,568.22,568.92,569.36,569.59,569.78,569.97,570.13,570.38,570.78,571.27,571.88,572.64,573.42,574.13,574.78,575.42,576.28,577.45,578.80,580.14,581.10,582.18,583.36,584.52,585.37,585.94,586.44,586.91,587.31,587.63,588.08,588.78,589.80,591.11,592.56,594.08
512.08,512.13,512.15,512.20,512.24,512.29,512.42,512.60,512.76,512.90,513.02,513.08,513.15,513.33,513.53,513.65,513.55,513.47,513.57,513.89,514.27,514.55,514.81,515.02,515.10,515.18,515.25,515.35,515.48,515.58,515.71,515.82,515.93,516.05,516.17,516.28,516.42,516.57,516.67,516.80,516.91,517.02,517.15,517.30,517.46,517.61,517.77,517.94,518.11,518.28,518.48,518.66,518.88,519.12,519.34,519.50,519.57,519.59,519.60,519.61,519.61,519.67,519.71,519.71,519.71,519.71,519.67,519.61,519.61,519.60,519.59,519.59,519.60,519.65,519.70,519.75,519.78,519.86,519.87,519.88,519.92,520.01,520.22,520.62,521.10,521.60,522.14,522.69,523.15,523.56,524.01,524.91,526.12,527.38,528.53,529.56,530.04,530.30,530.48,530.67,530.76,530.89,531.07,531.21,531.32,531.46,531.58,531.67,531.82,531.96,532.11,532.27,532.50,532.66,532.87,533.07,533.26,533.58,533.90,534.20,534.51,534.90,535.30,535.65,535.96,536.26,536.50,536.71,536.91,537.12,537.31,537.50,537.69,537.89,538.08,538.33,538.64,539.01,539.45,539.86,540.25,540.61,540.92,541.29,541.65,541.98,542.29,542.63,542.99,543.32,543.63,543.93,544.25,544.56,544.87,545.16,545.45,545.69,545.92,546.15,546.39,546.67,546.94,547.18,547.42,547.70,547.94,548.19,548.45,548.74,548.99,549.23,549.46,549.70,549.99,550.36,550.74,551.13,551.51,551.85,552.22,552.57,552.83,553.04,553.30,553.55,553.79,554.01,554.20,554.37,554.55,554.84,555.37,555.88,556.40,556.97,557.51,558.05,558.60,559.14,559.67,560.10,560.52,560.95,561.39,561.79,562.24,562.67,563.09,563.52,563.94,564.35,564.69,564.83,564.94,565.16,565.59,566.25,566.91,567.65,568.40,569.10,569.65,570.01,570.27,570.47,570.65,570.88,571.21,571.62,572.14,572.86,573.60,574.35,575.12,575.97,576.88,577.91,579.05,580.29,581.52,582.74,583.98,585.17,586.15,586.75,587.24,587.67,588.03,588.32,588.65,589.35,590.51,591.85,593.40,594.88
511.72,511.75,511.81,511.84,511.88,511.93,511.96,512.05,512.18,512.30,512.34,512.26,512.31,512.49,512.69,512.87,513.10,513.35,513.63,513.95,514.33,514.64,514.88,515.02,515.10,515.18,515.25,515.33,515.43,515.56,515.67,515.79,515.91,516.00,516.14,516.25,516.36,516.51,516.66,516.76,516.87,517.00,517.10,517.24,517.40,517.55,517.71,517.92,518.10,518.26,518.43,518.65,518.88,519.12,519.35,519.57,519.72,519.78,519.81,519.87,519.88,519.94,519.98,519.98,519.98,519.98,519.94,519.89,519.88,519.82,519.79,519.79,519.78,519.78,519.79,519.77,519.74,519.80,519.82,519.87,520.00,520.23,520.57,520.91,521.28,521.71,522.23,522.76,523.25,523.69,524.16,525.17,526.40,527.54,528.41,529.17,529.74,530.12,530.37,530.65,530.88,531.09,531.29,531.45,531.60,531.75,531.88,531.98,532.13,532.24,532.37,532.54,532.76,532.92,533.13,533.34,533.50,533.74,533.93,534.14,534.41,534.79,535.22,535.58,535.89,536.19,536.44,536.72,537.00,537.29,537.59,537.83,538.02,538.20,538.42,538.61,538.83,539.13,539.53,539.97,540.37,540.72,541.03,541.35,541.66,541.97,542.30,542.67,543.00,543.31,543.62,543.93,544.24,544.55,544.86,545.15,545.39,545.62,545.85,546.08,546.32,546.56,546.84,547.11,547.35,547.58,547.82,548.09,548.37,548.62,548.91,549.17,549.40,549.63,549.88,550.23,550.62,551.01,551.39,551.77,552.15,552.53,552.88,553.19,553.54,553.85,554.09,554.33,554.55,554.75,554.96,555.28,555.73,556.24,556.75,557.25,557.78,558.32,558.86,559.40,559.91,560.27,560.67,561.13,561.58,561.98,562.42,562.88,563.32,563.72,564.16,564.62,565.03,565.31,565.50,565.72,566.08,566.64,567.26,567.94,568.63,569.30,569.90,570.43,570.74,570.94,571.17,571.40,571.69,572.02,572.40,573.01,573.68,574.38,575.14,576.14,577.18,578.26,579.35,580.53,582.00,583.32,584.58,585.80,586.95,587.55,588.02,588.43,588.75,589.08,589.56,590.60,592.23,593.65,595.39,596.88
511.35,511.37,511.44,511.49,511.52,511.56,511.60,511.64,511.69,511.79,511.89,511.94,512.08,512.26,512.45,512.66,512.96,513.27,513.60,513.95,514.30,514.65,514.89,515.02,515.10,515.18,515.25,515.31,515.37,515.51,515.64,515.75,515.87,515.99,516.10,516.21,516.34,516.45,516.60,516.69,516.81,516.96,517.09,517.23,517.39,517.54,517.70,517.88,518.04,518.22,518.42,518.65,518.88,519.12,519.35,519.58,519.78,519.92,520.02,520.13,520.19,520.22,520.26,520.30,520.30,520.30,520.28,520.24,520.20,520.12,520.06,520.02,519.97,519.88,519.86,519.84,519.83,519.86,519.90,520.08,520.34,520.63,521.01,521.34,521.68,522.07,522.48,522.92,523.35,523.79,524.37,525.32,526.29,527.16,527.92,528.66,529.32,529.85,530.23,530.54,530.79,531.02,531.23,531.39,531.59,531.78,531.97,532.15,532.34,532.48,532.64,532.84,533.02,533.18,533.39,533.60,533.75,533.93,534.10,534.27,534.48,534.77,535.13,535.46,535.77,536.08,536.36,536.66,536.95,537.22,537.53,537.81,538.05,538.27,538.54,538.75,539.00,539.28,539.59,539.95,540.30,540.65,541.00,541.30,541.61,541.92,542.24,542.58,542.93,543.26,543.57,543.88,544.19,544.49,544.80,545.09,545.32,545.56,545.79,546.02,546.25,546.48,546.74,547.01,547.28,547.51,547.74,547.99,548.25,548.49,548.79,549.07,549.33,549.56,549.80,550.19,550.60,550.98,551.32,551.70,552.09,552.46,552.80,553.15,553.53,553.89,554.20,554.49,554.76,555.07,555.41,555.77,556.14,556.60,557.10,557.61,558.10,558.60,559.11,559.63,560.07,560.40,560.78,561.21,561.67,562.06,562.50,562.95,563.37,563.80,564.22,564.66,565.12,565.56,565.95,566.30,566.63,567.04,567.63,568.27,568.88,569.43,569.97,570.58,571.09,571.45,571.69,571.92,572.21,572.49,572.80,573.27,573.77,574.34,575.05,576.07,577.17,578.27,579.37,580.59,582.23,583.85,585.24,586.45,587.63,588.30,588.77,589.15,589.58,590.68,592.08,593.75,595.56,596.98,598.40,599.70
510.97,511.00,511.05,511.13,511.17,511.20,511.25,511.28,511.32,511.44,511.61,511.77,511.99,512.17,512.35,512.59,512.88,513.20,513.54,513.90,514.21,514.59,514.86,515.02,515.10,515.18,515.24,515.27,515.30,515.44,515.59,515.70,515.81,515.96,516.06,516.19,516.31,516.41,516.54,516.64,516.76,516.90,517.05,517.21,517.36,517.51,517.67,517.84,518.00,518.19,518.42,518.65,518.88,519.12,519.35,519.60,519.83,520.02,520.18,520.35,520.47,520.51,520.55,520.60,520.62,520.64,520.65,520.65,520.55,520.47,520.42,520.38,520.30,520.17,520.12,520.10,520.09,520.09,520.18,520.45,520.82,521.14,521.51,521.85,522.19,522.56,522.88,523.25,523.61,524.00,524.56,525.31,526.02,526.71,527.42,528.18,528.89,529.53,530.06,530.39,530.65,530.88,531.08,531.26,531.49,531.72,531.95,532.18,532.41,532.60,532.81,533.04,533.22,533.37,533.56,533.76,533.93,534.09,534.25,534.40,534.57,534.80,535.08,535.38,535.69,535.98,536.27,536.57,536.85,537.12,537.42,537.72,537.98,538.25,538.53,538.77,539.05,539.33,539.58,539.90,540.23,540.57,540.92,541.24,541.55,541.86,542.17,542.48,542.84,543.17,543.48,543.79,544.12,544.43,544.74,545.03,545.26,545.49,545.73,545.96,546.19,546.42,546.65,546.91,547.19,547.42,547.65,547.89,548.12,548.38,548.66,548.97,549.25,549.50,549.74,550.15,550.56,550.92,551.26,551.63,552.01,552.36,552.70,553.08,553.47,553.85,554.23,554.56,554.88,555.31,555.79,556.19,556.56,556.98,557.45,557.97,558.44,558.90,559.38,559.86,560.24,560.56,560.90,561.29,561.74,562.14,562.58,563.00,563.42,563.86,564.27,564.70,565.17,565.69,566.21,566.66,567.04,567.38,567.95,568.54,569.05,569.50,569.98,570.62,571.27,571.81,572.13,572.42,572.71,572.97,573.24,573.61,573.99,574.45,575.11,576.11,577.21,578.28,579.37,580.63,582.34,584.16,585.75,587.06,588.31,589.15,589.79,590.39,591.24,593.16,595.46,597.80,599.90,601.42,602.48,603.50
510.60,510.65,510.67,510.74,510.81,510.86,510.88,510.95,511.13,511.34,511.55,511.71,511.93,512.11,512.29,512.52,512.76,513.11,513.45,513.77,514.09,514.46,514.79,515.02,515.10,515.18,515.20,515.21,515.24,515.38,515.48,515.60,515.75,515.90,516.04,516.15,516.26,516.39,516.49,516.62,516.74,516.84,516.99,517.15,517.29,517.46,517.62,517.82,518.00,518.19,518.42,518.65,518.89,519.12,519.37,519.66,519.89,520.08,520.25,520.47,520.69,520.81,520.85,520.87,520.94,521.01,521.08,521.09,520.95,520.87,520.88,520.91,520.89,520.81,520.69,520.62,520.61,520.56,520.72,521.04,521.40,521.72,522.10,522.43,522.77,523.14,523.45,523.82,524.13,524.39,524.69,525.13,525.69,526.34,527.04,527.80,528.50,529.19,529.80,530.19,530.50,530.72,530.90,531.13,531.36,531.59,531.82,532.06,532.29,532.51,532.77,533.05,533.27,533.43,533.60,533.78,533.99,534.15,534.30,534.47,534.63,534.86,535.10,535.38,535.67,535.92,536.16,536.45,536.75,537.05,537.36,537.61,537.88,538.16,538.41,538.64,538.92,539.20,539.46,539.82,540.20,540.55,540.87,541.17,541.48,541.79,542.10,542.41,542.73,543.04,543.35,543.67,544.04,544.36,544.67,544.96,545.19,545.43,545.66,545.90,546.13,546.36,546.59,546.83,547.07,547.30,547.53,547.76,548.01,548.30,548.55,548.84,549.14,549.43,549.68,550.09,550.48,550.81,551.18,551.57,551.91,552.25,552.63,553.01,553.40,553.79,554.17,554.55,554.92,555.42,555.98,556.44,556.94,557.38,557.81,558.28,558.75,559.21,559.64,560.05,560.42,560.75,561.07,561.41,561.82,562.26,562.67,563.09,563.53,563.94,564.38,564.80,565.22,565.69,566.16,566.66,567.15,567.61,568.14,568.64,569.09,569.50,569.98,570.58,571.25,571.89,572.44,572.89,573.18,573.43,573.69,574.07,574.40,574.85,575.49,576.43,577.44,578.41,579.43,580.67,582.35,584.17,585.95,587.59,589.02,590.20,591.30,592.52,594.20,596.74,599.66,602.62,605.30,607.12,607.99,608.67
510.25,510.29,510.32,510.36,510.46,510.55,510.62,510.81,511.07,511.30,511.48,511.64,511.86,512.04,512.23,512.46,512.69,513.00,513.35,513.69,514.00,514.34,514.69,514.96,515.04,515.12,515.14,515.14,515.16,515.27,515.39,515.52,515.68,515.83,515.99,516.12,516.24,516.35,516.47,516.58,516.70,516.82,516.93,517.08,517.25,517.44,517.60,517.79,517.98,518.19,518.42,518.65,518.92,519.17,519.41,519.67,519.87,520.04,520.19,520.37,520.70,521.01,521.17,521.18,521.26,521.37,521.47,521.50,521.39,521.31,521.39,521.49,521.48,521.45,521.32,521.22,521.17,521.12,521.30,521.62,521.98,522.31,522.68,523.01,523.36,523.72,524.04,524.27,524.48,524.68,524.97,525.30,525.77,526.32,526.89,527.45,528.09,528.78,529.49,530.06,530.38,530.61,530.82,531.05,531.28,531.54,531.80,532.03,532.26,532.50,532.77,533.06,533.29,533.49,533.65,533.82,534.01,534.16,534.35,534.53,534.69,534.88,535.11,535.38,535.67,535.90,536.13,536.42,536.71,536.98,537.25,537.52,537.79,538.05,538.28,538.55,538.82,539.09,539.37,539.71,540.12,540.49,540.80,541.11,541.42,541.73,542.04,542.35,542.65,542.96,543.27,543.59,543.93,544.28,544.61,544.90,545.13,545.36,545.59,545.84,546.11,546.35,546.61,546.88,547.14,547.33,547.52,547.73,547.96,548.19,548.42,548.71,549.03,549.38,549.74,550.12,550.46,550.78,551.12,551.46,551.81,552.18,552.56,552.95,553.34,553.72,554.11,554.49,554.84,555.32,555.87,556.34,556.91,557.41,557.90,558.40,558.91,559.35,559.77,560.18,560.53,560.88,561.20,561.54,561.93,562.35,562.77,563.20,563.61,564.00,564.41,564.82,565.23,565.69,566.15,566.64,567.14,567.65,568.14,568.62,569.09,569.56,570.08,570.71,571.37,572.01,572.61,573.13,573.56,573.90,574.19,574.53,574.88,575.29,575.87,576.80,577.76,578.67,579.56,580.63,582.38,584.25,586.15,588.01,589.75,591.52,593.31,595.08,597.00,599.89,603.63,607.38,610.55,612.82,614.12,614.90
509.81,509.88,509.97,510.02,510.14,510.29,510.45,510.74,511.04,511.26,511.42,511.58,511.80,511.98,512.16,512.39,512.62,512.91,513.25,513.61,513.93,514.25,514.59,514.89,514.99,515.06,515.08,515.09,515.11,515.17,515.30,515.46,515.62,515.77,515.92,516.07,516.21,516.31,516.45,516.55,516.66,516.79,516.89,517.03,517.22,517.42,517.57,517.75,517.96,518.19,518.42,518.67,518.95,519.21,519.43,519.64,519.80,519.95,520.07,520.20,520.59,521.10,521.44,521.53,521.61,521.75,521.86,521.89,521.82,521.78,521.92,522.05,522.05,522.07,521.95,521.84,521.75,521.70,521.88,522.21,522.57,522.89,523.27,523.60,523.92,524.25,524.51,524.62,524.76,524.98,525.28,525.59,525.98,526.43,526.88,527.29,527.85,528.50,529.22,529.96,530.30,530.54,530.77,531.00,531.23,531.52,531.80,532.03,532.26,532.50,532.76,533.04,533.27,533.50,533.69,533.86,534.02,534.18,534.39,534.58,534.73,534.89,535.12,535.39,535.67,535.90,536.15,536.43,536.70,536.95,537.18,537.48,537.75,538.00,538.25,538.53,538.79,539.05,539.36,539.65,540.05,540.43,540.73,541.04,541.35,541.66,541.97,542.28,542.59,542.90,543.21,543.52,543.82,544.20,544.54,544.84,545.12,545.36,545.60,545.87,546.16,546.40,546.69,547.00,547.29,547.49,547.65,547.83,548.02,548.18,548.39,548.65,548.98,549.39,549.81,550.15,550.46,550.77,551.08,551.38,551.74,552.11,552.48,552.87,553.25,553.64,554.02,554.39,554.73,555.19,555.71,556.21,556.81,557.38,557.91,558.46,559.00,559.44,559.87,560.28,560.60,560.98,561.32,561.67,562.05,562.42,562.85,563.27,563.66,564.05,564.43,564.82,565.23,565.69,566.15,566.62,567.12,567.66,568.14,568.62,569.12,569.64,570.20,570.86,571.51,572.14,572.75,573.30,573.84,574.30,574.64,574.99,575.38,575.78,576.31,577.19,578.10,578.92,579.65,580.53,582.34,584.21,586.10,588.01,589.89,592.01,594.28,596.60,599.06,602.36,606.75,611.18,614.99,617.87,619.67,620.74
509.19,509.38,509.58,509.72,509.92,510.16,510.44,510.74,511.00,511.19,511.35,511.51,511.73,511.92,512.09,512.32,512.56,512.85,513.16,513.49,513.86,514.18,514.50,514.79,514.98,515.01,515.01,515.04,515.10,515.12,515.24,515.40,515.55,515.71,515.86,516.01,516.16,516.30,516.39,516.52,516.64,516.74,516.88,517.03,517.20,517.36,517.52,517.73,517.96,518.19,518.43,518.72,518.98,519.18,519.35,519.52,519.67,519.79,519.87,519.99,520.29,520.96,521.57,521.90,522.00,522.13,522.25,522.29,522.23,522.32,522.47,522.57,522.58,522.64,522.53,522.42,522.35,522.29,522.46,522.79,523.15,523.47,523.85,524.18,524.44,524.62,524.73,524.82,525.01,525.30,525.61,525.92,526.24,526.63,527.09,527.54,528.07,528.57,529.11,529.89,530.28,530.54,530.77,531.00,531.23,531.52,531.80,532.03,532.26,532.50,532.73,532.97,533.21,533.44,533.66,533.88,534.09,534.25,534.41,534.58,534.73,534.89,535.16,535.43,535.67,535.91,536.20,536.46,536.73,537.01,537.25,537.54,537.84,538.14,538.43,538.68,538.92,539.18,539.48,539.73,540.04,540.36,540.67,540.98,541.29,541.60,541.91,542.21,542.52,542.83,543.14,543.45,543.76,544.13,544.48,544.82,545.22,545.49,545.76,546.06,546.36,546.60,546.89,547.20,547.51,547.85,548.04,548.16,548.28,548.43,548.60,548.78,549.06,549.49,549.84,550.15,550.46,550.77,551.08,551.39,551.70,552.02,552.36,552.73,553.12,553.51,553.88,554.21,554.63,555.13,555.66,556.20,556.81,557.38,557.91,558.47,559.06,559.55,559.97,560.35,560.67,561.04,561.42,561.80,562.17,562.50,562.88,563.27,563.66,564.05,564.43,564.82,565.23,565.69,566.15,566.62,567.13,567.73,568.26,568.79,569.26,569.72,570.32,570.94,571.61,572.27,572.88,573.43,573.97,574.49,574.98,575.43,575.87,576.33,576.85,577.60,578.44,579.08,579.62,580.40,582.15,583.81,585.43,587.05,588.66,590.38,592.47,595.35,599.46,603.49,607.93,612.76,617.62,621.34,623.47,624.94
509.05,509.31,509.54,509.74,509.93,510.15,510.44,510.74,510.96,511.13,511.29,511.49,511.68,511.85,512.03,512.26,512.49,512.78,513.09,513.41,513.75,514.10,514.41,514.65,514.84,514.93,514.98,515.01,515.05,515.06,515.17,515.33,515.48,515.64,515.79,515.94,516.10,516.25,516.37,516.49,516.60,516.72,516.84,516.98,517.16,517.34,517.50,517.72,517.98,518.22,518.43,518.69,518.90,519.06,519.19,519.34,519.49,519.62,519.73,519.82,519.96,520.38,521.02,521.76,522.26,522.51,522.64,522.69,522.71,522.84,523.02,523.15,523.19,523.23,523.15,523.03,522.92,522.84,523.04,523.38,523.74,524.05,524.36,524.59,524.75,524.86,524.94,525.11,525.34,525.62,525.93,526.24,526.55,526.89,527.29,527.74,528.27,528.75,529.24,529.90,530.28,530.54,530.77,531.00,531.23,531.52,531.80,532.03,532.26,532.50,532.72,532.95,533.19,533.42,533.65,533.88,534.11,534.31,534.47,534.63,534.78,534.94,535.19,535.46,535.72,535.96,536.22,536.49,536.76,537.03,537.30,537.61,537.91,538.22,538.53,538.80,539.07,539.34,539.62,539.88,540.21,540.52,540.80,541.06,541.34,541.63,541.93,542.19,542.43,542.72,543.03,543.34,543.65,543.99,544.36,544.76,545.21,545.58,545.92,546.24,546.51,546.78,547.08,547.39,547.72,548.09,548.35,548.51,548.64,548.79,548.95,549.05,549.22,549.54,549.88,550.17,550.48,550.83,551.17,551.49,551.87,552.24,552.51,552.78,553.05,553.36,553.72,554.11,554.59,555.11,555.66,556.24,556.82,557.38,557.91,558.47,559.08,559.61,560.03,560.38,560.72,561.07,561.44,561.83,562.21,562.56,562.97,563.37,563.75,564.10,564.48,564.87,565.27,565.74,566.16,566.64,567.17,567.75,568.33,568.88,569.38,569.87,570.45,571.03,571.66,572.32,572.96,573.51,574.08,574.65,575.23,575.76,576.27,576.77,577.31,577.93,578.59,579.12,579.59,580.26,581.65,583.09,584.52,585.96,587.39,588.85,590.63,593.58,598.54,603.21,607.87,613.06,618.64,623.09,626.43,628.61
509.15,509.44,509.66,509.85,510.02,510.20,510.45,510.72,510.91,511.06,511.24,511.46,511.63,511.78,511.96,512.19,512.41,512.71,513.02,513.33,513.65,514.00,514.28,514.49,514.64,514.79,514.90,514.95,514.96,515.00,515.12,515.26,515.42,515.57,515.73,515.88,516.03,516.19,516.35,516.45,516.56,516.69,516.79,516.93,517.12,517.33,517.50,517.72,517.99,518.23,518.39,518.61,518.78,518.90,519.01,519.16,519.31,519.46,519.58,519.65,519.67,519.79,520.32,521.31,522.18,522.64,522.90,523.09,523.21,523.37,523.58,523.75,523.82,523.84,523.77,523.65,523.49,523.38,523.61,523.95,524.30,524.56,524.78,524.89,524.97,525.05,525.16,525.43,525.70,525.96,526.27,526.57,526.88,527.19,527.52,527.95,528.47,528.97,529.44,529.95,530.28,530.54,530.77,531.00,531.23,531.52,531.80,532.03,532.26,532.50,532.72,532.95,533.19,533.42,533.65,533.88,534.12,534.35,534.53,534.69,534.84,535.00,535.22,535.49,535.77,536.01,536.25,536.52,536.80,537.06,537.36,537.67,537.98,538.29,538.60,538.90,539.21,539.50,539.75,540.07,540.43,540.75,541.00,541.23,541.46,541.74,542.03,542.27,542.46,542.71,542.99,543.28,543.58,543.87,544.24,544.69,545.17,545.63,546.05,546.39,546.66,546.96,547.27,547.59,547.91,548.29,548.62,548.85,549.01,549.16,549.31,549.36,549.41,549.59,549.94,550.23,550.55,550.93,551.31,551.64,552.10,552.55,552.80,552.97,553.12,553.32,553.63,554.08,554.59,555.13,555.68,556.28,556.84,557.38,557.91,558.47,559.07,559.61,560.04,560.38,560.75,561.08,561.44,561.83,562.23,562.62,563.05,563.48,563.86,564.19,564.56,564.95,565.35,565.80,566.20,566.68,567.21,567.76,568.35,568.90,569.43,569.96,570.51,571.06,571.65,572.29,572.96,573.53,574.15,574.77,575.39,575.99,576.52,577.04,577.57,578.13,578.63,579.12,579.58,580.15,581.17,582.39,583.69,585.01,586.34,587.65,589.12,591.79,596.92,602.15,607.13,612.60,618.61,623.79,628.49,631.50
509.47,509.74,509.90,509.96,510.09,510.27,510.50,510.68,510.85,511.00,511.17,511.39,511.56,511.72,511.90,512.12,512.30,512.62,512.96,513.27,513.58,513.85,514.06,514.22,514.38,514.53,514.68,514.76,514.79,514.96,515.08,515.20,515.36,515.51,515.67,515.82,515.97,516.13,516.28,516.42,516.54,516.65,516.78,516.93,517.10,517.28,517.50,517.72,517.93,518.10,518.26,518.43,518.59,518.73,518.88,519.03,519.18,519.30,519.39,519.46,519.52,519.65,519.90,520.37,521.20,522.00,522.76,523.40,523.71,523.94,524.16,524.34,524.41,524.47,524.38,524.24,524.08,523.96,524.19,524.51,524.77,524.90,525.00,525.09,525.17,525.27,525.47,525.75,526.06,526.35,526.65,526.91,527.20,527.51,527.82,528.16,528.66,529.16,529.62,530.02,530.30,530.54,530.77,531.00,531.23,531.52,531.80,532.03,532.26,532.50,532.72,532.95,533.19,533.42,533.65,533.88,534.12,534.35,534.57,534.75,534.90,535.07,535.28,535.53,535.79,536.07,536.31,536.55,536.82,537.12,537.43,537.74,538.04,538.35,538.66,538.97,539.28,539.58,539.89,540.25,540.59,540.92,541.25,541.49,541.72,542.00,542.30,542.59,542.87,543.08,543.27,543.47,543.71,543.91,544.21,544.64,545.16,545.63,546.05,546.45,546.84,547.10,547.44,547.78,548.11,548.49,548.86,549.14,549.34,549.49,549.59,549.61,549.63,549.71,550.02,550.37,550.74,551.13,551.50,551.88,552.36,552.86,553.23,553.41,553.52,553.63,553.82,554.21,554.67,555.19,555.73,556.29,556.84,557.38,557.91,558.46,559.01,559.51,559.96,560.37,560.70,561.06,561.44,561.85,562.29,562.68,563.08,563.50,563.93,564.31,564.69,565.08,565.47,565.88,566.32,566.75,567.21,567.75,568.25,568.78,569.29,569.78,570.32,570.91,571.53,572.15,572.79,573.45,574.12,574.77,575.38,575.93,576.38,576.80,577.28,577.94,578.59,579.12,579.60,580.19,581.06,582.14,583.36,584.68,586.05,587.38,588.62,590.56,594.42,600.11,605.57,611.06,616.91,622.97,628.59,632.45
509.76,509.92,510.03,510.04,510.13,510.29,510.51,510.67,510.83,510.98,511.15,511.34,511.50,511.66,511.84,512.05,512.21,512.52,512.87,513.20,513.47,513.68,513.86,514.01,514.16,514.29,514.43,514.55,514.65,514.90,515.05,515.18,515.32,515.45,515.60,515.75,515.90,516.06,516.21,516.37,516.49,516.58,516.73,516.89,517.06,517.25,517.45,517.65,517.82,517.97,518.13,518.28,518.44,518.59,518.75,518.90,519.05,519.16,519.24,519.32,519.43,519.57,519.74,520.05,520.80,521.64,522.47,523.16,523.62,524.02,524.40,524.69,524.81,524.87,524.81,524.70,524.59,524.53,524.68,524.89,525.06,525.13,525.21,525.29,525.38,525.52,525.78,526.08,526.39,526.70,527.00,527.28,527.55,527.83,528.14,528.45,528.89,529.36,529.79,530.14,530.37,530.58,530.81,531.05,531.28,531.54,531.80,532.03,532.26,532.50,532.72,532.95,533.19,533.42,533.65,533.88,534.12,534.35,534.58,534.80,535.02,535.22,535.44,535.67,535.90,536.14,536.38,536.61,536.86,537.14,537.44,537.75,538.07,538.38,538.68,538.99,539.30,539.61,539.93,540.35,540.76,541.14,541.48,541.75,542.01,542.30,542.61,542.92,543.23,543.45,543.63,543.79,544.01,544.14,544.32,544.66,545.13,545.59,546.03,546.47,546.95,547.30,547.64,547.98,548.30,548.68,549.07,549.38,549.64,549.84,549.90,549.94,549.98,550.04,550.24,550.56,550.93,551.32,551.71,552.15,552.64,553.15,553.60,553.85,553.97,554.01,554.08,554.39,554.81,555.28,555.80,556.33,556.84,557.38,557.90,558.41,558.95,559.46,559.93,560.37,560.72,561.10,561.49,561.88,562.31,562.70,563.11,563.54,563.97,564.38,564.78,565.16,565.55,565.95,566.43,566.90,567.38,567.91,568.35,568.81,569.28,569.75,570.23,570.79,571.39,572.01,572.64,573.33,574.03,574.67,575.23,575.67,576.07,576.49,577.02,577.75,578.51,579.12,579.65,580.24,581.03,581.98,583.11,584.40,585.75,587.07,588.20,589.56,592.12,597.18,602.82,608.67,614.68,620.59,626.97,631.72
509.99,510.03,510.10,510.11,510.17,510.29,510.50,510.66,510.81,510.97,511.13,511.28,511.44,511.59,511.77,511.99,512.15,512.42,512.76,513.11,513.33,513.50,513.65,513.80,513.95,514.07,514.21,514.38,514.56,514.85,515.04,515.21,515.34,515.43,515.57,515.72,515.88,516.02,516.18,516.32,516.44,516.54,516.68,516.83,517.03,517.22,517.37,517.53,517.69,517.84,518.00,518.15,518.30,518.46,518.62,518.77,518.91,519.02,519.11,519.21,519.36,519.51,519.70,520.02,520.67,521.42,522.12,522.73,523.28,523.88,524.44,524.87,525.06,525.11,525.11,525.07,525.01,525.01,525.08,525.17,525.25,525.33,525.40,525.48,525.60,525.80,526.10,526.40,526.71,527.02,527.33,527.64,527.90,528.16,528.47,528.78,529.14,529.56,529.97,530.27,530.47,530.67,530.89,531.12,531.36,531.58,531.81,532.04,532.26,532.50,532.72,532.96,533.20,533.43,533.66,533.90,534.13,534.36,534.59,534.86,535.14,535.39,535.62,535.86,536.08,536.25,536.47,536.70,536.93,537.18,537.46,537.76,538.06,538.36,538.67,538.98,539.29,539.60,539.93,540.39,540.90,541.35,541.68,542.00,542.31,542.62,542.92,543.24,543.55,543.81,544.02,544.18,544.39,544.45,544.54,544.75,545.13,545.58,546.05,546.54,547.07,547.54,547.89,548.19,548.50,548.88,549.26,549.61,549.92,550.19,550.26,550.32,550.39,550.46,550.56,550.81,551.14,551.52,551.92,552.44,552.94,553.43,553.93,554.27,554.41,554.42,554.41,554.62,554.96,555.38,555.87,556.39,556.87,557.38,557.89,558.38,558.90,559.43,559.92,560.37,560.77,561.15,561.55,561.94,562.33,562.71,563.16,563.59,563.99,564.43,564.84,565.23,565.62,566.05,566.57,567.11,567.65,568.17,568.59,568.98,569.40,569.83,570.22,570.71,571.27,571.87,572.51,573.18,573.86,574.47,574.96,575.29,575.67,576.16,576.78,577.57,578.39,579.09,579.69,580.28,581.05,581.89,582.91,584.12,585.44,586.73,587.80,588.75,590.16,593.90,599.43,605.72,612.04,617.45,624.04,629.50
510.03,510.10,510.17,510.18,510.23,510.32,510.45,510.60,510.75,510.91,511.06,511.22,511.37,511.52,511.71,511.93,512.08,512.36,512.67,512.97,513.15,513.26,513.39,513.55,513.72,513.95,514.17,514.38,514.61,514.91,515.14,515.33,515.46,515.55,515.69,515.84,515.98,516.08,516.24,516.34,516.46,516.59,516.69,516.83,517.00,517.15,517.26,517.40,517.56,517.71,517.87,518.02,518.17,518.33,518.48,518.63,518.74,518.86,518.99,519.14,519.34,519.51,519.70,519.99,520.51,521.18,521.85,522.48,523.13,523.75,524.35,524.84,525.09,525.22,525.29,525.28,525.22,525.22,525.29,525.37,525.44,525.52,525.60,525.68,525.84,526.12,526.42,526.73,527.04,527.35,527.65,527.97,528.26,528.54,528.80,529.10,529.43,529.77,530.11,530.41,530.63,530.83,531.02,531.25,531.48,531.67,531.87,532.09,532.27,532.50,532.72,532.97,533.25,533.50,533.72,533.96,534.19,534.42,534.65,534.92,535.23,535.51,535.75,536.02,536.28,536.49,536.67,536.89,537.12,537.34,537.54,537.78,538.03,538.30,538.61,538.92,539.23,539.53,539.88,540.38,540.91,541.42,541.88,542.25,542.62,542.92,543.20,543.56,543.88,544.17,544.40,544.56,544.73,544.81,544.89,545.03,545.32,545.75,546.26,546.78,547.33,547.90,548.23,548.49,548.75,549.08,549.46,549.83,550.18,550.48,550.66,550.77,550.82,550.87,551.00,551.18,551.41,551.72,552.17,552.70,553.22,553.75,554.27,554.65,554.80,554.83,554.83,554.90,555.13,555.51,555.98,556.47,556.93,557.45,557.96,558.42,558.91,559.39,559.86,560.32,560.76,561.15,561.58,562.00,562.39,562.77,563.22,563.65,564.04,564.45,564.88,565.29,565.73,566.28,566.82,567.40,567.98,568.50,568.95,569.35,569.72,570.07,570.39,570.76,571.18,571.70,572.36,572.95,573.53,574.07,574.52,574.85,575.26,575.86,576.60,577.42,578.22,578.97,579.65,580.29,581.10,581.95,582.82,583.81,585.10,586.32,587.32,588.19,589.18,590.83,595.71,602.11,608.68,614.13,619.10,624.53
510.06,510.12,510.19,510.23,510.27,510.32,510.38,510.53,510.69,510.86,511.03,511.19,511.34,511.50,511.67,511.86,512.02,512.29,512.56,512.77,512.96,513.10,513.28,513.49,513.68,513.95,514.22,514.47,514.71,515.01,515.26,515.46,515.60,515.71,515.83,515.97,516.10,516.19,516.34,516.46,516.57,516.69,516.80,516.95,517.09,517.21,517.31,517.44,517.58,517.72,517.86,518.00,518.16,518.30,518.43,518.58,518.67,518.80,518.96,519.14,519.35,519.53,519.73,520.00,520.50,521.12,521.75,522.38,523.03,523.66,524.26,524.75,525.06,525.23,525.37,525.44,525.45,525.46,525.50,525.56,525.64,525.71,525.76,525.90,526.13,526.44,526.75,527.05,527.36,527.67,527.98,528.29,528.58,528.84,529.08,529.32,529.60,529.89,530.20,530.53,530.78,530.99,531.18,531.38,531.61,531.79,531.98,532.19,532.35,532.57,532.80,533.04,533.29,533.52,533.75,533.98,534.21,534.45,534.68,534.95,535.25,535.56,535.81,536.09,536.38,536.63,536.86,537.08,537.31,537.53,537.73,537.92,538.14,538.38,538.66,538.91,539.18,539.47,539.82,540.37,540.94,541.49,542.01,542.43,542.87,543.21,543.50,543.85,544.16,544.47,544.74,544.96,545.16,545.27,545.35,545.46,545.67,546.02,546.50,547.04,547.60,548.21,548.62,548.90,549.12,549.37,549.68,550.04,550.40,550.71,550.98,551.17,551.27,551.30,551.44,551.57,551.74,551.99,552.40,552.91,553.46,554.00,554.52,554.92,555.14,555.23,555.23,555.24,555.41,555.70,556.11,556.58,557.06,557.57,558.06,558.52,558.99,559.45,559.90,560.33,560.76,561.18,561.61,562.03,562.42,562.83,563.26,563.67,564.06,564.49,564.97,565.45,565.95,566.54,567.11,567.69,568.26,568.80,569.32,569.76,570.11,570.40,570.71,571.01,571.36,571.78,572.34,572.77,573.22,573.67,574.12,574.53,574.95,575.58,576.37,577.21,578.02,578.85,579.63,580.36,581.17,582.01,582.82,583.68,584.83,585.86,586.78,587.63,588.47,589.28,593.19,598.95,605.41,611.03,615.11,619.65
510.10,510.12,510.19,510.25,510.28,510.28,510.32,510.46,510.62,510.81,511.01,511.17,511.32,511.48,511.64,511.80,511.96,512.22,512.44,512.57,512.80,513.02,513.29,513.57,513.79,514.03,514.32,514.59,514.84,515.14,515.39,515.58,515.74,515.88,515.98,516.10,516.24,516.33,516.47,516.62,516.74,516.84,516.98,517.13,517.25,517.36,517.49,517.59,517.72,517.84,517.94,518.09,518.24,518.36,518.46,518.61,518.70,518.82,518.99,519.19,519.37,519.57,519.76,520.01,520.59,521.15,521.74,522.36,522.97,523.58,524.15,524.65,525.00,525.18,525.38,525.55,525.66,525.69,525.71,525.76,525.83,525.90,525.94,526.15,526.45,526.76,527.07,527.37,527.67,527.98,528.27,528.57,528.83,529.06,529.28,529.45,529.66,529.93,530.25,530.61,530.87,531.10,531.31,531.49,531.72,531.90,532.09,532.31,532.48,532.70,532.93,533.15,533.32,533.54,533.77,534.00,534.22,534.46,534.69,534.95,535.25,535.56,535.81,536.09,536.39,536.69,537.00,537.25,537.48,537.72,537.95,538.14,538.34,538.57,538.80,538.98,539.19,539.44,539.79,540.37,540.97,541.55,542.08,542.56,543.07,543.47,543.79,544.12,544.44,544.75,545.05,545.35,545.64,545.77,545.86,545.97,546.13,546.36,546.77,547.30,547.87,548.47,549.02,549.38,549.55,549.71,549.92,550.23,550.58,550.89,551.20,551.50,551.69,551.75,551.88,551.99,552.12,552.30,552.62,553.09,553.63,554.18,554.70,555.10,555.42,555.60,555.62,555.63,555.76,555.97,556.26,556.71,557.23,557.73,558.19,558.65,559.12,559.58,560.00,560.39,560.78,561.23,561.64,562.04,562.43,562.88,563.30,563.71,564.11,564.57,565.09,565.65,566.24,566.80,567.40,567.97,568.52,569.07,569.68,570.17,570.53,570.80,571.10,571.41,571.73,572.07,572.45,572.74,573.04,573.42,573.89,574.41,574.87,575.47,576.25,577.09,577.93,578.81,579.68,580.50,581.28,582.11,582.92,583.74,584.66,585.48,586.30,587.15,588.00,588.85,591.68,596.35,602.36,608.03,611.86,615.21
510.10,510.11,510.13,510.15,510.16,510.18,510.25,510.35,510.53,510.72,510.90,511.05,511.21,511.36,511.53,511.73,511.89,512.13,512.37,512.60,512.84,513.12,513.38,513.63,513.87,514.15,514.42,514.68,514.96,515.22,515.50,515.72,515.87,516.02,516.11,516.23,516.38,516.50,516.61,516.75,516.90,517.02,517.13,517.27,517.41,517.53,517.63,517.76,517.88,517.99,518.12,518.27,518.39,518.50,518.64,518.78,518.88,518.97,519.08,519.21,519.41,519.60,519.77,520.00,520.55,521.14,521.71,522.29,522.90,523.48,524.06,524.60,524.99,525.17,525.34,525.51,525.66,525.81,525.88,525.95,526.01,526.06,526.25,526.50,526.77,527.09,527.39,527.66,527.91,528.17,528.42,528.63,528.86,529.09,529.31,529.47,529.64,529.86,530.13,530.45,530.75,531.00,531.23,531.44,531.72,531.95,532.16,532.39,532.60,532.83,533.06,533.27,533.44,533.66,533.89,534.10,534.29,534.51,534.75,534.99,535.25,535.56,535.81,536.09,536.39,536.70,537.01,537.27,537.52,537.81,538.09,538.35,538.60,538.82,539.00,539.20,539.39,539.60,539.90,540.44,541.00,541.58,542.16,542.67,543.17,543.61,544.03,544.43,544.80,545.09,545.37,545.68,545.98,546.19,546.35,546.48,546.64,546.81,547.13,547.58,548.18,548.79,549.39,549.80,549.99,550.10,550.22,550.41,550.66,550.97,551.33,551.65,551.95,552.18,552.29,552.42,552.56,552.71,552.88,553.18,553.67,554.25,554.78,555.22,555.61,555.88,556.01,556.08,556.17,556.31,556.52,556.86,557.37,557.86,558.32,558.78,559.25,559.71,560.11,560.45,560.84,561.25,561.67,562.08,562.44,562.94,563.43,563.90,564.34,564.75,565.27,565.83,566.40,567.00,567.61,568.21,568.78,569.34,569.94,570.49,570.91,571.24,571.55,571.86,572.17,572.50,572.88,573.23,573.50,573.83,574.26,574.81,575.48,576.13,576.79,577.59,578.39,579.20,580.01,580.80,581.58,582.37,583.18,584.01,584.83,585.61,586.39,587.21,588.06,588.91,591.07,594.78,599.83,604.71,608.55,611.84
510.06,510.06,510.06,510.06,510.06,510.09,510.15,510.25,510.43,510.61,510.77,510.92,511.08,511.25,511.44,511.67,511.88,512.10,512.37,512.66,512.91,513.20,513.47,513.70,513.94,514.24,514.49,514.75,515.02,515.28,515.58,515.82,516.00,516.15,516.26,516.40,516.54,516.66,516.77,516.91,517.06,517.18,517.29,517.43,517.57,517.69,517.80,517.92,518.04,518.16,518.31,518.44,518.55,518.68,518.83,518.98,519.07,519.15,519.23,519.31,519.46,519.61,519.77,519.99,520.49,521.07,521.65,522.22,522.81,523.36,523.95,524.52,524.95,525.16,525.32,525.48,525.64,525.84,525.98,526.10,526.19,526.29,526.53,526.77,527.02,527.31,527.59,527.81,528.03,528.25,528.45,528.64,528.84,529.05,529.27,529.44,529.61,529.80,530.02,530.31,530.59,530.84,531.08,531.34,531.62,531.88,532.14,532.40,532.63,532.88,533.13,533.34,533.53,533.75,533.99,534.20,534.38,534.61,534.85,535.09,535.36,535.63,535.87,536.12,536.39,536.70,537.01,537.28,537.55,537.84,538.14,538.45,538.74,538.98,539.19,539.42,539.69,539.97,540.28,540.75,541.28,541.84,542.42,542.93,543.37,543.81,544.27,544.72,545.07,545.35,545.63,545.97,546.28,546.55,546.78,546.97,547.13,547.28,547.52,547.89,548.45,549.08,549.68,550.13,550.36,550.43,550.50,550.61,550.77,551.05,551.42,551.75,552.09,552.43,552.63,552.84,553.00,553.12,553.23,553.40,553.78,554.30,554.87,555.33,555.74,556.10,556.35,556.48,556.57,556.69,556.85,557.07,557.51,557.99,558.45,558.91,559.38,559.82,560.19,560.52,560.90,561.29,561.71,562.11,562.47,562.94,563.47,563.99,564.48,564.97,565.52,566.06,566.59,567.19,567.81,568.40,568.97,569.53,570.14,570.68,571.15,571.58,571.97,572.31,572.64,573.00,573.37,573.74,574.04,574.36,574.74,575.22,575.99,576.73,577.42,578.27,579.05,579.82,580.56,581.26,581.96,582.69,583.49,584.33,585.10,585.87,586.64,587.44,588.28,589.11,591.04,594.16,598.17,601.77,605.21,608.38
510.01,510.01,510.00,510.00,510.00,510.00,510.03,510.17,510.32,510.48,510.64,510.80,510.96,511.16,511.39,511.63,511.92,512.17,512.43,512.72,512.97,513.26,513.53,513.76,514.00,514.30,514.56,514.79,515.04,515.34,515.64,515.90,516.09,516.25,516.41,516.56,516.70,516.80,516.95,517.10,517.23,517.33,517.47,517.62,517.74,517.85,517.98,518.07,518.20,518.35,518.49,518.59,518.72,518.87,519.03,519.17,519.26,519.34,519.42,519.48,519.51,519.63,519.77,519.99,520.44,520.97,521.55,522.14,522.69,523.23,523.83,524.41,524.89,525.14,525.32,525.48,525.63,525.80,526.00,526.18,526.35,526.55,526.73,526.94,527.17,527.41,527.64,527.83,528.03,528.24,528.41,528.62,528.80,529.00,529.21,529.38,529.58,529.77,529.95,530.17,530.41,530.66,530.91,531.21,531.46,531.74,532.04,532.33,532.56,532.85,533.11,533.35,533.58,533.81,534.04,534.28,534.50,534.73,534.97,535.25,535.54,535.78,536.01,536.21,536.42,536.72,537.02,537.32,537.59,537.85,538.15,538.46,538.76,539.06,539.35,539.60,540.01,540.48,540.87,541.29,541.81,542.35,542.88,543.35,543.70,544.10,544.54,544.97,545.24,545.52,545.85,546.21,546.52,546.83,547.13,547.40,547.57,547.74,547.94,548.23,548.67,549.31,549.88,550.35,550.65,550.70,550.77,550.84,550.94,551.14,551.48,551.81,552.15,552.53,552.89,553.21,553.40,553.52,553.66,553.77,553.98,554.37,554.99,555.41,555.85,556.26,556.60,556.83,556.95,557.08,557.22,557.34,557.69,558.12,558.58,559.04,559.50,559.91,560.26,560.59,560.97,561.35,561.74,562.13,562.51,562.90,563.41,563.95,564.51,565.16,565.78,566.31,566.80,567.35,567.96,568.52,569.07,569.62,570.23,570.73,571.23,571.75,572.26,572.68,573.08,573.48,573.86,574.19,574.55,574.90,575.23,575.58,576.32,577.14,578.00,578.95,579.75,580.54,581.26,581.85,582.42,583.08,583.85,584.66,585.42,586.19,586.96,587.76,588.60,589.39,591.38,594.22,597.29,599.40,602.00,604.83
510.00,509.99,509.94,509.89,509.88,509.88,509.90,510.05,510.20,510.35,510.52,510.72,510.93,511.18,511.44,511.68,511.94,512.21,512.48,512.75,513.02,513.29,513.56,513.82,514.07,514.37,514.62,514.85,515.09,515.35,515.64,515.84,515.96,516.16,516.36,516.56,516.76,516.93,517.09,517.24,517.38,517.51,517.66,517.78,517.90,518.02,518.13,518.25,518.39,518.53,518.64,518.77,518.91,519.07,519.21,519.32,519.44,519.54,519.60,519.63,519.68,519.73,519.83,520.04,520.44,520.96,521.52,522.08,522.62,523.16,523.75,524.34,524.83,525.09,525.30,525.48,525.63,525.80,526.01,526.19,526.37,526.60,526.76,526.97,527.20,527.42,527.61,527.81,528.00,528.19,528.39,528.62,528.80,528.98,529.20,529.37,529.54,529.71,529.86,530.00,530.26,530.54,530.83,531.14,531.42,531.69,531.97,532.26,532.50,532.75,533.02,533.31,533.58,533.82,534.05,534.29,534.52,534.75,535.06,535.42,535.78,535.97,536.19,536.41,536.63,536.88,537.10,537.35,537.62,537.90,538.21,538.48,538.77,539.08,539.38,539.66,540.12,540.67,541.24,541.78,542.36,542.90,543.40,543.90,544.28,544.59,544.88,545.24,545.49,545.74,546.03,546.36,546.67,547.02,547.38,547.71,547.96,548.22,548.42,548.63,548.92,549.48,549.96,550.38,550.75,551.03,551.11,551.13,551.18,551.31,551.57,551.88,552.22,552.61,552.99,553.35,553.67,553.91,554.07,554.20,554.36,554.65,555.13,555.53,555.94,556.34,556.72,557.04,557.28,557.47,557.60,557.70,557.91,558.28,558.71,559.17,559.63,560.04,560.38,560.70,561.04,561.42,561.77,562.13,562.51,562.85,563.38,563.94,564.51,565.14,565.73,566.24,566.72,567.26,567.83,568.38,568.92,569.46,570.03,570.52,571.02,571.56,572.10,572.63,573.20,573.72,574.11,574.51,574.94,575.34,575.68,575.97,576.62,577.43,578.29,579.18,579.93,580.85,581.80,582.58,583.15,583.77,584.42,585.08,585.76,586.52,587.29,588.07,588.88,589.69,591.28,593.64,596.37,598.08,599.82,601.98
509.86,509.87,509.81,509.74,509.72,509.72,509.75,509.91,510.09,510.27,510.48,510.71,510.94,511.21,511.49,511.74,511.97,512.24,512.51,512.77,513.06,513.32,513.59,513.87,514.13,514.41,514.66,514.90,515.14,515.38,515.61,515.72,515.77,516.00,516.23,516.46,516.68,516.89,517.07,517.25,517.42,517.60,517.77,517.92,518.06,518.18,518.29,518.43,518.59,518.71,518.80,518.95,519.11,519.25,519.38,519.48,519.60,519.71,519.76,519.79,519.86,519.90,519.99,520.20,520.57,521.04,521.53,522.04,522.56,523.12,523.70,524.27,524.77,525.05,525.27,525.46,525.63,525.80,526.01,526.19,526.37,526.60,526.76,526.97,527.20,527.41,527.58,527.80,528.00,528.18,528.39,528.62,528.82,529.00,529.18,529.34,529.49,529.65,529.79,529.90,530.15,530.46,530.77,531.07,531.38,531.64,531.89,532.17,532.41,532.66,532.93,533.22,533.52,533.79,534.04,534.29,534.52,534.75,535.10,535.51,535.91,536.16,536.41,536.64,536.85,537.08,537.26,537.48,537.73,538.00,538.28,538.52,538.78,539.08,539.38,539.69,540.15,540.75,541.44,542.10,542.75,543.33,543.87,544.39,544.79,545.03,545.22,545.50,545.75,545.99,546.26,546.55,546.84,547.16,547.53,547.90,548.24,548.59,548.84,549.03,549.25,549.68,550.06,550.42,550.81,551.25,551.42,551.47,551.49,551.55,551.71,551.97,552.31,552.70,553.09,553.47,553.86,554.20,554.42,554.62,554.78,554.98,555.33,555.67,556.05,556.43,556.82,557.20,557.54,557.80,557.97,558.07,558.20,558.47,558.83,559.27,559.74,560.12,560.49,560.87,561.24,561.67,561.99,562.27,562.56,562.83,563.35,563.88,564.38,564.95,565.46,565.95,566.45,566.99,567.53,568.07,568.62,569.18,569.72,570.23,570.77,571.33,571.90,572.51,573.17,573.80,574.27,574.74,575.23,575.71,576.13,576.43,576.91,577.56,578.30,579.12,579.83,580.80,581.90,582.95,583.74,584.46,585.07,585.63,586.24,586.92,587.65,588.38,589.18,590.08,591.39,593.30,595.57,597.10,598.37,600.04
509.52,509.62,509.61,509.55,509.52,509.52,509.57,509.78,510.00,510.26,510.54,510.77,511.00,511.25,511.51,511.79,512.03,512.27,512.54,512.83,513.07,513.36,513.63,513.88,514.17,514.42,514.66,514.91,515.20,515.42,515.50,515.52,515.58,515.80,516.03,516.26,516.47,516.65,516.86,517.09,517.31,517.53,517.76,518.03,518.20,518.31,518.46,518.63,518.78,518.90,519.00,519.15,519.30,519.42,519.52,519.66,519.76,519.85,519.93,520.00,520.07,520.14,520.28,520.51,520.83,521.22,521.62,522.04,522.52,523.10,523.66,524.21,524.71,525.03,525.23,525.42,525.63,525.80,526.01,526.19,526.37,526.60,526.76,526.98,527.20,527.41,527.58,527.80,528.03,528.23,528.41,528.62,528.85,529.02,529.12,529.27,529.43,529.59,529.74,529.89,530.12,530.40,530.71,531.01,531.32,531.57,531.80,532.05,532.28,532.57,532.83,533.10,533.40,533.70,534.00,534.28,534.51,534.75,535.09,535.47,535.87,536.29,536.61,536.84,537.03,537.27,537.50,537.73,537.94,538.13,538.36,538.59,538.83,539.09,539.39,539.69,540.15,540.75,541.46,542.21,542.91,543.59,544.23,544.76,545.13,545.35,545.53,545.77,546.01,546.28,546.56,546.80,547.04,547.29,547.61,547.99,548.36,548.80,549.14,549.41,549.66,549.92,550.23,550.54,550.89,551.33,551.69,551.85,551.86,551.87,551.89,552.11,552.44,552.82,553.20,553.59,553.98,554.36,554.72,555.03,555.20,555.34,555.59,555.84,556.19,556.57,556.95,557.33,557.71,558.04,558.29,558.44,558.54,558.69,558.96,559.35,559.81,560.18,560.61,561.12,561.63,562.15,562.46,562.62,562.74,562.90,563.35,563.80,564.17,564.63,565.03,565.50,566.02,566.56,567.08,567.62,568.19,568.79,569.34,569.93,570.54,571.15,571.76,572.38,573.05,573.74,574.37,574.87,575.43,576.04,576.58,576.96,577.22,577.56,578.08,578.82,579.52,580.39,581.50,582.82,584.05,585.03,585.77,586.34,586.89,587.45,588.06,588.73,589.54,590.58,591.94,593.48,595.05,596.38,597.73,599.19
509.20,509.33,509.41,509.35,509.29,509.34,509.53,509.75,509.99,510.26,510.55,510.78,511.06,511.31,511.55,511.81,512.04,512.31,512.58,512.84,513.12,513.38,513.63,513.88,514.18,514.42,514.66,514.91,515.15,515.29,515.29,515.29,515.37,515.56,515.78,516.01,516.24,516.43,516.67,516.90,517.13,517.37,517.64,517.91,518.12,518.31,518.54,518.75,518.92,519.06,519.19,519.34,519.46,519.58,519.71,519.86,520.03,520.16,520.27,520.34,520.38,520.48,520.63,520.83,521.10,521.46,521.85,522.24,522.67,523.14,523.63,524.14,524.65,525.02,525.22,525.41,525.63,525.80,526.01,526.19,526.37,526.60,526.80,527.02,527.24,527.43,527.63,527.85,528.06,528.25,528.45,528.63,528.82,528.97,529.06,529.21,529.40,529.58,529.73,529.89,530.11,530.38,530.68,530.94,531.21,531.45,531.70,531.97,532.21,532.46,532.73,533.02,533.32,533.59,533.89,534.18,534.46,534.74,535.03,535.33,535.65,536.06,536.42,536.74,537.04,537.37,537.73,537.97,538.16,538.35,538.54,538.76,538.97,539.18,539.45,539.71,540.18,540.82,541.56,542.29,542.99,543.71,544.40,544.94,545.37,545.63,545.81,546.09,546.32,546.58,546.83,547.06,547.29,547.52,547.81,548.14,548.45,548.85,549.22,549.59,549.94,550.22,550.49,550.77,551.10,551.47,551.81,552.09,552.25,552.24,552.20,552.28,552.50,552.85,553.23,553.65,554.06,554.44,554.84,555.27,555.54,555.73,555.96,556.19,556.47,556.76,557.07,557.42,557.79,558.16,558.50,558.76,558.91,559.06,559.23,559.49,559.98,560.58,561.13,561.64,562.18,562.72,563.05,563.20,563.29,563.39,563.82,564.26,564.57,564.85,565.11,565.47,565.91,566.31,566.68,567.19,567.77,568.36,568.99,569.71,570.37,570.97,571.63,572.29,572.97,573.68,574.40,575.02,575.66,576.31,576.90,577.42,577.71,577.99,578.32,578.75,579.38,580.24,581.36,582.69,584.01,585.20,586.22,587.04,587.59,588.13,588.66,589.27,590.11,591.36,592.78,594.25,595.63,596.66,597.91,599.25
508.87,509.03,509.16,509.14,509.12,509.22,509.51,509.76,510.00,510.28,510.58,510.81,511.09,511.36,511.60,511.83,512.06,512.34,512.61,512.86,513.15,513.40,513.63,513.88,514.17,514.40,514.63,514.85,515.03,515.09,515.06,515.07,515.16,515.30,515.52,515.75,515.99,516.22,516.47,516.70,516.94,517.20,517.51,517.75,517.98,518.23,518.52,518.76,518.96,519.14,519.31,519.48,519.60,519.73,519.90,520.08,520.30,520.51,520.65,520.71,520.73,520.85,521.00,521.17,521.39,521.73,522.11,522.49,522.88,523.26,523.70,524.18,524.64,525.00,525.21,525.40,525.61,525.79,525.99,526.18,526.37,526.61,526.84,527.07,527.27,527.46,527.67,527.89,528.09,528.25,528.46,528.63,528.78,528.91,529.02,529.17,529.37,529.55,529.71,529.87,530.08,530.35,530.63,530.86,531.11,531.34,531.60,531.88,532.12,532.36,532.63,532.93,533.23,533.49,533.78,534.08,534.37,534.67,534.91,535.13,535.36,535.72,536.12,536.53,536.96,537.38,537.83,538.10,538.33,538.59,538.76,538.99,539.18,539.36,539.58,539.83,540.30,540.96,541.68,542.37,543.06,543.77,544.47,545.03,545.50,545.83,546.08,546.36,546.60,546.83,547.06,547.30,547.54,547.78,548.04,548.32,548.59,548.92,549.28,549.68,550.11,550.44,550.74,551.03,551.34,551.63,551.94,552.29,552.58,552.60,552.55,552.52,552.61,552.87,553.23,553.67,554.10,554.50,554.93,555.47,555.85,556.12,556.35,556.58,556.81,557.04,557.29,557.58,557.90,558.27,558.65,559.00,559.23,559.41,559.57,559.79,560.29,561.04,561.71,562.24,562.76,563.31,563.67,563.88,563.98,564.07,564.45,564.86,565.16,565.33,565.51,565.83,566.20,566.50,566.73,567.13,567.60,568.06,568.70,569.51,570.23,570.85,571.56,572.27,572.99,573.72,574.48,575.18,575.88,576.55,577.16,577.79,578.23,578.54,578.74,578.94,579.38,580.20,581.29,582.59,583.90,585.21,586.46,587.53,588.23,588.83,589.40,590.05,590.95,592.25,593.69,595.16,596.49,597.28,598.35,599.58
508.55,508.70,508.85,508.92,509.02,509.22,509.51,509.76,510.04,510.34,510.63,510.87,511.11,511.39,511.66,511.89,512.13,512.37,512.61,512.85,513.15,513.40,513.63,513.87,514.11,514.34,514.57,514.75,514.83,514.85,514.84,514.88,514.95,515.06,515.26,515.49,515.73,515.97,516.26,516.51,516.77,517.07,517.38,517.62,517.86,518.09,518.33,518.56,518.83,519.09,519.31,519.53,519.70,519.88,520.10,520.33,520.55,520.82,521.02,521.04,521.11,521.24,521.39,521.55,521.72,522.01,522.37,522.75,523.14,523.53,523.96,524.37,524.70,524.96,525.19,525.38,525.56,525.77,525.95,526.15,526.37,526.61,526.84,527.07,527.29,527.50,527.68,527.89,528.09,528.24,528.40,528.56,528.71,528.87,529.01,529.17,529.33,529.49,529.65,529.80,530.02,530.26,530.50,530.74,531.03,531.28,531.51,531.76,531.99,532.27,532.54,532.80,533.11,533.41,533.71,533.99,534.24,534.48,534.72,534.88,535.03,535.36,535.79,536.28,536.80,537.30,537.71,538.07,538.43,538.77,539.00,539.24,539.47,539.67,539.86,540.14,540.60,541.18,541.82,542.45,543.13,543.80,544.42,545.02,545.50,545.95,546.31,546.55,546.79,547.02,547.26,547.50,547.79,548.04,548.28,548.53,548.83,549.09,549.38,549.73,550.13,550.50,550.91,551.29,551.59,551.84,552.13,552.49,552.80,552.92,552.93,552.88,552.86,552.95,553.25,553.67,554.10,554.52,555.04,555.63,556.12,556.49,556.73,556.96,557.20,557.43,557.66,557.90,558.10,558.40,558.77,559.09,559.44,559.71,559.98,560.35,560.82,561.48,562.20,562.87,563.36,563.89,564.32,564.61,564.75,564.89,565.14,565.50,565.88,566.05,566.32,566.70,567.11,567.41,567.59,567.75,567.87,568.02,568.54,569.32,570.11,570.85,571.61,572.38,573.15,573.91,574.68,575.38,576.08,576.74,577.37,578.05,578.70,579.12,579.33,579.48,579.64,580.28,581.29,582.53,583.84,585.15,586.42,587.63,588.73,589.50,590.30,591.21,592.19,593.25,594.61,596.07,597.37,598.07,598.92,600.01
508.19,508.38,508.53,508.65,508.85,509.14,509.47,509.75,510.05,510.34,510.61,510.88,511.12,511.37,511.63,511.86,512.13,512.38,512.61,512.84,513.11,513.38,513.63,513.87,514.09,514.29,514.48,514.61,514.64,514.64,514.64,514.66,514.71,514.84,515.02,515.26,515.53,515.80,516.07,516.35,516.63,516.93,517.20,517.48,517.73,517.96,518.19,518.42,518.68,518.93,519.17,519.44,519.65,519.86,520.10,520.37,520.61,520.89,521.16,521.36,521.49,521.63,521.79,521.94,522.10,522.31,522.63,523.01,523.40,523.79,524.14,524.45,524.72,524.95,525.18,525.38,525.55,525.78,525.98,526.20,526.41,526.61,526.84,527.07,527.30,527.52,527.72,527.91,528.09,528.24,528.39,528.55,528.70,528.86,529.01,529.16,529.32,529.48,529.63,529.79,529.97,530.19,530.42,530.66,530.92,531.16,531.41,531.67,531.91,532.17,532.44,532.72,533.03,533.30,533.57,533.83,534.05,534.25,534.47,534.64,534.82,535.22,535.74,536.27,536.79,537.24,537.64,538.02,538.41,538.78,539.10,539.38,539.63,539.90,540.29,540.62,540.97,541.43,542.05,542.67,543.34,543.96,544.49,544.99,545.49,545.98,546.38,546.65,546.92,547.20,547.47,547.74,548.01,548.28,548.53,548.78,549.09,549.33,549.59,549.89,550.28,550.66,551.05,551.42,551.75,552.03,552.36,552.71,553.01,553.19,553.29,553.26,553.20,553.19,553.33,553.70,554.12,554.57,555.06,555.52,555.98,556.41,556.76,557.12,557.47,557.77,558.00,558.23,558.44,558.69,558.98,559.26,559.60,560.01,560.49,561.02,561.50,562.11,562.78,563.44,563.98,564.49,564.89,565.16,565.29,565.52,565.81,566.17,566.55,566.76,567.12,567.54,567.98,568.30,568.45,568.51,568.50,568.46,568.59,569.15,569.84,570.57,571.42,572.31,573.20,574.08,574.91,575.63,576.29,576.95,577.62,578.31,578.97,579.55,579.96,580.08,580.23,580.74,581.55,582.58,583.80,585.08,586.36,587.61,588.87,590.00,591.25,592.47,593.48,594.48,595.64,596.96,598.22,598.86,599.65,600.71
