651.50,651.51,650.80,649.39,647.77,646.72,647.59,648.06,647.91,647.32,646.94,647.84,649.13,650.25,650.67,650.17,649.63,649.04,648.32,647.62,646.95,646.66,646.80,647.25,647.76,648.30,648.90,649.66,650.53,651.37,651.50,650.81,650.03,649.45,649.14,648.82,648.06,647.19,646.36,646.20,646.97,647.70,648.21,648.64,649.00,649.22,649.35,649.48,650.25,652.33,654.85,657.30,659.56,661.58,663.33,665.14,666.85,668.50,670.28,672.52,675.01,677.31,678.98,679.74,680.01,680.09,680.10,680.13,680.24,680.47,680.78,681.13,681.46,681.90,682.40,682.70,682.10,681.36,680.72,680.28,680.23,680.30,680.28,680.20,680.11,680.01,680.21,680.88,681.97,683.20,684.30,685.33,686.33,687.29,688.02,688.33,688.77,689.53,690.34,691.02,691.69,692.38,693.08,693.78,694.50,695.20,695.88,696.57,697.17,697.57,697.72,697.56,697.34,697.11,696.90,696.77,696.67,696.54,696.31,695.86,695.01,694.08,693.17,692.27,691.34,690.53,689.97,689.60,689.33,689.07,688.52,687.89,687.25,686.56,685.98,686.25,687.09,687.99,688.94,689.95,690.85,691.45,691.50,691.49,691.45,691.35,691.22,691.23,691.29,691.34,691.40,691.40,691.49,691.96,692.90,693.96,694.24,694.11,694.11,694.78,695.64,696.40,696.87,697.02,697.18,697.27,697.35,697.41,697.40,697.78,698.78,699.88,700.63,701.34,701.98,702.59,703.09,703.34,703.20,703.01,702.94,703.09,703.38,703.61,703.93,704.57,705.83,707.32,708.58,709.27,708.88,707.88,706.64,705.32,703.99,702.85,702.74,703.00,703.31,703.63,703.94,704.29,704.61,704.75,704.58,704.27,703.95,703.50,702.43,701.11,700.67,701.45,703.23,704.38,704.94,705.29,705.71,706.04,706.11,706.06,706.06,706.47,707.50,708.71,709.95,711.26,712.70,713.40,713.61,713.62,713.68,713.77,713.56,712.95,711.98,710.78,709.52,708.84,709.51,711.32,713.54,714.48,713.81,713.19,713.11,713.43,713.91,714.39,715.92,717.63,719.26,720.84,722.51,722.86,722.78,722.77
652.24,651.86,651.08,649.94,648.68,647.81,648.76,649.21,648.99,648.32,647.82,648.46,649.47,650.42,650.90,650.37,649.76,649.13,648.44,647.71,647.10,647.03,647.47,648.03,648.58,649.07,649.58,650.23,651.15,652.11,652.32,651.63,650.81,650.44,650.15,649.67,648.78,647.83,647.00,646.86,647.66,648.44,649.21,650.29,651.59,652.64,653.43,654.03,654.88,656.40,658.16,659.99,661.76,663.44,665.10,666.81,668.49,670.24,672.34,674.77,677.15,679.13,680.41,681.04,681.25,681.30,681.31,681.35,681.41,681.57,681.79,682.03,682.30,682.69,683.13,683.33,682.70,682.07,681.60,681.25,681.02,680.99,680.97,680.89,680.79,680.71,680.88,681.52,682.63,683.93,685.13,686.31,687.45,688.47,689.21,689.50,689.81,690.39,691.14,691.78,692.43,693.09,693.74,694.35,694.89,695.48,696.18,696.87,697.50,698.05,698.41,698.45,698.36,698.18,698.00,697.85,697.70,697.45,697.04,696.41,695.53,694.64,693.79,692.99,692.24,691.61,691.10,690.70,690.42,690.12,689.65,689.14,688.57,687.82,687.09,687.27,688.07,688.90,689.67,690.58,691.55,692.33,692.44,692.46,692.42,692.34,692.27,692.35,692.44,692.52,692.59,692.63,692.67,693.15,694.18,695.39,696.05,696.12,695.98,696.16,696.80,697.53,698.04,698.25,698.40,698.50,698.54,698.53,698.52,698.72,699.44,700.30,700.96,701.62,702.28,702.92,703.50,703.92,704.01,703.93,703.87,704.07,704.37,704.65,704.99,705.62,707.06,708.63,709.81,710.35,709.94,708.98,707.75,706.41,705.04,703.73,703.54,703.77,704.08,704.39,704.70,705.03,705.37,705.61,705.51,705.27,704.95,704.42,703.24,701.97,701.87,703.09,704.94,706.25,706.86,707.18,707.47,707.60,707.54,707.41,707.31,707.42,708.07,709.16,710.49,711.92,713.45,714.56,715.12,715.17,715.24,715.32,715.07,714.43,713.42,712.19,710.91,710.00,710.09,711.46,713.79,715.52,716.02,715.75,715.49,715.48,715.57,715.52,716.24,717.69,719.39,721.06,722.82,723.72,724.00,723.98
652.88,652.07,651.27,650.46,649.53,648.81,649.75,650.12,649.83,649.16,648.87,649.32,650.04,650.76,651.20,650.71,650.06,649.41,648.72,648.01,647.45,647.48,648.05,648.73,649.34,649.92,650.47,651.01,651.89,652.87,653.13,652.49,651.70,651.55,651.24,650.57,649.57,648.54,647.65,647.51,648.39,649.33,650.61,652.64,655.12,657.04,658.51,659.55,660.24,660.67,661.30,662.49,663.87,665.34,667.02,668.63,670.30,672.22,674.59,676.96,679.05,680.55,681.31,681.88,682.20,682.33,682.36,682.43,682.52,682.64,682.80,682.96,683.18,683.51,683.84,683.94,683.34,682.88,682.49,682.11,681.77,681.63,681.59,681.53,681.40,681.41,681.53,682.10,683.15,684.46,685.76,687.11,688.41,689.52,690.32,690.70,690.98,691.39,692.12,692.77,693.38,694.00,694.59,695.09,695.44,695.87,696.51,697.20,697.84,698.41,698.89,699.19,699.28,699.22,699.07,698.88,698.64,698.23,697.67,696.94,696.10,695.31,694.55,693.85,693.28,692.66,692.14,691.75,691.49,691.16,690.80,690.42,689.89,689.00,688.19,688.33,689.07,689.82,690.43,691.27,692.25,693.15,693.38,693.42,693.39,693.36,693.38,693.51,693.61,693.69,693.76,693.84,693.86,694.32,695.36,696.67,697.74,698.08,697.87,697.55,697.96,698.65,699.20,699.45,699.60,699.68,699.68,699.62,699.63,699.75,700.14,700.68,701.29,701.90,702.58,703.23,703.83,704.35,704.71,704.79,704.81,705.06,705.35,705.66,705.97,706.49,707.80,709.33,710.46,710.94,710.63,709.86,708.71,707.37,705.99,704.62,704.35,704.54,704.86,705.17,705.48,705.79,706.12,706.44,706.45,706.27,705.94,705.33,704.15,702.96,703.21,704.86,706.70,708.09,708.78,709.05,709.15,709.04,708.89,708.72,708.60,708.62,708.97,709.92,711.29,712.80,714.30,715.69,716.56,716.70,716.78,716.86,716.63,715.96,714.86,713.60,712.40,711.50,711.32,712.27,714.20,716.24,717.76,718.03,717.84,717.64,717.42,717.03,716.77,717.86,719.56,721.27,722.90,724.37,725.10,725.18
653.04,652.20,651.37,650.67,650.06,649.68,650.33,650.75,650.57,650.00,649.97,650.42,651.07,651.62,651.63,650.95,650.17,649.46,648.90,648.41,647.97,647.88,648.23,648.98,649.79,650.83,651.73,652.21,652.76,653.65,653.98,653.44,652.68,652.65,652.35,651.59,650.57,649.41,648.32,648.10,649.23,650.84,653.25,656.18,658.96,660.35,661.26,661.75,662.05,662.38,663.10,664.36,665.77,667.22,668.91,670.62,672.31,674.16,676.49,678.78,680.30,681.29,682.00,682.65,683.11,683.34,683.40,683.48,683.60,683.75,683.88,683.99,684.16,684.37,684.57,684.62,684.14,683.73,683.34,682.97,682.64,682.33,682.24,682.18,682.07,682.16,682.31,682.77,683.67,684.98,686.29,687.62,688.93,690.17,691.23,691.76,692.09,692.48,693.17,693.81,694.39,694.95,695.50,695.98,696.26,696.50,696.86,697.52,698.15,698.73,699.25,699.67,700.02,700.13,700.02,699.73,699.35,698.86,698.24,697.47,696.64,696.11,695.61,695.05,694.44,693.78,693.21,692.77,692.50,692.33,692.18,691.85,691.17,689.95,689.35,689.47,689.94,690.43,691.11,691.98,692.95,693.85,694.25,694.33,694.38,694.47,694.53,694.67,694.78,694.86,694.93,695.01,695.03,695.38,696.27,697.76,699.05,699.62,699.54,699.09,699.40,699.99,700.43,700.56,700.66,700.69,700.66,700.59,700.55,700.63,700.79,701.10,701.62,702.23,702.90,703.54,704.09,704.63,705.12,705.50,705.79,706.08,706.39,706.69,707.01,707.43,708.30,709.59,710.67,711.29,711.19,710.47,709.32,708.00,706.66,705.34,705.07,705.28,705.63,705.94,706.25,706.57,706.88,707.19,707.41,707.28,706.89,706.24,705.07,704.10,704.66,706.59,708.59,709.98,710.54,710.66,710.67,710.53,710.33,710.12,709.96,710.00,710.66,711.61,712.76,714.12,715.39,716.70,717.72,718.17,718.28,718.36,718.14,717.49,716.31,715.11,714.01,713.24,713.14,713.81,715.37,717.11,718.54,719.29,719.84,719.75,719.18,718.51,717.88,718.55,719.92,721.47,723.03,724.57,725.71,726.32
653.17,652.33,651.53,650.96,650.55,650.36,650.81,651.38,651.40,650.91,650.96,651.31,651.89,652.36,652.19,651.41,650.59,649.91,649.42,649.00,648.53,648.28,648.45,649.26,650.30,651.61,652.77,653.36,653.83,654.56,654.82,654.36,653.68,653.80,653.41,652.44,651.30,650.03,648.93,648.86,650.38,652.66,655.60,658.84,661.70,662.88,663.45,663.68,663.80,664.03,664.70,665.96,667.39,668.88,670.60,672.39,674.16,676.04,678.24,680.07,681.25,682.08,682.76,683.43,684.00,684.33,684.44,684.55,684.67,684.81,684.94,685.03,685.18,685.33,685.43,685.38,684.97,684.59,684.22,683.85,683.51,683.15,682.94,682.82,682.79,682.93,683.09,683.44,684.15,685.42,686.70,687.99,689.27,690.54,691.74,692.56,693.12,693.57,694.22,694.82,695.36,695.88,696.41,696.89,697.16,697.30,697.44,697.89,698.46,699.04,699.60,700.13,700.67,700.96,700.92,700.50,699.99,699.45,698.84,698.13,697.47,697.12,696.79,696.35,695.73,695.07,694.39,693.97,694.00,693.93,693.81,693.35,692.44,691.28,690.61,690.41,690.54,690.94,691.75,692.65,693.63,694.58,695.15,695.27,695.38,695.55,695.69,695.84,695.94,696.02,696.10,696.14,696.18,696.40,697.08,698.54,699.93,700.75,700.90,700.52,700.77,701.23,701.55,701.62,701.67,701.65,701.60,701.51,701.39,701.46,701.55,701.71,702.06,702.57,703.20,703.82,704.39,704.93,705.48,705.99,706.44,706.81,707.21,707.61,707.99,708.41,709.05,710.15,711.16,711.75,711.58,710.77,709.71,708.56,707.38,706.09,705.80,706.01,706.38,706.72,707.03,707.34,707.65,707.96,708.30,708.25,707.88,707.16,705.99,705.37,706.12,707.99,709.95,711.46,712.06,712.14,712.10,712.01,711.88,711.71,711.57,711.74,712.70,713.72,714.69,715.78,716.95,718.06,719.01,719.65,719.83,719.81,719.53,718.93,717.90,716.74,715.76,715.13,715.02,715.29,716.55,718.08,719.49,720.69,721.72,721.71,720.88,719.95,719.12,719.45,720.53,722.02,723.56,725.15,726.49,727.34
653.29,652.48,651.79,651.35,651.07,650.92,651.24,652.00,652.25,651.88,651.87,652.07,652.56,653.01,652.85,652.04,651.28,650.69,650.24,649.78,649.17,648.73,648.74,649.57,650.81,652.29,653.61,654.43,654.99,655.55,655.68,655.25,654.72,654.96,654.46,653.23,651.90,650.51,649.52,649.77,651.76,654.53,657.50,660.71,663.62,664.93,665.40,665.60,665.68,665.74,666.23,667.41,668.85,670.39,672.15,673.97,675.85,677.80,679.77,680.99,682.02,682.90,683.61,684.24,684.90,685.31,685.48,685.61,685.70,685.83,685.96,686.05,686.19,686.32,686.34,686.16,685.79,685.46,685.11,684.72,684.35,684.03,683.67,683.48,683.57,683.72,683.88,684.12,684.64,685.82,687.06,688.30,689.53,690.77,691.99,693.13,694.01,694.62,695.24,695.80,696.30,696.79,697.32,697.79,698.10,698.23,698.21,698.38,698.81,699.37,699.98,700.59,701.26,701.72,701.77,701.24,700.65,700.09,699.51,698.94,698.54,698.27,698.02,697.69,697.10,696.46,695.63,695.29,695.81,695.80,695.57,694.86,693.76,692.90,692.00,691.31,691.03,691.46,692.38,693.33,694.32,695.33,696.08,696.24,696.36,696.58,696.82,697.00,697.11,697.19,697.25,697.27,697.32,697.44,697.86,699.12,700.53,701.59,702.05,701.82,702.07,702.37,702.57,702.63,702.63,702.57,702.50,702.38,702.20,702.29,702.39,702.48,702.63,702.98,703.51,704.12,704.71,705.25,705.79,706.32,706.84,707.31,707.82,708.35,708.84,709.33,709.93,710.93,711.86,712.33,711.83,710.85,709.90,709.00,708.02,706.83,706.54,706.73,707.11,707.48,707.81,708.12,708.43,708.75,709.13,709.21,708.91,708.13,706.95,706.72,707.57,709.19,710.95,712.63,713.39,713.54,713.48,713.47,713.46,713.38,713.33,713.74,714.93,716.06,716.94,717.72,718.82,719.68,720.44,721.15,721.37,721.17,720.77,720.24,719.49,718.39,717.59,717.11,716.89,716.76,717.78,719.24,720.76,722.30,723.59,723.59,722.60,721.47,720.58,720.58,721.37,722.81,724.36,726.02,727.39,728.27
653.38,652.62,652.18,651.91,651.70,651.53,651.67,652.38,652.86,652.87,652.79,652.96,653.34,653.69,653.61,652.85,652.17,651.68,651.31,650.88,650.02,649.35,649.16,649.74,651.09,652.77,654.32,655.38,655.94,656.47,656.60,656.24,655.84,656.13,655.61,654.33,652.88,651.30,650.28,650.74,653.11,655.76,658.62,661.98,665.32,667.03,667.41,667.51,667.49,667.33,667.69,668.80,670.30,671.98,673.71,675.45,677.27,679.07,680.59,681.67,682.71,683.69,684.50,685.13,685.77,686.22,686.44,686.54,686.63,686.75,686.90,687.01,687.08,687.09,687.04,686.89,686.57,686.21,685.86,685.51,685.13,684.82,684.42,684.22,684.40,684.56,684.75,684.96,685.33,686.25,687.44,688.67,689.89,691.08,692.26,693.42,694.54,695.52,696.16,696.71,697.21,697.70,698.23,698.70,699.05,699.21,699.21,699.30,699.54,699.96,700.54,701.16,701.84,702.43,702.62,702.07,701.51,700.96,700.43,699.96,699.67,699.43,699.20,698.92,698.48,697.75,696.80,696.59,697.54,697.61,697.14,696.31,695.34,694.70,693.70,692.66,691.98,692.18,693.12,694.13,695.13,696.11,696.92,697.13,697.25,697.49,697.86,698.09,698.24,698.36,698.42,698.43,698.45,698.53,698.86,699.81,701.10,702.36,703.13,703.00,703.29,703.47,703.53,703.55,703.55,703.45,703.35,703.23,703.04,703.13,703.24,703.31,703.41,703.58,703.92,704.44,705.03,705.52,706.05,706.59,707.13,707.65,708.19,708.69,709.18,709.77,710.61,711.73,712.64,712.90,711.88,710.72,709.78,708.98,708.16,707.38,707.26,707.47,707.82,708.20,708.57,708.90,709.21,709.53,709.95,710.25,710.15,709.40,708.03,708.01,708.98,710.50,712.12,713.72,714.61,714.93,714.90,714.90,714.90,714.85,714.95,715.79,717.20,718.42,719.32,720.02,720.73,721.35,722.00,722.62,722.68,722.27,721.73,721.16,720.55,719.77,719.31,719.03,718.72,718.49,719.44,720.98,722.71,724.23,725.56,725.56,724.58,723.62,722.75,722.23,722.44,723.68,725.30,726.95,728.28,729.14
653.53,652.97,652.70,652.53,652.35,652.15,652.11,652.75,653.41,653.76,653.72,653.90,654.19,654.44,654.37,653.77,653.27,652.91,652.61,652.18,651.20,650.27,649.71,649.85,651.24,653.04,654.81,656.22,656.81,657.32,657.49,657.23,656.95,657.31,656.83,655.54,654.06,652.48,651.31,651.90,654.78,657.44,661.00,664.65,667.66,669.05,669.29,669.39,669.37,669.12,669.46,670.66,672.22,673.88,675.50,677.13,678.75,680.27,681.49,682.54,683.63,684.65,685.49,686.06,686.66,687.13,687.40,687.46,687.56,687.68,687.79,687.85,687.84,687.79,687.74,687.64,687.34,686.97,686.61,686.26,685.90,685.52,685.08,684.91,685.18,685.42,685.63,685.81,686.06,686.70,687.83,689.05,690.29,691.59,692.81,694.04,695.31,696.47,697.08,697.60,698.10,698.60,699.11,699.60,699.99,700.20,700.24,700.31,700.43,700.74,701.24,701.79,702.44,703.08,703.37,702.93,702.41,701.87,701.40,701.05,700.86,700.70,700.49,700.22,699.84,698.98,697.92,697.75,698.95,699.13,698.63,697.85,697.05,696.52,695.46,694.14,693.00,692.69,693.72,694.86,695.94,696.93,697.76,698.02,698.13,698.35,698.79,699.10,699.33,699.52,699.65,699.66,699.66,699.76,700.08,700.84,701.91,703.09,703.98,704.15,704.41,704.49,704.49,704.49,704.46,704.34,704.19,704.05,703.87,703.95,704.06,704.16,704.23,704.31,704.51,704.86,705.35,705.82,706.34,706.88,707.42,707.94,708.47,708.98,709.53,710.25,711.31,712.51,713.34,713.38,712.12,710.89,709.97,709.21,708.54,708.10,708.13,708.38,708.72,709.08,709.42,709.76,710.10,710.47,710.92,711.33,711.36,710.67,709.22,709.16,710.34,712.15,713.63,715.17,716.02,716.32,716.32,716.32,716.31,716.31,716.52,717.50,719.22,720.71,721.74,722.36,722.82,723.24,723.66,723.98,723.77,723.25,722.64,722.04,721.50,721.19,721.09,720.99,720.68,720.39,721.13,722.67,724.68,726.38,727.59,727.57,726.73,725.90,725.08,724.30,723.94,724.52,726.20,727.95,729.32,730.22
653.80,653.52,653.34,653.18,653.00,652.77,652.57,653.15,653.93,654.52,654.65,654.86,655.10,655.26,655.17,654.83,654.57,654.36,654.09,653.62,652.67,651.51,650.46,650.12,651.37,653.16,655.12,656.92,657.65,658.14,658.34,658.21,658.04,658.51,658.13,656.93,655.57,654.19,652.75,653.30,656.71,659.66,664.51,668.42,670.43,670.93,671.04,671.26,671.37,671.18,671.58,672.99,674.61,676.09,677.52,678.95,680.26,681.45,682.56,683.64,684.77,685.80,686.58,687.01,687.58,688.06,688.36,688.39,688.51,688.60,688.63,688.57,688.50,688.48,688.47,688.40,688.11,687.74,687.35,686.99,686.63,686.14,685.66,685.53,685.90,686.27,686.49,686.66,686.84,687.17,688.21,689.39,690.70,692.27,693.64,695.00,696.34,697.49,698.01,698.48,698.98,699.50,699.98,700.50,700.93,701.19,701.27,701.35,701.44,701.67,702.07,702.49,703.07,703.67,704.03,703.82,703.32,702.78,702.38,702.17,702.07,702.04,701.88,701.58,701.16,700.13,699.00,698.81,700.04,700.37,700.05,699.45,698.80,698.27,697.16,695.63,694.02,693.03,694.13,695.45,696.67,697.74,698.60,698.92,699.04,699.20,699.64,700.03,700.36,700.67,700.93,700.97,700.98,701.13,701.51,702.20,703.00,703.86,704.68,705.27,705.43,705.46,705.46,705.45,705.37,705.24,705.05,704.83,704.70,704.75,704.88,705.00,705.08,705.14,705.23,705.40,705.71,706.16,706.68,707.22,707.74,708.22,708.75,709.29,709.96,710.86,712.05,713.28,713.96,713.79,712.57,711.42,710.52,709.80,709.24,709.02,709.14,709.43,709.78,710.10,710.37,710.69,711.09,711.55,712.01,712.43,712.50,711.88,710.49,710.22,711.69,714.09,715.50,716.96,717.63,717.76,717.75,717.75,717.72,717.80,718.13,718.96,721.01,722.89,724.16,724.70,725.11,725.33,725.38,725.23,724.70,724.14,723.55,722.96,722.50,722.72,722.94,722.98,722.80,722.45,722.82,724.20,726.47,728.58,729.65,729.70,729.10,728.30,727.51,726.71,725.86,725.43,727.06,729.00,730.53,731.51
654.49,654.21,654.00,653.83,653.65,653.40,653.14,653.60,654.34,655.04,655.45,655.72,655.92,656.10,656.23,656.17,656.04,655.85,655.58,655.11,654.19,653.04,651.97,651.59,652.00,653.45,655.45,657.43,658.60,659.07,659.18,659.10,659.07,659.80,659.68,658.93,658.40,657.38,655.34,655.10,658.32,662.16,666.86,670.19,671.77,672.40,672.80,673.30,673.64,673.59,674.12,675.57,677.15,678.48,679.43,680.37,681.42,682.58,683.71,684.84,685.96,686.98,687.77,688.06,688.52,688.97,689.29,689.39,689.41,689.37,689.32,689.28,689.21,689.19,689.17,689.08,688.82,688.46,688.07,687.66,687.21,686.67,686.25,686.18,686.57,687.00,687.33,687.55,687.67,687.75,688.57,689.66,691.05,692.90,694.62,696.05,697.38,698.53,699.03,699.46,699.91,700.40,700.87,701.40,701.87,702.19,702.31,702.39,702.46,702.65,702.97,703.40,703.87,704.34,704.69,704.70,704.23,703.75,703.44,703.33,703.30,703.29,703.20,702.96,702.41,701.19,700.10,699.89,700.88,701.43,701.16,700.66,700.18,699.68,698.43,696.82,695.11,693.78,694.31,695.56,696.95,698.29,699.45,699.97,700.09,700.14,700.55,700.90,701.31,701.79,702.23,702.41,702.48,702.65,703.02,703.63,704.37,705.16,705.88,706.34,706.38,706.38,706.38,706.36,706.24,706.13,705.88,705.58,705.53,705.59,705.72,705.84,705.91,705.90,705.91,706.01,706.24,706.61,707.08,707.60,708.12,708.59,709.12,709.73,710.51,711.54,712.72,713.94,714.53,714.25,713.10,712.09,711.29,710.62,710.12,709.97,710.12,710.38,710.67,710.98,711.26,711.60,712.03,712.54,713.05,713.51,713.57,712.94,711.75,711.69,713.33,715.89,717.50,718.61,719.11,719.23,719.18,719.18,719.27,719.55,720.10,721.00,722.93,724.94,726.46,727.02,727.39,727.30,726.91,726.33,725.67,725.07,724.46,724.01,724.14,724.55,724.85,724.98,724.92,724.62,724.60,725.49,727.45,729.78,731.60,732.32,732.06,731.14,730.22,729.20,728.10,727.25,727.85,729.95,731.87,733.00
655.29,655.00,654.75,654.52,654.29,654.02,653.72,654.07,654.73,655.48,656.12,656.48,656.69,656.89,657.16,657.32,657.36,657.29,657.08,656.59,655.79,654.86,654.05,653.78,653.65,654.41,655.93,657.90,659.50,660.20,660.38,660.31,660.36,661.14,661.21,660.84,660.87,660.13,657.93,657.01,659.33,663.53,667.61,670.46,672.07,673.12,673.91,674.83,675.61,675.99,676.69,677.94,679.25,680.28,680.89,681.57,682.53,683.69,684.85,686.03,687.14,688.17,688.98,689.20,689.54,689.94,690.26,690.36,690.28,690.20,690.16,690.13,690.08,690.07,690.02,689.90,689.66,689.20,688.73,688.27,687.74,687.20,686.84,686.84,687.25,687.68,688.10,688.41,688.54,688.46,688.99,689.92,691.31,693.31,695.27,696.88,698.32,699.53,700.04,700.44,700.86,701.31,701.78,702.31,702.80,703.15,703.31,703.39,703.49,703.65,703.91,704.34,704.74,705.14,705.48,705.59,705.15,704.84,704.70,704.68,704.66,704.66,704.62,704.43,703.82,702.58,701.56,701.25,701.87,702.46,702.22,701.69,701.11,700.46,699.06,697.38,695.68,694.43,694.80,696.04,697.55,699.06,700.34,700.99,701.13,701.10,701.44,701.77,702.26,702.84,703.41,703.77,703.96,704.17,704.52,705.07,705.80,706.53,707.12,707.37,707.34,707.30,707.29,707.25,707.11,706.97,706.66,706.34,706.36,706.43,706.55,706.63,706.64,706.59,706.58,706.66,706.86,707.15,707.53,708.00,708.50,708.98,709.55,710.29,711.21,712.30,713.43,714.63,715.12,714.74,713.72,712.89,712.16,711.51,711.03,710.93,711.09,711.32,711.57,711.85,712.16,712.52,712.97,713.51,714.05,714.55,714.67,714.12,713.13,713.18,714.97,717.77,719.43,720.23,720.63,720.77,720.72,720.72,721.00,721.62,722.53,723.58,725.31,727.15,728.63,729.20,729.29,728.89,728.20,727.38,726.67,726.02,725.40,725.10,725.70,726.32,726.75,727.00,727.06,726.83,726.58,726.90,728.23,730.63,733.28,734.78,734.97,734.12,733.10,731.79,730.37,729.13,728.71,730.89,733.18,734.52
656.14,655.89,655.60,655.26,654.92,654.61,654.31,654.54,655.12,655.88,656.62,657.12,657.40,657.59,657.83,658.11,658.42,658.63,658.58,658.06,657.48,656.99,656.67,656.61,656.49,656.29,656.70,658.40,660.25,661.47,662.00,661.99,661.97,662.54,662.65,662.46,662.50,661.88,660.19,658.91,659.57,663.19,666.47,669.17,671.30,672.83,674.15,675.60,677.04,678.21,679.07,679.90,680.64,681.25,681.77,682.58,683.63,684.79,685.95,687.17,688.30,689.33,690.18,690.41,690.65,690.97,691.27,691.27,691.11,691.16,691.27,691.21,691.19,691.18,691.12,690.96,690.69,689.98,689.32,688.78,688.25,687.72,687.44,687.51,687.95,688.35,688.80,689.22,689.50,689.42,689.59,690.25,691.49,693.44,695.44,697.35,699.09,700.47,701.01,701.42,701.81,702.22,702.69,703.22,703.71,704.08,704.28,704.38,704.51,704.66,704.88,705.26,705.65,706.07,706.43,706.50,706.11,706.05,706.17,706.28,706.25,706.25,706.20,706.02,705.46,704.44,703.50,703.01,703.14,703.45,703.20,702.49,701.48,700.43,698.89,697.13,695.57,694.90,695.78,697.19,698.72,700.17,701.28,701.94,702.10,702.05,702.31,702.67,703.20,703.82,704.43,705.00,705.36,705.63,705.94,706.50,707.22,707.85,708.27,708.36,708.32,708.24,708.20,708.17,708.01,707.75,707.41,707.13,707.20,707.27,707.35,707.35,707.24,707.22,707.22,707.33,707.56,707.80,708.05,708.43,708.90,709.40,710.07,711.00,712.06,713.14,714.23,715.38,715.74,715.28,714.49,713.81,713.14,712.47,711.96,711.89,712.06,712.29,712.53,712.77,713.07,713.46,713.94,714.49,715.03,715.57,715.80,715.49,714.70,714.60,716.54,719.66,721.16,721.84,722.21,722.40,722.40,722.40,722.94,724.01,725.43,726.63,728.17,729.55,730.59,731.13,730.68,730.01,729.25,728.42,727.71,727.01,726.40,726.19,727.00,727.91,728.61,729.05,729.23,729.11,728.84,728.63,729.04,731.39,734.69,736.89,737.65,737.12,736.07,734.46,732.65,730.96,729.85,732.00,734.53,736.00
656.99,656.74,656.33,655.95,655.59,655.21,654.94,655.03,655.51,656.28,657.04,657.63,658.03,658.30,658.54,658.84,659.17,659.50,659.73,659.70,659.37,659.10,659.01,659.00,658.94,658.65,658.54,659.09,660.35,661.75,662.92,663.59,663.62,663.96,664.10,664.08,664.11,663.37,661.98,660.38,659.57,662.09,664.90,667.63,670.09,671.92,673.90,676.01,677.90,679.21,680.12,680.88,681.55,682.12,682.66,683.58,684.68,685.84,687.00,688.19,689.27,690.25,691.03,691.44,691.70,691.97,692.18,692.11,692.16,692.39,692.59,692.55,692.47,692.41,692.34,692.18,691.82,690.76,689.81,689.15,688.67,688.33,688.22,688.31,688.62,689.00,689.51,690.29,691.10,691.27,691.43,691.74,692.33,693.48,695.49,697.61,699.56,701.13,701.97,702.44,702.83,703.23,703.65,704.14,704.64,705.05,705.26,705.39,705.54,705.69,705.89,706.23,706.61,706.99,707.28,707.32,707.00,707.11,707.45,707.84,708.07,708.12,708.03,707.75,707.13,706.31,705.45,704.87,704.65,704.06,703.35,702.40,701.22,699.94,698.03,696.58,695.92,696.26,697.22,698.50,699.83,701.08,702.19,702.89,703.08,703.01,703.22,703.61,704.20,704.85,705.46,706.08,706.60,706.98,707.34,708.00,708.61,709.03,709.28,709.35,709.37,709.25,709.16,709.11,708.88,708.51,708.17,707.97,708.03,708.03,708.02,707.98,707.88,707.83,707.88,708.02,708.22,708.45,708.68,709.00,709.42,710.02,710.93,711.95,713.00,714.08,715.12,716.22,716.56,716.14,715.46,714.79,714.14,713.49,712.92,712.86,713.04,713.27,713.50,713.73,713.99,714.40,714.93,715.51,716.10,716.65,716.94,716.77,716.16,716.01,717.51,720.28,722.49,723.40,723.80,724.00,724.08,724.09,724.67,725.81,727.34,728.68,729.93,730.97,731.82,732.37,732.10,731.40,730.49,729.50,728.66,727.87,727.37,727.39,728.24,729.22,730.32,731.27,731.73,731.77,731.43,731.01,731.17,733.45,736.58,738.90,740.00,739.70,738.57,737.08,735.34,733.57,732.80,734.95,736.85,737.34
657.82,657.51,657.00,656.62,656.28,655.85,655.56,655.52,655.90,656.67,657.45,658.10,658.60,658.97,659.25,659.61,659.95,660.35,660.80,661.20,661.06,660.91,660.90,660.90,660.90,660.69,660.33,660.10,660.82,662.24,663.77,664.96,665.19,665.38,665.54,665.67,665.72,665.11,664.01,662.27,660.52,661.72,663.55,665.96,668.67,670.94,673.57,676.27,678.55,679.89,680.79,681.58,682.29,682.93,683.56,684.54,685.65,686.78,687.92,689.07,690.09,691.00,691.76,692.38,692.73,692.94,693.08,693.08,693.33,693.68,693.95,693.94,693.80,693.69,693.60,693.42,692.87,691.62,690.50,689.71,689.23,689.08,689.20,689.41,689.62,689.97,690.67,691.83,693.09,693.45,693.62,693.65,693.64,693.94,695.61,697.76,699.84,701.57,702.76,703.42,703.87,704.25,704.64,705.07,705.58,706.00,706.24,706.42,706.56,706.72,706.91,707.21,707.58,707.88,708.07,708.10,707.88,708.12,708.62,709.18,709.63,709.80,709.69,709.30,708.57,707.77,706.85,706.07,705.47,704.16,703.06,701.96,700.73,699.22,697.38,696.67,697.02,698.00,698.85,699.89,700.99,702.05,703.13,703.85,704.06,703.98,704.12,704.55,705.16,705.81,706.43,707.05,707.66,708.17,708.62,709.34,709.86,710.12,710.21,710.27,710.33,710.19,710.08,710.04,709.74,709.27,708.93,708.77,708.79,708.72,708.65,708.57,708.50,708.44,708.54,708.70,708.88,709.12,709.41,709.77,710.27,711.03,712.09,713.12,714.15,715.22,716.23,717.12,717.37,717.00,716.38,715.71,715.08,714.45,713.88,713.86,714.05,714.29,714.54,714.76,714.97,715.34,715.87,716.53,717.18,717.77,718.09,717.99,717.55,717.41,718.49,720.83,723.64,724.91,725.40,725.61,725.76,725.81,726.38,727.46,728.91,730.23,731.22,732.08,732.86,733.48,733.54,732.90,731.92,730.87,729.89,729.02,728.63,728.83,729.65,730.61,732.00,733.41,734.28,734.53,734.18,733.68,733.75,735.87,738.53,740.72,741.99,741.83,740.67,739.49,738.04,736.38,736.20,738.07,739.03,738.48
658.62,658.17,657.60,657.27,657.00,656.54,656.17,655.99,656.28,657.07,657.89,658.55,659.12,659.59,659.98,660.47,660.93,661.38,661.86,662.35,662.26,662.12,662.07,662.07,662.07,661.83,661.56,661.62,662.38,663.58,664.84,665.93,666.58,666.78,666.99,667.23,667.37,667.43,666.69,665.18,663.42,663.18,662.94,664.24,667.08,670.12,673.26,676.43,679.06,680.52,681.39,682.17,682.93,683.68,684.44,685.45,686.49,687.54,688.63,689.73,690.67,691.55,692.44,693.24,693.71,693.91,694.01,694.32,694.63,694.98,695.26,695.29,695.16,695.02,694.87,694.58,693.70,692.65,691.62,690.71,690.09,690.09,690.54,691.03,691.32,691.61,692.70,694.20,695.53,695.79,695.91,695.86,695.61,695.29,695.91,697.80,699.90,701.70,703.23,704.28,704.90,705.30,705.67,706.01,706.49,706.93,707.22,707.44,707.56,707.71,707.94,708.19,708.55,708.73,708.78,708.83,708.75,709.10,709.63,710.14,710.55,710.95,710.88,710.36,709.55,708.44,707.17,705.94,704.80,703.45,702.30,701.28,700.08,698.27,697.50,698.13,699.33,700.05,700.60,701.36,702.25,703.20,704.14,704.82,705.06,704.98,704.99,705.43,706.02,706.65,707.26,707.88,708.50,709.10,709.68,710.31,710.86,711.05,711.03,711.04,711.06,710.94,710.90,710.93,710.58,710.04,709.67,709.51,709.40,709.32,709.24,709.16,709.10,709.08,709.20,709.39,709.62,709.87,710.32,710.94,711.72,712.67,713.62,714.62,715.64,716.71,717.68,718.06,718.04,717.71,717.09,716.47,715.88,715.31,714.81,714.93,715.15,715.42,715.70,715.93,716.05,716.29,716.75,717.50,718.24,718.90,719.24,719.12,718.82,718.79,719.76,721.84,724.68,726.36,727.03,727.25,727.46,727.60,728.12,729.05,730.27,731.29,732.18,733.06,733.92,734.62,734.99,734.50,733.66,732.78,731.68,730.82,730.47,730.69,731.42,732.33,733.69,735.31,736.76,737.30,737.06,736.56,736.53,738.34,740.39,742.23,743.42,743.28,742.25,741.51,740.52,739.21,739.57,740.61,740.52,739.33
659.30,658.78,658.18,657.92,657.70,657.25,656.82,656.51,656.73,657.51,658.30,659.02,659.70,660.33,660.88,661.41,661.93,662.43,662.94,663.42,663.44,663.34,663.28,663.24,663.23,663.09,662.96,663.13,664.01,665.09,666.21,667.22,667.83,668.11,668.37,668.66,668.89,669.12,668.88,668.22,667.33,666.92,665.99,665.59,666.42,669.13,672.71,676.73,679.95,681.25,682.16,682.96,683.73,684.50,685.32,686.15,687.11,688.16,689.24,690.25,691.17,692.08,693.00,693.88,694.57,694.98,695.22,695.60,695.96,696.30,696.58,696.65,696.53,696.37,696.16,695.80,695.08,694.13,693.13,692.26,691.87,692.14,692.88,693.70,694.35,694.75,695.75,696.95,697.94,698.13,698.16,697.99,697.59,696.98,696.61,698.02,699.95,701.76,703.53,705.07,705.94,706.32,706.67,707.01,707.44,707.86,708.19,708.43,708.57,708.75,708.97,709.16,709.38,709.50,709.53,709.58,709.65,710.01,710.47,710.91,711.27,711.67,711.48,710.72,709.73,708.00,706.44,705.11,703.88,702.65,701.50,700.34,699.13,698.07,698.50,699.68,700.89,701.52,702.01,702.75,703.62,704.50,705.33,705.90,706.07,705.95,705.88,706.15,706.65,707.22,707.81,708.42,709.01,709.61,710.24,710.89,711.48,711.76,711.82,711.82,711.82,711.74,711.72,711.74,711.38,710.88,710.50,710.30,710.18,710.06,710.00,709.95,709.88,709.88,710.12,710.47,710.85,711.22,711.73,712.42,713.33,714.41,715.26,716.15,717.13,718.11,718.62,718.75,718.69,718.42,717.81,717.23,716.67,716.13,715.73,716.00,716.29,716.58,716.87,717.09,717.13,717.22,717.53,718.27,719.04,719.95,720.50,720.38,720.08,720.34,721.64,723.87,726.37,728.05,728.75,728.95,729.10,729.30,729.78,730.70,731.94,732.92,733.82,734.72,735.44,735.81,736.36,736.28,735.75,734.90,733.75,732.72,732.39,732.77,733.47,734.25,735.43,736.98,738.69,739.45,739.38,739.08,739.13,740.48,742.19,743.83,744.98,744.96,744.04,743.11,741.93,740.78,741.84,742.56,742.06,740.69
660.04,659.37,658.78,658.58,658.42,657.95,657.50,657.08,657.19,657.91,658.72,659.53,660.35,661.13,661.81,662.37,662.91,663.46,664.01,664.50,664.61,664.56,664.48,664.41,664.39,664.39,664.43,664.64,665.58,666.61,667.64,668.55,669.02,669.38,669.69,670.01,670.32,670.55,670.72,670.81,670.77,670.51,669.47,667.86,666.69,668.28,671.99,676.74,680.56,681.84,682.92,683.78,684.57,685.38,686.22,686.86,687.69,688.73,689.78,690.74,691.69,692.64,693.58,694.53,695.40,696.03,696.44,696.85,697.27,697.63,697.90,698.03,697.92,697.74,697.44,697.01,696.53,695.71,694.77,694.02,693.95,694.50,695.45,696.53,697.52,698.11,698.88,699.66,700.23,700.37,700.33,700.07,699.58,698.78,697.63,698.43,700.07,701.93,703.88,705.82,706.93,707.35,707.68,708.06,708.43,708.80,709.14,709.37,709.53,709.71,709.91,710.05,710.14,710.22,710.27,710.32,710.53,710.89,711.29,711.66,711.98,712.27,711.85,710.86,709.71,707.43,705.54,704.07,702.85,701.76,700.60,699.48,698.63,698.56,699.83,701.16,702.17,702.82,703.32,704.10,704.98,705.81,706.57,707.00,707.07,706.93,706.79,706.88,707.26,707.76,708.30,708.90,709.46,710.03,710.66,711.33,711.96,712.39,712.60,712.60,712.58,712.54,712.54,712.52,712.18,711.75,711.40,711.16,711.07,710.93,710.89,710.88,710.82,710.82,711.19,711.72,712.26,712.75,713.26,714.00,714.99,716.19,717.01,717.78,718.61,719.36,719.42,719.40,719.32,719.10,718.54,718.00,717.46,716.96,716.66,717.05,717.42,717.74,718.03,718.22,718.19,718.13,718.30,719.02,719.82,720.96,721.74,721.67,721.33,721.86,723.54,725.99,728.17,729.72,730.40,730.60,730.69,730.91,731.38,732.33,733.66,734.73,735.71,736.56,737.06,736.99,737.64,737.99,737.83,737.08,735.87,734.65,734.32,734.88,735.58,736.26,737.19,738.52,740.22,741.18,741.42,741.41,741.58,742.57,744.06,745.57,746.65,746.65,745.81,744.49,743.07,742.29,743.98,744.46,743.72,742.32
661.08,659.93,659.42,659.30,659.13,658.67,658.20,657.75,657.70,658.22,659.16,660.12,661.12,662.04,662.72,663.28,663.82,664.39,665.01,665.69,665.80,665.73,665.65,665.57,665.51,665.72,665.98,666.17,666.93,667.99,668.97,669.71,670.13,670.57,670.93,671.25,671.60,671.80,671.96,672.05,672.00,671.71,671.05,670.08,668.89,668.03,670.97,675.80,680.05,681.91,683.50,684.57,685.44,686.29,687.17,687.69,688.35,689.24,690.25,691.24,692.27,693.30,694.31,695.35,696.24,696.92,697.44,697.95,698.51,698.96,699.29,699.46,699.40,699.12,698.67,698.12,697.65,697.15,696.48,695.90,696.08,696.84,697.85,698.93,699.97,700.83,701.39,701.86,702.24,702.32,702.27,702.04,701.54,700.59,699.29,699.27,700.42,702.46,704.51,706.52,707.78,708.40,708.77,709.16,709.50,709.80,710.05,710.22,710.33,710.46,710.61,710.70,710.79,710.86,710.93,711.03,711.30,711.70,712.12,712.51,712.86,712.84,712.11,710.94,709.82,707.47,705.00,703.01,701.76,700.71,699.44,699.05,699.67,700.39,701.39,702.37,703.27,704.10,704.67,705.39,706.21,707.05,707.80,708.06,708.07,707.95,707.76,707.81,708.03,708.39,708.88,709.43,709.97,710.55,711.15,711.74,712.40,713.00,713.38,713.37,713.31,713.29,713.31,713.31,713.01,712.68,712.43,712.25,712.12,712.02,712.03,712.06,712.05,712.05,712.50,713.13,713.76,714.29,714.78,715.55,716.64,717.96,719.01,719.64,720.03,720.24,720.25,720.15,719.96,719.67,719.29,718.83,718.31,717.84,717.64,718.08,718.53,718.91,719.17,719.27,719.18,719.01,719.10,719.88,720.81,721.94,722.79,722.99,722.58,723.13,724.92,727.49,729.70,731.09,731.75,732.02,732.12,732.34,732.85,733.84,735.27,736.58,737.68,738.40,738.56,738.09,738.73,739.30,739.52,739.17,737.95,736.57,736.22,736.89,737.64,738.29,738.98,739.86,741.05,742.26,743.11,743.56,743.84,744.78,746.21,747.65,748.55,748.20,747.35,745.64,744.35,744.70,746.75,746.71,745.67,744.27
662.29,661.15,660.58,660.38,660.02,659.23,658.95,658.52,658.38,658.83,659.87,660.86,661.89,662.88,663.63,664.29,664.92,665.56,666.24,666.85,666.95,666.87,666.77,666.70,666.65,667.02,667.47,667.70,668.35,669.26,670.18,670.93,671.38,671.80,672.18,672.54,672.89,673.08,673.21,673.28,673.22,672.89,672.33,671.63,670.62,669.21,670.68,674.67,678.93,681.42,683.21,684.90,686.26,687.23,688.11,688.68,689.27,690.03,691.03,692.04,693.07,694.11,695.15,696.19,697.12,697.81,698.32,698.86,699.44,699.97,700.41,700.67,700.54,700.23,699.76,699.16,698.64,698.40,698.07,697.84,698.28,699.16,700.21,701.27,702.28,703.11,703.56,703.91,704.19,704.23,704.21,704.07,703.61,702.55,701.17,700.53,701.25,703.28,705.26,707.21,708.61,709.42,709.74,710.05,710.34,710.60,710.82,710.98,711.07,711.17,711.28,711.39,711.48,711.56,711.63,711.75,712.10,712.51,712.94,713.34,713.62,713.21,712.28,711.11,709.88,707.51,704.89,702.53,700.81,700.03,699.57,699.93,701.04,702.01,702.91,703.80,704.68,705.49,706.03,706.63,707.38,708.25,708.91,709.11,709.10,708.97,708.74,708.74,708.90,709.19,709.59,710.03,710.54,711.11,711.71,712.27,712.88,713.49,713.97,714.09,714.07,714.06,714.09,714.11,713.89,713.65,713.48,713.35,713.20,713.12,713.13,713.20,713.24,713.27,713.78,714.47,715.18,715.79,716.31,717.11,718.25,719.66,720.83,721.47,721.78,721.83,721.83,721.51,721.17,720.85,720.35,719.76,719.22,718.80,718.65,719.12,719.87,720.32,720.37,720.53,720.44,720.40,720.62,721.25,722.14,723.13,723.98,724.37,723.91,724.21,725.83,728.34,730.36,731.66,732.56,733.17,733.52,733.76,734.23,735.25,736.80,738.23,739.24,739.75,739.72,739.24,739.74,740.30,740.59,740.38,739.42,738.33,738.04,738.59,739.35,740.05,740.67,741.34,742.18,743.12,744.21,745.17,745.97,747.03,748.28,749.43,750.08,749.66,748.84,746.86,745.74,746.94,748.77,748.14,746.68,745.19
663.66,662.70,662.03,661.61,660.91,659.76,659.77,659.32,659.14,659.66,660.80,661.81,662.84,663.83,664.61,665.38,666.12,666.86,667.56,668.00,668.09,668.01,667.88,667.80,667.80,668.30,668.90,669.24,669.79,670.49,671.29,672.09,672.63,673.06,673.45,673.85,674.20,674.37,674.46,674.51,674.44,674.06,673.49,672.89,672.11,670.90,670.90,673.68,677.59,680.67,682.60,684.94,686.92,688.15,689.04,689.72,690.31,691.00,691.96,692.96,693.97,695.01,696.06,697.06,698.00,698.68,699.17,699.67,700.21,700.80,701.35,701.72,701.54,701.24,700.79,700.19,699.65,699.63,699.68,699.85,700.52,701.51,702.55,703.58,704.52,705.21,705.60,705.90,706.13,706.13,706.13,706.08,705.69,704.61,703.30,702.25,702.47,704.19,706.16,708.04,709.51,710.43,710.64,710.85,711.08,711.31,711.53,711.68,711.77,711.85,711.95,712.09,712.18,712.25,712.34,712.49,712.91,713.32,713.73,714.13,714.25,713.47,712.40,711.27,709.92,707.56,704.98,702.40,700.26,699.80,700.30,701.30,702.51,703.53,704.42,705.33,706.21,706.92,707.42,707.87,708.54,709.43,710.04,710.23,710.21,710.06,709.81,709.78,709.93,710.19,710.49,710.73,711.16,711.69,712.29,712.84,713.38,713.97,714.50,714.78,714.82,714.84,714.88,714.92,714.81,714.66,714.55,714.45,714.31,714.23,714.25,714.33,714.41,714.49,715.03,715.76,716.52,717.21,717.80,718.66,719.88,721.38,722.62,723.32,723.66,723.71,723.65,723.12,722.65,722.30,721.68,721.01,720.47,720.10,720.00,720.44,721.46,721.94,721.75,721.92,721.86,722.04,722.44,722.89,723.63,724.46,725.27,725.76,725.27,725.17,726.53,728.91,730.66,731.92,733.07,734.07,734.75,735.14,735.59,736.55,738.09,739.56,740.46,740.80,740.71,740.36,740.68,741.14,741.41,741.25,740.59,739.93,739.73,740.09,740.83,741.60,742.25,742.84,743.46,744.03,745.13,746.43,747.76,748.99,750.05,750.92,751.37,750.99,750.17,748.06,747.12,748.84,750.30,749.16,747.39,745.94
665.29,664.43,663.77,662.84,661.58,660.36,660.80,660.11,659.89,660.82,662.13,663.32,664.40,665.27,665.80,666.54,667.38,668.21,668.88,669.14,669.19,669.11,668.98,668.91,668.95,669.50,670.25,670.80,671.20,671.66,672.24,672.97,673.81,674.34,674.77,675.21,675.55,675.63,675.70,675.75,675.65,675.18,674.64,674.11,673.45,672.38,671.86,673.37,676.36,679.84,682.12,684.64,687.05,688.93,689.99,690.77,691.47,692.16,692.95,693.92,694.97,696.02,697.03,697.98,698.87,699.55,700.02,700.36,700.91,701.49,702.03,702.47,702.46,702.21,701.79,701.25,700.85,701.06,701.48,702.01,702.80,703.97,704.94,705.85,706.77,707.32,707.63,707.88,708.08,708.08,708.08,708.03,707.71,706.86,706.03,705.01,704.42,704.99,707.38,709.38,710.72,711.43,711.49,711.60,711.79,712.02,712.23,712.34,712.42,712.50,712.59,712.74,712.83,712.91,713.02,713.25,713.69,714.09,714.49,714.79,714.65,713.63,712.42,711.23,709.97,707.63,705.10,702.72,700.91,700.67,701.34,702.48,703.83,704.95,705.94,706.88,707.73,708.36,708.84,709.22,709.75,710.54,711.39,711.63,711.56,711.37,711.21,711.23,711.40,711.66,711.90,711.78,711.89,712.25,712.82,713.42,713.97,714.52,715.06,715.48,715.54,715.62,715.72,715.79,715.81,715.74,715.65,715.55,715.41,715.37,715.42,715.50,715.57,715.65,716.20,716.93,717.71,718.45,719.13,720.23,721.69,723.21,724.63,725.29,725.54,725.56,725.33,724.78,724.23,723.81,723.52,723.22,722.82,722.49,722.49,722.77,723.64,724.04,723.70,723.49,723.47,723.81,724.33,724.77,725.22,725.94,726.69,727.08,726.60,726.05,727.14,729.49,730.97,732.18,733.35,734.44,735.43,736.37,736.99,737.65,738.59,739.97,740.99,741.52,741.58,741.25,741.45,741.86,742.20,742.21,741.58,741.16,741.09,741.37,742.03,742.78,743.52,744.20,744.82,745.42,746.18,747.21,748.54,749.82,750.88,751.81,752.36,751.96,750.98,749.09,748.31,749.78,751.08,749.89,748.42,747.55
666.77,665.97,665.03,663.71,662.21,661.13,661.91,661.41,661.31,662.29,663.52,664.80,665.95,666.78,667.16,667.63,668.38,669.32,670.25,670.63,670.76,670.69,670.54,670.52,670.45,670.82,671.52,672.28,672.72,673.09,673.52,674.08,674.76,675.45,676.04,676.53,676.87,676.91,676.95,676.97,676.84,676.34,675.82,675.37,674.89,674.17,673.53,673.90,675.70,679.05,681.70,684.44,687.15,689.48,690.73,691.69,692.50,693.24,693.98,694.94,695.98,697.01,698.00,698.96,699.87,700.49,700.84,701.10,701.60,702.14,702.70,703.19,703.28,703.13,702.80,702.42,702.42,702.84,703.42,704.11,705.05,706.28,707.32,708.18,708.87,709.27,709.50,709.69,709.83,709.86,709.86,709.82,709.62,709.14,708.60,707.58,706.64,706.48,708.00,709.88,711.48,712.44,712.42,712.46,712.59,712.76,712.95,713.03,713.11,713.19,713.27,713.39,713.48,713.58,713.73,714.02,714.43,714.83,715.20,715.41,715.02,713.90,712.61,711.36,710.07,707.93,705.63,703.53,702.08,701.92,702.58,703.72,705.12,706.36,707.40,708.44,709.36,710.00,710.54,710.80,711.12,711.75,712.55,712.96,712.99,712.81,712.71,712.81,712.99,713.22,713.40,713.15,712.99,713.06,713.39,714.00,714.55,715.09,715.63,716.11,716.26,716.38,716.50,716.60,716.71,716.75,716.73,716.65,716.52,716.50,716.55,716.63,716.74,716.86,717.36,718.05,718.83,719.76,720.78,722.10,723.63,725.19,726.61,727.25,727.44,727.40,726.99,726.34,725.83,725.60,725.62,725.60,725.33,725.12,725.25,725.45,725.97,726.11,725.66,725.14,725.20,725.67,726.27,726.73,726.98,727.53,728.11,728.38,728.03,727.17,727.94,730.04,731.31,732.49,733.66,734.81,735.87,737.02,737.90,738.62,739.36,740.44,741.43,742.15,742.44,742.17,742.22,742.57,742.99,743.17,742.60,742.39,742.44,742.65,743.12,743.89,744.68,745.45,746.17,746.81,747.42,748.22,749.30,750.57,751.72,752.83,753.41,752.60,751.39,749.70,749.21,750.79,752.06,751.13,749.90,749.21
668.13,667.32,665.96,664.34,662.83,662.05,663.05,663.04,663.20,664.02,665.04,666.31,667.48,668.32,668.61,668.76,669.31,670.29,671.52,672.23,672.57,672.60,672.49,672.55,672.33,672.38,672.84,673.69,674.29,674.68,675.04,675.41,675.71,676.47,677.22,677.80,678.16,678.21,678.21,678.18,678.04,677.58,677.12,676.74,676.46,676.16,675.61,675.12,675.72,678.37,681.30,684.25,687.19,689.79,691.20,692.34,693.30,694.13,694.90,695.88,696.89,697.91,698.92,699.92,700.88,701.43,701.62,701.86,702.28,702.79,703.36,703.90,704.05,704.00,703.81,703.65,704.17,704.80,705.44,706.18,707.24,708.41,709.52,710.36,710.77,711.03,711.21,711.35,711.44,711.50,711.51,711.46,711.41,711.32,710.90,709.91,708.95,708.41,708.54,710.11,712.05,713.48,713.41,713.40,713.45,713.54,713.66,713.75,713.83,713.91,713.99,714.06,714.14,714.26,714.46,714.76,715.15,715.53,715.89,716.02,715.39,714.21,712.90,711.59,710.22,708.38,706.35,704.59,703.56,703.40,703.93,705.00,706.43,707.78,708.89,710.08,711.15,711.79,712.38,712.48,712.61,713.07,713.69,714.27,714.45,714.33,714.27,714.44,714.63,714.82,714.96,714.70,714.36,714.08,714.07,714.59,715.13,715.67,716.21,716.71,716.99,717.12,717.23,717.39,717.55,717.69,717.77,717.74,717.62,717.60,717.64,717.76,717.92,718.07,718.52,719.17,719.98,721.12,722.53,724.02,725.56,727.15,728.51,729.13,729.31,729.18,728.59,727.80,727.41,727.49,727.78,727.98,727.86,727.79,728.06,728.23,728.33,728.13,727.55,726.78,726.94,727.53,728.21,728.68,728.82,729.16,729.53,729.71,729.48,728.42,728.82,730.58,731.70,732.86,734.08,735.26,736.31,737.40,738.51,739.48,740.26,741.01,741.88,742.73,743.26,743.08,743.00,743.29,743.77,744.11,743.66,743.65,743.80,743.96,744.20,744.94,745.76,746.60,747.48,748.17,748.84,749.53,750.32,751.48,752.73,753.95,754.45,753.12,751.68,750.18,750.00,751.81,753.14,752.60,751.58,750.86
669.38,668.34,666.71,664.90,663.51,663.21,664.06,664.75,665.40,666.16,667.06,668.10,669.07,669.81,670.11,670.31,670.68,671.31,672.28,673.42,674.30,674.76,674.93,675.13,674.95,674.61,674.50,675.02,675.80,676.31,676.71,677.03,677.13,677.48,678.16,678.96,679.44,679.52,679.47,679.43,679.37,679.11,678.78,678.53,678.38,678.17,677.72,677.34,677.30,678.11,680.85,683.89,686.96,689.68,691.04,692.21,693.30,694.34,695.32,696.37,697.42,698.48,699.54,700.60,701.64,702.23,702.39,702.58,702.90,703.41,704.01,704.57,704.86,704.82,704.77,704.99,705.87,706.73,707.50,708.29,709.25,710.12,710.96,711.68,712.18,712.43,712.61,712.80,713.00,713.01,712.97,712.93,712.96,712.99,712.59,711.84,711.05,710.47,710.38,711.37,713.05,714.52,714.50,714.45,714.41,714.38,714.39,714.46,714.58,714.69,714.75,714.78,714.85,714.97,715.16,715.43,715.80,716.19,716.56,716.66,715.72,714.48,713.16,711.85,710.49,708.78,706.95,705.59,705.16,705.06,705.30,706.31,707.94,709.29,710.67,712.13,713.30,713.73,714.18,714.13,714.18,714.66,715.25,715.74,715.92,715.87,715.83,715.96,716.20,716.41,716.47,716.25,715.89,715.44,715.05,715.24,715.72,716.26,716.78,717.26,717.66,717.83,717.96,718.17,718.38,718.55,718.67,718.74,718.70,718.69,718.75,718.89,719.13,719.25,719.73,720.47,721.42,722.49,723.85,725.41,727.05,728.69,730.09,730.75,730.90,730.63,729.94,729.15,728.90,729.16,729.58,729.95,730.10,730.20,730.45,730.66,730.52,730.02,729.17,728.21,728.42,729.22,730.07,730.46,730.58,730.74,731.01,731.24,730.74,729.60,729.70,731.07,732.26,733.47,734.76,736.07,737.22,738.04,739.03,740.08,741.05,741.76,742.46,743.25,743.88,743.89,743.79,744.03,744.49,744.92,744.85,744.98,745.16,745.32,745.50,745.94,746.71,747.66,748.63,749.58,750.53,751.45,752.33,753.20,754.25,755.10,755.22,753.92,752.42,751.15,751.03,752.56,754.08,753.76,752.97,752.38
670.20,668.94,667.14,665.43,664.39,664.49,665.11,666.22,667.26,668.08,668.95,669.82,670.65,671.32,671.67,671.94,672.22,672.63,673.33,674.37,675.53,676.44,677.09,677.60,677.55,676.95,676.34,676.33,677.12,677.80,678.31,678.64,678.68,678.77,679.27,680.02,680.61,680.62,680.56,680.52,680.47,680.33,680.27,680.31,680.37,680.22,679.93,679.76,679.45,679.05,680.63,683.30,686.33,689.12,690.73,691.97,693.13,694.28,695.43,696.52,697.61,698.70,699.81,700.92,702.05,702.83,703.19,703.36,703.60,704.04,704.62,705.21,705.65,705.66,705.67,706.04,707.10,708.13,709.05,709.92,710.83,711.58,712.25,712.89,713.48,713.81,714.00,714.23,714.48,714.50,714.44,714.40,714.45,714.57,714.20,713.67,713.08,712.56,712.56,713.35,714.57,715.59,715.53,715.46,715.34,715.23,715.18,715.25,715.36,715.46,715.51,715.47,715.58,715.70,715.84,716.03,716.43,716.84,717.21,717.28,716.22,714.92,713.60,712.27,710.90,709.33,707.81,706.83,706.73,706.75,706.58,707.49,709.46,711.05,712.71,714.34,715.52,715.76,715.97,715.76,715.75,716.23,716.75,717.14,717.32,717.33,717.33,717.44,717.76,718.03,718.00,717.77,717.35,716.77,716.18,715.97,716.32,716.84,717.36,717.82,718.26,718.49,718.70,718.96,719.18,719.38,719.54,719.68,719.76,719.82,719.87,720.01,720.28,720.39,721.00,721.92,722.95,723.96,725.18,726.65,728.23,729.77,731.13,732.02,732.38,732.12,731.41,730.67,730.57,731.05,731.57,732.04,732.21,732.31,732.55,732.83,732.62,732.03,731.08,729.97,729.92,730.76,731.79,732.11,732.23,732.30,732.50,732.68,731.96,730.79,730.66,731.67,732.91,734.17,735.49,736.85,738.11,738.98,739.79,740.63,741.50,742.30,743.05,743.83,744.49,744.70,744.61,744.79,745.21,745.69,745.92,746.17,746.42,746.64,746.84,747.08,747.70,748.64,749.82,751.17,752.48,753.63,754.56,755.23,756.05,756.38,755.97,754.66,753.22,752.13,752.08,753.43,754.90,754.92,754.43,753.93
670.62,669.18,667.31,666.00,665.52,665.86,666.25,667.47,668.73,669.71,670.63,671.46,672.20,672.84,673.27,673.61,673.87,674.21,674.70,675.25,676.37,677.63,678.82,679.78,679.89,679.20,678.24,677.67,678.32,679.12,679.77,680.14,680.24,680.27,680.53,681.06,681.69,681.60,681.51,681.48,681.42,681.35,681.65,682.07,682.39,682.32,682.24,682.25,681.95,681.09,680.90,682.68,685.35,688.16,690.30,691.65,692.81,694.01,695.35,696.54,697.65,698.75,699.89,701.03,702.22,703.25,703.97,704.18,704.36,704.69,705.20,705.82,706.41,706.53,706.54,706.83,707.92,709.09,710.16,711.13,712.05,712.85,713.48,714.08,714.73,715.20,715.43,715.66,715.92,715.99,715.93,715.86,715.91,716.11,715.82,715.49,715.08,714.69,714.92,715.73,716.39,716.65,716.51,716.42,716.23,716.05,716.02,716.09,716.17,716.25,716.27,716.14,716.31,716.45,716.52,716.59,717.06,717.49,717.85,717.88,716.85,715.53,714.24,712.97,711.60,710.17,709.04,708.37,708.28,708.45,707.88,708.58,710.79,712.81,714.78,716.52,717.69,717.85,717.75,717.38,717.30,717.73,718.13,718.46,718.65,718.73,718.80,718.88,719.29,719.63,719.52,719.22,718.70,718.06,717.38,716.81,716.97,717.42,717.94,718.39,718.80,719.13,719.43,719.74,719.98,720.21,720.39,720.56,720.77,720.93,720.99,721.12,721.38,721.53,722.34,723.43,724.53,725.50,726.58,727.87,729.27,730.64,731.88,733.08,733.79,733.68,733.04,732.36,732.44,733.15,733.76,734.24,734.25,734.20,734.44,734.80,734.67,734.14,733.26,732.06,731.54,732.26,733.39,733.68,733.79,733.87,734.01,734.03,733.17,732.00,731.69,732.41,733.64,734.92,736.24,737.56,738.90,740.05,740.74,741.24,741.77,742.67,743.58,744.42,745.12,745.51,745.45,745.56,745.92,746.44,746.88,747.21,747.54,747.88,748.11,748.31,748.76,749.63,751.07,752.86,754.53,755.90,756.85,757.38,757.94,757.73,756.75,755.39,754.08,753.10,753.12,754.43,755.68,756.08,755.92,755.44
670.71,669.19,667.48,666.89,667.08,667.47,667.59,668.66,669.93,671.01,672.03,672.94,673.71,674.35,674.84,675.22,675.52,675.88,676.34,676.76,677.39,678.40,679.76,681.11,681.36,680.77,679.89,679.30,679.63,680.30,680.90,681.27,681.50,681.58,681.83,682.31,682.90,682.71,682.50,682.46,682.63,682.96,683.44,684.00,684.47,684.46,684.56,684.66,684.49,683.85,683.10,683.02,684.28,686.92,689.59,691.05,692.12,693.39,695.28,696.99,698.30,699.40,700.45,701.46,702.53,703.56,704.44,704.97,705.19,705.38,705.74,706.40,707.03,707.32,707.40,707.61,708.68,709.99,711.17,712.22,713.22,714.08,714.74,715.35,715.98,716.54,716.83,717.09,717.36,717.47,717.42,717.35,717.40,717.64,717.50,717.38,717.12,716.87,717.28,717.52,717.66,717.68,717.44,717.34,717.02,716.76,716.80,716.92,717.01,717.08,717.07,716.83,717.01,717.19,717.26,717.28,717.67,718.14,718.53,718.52,717.45,716.15,715.19,714.39,713.21,712.08,711.20,710.47,710.00,710.23,709.79,709.84,711.00,713.46,715.87,717.99,719.47,719.82,719.56,719.09,718.86,719.08,719.49,719.78,720.00,720.15,720.23,720.30,720.71,721.00,720.79,720.40,719.87,719.26,718.60,717.95,717.73,717.98,718.47,718.92,719.36,719.78,720.19,720.58,720.91,721.13,721.29,721.47,721.69,721.90,722.08,722.24,722.48,722.85,723.73,724.79,725.90,727.02,728.08,729.32,730.79,732.38,733.49,734.43,735.11,735.28,734.71,734.19,734.41,735.26,735.99,736.37,736.27,736.12,736.33,736.69,736.67,736.25,735.44,734.37,733.61,734.04,735.01,735.30,735.40,735.48,735.56,735.43,734.43,733.23,732.76,733.24,734.46,735.68,736.92,738.21,739.53,740.70,741.64,742.21,742.51,743.08,743.93,744.83,745.64,746.22,746.26,746.33,746.63,747.16,747.62,747.97,748.32,748.67,748.96,749.26,749.91,750.97,752.49,754.20,756.08,757.79,758.99,759.22,759.27,758.75,757.71,756.40,755.30,754.26,754.17,755.51,756.74,757.19,757.07,756.64
670.64,669.25,668.10,668.12,668.71,669.18,669.17,669.96,671.09,672.26,673.36,674.33,675.16,675.85,676.37,676.80,677.15,677.57,678.07,678.43,678.67,679.41,680.74,682.23,682.85,682.45,681.63,680.99,680.93,681.43,681.95,682.33,682.63,682.81,683.11,683.59,684.13,683.82,683.53,683.61,684.11,684.72,685.28,685.90,686.46,686.62,686.88,687.03,686.96,686.55,685.78,684.65,684.53,686.03,688.48,690.16,691.39,692.79,695.06,697.21,698.81,700.02,701.00,701.96,702.97,704.00,704.97,705.74,706.00,706.12,706.38,706.97,707.60,708.05,708.24,708.46,709.58,710.94,712.18,713.30,714.36,715.26,715.99,716.63,717.23,717.84,718.21,718.51,718.79,718.92,718.89,718.81,718.85,719.10,719.14,719.14,719.01,718.82,719.07,718.93,718.80,718.72,718.40,718.19,717.73,717.42,717.58,717.75,717.85,717.89,717.82,717.51,717.69,717.92,718.04,718.03,718.24,718.74,719.17,719.14,718.13,717.38,716.91,716.37,715.31,714.86,714.09,713.07,712.19,712.17,711.63,711.13,711.50,714.03,716.58,718.90,720.74,721.60,721.33,720.84,720.48,720.45,720.85,721.12,721.34,721.53,721.65,721.73,722.06,722.23,721.89,721.40,720.87,720.30,719.69,719.07,718.65,718.75,719.15,719.60,720.03,720.50,720.99,721.46,721.84,722.05,722.22,722.41,722.64,722.87,723.10,723.31,723.57,724.18,725.10,726.13,727.22,728.44,729.72,731.18,732.75,734.30,735.41,736.14,736.65,736.86,736.36,735.97,736.35,737.34,738.16,738.46,738.28,738.07,738.21,738.55,738.65,738.42,737.80,736.76,735.71,735.87,736.70,736.98,737.09,737.11,737.07,736.78,735.78,734.56,733.91,734.16,735.44,736.60,737.69,738.84,740.09,741.25,742.37,743.14,743.47,743.72,744.37,745.21,746.11,746.82,747.04,747.11,747.34,747.88,748.36,748.71,749.07,749.49,749.94,750.48,751.36,752.59,754.13,755.66,757.43,759.15,760.43,760.75,760.50,759.78,758.71,757.42,756.64,755.54,755.33,756.72,757.88,758.29,758.18,757.83
670.65,669.56,669.31,669.69,670.37,671.02,671.04,671.47,672.34,673.52,674.65,675.67,676.58,677.34,677.87,678.33,678.74,679.23,679.82,680.14,680.22,680.78,681.95,683.34,684.51,684.38,683.53,682.70,682.24,682.55,683.02,683.40,683.71,684.01,684.38,684.87,685.34,684.89,684.59,684.89,685.82,686.49,687.07,687.70,688.33,688.75,689.12,689.32,689.29,689.02,688.59,687.59,686.43,685.86,687.20,689.01,690.60,692.26,694.65,697.04,699.05,700.54,701.48,702.48,703.54,704.61,705.64,706.49,706.78,706.93,707.14,707.53,708.17,708.75,709.08,709.43,710.71,711.98,713.21,714.40,715.47,716.41,717.22,717.91,718.46,719.07,719.55,719.93,720.20,720.34,720.30,720.22,720.25,720.48,720.69,720.74,720.65,720.45,720.18,720.00,719.93,719.83,719.44,718.99,718.38,718.07,718.34,718.58,718.69,718.66,718.48,718.21,718.36,718.63,718.83,718.83,718.80,719.28,719.78,719.78,718.94,719.26,719.36,718.76,717.75,718.28,717.53,716.06,714.83,714.20,713.23,712.43,712.55,714.77,717.10,719.37,721.50,723.13,723.06,722.62,722.18,721.92,722.22,722.48,722.67,722.85,723.05,723.15,723.34,723.33,722.87,722.28,721.73,721.18,720.64,720.10,719.74,719.77,720.07,720.46,720.86,721.35,721.87,722.36,722.75,722.96,723.15,723.38,723.61,723.84,724.08,724.31,724.63,725.43,726.40,727.42,728.49,729.77,731.56,733.44,735.12,736.31,737.53,738.17,738.42,738.38,737.97,737.67,738.20,739.35,740.25,740.50,740.30,740.06,740.11,740.37,740.58,740.61,740.24,739.12,737.74,737.69,738.43,738.70,738.80,738.72,738.51,738.08,737.23,736.00,735.14,735.14,736.56,737.73,738.61,739.48,740.62,741.77,742.93,743.92,744.57,744.67,744.97,745.63,746.51,747.31,747.79,747.88,748.06,748.60,749.15,749.56,749.97,750.50,751.21,752.05,753.14,754.46,755.97,757.35,758.72,760.02,761.16,761.98,761.73,760.88,759.72,758.46,758.04,756.91,756.60,758.06,759.09,759.39,759.30,759.08
672.42,671.43,671.09,671.41,672.26,673.34,673.43,673.59,674.07,674.91,675.96,677.02,678.00,678.83,679.36,679.83,680.24,680.70,681.20,681.44,681.79,682.41,683.38,684.73,686.05,686.16,685.45,684.52,683.80,683.90,684.29,684.72,685.12,685.52,685.83,686.13,686.46,685.91,685.52,685.83,686.92,687.87,688.68,689.41,690.06,690.56,690.92,691.19,691.28,691.11,690.79,690.09,689.07,688.03,687.89,688.24,689.38,691.29,693.86,696.63,699.25,701.16,702.11,703.15,704.23,705.31,706.34,707.17,707.57,707.74,707.89,708.17,708.77,709.44,710.01,710.63,711.88,713.06,714.22,715.41,716.56,717.56,718.43,719.16,719.75,720.32,720.80,721.19,721.46,721.61,721.61,721.54,721.55,721.75,721.97,722.03,721.94,721.71,721.34,721.22,721.20,721.08,720.61,719.87,719.12,718.77,719.08,719.36,719.51,719.41,719.09,718.86,719.05,719.34,719.59,719.65,719.55,720.02,720.60,720.79,720.19,720.60,720.70,720.23,719.66,720.17,719.64,718.36,716.90,715.78,714.57,713.67,713.75,715.95,718.11,720.25,722.38,724.22,724.69,724.44,723.99,723.65,723.61,723.79,723.98,724.15,724.38,724.55,724.55,724.33,723.84,723.28,722.74,722.22,721.71,721.19,720.88,720.94,721.24,721.58,721.96,722.39,722.83,723.23,723.65,723.90,724.12,724.35,724.58,724.86,725.11,725.34,725.63,726.20,727.21,728.34,729.61,731.54,733.60,735.63,737.41,738.66,739.49,739.82,739.91,739.86,739.61,739.43,739.98,741.11,742.13,742.52,742.42,742.21,742.16,742.11,742.23,742.16,741.65,740.57,739.48,739.43,739.99,740.18,740.20,740.02,739.79,739.48,738.70,737.43,736.22,735.87,737.54,738.96,739.78,740.37,741.17,742.29,743.49,744.65,745.58,745.81,745.98,746.32,746.94,747.87,748.49,748.66,748.84,749.33,750.20,751.03,751.71,752.30,752.99,753.80,754.95,756.32,757.76,759.18,760.38,761.46,762.45,763.27,762.87,761.86,760.75,759.97,759.49,758.17,757.82,759.48,760.40,760.65,760.58,760.44
674.88,673.87,673.32,673.51,674.42,675.74,675.96,675.98,676.14,676.60,677.44,678.39,679.34,680.18,680.75,681.23,681.66,682.11,682.53,682.83,683.44,684.14,684.95,686.17,687.52,687.89,687.37,686.30,685.48,685.32,685.62,686.19,686.69,687.10,687.27,687.39,687.60,686.96,686.46,686.71,687.90,689.11,690.19,691.04,691.68,692.18,692.56,692.91,693.13,693.07,692.81,692.33,691.55,690.49,689.48,688.64,688.99,690.56,693.21,696.33,699.40,701.72,702.93,703.89,704.94,706.02,707.04,707.85,708.32,708.54,708.69,708.95,709.50,710.26,711.07,711.94,713.10,714.21,715.33,716.49,717.67,718.71,719.62,720.39,721.01,721.55,722.04,722.42,722.69,722.84,722.90,722.87,722.85,722.99,723.20,723.25,723.14,722.90,722.56,722.47,722.47,722.35,721.84,720.90,720.01,719.60,719.89,720.25,720.46,720.27,719.81,719.65,719.90,720.25,720.53,720.62,720.47,720.91,721.54,721.91,721.51,721.80,721.80,721.45,721.26,721.53,721.08,720.00,718.59,717.30,715.96,714.93,714.95,717.32,719.56,721.69,723.77,725.64,726.36,726.19,725.77,725.39,725.05,725.16,725.36,725.55,725.77,725.93,725.75,725.36,724.89,724.34,723.80,723.28,722.79,722.27,722.00,722.11,722.44,722.78,723.15,723.52,723.88,724.22,724.59,724.87,725.12,725.35,725.61,725.89,726.14,726.37,726.60,726.95,727.89,729.19,730.87,733.31,735.58,737.68,739.47,740.56,741.03,741.25,741.34,741.31,741.17,741.06,741.55,742.64,743.83,744.52,744.59,744.42,744.27,743.98,743.89,743.63,743.00,742.02,741.21,741.11,741.42,741.52,741.50,741.38,741.31,741.22,740.39,739.03,737.49,736.72,738.49,740.16,741.08,741.51,741.91,742.87,744.07,745.35,746.49,746.98,747.15,747.20,747.48,748.39,749.20,749.58,749.88,750.45,751.54,752.70,753.71,754.51,755.13,755.70,756.68,757.97,759.37,760.77,761.89,762.92,763.88,764.49,763.95,762.89,761.87,761.30,760.54,759.29,759.14,760.86,761.71,761.96,761.96,761.98
677.75,676.66,676.07,676.17,676.94,678.14,678.52,678.58,678.61,678.74,679.17,679.80,680.55,681.32,681.97,682.46,682.96,683.47,683.95,684.50,685.23,685.93,686.64,687.64,688.91,689.56,689.26,687.98,687.25,686.76,686.95,687.80,688.40,688.67,688.68,688.66,688.76,688.06,687.47,687.67,688.91,690.26,691.60,692.57,693.16,693.63,694.08,694.52,694.86,694.94,694.74,694.27,693.52,692.58,691.84,690.87,690.14,690.45,692.96,696.30,699.47,702.13,703.99,704.71,705.67,706.74,707.74,708.50,709.02,709.33,709.59,709.96,710.44,711.28,712.28,713.31,714.35,715.48,716.59,717.69,718.79,719.87,720.79,721.57,722.23,722.78,723.26,723.65,723.93,724.08,724.22,724.23,724.18,724.23,724.44,724.45,724.34,724.14,723.85,723.73,723.70,723.59,723.13,722.15,721.15,720.61,720.86,721.39,721.64,721.35,720.76,720.69,721.04,721.48,721.81,721.85,721.60,721.98,722.63,723.09,722.78,722.97,722.91,722.60,722.51,722.53,721.85,720.82,719.82,718.89,717.51,716.25,716.11,718.82,721.53,723.87,725.95,727.71,728.08,727.84,727.45,727.04,726.57,726.65,726.87,727.10,727.30,727.29,726.94,726.47,726.04,725.46,724.90,724.37,723.83,723.32,723.09,723.25,723.62,724.00,724.38,724.72,725.07,725.41,725.62,725.89,726.15,726.40,726.69,726.95,727.18,727.39,727.56,727.81,728.57,730.11,732.42,734.95,737.34,739.52,741.14,741.66,742.00,742.47,742.77,742.74,742.60,742.45,742.85,743.88,745.34,746.52,746.82,746.64,746.40,746.10,745.67,745.17,744.58,743.79,743.01,742.69,742.70,742.74,742.79,742.97,743.29,743.47,742.46,740.96,739.12,737.90,739.38,741.26,742.49,743.00,742.98,743.55,744.69,746.00,747.23,748.12,748.42,748.31,748.24,748.83,749.96,750.70,751.35,752.24,753.31,754.45,755.77,757.06,757.65,757.79,758.30,759.30,760.72,761.95,763.11,764.29,765.33,765.55,764.96,764.06,763.09,762.13,760.96,760.23,760.58,762.10,763.00,763.31,763.52,763.79
679.44,679.07,678.20,678.27,679.32,680.86,681.27,681.33,681.25,681.04,680.74,681.07,681.73,682.49,683.20,683.69,684.27,684.90,685.49,685.93,686.89,687.74,688.38,689.16,690.41,691.07,690.83,689.73,688.98,688.37,688.33,688.99,689.88,690.18,690.20,690.07,689.72,688.88,688.60,689.10,690.35,691.65,693.05,694.11,694.74,695.13,695.58,696.07,696.52,696.81,696.67,696.22,695.52,694.67,693.84,692.62,691.56,691.37,693.12,696.36,699.67,702.46,704.43,705.81,706.73,707.58,708.45,709.17,709.82,710.31,710.70,711.10,711.56,712.39,713.40,714.48,715.53,716.63,717.73,718.83,719.95,721.11,721.98,722.70,723.42,724.01,724.53,724.92,725.16,725.31,725.47,725.51,725.49,725.51,725.68,725.67,725.56,725.38,725.13,725.02,724.99,724.89,724.47,723.53,722.54,722.00,722.24,722.80,722.90,722.53,721.97,721.88,722.25,722.71,723.05,723.07,722.77,723.09,723.70,724.20,724.08,724.19,724.11,723.85,723.71,723.37,722.55,721.61,720.85,720.07,718.71,717.56,717.54,719.99,722.83,725.56,727.87,729.26,729.52,729.35,729.03,728.61,728.07,728.10,728.37,728.62,728.64,728.41,727.93,727.47,727.16,726.65,726.11,725.55,724.98,724.46,724.24,724.40,724.79,725.18,725.57,725.93,726.27,726.58,726.71,726.91,727.16,727.44,727.74,727.98,728.22,728.42,728.58,728.77,729.56,731.35,734.08,736.91,739.22,741.27,742.88,743.57,743.87,744.16,744.32,744.22,744.07,743.95,744.35,745.40,747.02,748.36,748.80,748.65,748.27,747.77,747.08,746.44,745.92,745.32,744.68,744.24,744.10,744.31,744.51,744.78,745.20,745.50,744.60,743.02,741.00,739.39,739.90,741.75,743.68,744.82,744.67,744.50,745.35,746.65,748.02,749.08,749.61,749.66,749.47,749.50,750.55,751.92,753.16,754.14,755.18,756.24,757.56,758.95,759.79,759.94,760.33,761.14,762.37,763.65,764.84,765.99,766.84,766.58,765.89,764.91,763.77,762.65,761.59,761.15,761.68,763.17,764.25,764.81,765.23,765.65
681.01,681.11,679.95,680.02,681.38,683.37,684.03,684.11,683.87,683.31,682.41,682.37,682.89,683.66,684.39,684.94,685.65,686.42,687.08,687.39,688.39,689.42,690.22,690.89,692.10,692.61,692.36,691.51,690.75,690.07,689.86,690.35,691.46,691.71,691.73,691.54,690.83,689.85,689.92,690.75,691.98,693.21,694.55,695.64,696.34,696.66,697.08,697.58,698.12,698.57,698.56,698.17,697.56,696.73,695.68,694.24,693.07,692.59,693.47,696.45,699.78,702.68,704.92,706.92,707.89,708.60,709.34,710.02,710.81,711.43,711.88,712.27,712.74,713.49,714.46,715.57,716.65,717.75,718.85,719.98,721.14,722.37,723.20,723.88,724.59,725.21,725.78,726.18,726.39,726.56,726.72,726.78,726.78,726.80,726.92,726.89,726.77,726.61,726.40,726.31,726.28,726.20,725.85,724.96,723.99,723.48,723.74,724.29,724.22,723.77,723.26,723.13,723.48,723.95,724.30,724.28,723.93,724.21,724.77,725.27,725.32,725.38,725.28,725.08,724.82,724.14,723.34,722.56,721.85,721.04,719.71,718.74,718.88,721.04,723.88,726.87,729.31,730.38,730.72,730.68,730.43,730.00,729.48,729.47,729.75,730.04,729.92,729.48,728.89,728.42,728.22,727.85,727.34,726.77,726.16,725.59,725.38,725.56,725.94,726.33,726.73,727.12,727.47,727.73,727.80,727.89,728.13,728.46,728.78,729.09,729.37,729.61,729.83,730.19,731.31,733.37,736.21,738.95,741.10,743.03,744.69,745.72,745.99,745.98,745.88,745.75,745.61,745.49,745.85,746.86,748.57,749.87,750.43,750.37,749.86,749.19,748.33,747.63,747.17,746.71,746.20,745.75,745.57,745.97,746.32,746.66,747.11,747.50,746.84,745.34,743.53,741.88,741.19,742.48,744.86,746.68,746.56,745.79,746.08,747.15,748.63,749.81,750.60,750.97,750.93,750.60,751.39,753.17,754.88,755.95,757.02,758.02,759.19,760.52,761.63,762.02,762.48,763.20,764.24,765.52,766.70,767.71,768.21,767.51,766.68,765.62,764.41,763.33,762.53,762.25,762.79,764.23,765.48,766.27,766.86,767.36
683.03,682.50,681.21,681.28,682.80,685.23,686.73,686.88,686.32,685.40,684.44,683.83,684.06,684.82,685.53,686.25,687.22,688.15,688.77,689.05,689.58,690.77,692.28,693.11,694.13,694.37,693.98,693.32,692.67,691.90,691.72,692.40,693.45,693.32,693.19,693.05,692.37,691.35,691.62,692.63,693.85,695.03,696.13,697.14,697.96,698.28,698.61,699.07,699.61,700.10,700.31,700.14,699.63,698.73,697.37,695.86,694.64,693.87,694.04,696.58,699.57,702.77,705.95,707.83,709.10,710.01,710.68,711.28,712.18,712.76,713.10,713.46,713.96,714.54,715.42,716.60,717.69,718.83,720.01,721.21,722.37,723.60,724.50,725.19,725.77,726.38,726.99,727.41,727.64,727.85,728.02,728.08,728.08,728.09,728.17,728.09,727.94,727.78,727.63,727.58,727.58,727.53,727.27,726.44,725.41,724.89,725.27,725.79,725.59,725.07,724.54,724.37,724.71,725.22,725.56,725.45,725.05,725.27,725.81,726.32,726.41,726.43,726.35,726.14,725.73,724.86,724.39,723.89,722.91,721.72,720.45,719.63,719.86,722.07,724.78,727.52,729.73,730.79,731.56,731.69,731.45,731.02,730.67,730.61,730.90,731.27,731.14,730.57,729.89,729.38,729.17,729.02,728.58,728.03,727.40,726.61,726.50,726.70,727.04,727.44,727.88,728.29,728.64,728.88,728.85,728.81,729.02,729.45,729.84,730.37,730.80,731.15,731.62,732.62,734.63,737.06,739.38,741.00,742.87,744.84,746.64,747.89,748.14,747.76,747.42,747.37,747.22,747.03,747.20,748.02,749.65,750.70,751.36,751.53,750.97,750.29,749.47,748.79,748.34,747.93,747.47,747.16,747.14,747.60,748.10,748.51,749.01,749.52,749.28,748.23,747.43,746.61,744.60,744.17,746.19,748.40,748.53,747.74,746.96,747.28,748.78,750.12,751.14,752.05,752.65,752.56,752.92,754.47,756.20,757.47,758.78,759.76,760.70,761.78,763.02,763.89,764.65,765.45,766.41,767.46,768.55,769.25,769.22,768.26,767.17,766.18,765.29,764.55,764.11,763.80,764.12,765.36,766.64,767.56,768.17,768.66
684.18,684.11,683.18,682.94,684.12,686.93,688.90,688.95,688.18,687.13,686.07,685.21,685.26,685.93,686.63,687.40,688.31,689.32,690.29,690.82,691.20,692.18,693.71,695.07,696.04,696.29,695.98,695.33,694.67,694.03,693.98,694.61,695.16,694.75,694.59,694.62,694.17,693.12,693.41,694.46,695.69,696.92,698.01,698.87,699.49,699.80,700.11,700.56,701.11,701.60,701.82,701.70,701.18,700.23,698.85,697.33,696.16,695.39,695.19,696.74,699.27,702.50,706.10,708.86,710.66,711.79,712.41,712.75,713.58,714.07,714.31,714.62,715.10,715.63,716.42,717.52,718.70,719.81,721.09,722.44,723.61,724.83,725.83,726.55,727.04,727.61,728.19,728.61,728.87,729.10,729.27,729.37,729.42,729.43,729.46,729.33,729.16,729.01,728.90,728.88,728.88,728.84,728.65,727.90,726.84,726.33,726.83,727.18,726.91,726.37,725.85,725.70,726.11,726.60,726.87,726.67,726.22,726.36,726.83,727.33,727.50,727.50,727.39,727.12,726.47,725.56,725.51,725.83,725.86,725.22,722.96,721.26,721.38,723.96,726.45,728.60,730.24,731.21,732.17,732.49,732.33,731.92,731.72,731.68,731.93,732.24,732.04,731.42,730.80,730.33,730.09,729.99,729.71,729.19,728.44,727.57,727.59,727.88,728.22,728.54,728.92,729.44,730.05,730.55,730.48,730.31,730.61,731.26,731.70,732.29,732.86,733.42,734.18,735.67,737.67,739.66,741.37,742.66,744.35,746.35,748.32,749.62,749.71,749.15,748.80,748.93,748.84,748.75,748.86,749.33,750.40,751.32,752.14,752.45,751.92,751.25,750.46,749.85,749.47,749.16,748.88,748.68,748.66,749.00,749.51,749.94,750.41,750.85,750.66,750.14,749.86,749.45,747.74,746.00,747.47,749.89,750.36,749.36,748.28,748.07,748.88,749.88,750.98,752.16,753.22,753.84,754.62,755.91,757.31,758.53,759.87,761.00,762.04,763.08,764.22,765.25,766.16,767.06,768.06,769.07,770.02,770.39,769.95,768.97,768.00,767.10,766.42,766.21,765.94,765.60,765.72,766.67,767.91,768.88,769.52,769.97
685.03,685.69,685.32,684.80,685.51,688.32,690.53,690.58,689.73,688.62,687.50,686.54,686.45,687.02,687.74,688.51,689.33,690.39,691.70,692.57,692.96,693.63,694.91,696.80,697.83,698.18,698.02,697.42,696.73,696.26,696.32,696.79,696.75,696.13,696.01,696.22,696.00,694.97,695.19,696.19,697.45,698.79,699.86,700.56,700.95,701.26,701.60,702.07,702.61,703.08,703.26,703.12,702.55,701.53,700.20,698.79,697.81,697.17,696.72,697.05,699.07,702.26,706.18,710.00,712.31,713.65,714.30,714.37,715.01,715.38,715.55,715.81,716.22,716.73,717.43,718.40,719.65,720.73,722.08,723.58,724.82,726.06,727.15,727.94,728.35,728.83,729.35,729.78,730.11,730.33,730.51,730.66,730.76,730.78,730.78,730.62,730.44,730.36,730.30,730.28,730.28,730.25,730.06,729.31,728.25,727.80,728.39,728.56,728.22,727.65,727.12,727.05,727.54,728.01,728.18,727.91,727.40,727.46,727.85,728.32,728.58,728.57,728.41,728.02,727.19,726.39,726.75,727.84,728.92,728.89,725.65,723.10,723.19,726.22,728.36,729.80,730.86,731.71,732.72,733.22,733.20,732.84,732.75,732.74,732.92,733.12,732.83,732.23,731.71,731.31,731.03,730.94,730.75,730.23,729.38,728.53,728.71,729.14,729.54,729.86,730.20,730.85,731.70,732.47,732.46,732.24,732.61,733.41,733.92,734.46,735.13,735.91,736.94,738.67,740.35,741.77,742.96,744.21,745.74,747.71,749.75,751.06,751.03,750.45,750.18,750.45,750.36,750.35,750.42,750.62,751.14,751.96,752.86,753.31,752.83,752.15,751.42,750.87,750.58,750.36,750.24,750.12,750.07,750.28,750.75,751.19,751.61,751.93,751.71,751.63,751.61,751.37,750.27,747.81,748.77,751.24,752.13,750.96,749.83,749.24,749.27,749.82,750.83,752.03,753.29,754.59,755.88,756.99,758.07,759.21,760.51,761.79,762.98,764.07,765.10,766.18,767.20,768.22,769.32,770.35,771.24,771.39,770.66,769.78,769.00,768.22,767.71,767.98,767.85,767.46,767.38,768.03,769.16,770.13,770.79,771.25
685.86,686.98,687.20,686.90,687.18,688.92,691.02,691.51,690.92,689.75,688.72,687.77,687.60,688.08,688.84,689.66,690.63,691.73,692.96,694.18,694.73,695.15,696.04,698.06,699.35,699.80,699.81,699.58,698.93,698.42,698.41,698.71,698.27,697.60,697.55,697.84,697.66,696.84,696.86,697.64,698.98,700.43,701.27,701.85,702.31,702.64,703.10,703.63,704.14,704.57,704.70,704.51,703.87,702.74,701.36,700.37,699.90,699.58,698.83,697.88,699.28,702.56,707.05,711.38,713.84,715.39,716.28,716.23,716.56,716.75,716.85,717.08,717.36,717.83,718.47,719.29,720.40,721.53,722.90,724.46,725.95,727.27,728.46,729.32,729.73,729.99,730.41,730.90,731.33,731.56,731.79,731.92,732.03,732.13,732.15,731.97,731.91,732.04,732.08,732.04,732.02,731.97,731.65,730.54,729.63,729.40,729.93,730.01,729.57,728.88,728.27,728.38,728.91,729.31,729.42,729.14,728.63,728.58,728.86,729.32,729.65,729.66,729.34,728.75,727.96,727.67,728.30,729.41,730.36,730.07,727.00,724.81,725.33,728.67,730.18,731.02,731.73,732.47,733.29,733.96,734.15,733.87,733.84,733.84,733.91,733.95,733.63,733.15,732.71,732.34,732.07,731.96,731.60,730.98,730.21,729.60,729.94,730.58,731.26,731.89,732.40,733.10,733.89,734.62,734.96,734.98,735.22,735.79,736.44,736.72,737.40,738.37,739.45,740.81,742.11,743.36,744.57,745.76,747.15,748.90,750.72,752.01,752.19,751.86,751.69,751.85,751.57,751.33,751.36,751.68,752.21,752.82,753.64,754.12,753.73,753.06,752.40,751.91,751.63,751.46,751.31,751.20,751.19,751.43,751.83,752.27,752.69,752.99,752.85,752.76,752.70,752.37,751.11,749.35,750.16,752.39,753.88,752.82,751.67,750.95,750.72,750.87,751.46,752.13,752.98,754.28,755.54,756.71,757.89,759.15,760.40,761.61,762.80,763.97,765.05,766.23,767.42,768.62,769.85,770.94,772.05,772.36,771.65,770.92,770.25,769.59,769.24,769.67,769.69,769.27,768.99,769.33,770.25,771.05,771.77,772.46
687.09,687.99,688.70,688.79,688.89,689.76,691.48,692.57,692.49,691.35,690.19,689.22,688.88,689.20,690.11,691.06,692.10,693.25,694.50,695.67,696.41,696.89,697.49,698.89,700.13,700.85,701.14,701.07,700.49,700.05,700.01,700.15,699.64,699.11,699.11,699.42,699.39,698.67,698.51,699.13,700.53,702.13,703.04,703.54,703.83,704.11,704.63,705.18,705.68,706.06,706.14,705.89,705.17,704.02,703.04,702.37,702.38,702.56,701.80,699.85,700.54,703.93,709.31,713.87,716.28,717.61,718.24,718.09,718.09,718.13,718.21,718.38,718.57,719.03,719.65,720.41,721.33,722.39,723.73,725.29,726.86,728.30,729.51,730.41,730.87,731.03,731.42,731.94,732.46,732.79,733.06,733.24,733.35,733.45,733.50,733.51,733.61,733.82,733.92,733.86,733.79,733.64,733.07,731.79,731.20,731.32,731.83,731.83,731.30,730.55,729.93,730.00,730.50,730.85,730.92,730.67,730.17,730.20,730.60,731.23,731.96,731.98,731.32,730.23,729.11,728.71,729.36,730.57,731.54,730.74,727.95,726.12,726.69,729.80,731.25,732.01,732.62,733.32,734.02,734.74,735.07,734.90,734.89,734.89,734.92,734.87,734.55,734.14,733.74,733.38,733.09,732.86,732.35,731.74,731.18,730.84,731.44,732.31,733.19,734.01,734.68,735.46,736.25,736.96,737.52,737.74,737.98,738.34,738.80,738.91,739.43,740.29,741.30,742.34,743.47,744.68,745.94,747.17,748.51,750.04,751.63,752.93,753.41,753.31,753.19,753.21,752.73,752.30,752.32,752.76,753.31,753.88,754.57,754.98,754.67,754.05,753.42,752.96,752.71,752.55,752.40,752.29,752.31,752.59,752.96,753.38,753.79,754.09,754.00,753.92,753.70,753.15,752.01,751.08,752.06,754.09,755.65,754.81,753.69,752.76,752.23,752.25,752.59,753.00,753.56,754.57,755.51,756.46,757.55,758.82,760.03,761.25,762.55,763.90,765.21,766.40,767.59,768.84,770.16,771.33,772.56,773.14,772.79,772.12,771.52,771.03,770.85,771.22,771.16,770.72,770.36,770.47,771.20,771.94,772.70,773.47
688.46,689.01,690.07,690.52,690.59,690.86,692.10,693.65,694.12,693.17,691.85,690.81,690.33,690.53,691.54,692.64,693.77,695.00,696.26,697.13,698.02,698.65,699.06,699.62,700.64,701.63,702.24,702.23,701.68,701.35,701.31,701.34,700.91,700.56,700.62,700.97,701.19,700.54,700.36,700.95,702.33,703.91,705.00,705.44,705.46,705.59,706.13,706.72,707.22,707.54,707.58,707.28,706.50,705.42,704.99,704.57,705.01,705.73,705.15,702.38,702.59,706.20,712.29,716.76,718.93,719.87,720.08,719.87,719.64,719.61,719.70,719.82,720.00,720.46,721.10,721.86,722.59,723.46,724.63,726.04,727.58,729.11,730.35,731.28,731.87,732.01,732.40,732.94,733.52,733.99,734.33,734.55,734.68,734.77,734.86,735.11,735.40,735.63,735.78,735.70,735.59,735.32,734.43,733.17,732.96,733.40,733.89,733.86,733.25,732.49,731.88,731.78,732.20,732.49,732.56,732.38,731.90,732.12,732.75,733.69,734.89,734.88,733.84,732.24,730.72,729.89,730.37,731.60,732.59,731.24,728.72,727.23,727.74,730.29,731.88,732.84,733.53,734.20,734.84,735.55,735.96,735.90,735.89,735.89,735.89,735.82,735.50,735.13,734.76,734.40,734.09,733.71,733.13,732.60,732.26,732.21,733.06,734.14,735.18,736.11,736.93,737.80,738.62,739.31,739.96,740.35,740.63,740.86,741.02,741.05,741.35,741.95,742.82,743.63,744.68,745.88,747.17,748.45,749.76,751.13,752.54,753.85,754.67,754.77,754.68,754.53,753.88,753.29,753.31,753.86,754.41,755.02,755.59,755.88,755.63,755.06,754.46,754.04,753.83,753.66,753.51,753.40,753.44,753.77,754.14,754.53,754.90,755.19,755.15,755.07,754.68,753.92,753.01,752.95,754.23,756.08,757.39,756.84,755.75,754.61,753.75,753.80,754.00,754.27,754.64,755.26,755.85,756.50,757.41,758.61,759.82,761.13,762.59,764.14,765.69,766.88,767.98,769.17,770.47,771.69,772.95,773.83,774.00,773.38,772.85,772.53,772.49,772.69,772.44,772.00,771.64,771.61,772.11,772.85,773.65,774.46
689.49,690.54,691.60,692.06,692.19,692.45,693.41,694.54,695.21,695.01,693.70,692.50,692.15,692.51,693.28,694.56,695.92,697.25,698.33,698.63,699.44,700.08,700.40,700.75,701.59,702.55,703.26,703.33,702.79,702.50,702.48,702.51,702.09,701.79,701.93,702.44,703.04,702.65,703.06,703.97,705.00,705.94,706.96,707.37,707.17,706.96,707.48,708.18,708.76,709.03,709.02,708.67,707.96,707.11,706.91,706.78,707.50,708.56,708.32,704.90,705.67,709.82,715.41,719.07,720.64,721.32,721.54,721.34,721.33,721.42,721.60,721.86,722.17,722.70,723.37,724.13,724.81,725.31,725.73,726.44,727.93,729.47,730.74,731.85,732.76,732.97,733.41,733.97,734.59,735.15,735.54,735.82,735.98,736.08,736.25,736.65,737.08,737.39,737.60,737.56,737.44,737.02,735.86,735.10,735.10,735.52,735.96,735.88,735.29,734.61,733.97,733.53,733.88,734.12,734.17,734.18,733.80,734.19,735.13,736.45,737.83,737.65,736.46,734.84,733.39,732.17,732.18,732.95,733.53,731.92,729.48,728.37,729.12,730.89,732.31,733.48,734.42,735.05,735.67,736.32,736.74,736.80,736.76,736.75,736.75,736.67,736.36,736.03,735.70,735.38,735.06,734.68,734.23,733.83,733.59,733.72,734.66,735.80,736.93,738.01,739.02,739.89,740.65,741.33,741.91,742.36,742.71,742.97,743.11,743.13,743.29,743.67,744.34,745.16,746.07,747.13,748.32,749.47,750.75,752.12,753.50,754.86,755.98,756.24,756.11,755.82,755.06,754.33,754.34,754.97,755.51,756.12,756.65,756.87,756.56,756.03,755.51,755.16,754.99,754.83,754.63,754.53,754.62,754.99,755.37,755.75,756.07,756.25,756.24,756.17,755.75,754.93,754.13,754.92,756.52,758.15,759.07,758.77,757.70,756.36,755.26,755.34,755.55,755.70,755.88,756.35,756.93,757.55,758.34,759.42,760.78,762.33,763.93,765.53,767.11,768.33,769.31,770.22,771.24,772.35,773.44,774.51,775.22,774.73,774.40,774.21,774.11,774.07,773.67,773.34,773.12,773.00,773.06,773.85,774.82,775.77
689.60,691.10,692.34,693.17,693.71,694.13,694.97,695.80,696.49,696.65,695.50,694.22,694.52,695.63,695.97,696.47,697.70,699.08,700.02,700.16,700.77,701.30,701.59,701.85,702.57,703.49,704.23,704.38,703.89,703.65,703.62,703.60,703.19,703.08,703.44,704.16,704.96,704.95,705.72,706.81,707.73,708.37,709.08,709.22,708.82,708.50,708.92,709.67,710.42,710.82,710.64,710.21,709.62,709.04,708.99,709.01,709.60,710.38,710.12,706.71,708.14,712.76,717.91,720.53,721.78,722.53,722.96,722.92,723.13,723.35,723.61,724.05,724.51,725.12,725.78,726.45,727.04,727.29,727.32,727.50,728.45,729.82,731.10,732.31,733.39,733.85,734.38,734.98,735.60,736.20,736.70,737.07,737.34,737.47,737.62,738.10,738.60,738.97,739.25,739.34,739.15,738.51,737.24,737.21,737.46,737.76,738.02,737.92,737.43,736.80,736.12,735.43,735.58,735.72,735.80,735.94,735.80,736.26,737.20,738.46,739.71,739.66,738.68,737.29,736.12,734.83,734.29,734.27,734.15,732.43,730.24,729.45,730.37,731.72,733.02,734.24,735.25,735.86,736.45,737.04,737.47,737.63,737.60,737.59,737.59,737.51,737.21,736.89,736.59,736.30,736.04,735.75,735.38,735.03,734.86,735.23,736.21,737.25,738.31,739.52,740.70,741.62,742.41,743.12,743.78,744.30,744.73,745.04,745.15,745.20,745.29,745.52,746.00,746.73,747.54,748.45,749.47,750.53,751.75,753.09,754.49,755.89,757.20,757.57,757.45,757.07,756.23,755.35,755.31,756.00,756.61,757.22,757.68,757.83,757.51,757.00,756.56,756.31,756.22,756.03,755.79,755.66,755.77,756.21,756.60,756.97,757.21,757.27,757.30,757.24,756.80,756.06,755.61,756.91,758.62,760.14,761.04,760.74,759.38,757.84,756.76,756.88,757.01,757.07,757.18,757.51,758.03,758.69,759.50,760.57,762.14,763.80,765.44,767.05,768.57,769.64,770.46,771.22,772.10,773.16,774.20,775.29,776.19,776.06,775.87,775.70,775.55,775.38,774.92,774.79,774.77,774.66,774.63,775.15,776.10,777.23
689.23,690.97,692.46,693.86,694.99,695.70,696.57,697.28,697.87,698.09,697.26,696.00,697.07,699.09,699.10,698.40,699.20,700.49,701.37,701.70,702.06,702.40,702.67,702.90,703.57,704.44,705.19,705.43,704.98,704.79,704.75,704.67,704.29,704.38,705.02,705.98,706.88,707.36,708.26,709.37,710.34,710.96,711.27,711.04,710.49,710.31,710.65,711.41,712.29,712.83,712.45,711.93,711.45,711.13,711.15,711.21,711.41,711.55,710.94,708.08,710.12,714.98,719.75,721.37,722.53,723.56,724.30,724.56,724.99,725.32,725.69,726.29,726.91,727.56,728.17,728.69,729.12,729.27,729.19,729.05,729.22,730.31,731.51,732.71,733.87,734.67,735.32,735.94,736.56,737.18,737.79,738.31,738.70,738.90,738.95,739.43,739.96,740.35,740.72,740.95,740.66,739.77,738.59,739.25,739.74,739.89,739.90,739.82,739.45,738.89,738.19,737.41,737.27,737.32,737.44,737.65,737.78,738.25,738.96,739.85,740.81,741.06,740.46,739.40,738.53,737.43,736.42,735.53,734.60,732.85,731.00,730.49,731.47,732.72,733.95,735.09,736.03,736.65,737.19,737.73,738.16,738.40,738.43,738.43,738.43,738.35,738.04,737.73,737.43,737.19,737.03,736.86,736.54,736.20,736.08,736.66,737.72,738.63,739.53,740.78,742.08,743.11,743.97,744.75,745.58,746.20,746.71,747.09,747.17,747.24,747.32,747.46,747.77,748.34,749.06,749.83,750.67,751.65,752.77,754.06,755.48,756.93,758.32,758.80,758.72,758.29,757.40,756.37,756.25,756.97,757.68,758.32,758.69,758.75,758.47,757.98,757.61,757.49,757.50,757.26,756.97,756.79,756.89,757.41,757.83,758.16,758.31,758.26,758.32,758.27,757.83,757.24,757.31,758.88,760.58,762.12,763.21,762.76,760.97,759.29,758.42,758.52,758.42,758.40,758.50,758.72,759.13,759.85,760.76,761.93,763.69,765.38,766.99,768.54,769.90,770.74,771.42,772.13,773.01,774.07,775.13,776.14,776.96,777.31,777.22,777.05,776.88,776.63,776.20,776.32,776.54,776.52,776.64,776.61,777.36,778.72
689.73,690.98,692.42,693.88,695.27,696.50,697.67,698.46,699.00,699.27,699.07,698.04,698.62,700.25,701.08,700.43,700.64,701.47,702.45,703.06,703.29,703.48,703.74,704.03,704.59,705.44,706.23,706.52,706.08,705.93,705.91,705.86,705.63,705.49,706.19,707.48,708.72,709.63,710.56,711.51,712.40,712.90,713.20,713.02,712.64,712.98,713.57,714.28,714.83,714.90,714.48,713.99,713.57,713.28,713.15,713.19,713.26,712.98,711.64,709.80,712.08,716.47,720.56,721.98,723.14,724.26,725.29,726.11,726.81,727.26,727.73,728.44,729.12,729.73,730.23,730.58,730.78,730.84,730.75,730.63,730.73,731.37,732.20,733.22,734.41,735.46,736.21,736.86,737.49,738.15,738.78,739.39,739.91,740.15,740.23,740.57,740.98,741.38,741.80,741.99,741.57,740.67,739.86,740.49,740.90,740.99,740.92,740.80,740.54,740.17,739.71,739.23,738.97,738.94,739.06,739.28,739.44,739.78,740.30,740.96,741.73,742.12,741.62,740.53,739.56,738.64,737.73,736.63,735.16,733.41,731.84,731.51,732.47,733.73,734.90,735.97,736.90,737.58,738.00,738.46,738.87,739.14,739.25,739.28,739.25,739.13,738.83,738.51,738.27,738.11,738.00,737.90,737.66,737.37,737.23,737.74,739.19,740.33,741.18,742.17,743.44,744.51,745.43,746.27,747.16,747.94,748.59,749.05,749.17,749.21,749.27,749.41,749.66,750.06,750.63,751.29,752.03,752.84,753.80,755.06,756.50,757.92,759.36,759.98,759.98,759.46,758.52,757.50,757.23,757.76,758.64,759.39,759.70,759.66,759.40,758.99,758.68,758.65,758.77,758.46,758.10,757.87,757.95,758.53,759.04,759.29,759.35,759.30,759.36,759.23,758.85,758.47,758.83,760.72,762.64,764.24,765.26,764.81,763.08,761.60,760.93,760.68,760.04,759.76,759.87,760.10,760.44,761.10,762.07,763.39,765.19,766.95,768.51,769.83,770.81,771.60,772.33,773.10,773.97,774.98,775.98,776.90,777.71,778.24,778.37,778.32,778.17,777.88,777.48,777.83,778.30,778.46,778.67,777.80,778.23,779.92
690.99,691.51,692.44,693.72,695.18,696.73,698.26,699.43,700.22,700.63,700.61,699.81,700.00,701.24,702.72,702.27,702.04,702.47,703.47,704.33,704.55,704.70,704.95,705.26,705.64,706.46,707.30,707.60,707.17,707.07,707.07,707.02,706.89,706.65,707.20,708.46,709.99,711.61,712.69,713.56,714.37,714.79,715.10,715.02,714.84,715.47,716.48,717.15,717.32,717.00,716.55,716.09,715.70,715.44,715.23,715.05,714.67,713.85,712.34,711.40,713.37,716.98,720.66,722.21,723.56,724.87,726.11,727.24,728.16,728.84,729.48,730.26,730.96,731.55,731.98,732.25,732.35,732.35,732.25,732.19,732.40,732.80,733.36,734.10,735.04,736.13,736.97,737.66,738.30,738.96,739.63,740.36,741.00,741.32,741.45,741.69,742.00,742.36,742.77,742.88,742.37,741.47,740.83,741.44,741.84,741.91,741.80,741.62,741.38,741.12,740.84,740.58,740.34,740.25,740.32,740.52,740.68,740.96,741.40,741.98,742.61,743.13,742.71,741.57,740.51,739.58,738.67,737.63,736.38,734.96,733.29,732.70,733.46,734.76,735.84,736.85,737.77,738.50,738.92,739.35,739.76,740.06,740.25,740.37,740.37,740.21,739.81,739.46,739.25,739.11,739.01,738.90,738.75,738.54,738.41,738.78,740.17,741.45,742.49,743.53,744.80,745.89,746.87,747.78,748.66,749.48,750.14,750.62,750.87,750.93,750.98,751.12,751.43,751.73,752.21,752.79,753.47,754.17,754.98,756.03,757.30,758.70,760.11,760.99,761.13,760.44,759.44,758.49,758.13,758.47,759.37,760.22,760.78,760.92,760.53,760.07,759.79,759.84,760.01,759.61,759.21,758.99,759.08,759.65,760.24,760.47,760.47,760.45,760.75,760.63,760.34,760.19,760.71,762.68,764.78,766.53,767.54,767.31,766.12,765.06,764.44,763.71,762.25,761.49,761.47,761.71,762.01,762.53,763.44,764.87,766.66,768.43,769.89,770.98,771.76,772.51,773.27,774.05,774.88,775.81,776.75,777.65,778.47,779.08,779.43,779.56,779.49,779.14,778.77,779.21,779.88,780.22,780.13,778.85,779.01,780.64
692.91,692.62,692.73,693.58,694.90,696.49,698.39,700.14,701.47,702.15,701.93,701.36,701.48,702.52,704.21,703.91,703.45,703.57,704.49,705.50,705.86,706.06,706.31,706.60,706.72,707.49,708.39,708.66,708.28,708.22,708.22,708.18,708.11,707.99,708.24,709.08,710.79,713.25,714.67,715.55,716.32,716.74,717.01,717.04,717.02,717.65,719.09,719.74,719.61,719.06,718.60,718.14,717.77,717.51,717.27,716.68,715.59,714.25,713.20,712.96,714.07,716.64,720.19,722.04,723.75,725.34,726.74,727.95,729.04,730.00,730.89,731.72,732.45,733.03,733.47,733.75,733.89,733.86,733.75,733.74,734.12,734.52,734.98,735.40,735.82,736.73,737.62,738.37,739.00,739.65,740.39,741.24,742.00,742.42,742.61,742.82,743.06,743.33,743.68,743.69,743.15,742.23,741.52,742.23,742.71,742.80,742.63,742.42,742.14,741.88,741.66,741.50,741.38,741.26,741.22,741.37,741.52,741.85,742.33,742.93,743.49,744.13,743.80,742.68,741.61,740.51,739.46,738.69,738.25,737.40,735.25,734.07,734.55,735.88,736.86,737.78,738.69,739.46,739.96,740.41,740.84,741.19,741.43,741.70,741.80,741.61,741.06,740.65,740.42,740.26,740.12,739.97,739.86,739.76,739.70,739.85,740.70,741.95,743.35,744.74,746.07,747.18,748.24,749.26,750.07,750.80,751.35,751.78,752.25,752.40,752.44,752.61,753.03,753.36,753.79,754.33,754.96,755.65,756.31,757.02,757.96,759.30,760.63,761.84,762.16,761.26,760.22,759.37,759.02,759.21,759.94,760.86,761.91,762.45,761.87,761.22,760.93,761.02,761.20,760.73,760.32,760.15,760.27,760.77,761.43,761.70,761.69,761.70,762.45,762.46,762.35,762.46,763.04,764.81,766.94,768.83,769.92,770.10,769.78,769.26,768.54,767.25,764.90,763.54,763.29,763.55,763.85,764.18,764.90,766.28,768.02,769.77,771.13,772.08,772.85,773.56,774.30,775.02,775.72,776.56,777.47,778.39,779.26,779.90,780.44,780.78,780.83,780.45,780.09,780.50,781.25,781.72,781.01,779.80,779.78,780.96
694.84,694.37,694.19,694.32,694.93,696.32,698.34,700.24,701.90,703.20,703.70,703.45,703.81,704.83,705.86,705.57,705.08,704.97,705.50,706.51,707.13,707.43,707.64,707.97,707.73,708.47,709.50,709.81,709.48,709.40,709.47,709.59,709.75,709.85,710.07,710.72,712.32,714.68,716.40,717.54,718.27,718.68,718.95,719.05,719.14,719.60,720.68,721.33,721.37,720.87,720.44,720.02,719.58,719.07,718.37,717.33,716.22,715.39,715.29,715.40,715.37,716.57,719.55,721.58,723.43,725.20,726.88,728.44,729.77,731.00,732.13,733.05,733.86,734.50,734.99,735.29,735.40,735.36,735.27,735.33,735.86,736.34,736.82,737.15,737.35,737.80,738.33,738.95,739.69,740.50,741.32,742.18,742.96,743.51,743.76,743.95,744.15,744.40,744.66,744.50,743.89,743.01,742.33,742.99,743.50,743.63,743.43,743.25,743.04,742.84,742.67,742.56,742.44,742.30,742.20,742.23,742.36,742.75,743.30,743.90,744.45,745.04,744.77,743.81,742.87,741.91,741.06,740.55,740.30,739.11,736.51,735.34,736.27,737.74,738.34,739.12,740.04,740.72,741.26,741.67,742.06,742.46,742.71,743.00,743.23,743.22,742.71,742.35,742.10,741.92,741.76,741.61,741.44,741.32,741.24,741.19,741.42,742.38,743.80,745.22,746.63,747.92,749.20,750.43,751.27,752.00,752.52,752.94,753.46,753.82,753.92,754.09,754.55,754.96,755.41,755.90,756.45,757.14,757.77,758.38,759.12,760.19,761.39,762.69,763.16,762.37,761.33,760.60,760.33,760.49,761.02,761.78,762.84,763.46,762.99,762.32,762.03,762.11,762.28,761.83,761.46,761.32,761.42,761.84,762.58,762.90,762.88,762.84,763.67,764.27,764.68,765.05,765.63,767.14,768.82,770.25,771.21,771.81,771.86,771.37,770.35,768.88,766.40,765.18,765.19,765.51,765.83,766.07,766.43,767.21,768.86,770.79,772.40,773.56,774.38,775.09,775.71,776.21,776.59,777.34,778.23,779.17,780.06,780.88,781.58,782.04,782.13,781.77,781.60,781.98,782.49,782.59,781.71,780.74,780.70,781.63
696.76,696.31,696.04,695.63,695.55,696.51,698.53,700.46,702.28,703.93,705.08,705.42,706.07,706.95,707.46,707.19,706.73,706.39,706.48,707.50,708.36,708.83,709.06,709.35,708.91,709.42,710.40,710.94,710.74,710.63,710.83,711.28,711.63,711.91,712.19,712.88,714.52,716.47,718.11,719.28,720.01,720.70,721.08,721.22,721.22,721.31,722.00,722.73,723.01,722.56,722.14,721.76,721.18,720.32,719.13,717.99,717.26,717.09,717.62,717.91,717.28,717.34,719.14,721.29,723.22,725.09,726.95,728.78,730.33,731.81,733.17,734.27,735.20,735.93,736.47,736.82,736.92,736.88,736.80,736.92,737.57,738.10,738.56,738.86,738.96,739.10,739.30,739.77,740.52,741.42,742.28,743.13,743.95,744.63,744.90,745.07,745.26,745.49,745.66,745.35,744.67,743.82,743.13,743.71,744.30,744.52,744.32,744.16,744.01,743.86,743.74,743.63,743.49,743.34,743.22,743.16,743.26,743.71,744.29,744.88,745.42,745.98,745.83,745.09,744.29,743.46,742.79,742.27,741.66,740.07,737.37,736.45,737.86,739.59,740.10,740.80,741.66,742.15,742.65,742.98,743.33,743.73,744.00,744.30,744.61,744.76,744.46,744.16,743.90,743.69,743.52,743.36,743.13,742.96,742.86,742.67,742.47,743.02,744.18,745.58,747.02,748.43,749.86,751.26,752.31,753.12,753.69,754.14,754.65,755.14,755.37,755.58,756.03,756.52,757.00,757.47,758.00,758.64,759.26,759.85,760.48,761.33,762.41,763.66,764.18,763.50,762.49,761.92,761.80,762.02,762.43,763.02,763.86,764.38,764.05,763.40,763.13,763.20,763.35,762.94,762.61,762.47,762.54,762.90,763.68,764.08,764.09,763.99,764.80,765.83,766.64,767.22,767.88,769.14,770.36,771.40,772.27,773.12,773.35,772.75,771.37,769.77,767.72,766.90,767.13,767.49,767.79,767.96,768.06,768.39,769.86,771.77,773.61,775.10,775.97,776.71,777.19,777.42,777.55,778.15,779.01,779.94,780.87,781.79,782.63,783.24,783.49,783.24,783.20,783.51,783.69,783.31,782.38,781.66,781.66,782.38
698.65,698.33,698.08,697.48,696.94,697.17,699.04,700.95,702.69,704.28,705.76,707.02,707.91,708.52,708.93,708.77,708.32,707.77,707.48,708.47,709.53,710.25,710.62,710.71,710.27,710.33,711.00,712.00,712.04,711.92,712.33,713.25,713.75,714.09,714.52,715.47,717.41,718.79,719.84,720.66,721.44,722.77,723.45,723.58,723.28,722.75,723.27,724.14,724.62,724.17,723.72,723.31,722.57,721.31,719.74,719.02,718.99,719.38,719.94,720.25,719.81,719.16,719.17,721.31,723.29,725.18,727.09,728.94,730.69,732.37,733.95,735.33,736.44,737.29,737.92,738.31,738.46,738.42,738.35,738.49,739.20,739.71,740.07,740.33,740.47,740.56,740.62,740.92,741.55,742.40,743.25,744.11,744.98,745.77,746.01,746.17,746.36,746.57,746.70,746.26,745.52,744.66,743.92,744.39,745.11,745.51,745.36,745.20,745.05,744.92,744.83,744.68,744.53,744.41,744.31,744.19,744.25,744.72,745.31,745.86,746.40,746.99,747.03,746.53,745.87,745.06,744.43,743.56,742.01,740.21,737.89,737.38,739.07,741.17,742.08,742.84,743.49,743.73,744.11,744.34,744.60,744.98,745.28,745.59,745.90,746.15,746.20,745.96,745.71,745.49,745.28,745.10,744.84,744.64,744.51,744.23,743.93,744.00,744.61,745.96,747.36,748.75,750.20,751.73,753.16,754.16,754.84,755.35,755.84,756.35,756.72,757.04,757.47,758.05,758.55,759.05,759.59,760.15,760.75,761.37,762.01,762.75,763.74,764.82,765.25,764.61,763.66,763.30,763.39,763.75,764.14,764.62,765.10,765.34,765.08,764.44,764.20,764.30,764.47,764.11,763.78,763.62,763.64,763.94,764.72,765.23,765.32,765.20,765.91,767.03,767.98,768.71,769.58,770.55,771.49,772.39,773.30,774.16,774.42,773.68,771.98,770.25,769.18,768.91,769.13,769.43,769.68,769.76,769.81,770.11,771.27,772.85,774.76,776.60,777.54,778.32,778.63,778.65,778.66,779.03,779.83,780.76,781.69,782.62,783.53,784.36,784.91,784.87,784.87,785.03,784.86,784.01,783.05,782.61,782.63,783.16
700.15,700.00,699.67,699.02,698.26,697.85,698.68,700.33,702.18,704.03,705.87,707.60,708.97,709.96,710.46,710.37,709.99,709.46,709.03,709.51,710.58,711.54,712.00,711.63,711.08,711.13,711.77,712.75,713.18,713.16,713.63,714.79,715.75,716.25,716.86,717.89,719.51,720.44,721.18,721.92,722.82,724.38,725.57,725.97,725.57,724.73,724.68,725.38,726.02,725.81,725.34,724.83,724.02,722.81,721.43,721.04,721.23,721.68,722.13,722.01,721.41,720.53,720.00,721.53,723.42,725.38,727.34,729.27,731.04,732.72,734.36,735.93,737.38,738.52,739.31,739.74,739.86,739.78,739.71,739.86,740.47,740.88,741.15,741.37,741.56,741.72,741.80,742.02,742.53,743.38,744.26,745.21,746.13,746.84,747.06,747.22,747.41,747.61,747.65,747.16,746.42,745.58,744.91,745.10,745.85,746.43,746.38,746.24,746.12,746.00,745.87,745.72,745.60,745.49,745.36,745.22,745.20,745.67,746.32,746.93,747.48,748.01,748.08,747.71,747.13,746.42,745.59,744.36,742.56,740.66,738.72,738.32,739.79,742.02,743.73,744.65,745.05,745.23,745.55,745.69,745.88,746.22,746.57,746.85,747.17,747.49,747.69,747.62,747.47,747.30,747.06,746.78,746.51,746.29,746.09,745.74,745.39,745.26,745.50,746.33,747.67,749.08,750.53,752.08,753.62,755.10,756.04,756.54,757.05,757.55,757.98,758.38,758.85,759.49,760.10,760.65,761.14,761.65,762.25,762.87,763.49,764.17,765.06,766.06,766.40,765.69,764.86,764.69,764.88,765.24,765.63,766.04,766.41,766.53,766.17,765.48,765.28,765.43,765.62,765.27,764.95,764.82,764.84,764.97,765.83,766.48,766.63,766.39,766.87,768.01,769.15,770.05,770.82,771.69,772.55,773.42,774.34,775.19,775.46,774.81,773.30,771.87,771.48,771.32,771.20,771.34,771.48,771.53,771.64,772.12,773.34,774.79,776.48,778.23,779.45,780.13,780.33,780.30,780.25,780.36,781.14,782.12,783.05,783.97,784.87,785.68,786.24,786.28,786.29,786.15,785.64,784.71,783.97,783.69,783.64,783.96
701.41,701.43,701.03,700.38,699.60,698.86,698.78,699.90,701.55,703.45,705.53,707.54,709.38,710.91,711.80,711.98,711.70,711.19,710.68,710.83,711.83,712.78,713.14,712.40,711.78,711.95,712.66,713.56,714.29,714.40,714.82,715.94,717.38,718.24,719.05,720.04,721.22,721.86,722.46,723.14,724.07,725.72,727.35,728.08,727.75,726.67,726.07,726.58,727.37,727.44,726.97,726.36,725.53,724.50,723.57,723.47,723.70,723.98,724.07,723.49,722.65,721.72,721.05,721.91,723.72,725.75,727.76,729.71,731.44,733.08,734.71,736.39,738.09,739.44,740.40,740.94,741.10,741.01,740.94,741.09,741.60,741.94,742.16,742.35,742.57,742.80,742.92,743.11,743.54,744.41,745.35,746.37,747.31,747.91,748.14,748.29,748.44,748.58,748.55,748.08,747.39,746.61,745.90,745.84,746.60,747.30,747.32,747.24,747.17,747.07,746.91,746.78,746.66,746.54,746.38,746.19,746.10,746.60,747.30,747.98,748.55,748.99,749.07,748.80,748.31,747.69,746.70,745.28,743.41,741.58,739.88,739.37,740.43,742.78,745.20,746.38,746.65,746.73,746.99,747.07,747.19,747.48,747.84,748.13,748.43,748.76,749.03,749.13,749.11,749.00,748.77,748.42,748.13,747.86,747.55,747.16,746.85,746.68,746.64,746.88,748.07,749.44,750.89,752.43,754.00,755.89,757.17,757.80,758.32,758.80,759.30,759.80,760.30,760.95,761.63,762.22,762.71,763.15,763.74,764.36,764.98,765.62,766.39,767.29,767.53,766.77,766.16,766.15,766.37,766.64,766.97,767.35,767.65,767.69,767.26,766.51,766.35,766.54,766.77,766.41,766.11,766.05,766.09,766.07,766.90,767.70,767.95,767.64,767.82,768.87,770.11,771.18,771.92,772.74,773.59,774.48,775.38,776.25,776.61,776.13,774.90,773.87,774.10,774.07,773.71,773.52,773.37,773.31,773.50,774.14,775.44,776.80,778.36,780.07,781.54,782.21,782.40,782.34,782.17,782.01,782.67,783.61,784.52,785.44,786.32,787.05,787.53,787.61,787.56,787.10,786.32,785.43,785.04,784.91,784.78,784.89
702.36,702.55,702.15,701.56,700.97,700.53,700.26,700.46,701.19,702.55,704.60,706.76,708.88,710.91,712.72,713.60,713.45,712.84,712.29,712.64,713.50,714.00,713.87,713.12,712.53,712.85,713.70,714.60,715.38,715.65,715.88,716.57,718.32,719.84,720.89,721.69,722.57,723.17,723.76,724.34,725.08,726.74,728.53,729.60,729.57,728.28,727.37,727.79,728.71,729.02,728.58,727.94,727.14,726.34,726.09,726.21,726.36,726.26,725.56,724.66,723.69,722.77,722.17,722.56,724.31,726.43,728.45,730.32,731.99,733.57,735.16,736.80,738.49,739.84,740.91,741.68,742.08,742.05,741.98,742.13,742.64,742.98,743.23,743.43,743.61,743.83,743.99,744.18,744.60,745.56,746.56,747.56,748.46,749.02,749.29,749.41,749.48,749.49,749.41,749.00,748.50,747.82,746.78,746.63,747.41,748.10,748.07,748.16,748.18,748.10,747.96,747.86,747.67,747.54,747.37,747.05,746.94,747.48,748.21,748.89,749.55,749.89,749.96,749.81,749.50,748.87,748.00,746.68,744.83,743.25,741.55,740.62,741.16,743.74,746.44,748.01,748.48,748.25,748.43,748.50,748.57,748.77,749.08,749.43,749.70,749.91,750.15,750.42,750.50,750.46,750.32,750.02,749.67,749.28,748.84,748.43,748.35,748.27,748.06,747.87,748.65,749.90,751.33,752.83,754.45,756.47,758.13,759.20,759.70,760.22,760.83,761.42,761.91,762.52,763.15,763.77,764.30,764.66,765.23,765.85,766.46,767.09,767.74,768.45,768.56,767.89,767.64,767.75,767.91,768.03,768.17,768.52,768.73,768.69,768.29,767.50,767.40,767.65,767.87,767.52,767.25,767.27,767.38,767.33,767.90,768.81,769.29,769.00,768.88,769.61,770.72,771.90,772.96,773.79,774.66,775.56,776.43,777.34,777.97,777.75,776.72,776.06,776.90,777.33,777.03,776.29,775.46,775.15,775.35,776.06,777.26,778.53,780.25,782.28,783.83,784.81,785.12,784.96,784.49,784.08,784.38,785.07,785.95,786.87,787.79,788.43,788.78,788.87,788.66,787.93,786.97,786.19,786.34,786.34,786.15,786.12
703.00,703.54,703.34,702.85,702.36,702.06,701.75,701.76,702.18,703.17,704.90,706.63,708.43,710.47,712.92,714.99,715.11,714.41,713.88,714.33,714.96,715.07,714.58,713.84,713.37,713.78,714.66,715.50,716.32,716.75,717.01,717.42,718.67,720.29,721.91,723.24,723.96,724.63,725.28,725.86,726.40,727.30,728.83,730.36,730.98,729.37,728.80,729.34,730.14,730.36,729.95,729.39,728.83,728.42,728.47,728.49,728.21,727.61,726.68,725.72,724.73,723.85,723.26,723.19,725.00,727.27,729.37,731.24,732.88,734.43,735.99,737.58,739.15,740.31,741.27,742.15,742.83,743.00,743.06,743.25,743.69,744.02,744.30,744.53,744.69,744.88,745.07,745.26,745.63,746.59,747.65,748.69,749.54,750.03,750.27,750.34,750.35,750.30,750.21,749.92,749.57,748.93,747.62,747.45,748.27,748.97,748.89,748.99,749.08,749.08,748.98,748.83,748.67,748.52,748.28,747.91,747.83,748.32,748.98,749.58,750.12,750.47,750.57,750.46,750.24,749.78,749.18,748.14,746.45,744.78,742.84,741.70,742.15,744.88,747.67,749.36,749.94,749.72,749.79,749.79,749.79,749.86,750.08,750.34,750.57,750.82,751.25,751.72,751.87,751.86,751.78,751.49,751.15,750.73,750.25,749.90,749.93,749.81,749.45,749.04,749.65,750.64,751.81,753.21,755.00,756.91,758.59,760.06,761.40,761.98,762.56,763.14,763.61,764.07,764.68,765.32,765.88,766.25,766.75,767.34,767.96,768.57,769.19,769.75,769.79,769.22,769.22,769.38,769.50,769.54,769.63,769.84,769.95,769.86,769.45,768.55,768.50,768.76,768.94,768.66,768.45,768.53,768.69,768.62,768.80,769.65,770.45,770.66,770.45,770.81,771.53,772.47,773.57,774.56,775.58,776.59,777.51,778.44,779.20,779.27,778.69,778.42,779.16,779.63,779.42,778.44,777.40,776.97,777.03,777.53,778.54,780.07,782.11,784.38,786.18,787.40,787.69,787.39,786.80,786.15,786.09,786.58,787.47,788.35,789.20,789.81,790.15,790.17,789.55,788.59,787.75,787.38,787.69,787.74,787.52,787.31
