873.52,874.42,875.19,875.53,875.59,875.52,875.51,875.46,875.41,875.41,875.41,875.29,875.01,874.60,874.16,873.76,873.37,872.95,872.51,872.11,871.61,871.19,870.96,870.92,870.89,870.88,870.79,870.59,870.54,870.97,871.66,872.48,873.33,874.14,875.05,875.72,875.55,874.81,875.06,875.92,877.01,878.34,879.75,881.06,882.21,883.21,884.25,885.44,886.64,887.73,888.87,890.42,892.49,894.83,896.50,897.59,897.53,897.51,899.50,900.93,902.20,903.39,904.50,905.59,906.36,907.00,907.60,908.13,908.70,909.40,910.52,912.37,914.38,916.26,917.80,919.00,920.14,921.00,921.53,921.69,921.38,920.60,921.47,923.50,926.05,928.38,929.28,929.27,928.78,928.45,929.77,931.87,934.02,935.78,937.54,938.09,938.42,939.02,939.63,940.25,940.88,941.37,941.46,941.28,941.00,940.72,940.60,941.21,943.24,945.79,948.31,950.34,951.75,953.12,954.55,956.01,957.52,959.09,960.39,961.32,962.13,962.62,963.09,963.69,964.42,965.24,966.09,966.94,967.81,968.72,969.66,970.62,971.60,972.55,973.54,974.62,975.67,976.49,977.10,977.54,978.14,979.13,980.44,980.94,981.03,980.95,981.01,981.56,982.11,982.44,982.41,982.12,983.98,986.95,990.20,992.88,995.29,997.22,998.73,999.81,1000.19,999.63,998.39,996.37,993.23,989.60,990.97,996.57,1001.34,1004.82,1007.61,1009.80,1011.44,1013.47,1015.36,1017.15,1018.99,1021.15,1023.07,1025.25,1027.80,1030.81,1034.62,1038.74,1042.50,1045.59,1048.51,1052.95,1057.67,1062.00,1065.58,1069.43,1073.69,1078.01,1081.91,1085.18,1088.53,1092.07,1095.75,1099.20,1101.51,1104.30,1107.76,1111.44,1114.97,1117.87,1120.29,1122.33,1124.17,1125.94,1127.40,1128.40,1128.65,1128.01,1126.61,1124.70,1122.83,1122.86,1122.89,1123.30,1124.71,1127.77,1129.87,1131.30,1132.42,1133.57,1135.15,1136.53,1138.01,1139.91,1142.18,1144.44,1146.67,1148.77,1150.45,1151.90,1153.28,1154.59,1155.73,1156.58,1157.13,1157.57,1157.89,1157.90,1157.84,1157.46,1156.75,1155.78,1154.68,1153.51,1152.29,1151.00,1149.64,1148.18,1146.69,1145.31
872.69,873.61,874.50,875.16,875.49,875.46,875.45,875.39,875.36,875.36,875.34,875.15,874.83,874.43,874.00,873.58,873.18,872.78,872.36,871.98,871.67,871.48,871.39,871.39,871.39,871.39,871.36,871.28,871.21,871.48,872.04,872.85,873.76,874.63,875.55,876.38,876.75,876.40,876.50,876.91,877.41,878.07,879.26,880.60,881.90,883.17,884.43,885.87,887.29,888.50,889.80,891.57,893.71,896.04,898.04,899.27,899.29,898.82,899.21,900.54,901.88,903.14,904.38,905.64,906.70,907.58,908.32,908.94,909.62,910.38,911.50,913.27,915.18,917.09,918.72,920.00,921.20,922.24,922.97,923.40,923.36,922.38,922.68,924.29,926.89,929.35,930.94,931.48,931.09,930.29,930.55,932.25,934.56,936.60,938.63,939.34,939.71,940.25,940.75,941.19,941.75,942.32,942.60,942.45,942.12,941.72,941.54,942.48,944.53,946.97,949.32,951.07,952.41,953.74,955.14,956.58,958.08,959.48,960.65,961.58,962.53,963.27,963.88,964.44,965.09,965.90,966.75,967.59,968.39,969.17,970.04,971.02,972.10,973.14,974.21,975.34,976.47,977.50,978.24,978.82,979.47,980.34,981.43,982.17,982.40,982.38,982.65,983.27,983.92,984.32,984.35,984.28,985.40,987.64,990.58,993.26,995.99,998.44,1000.54,1002.11,1002.79,1002.53,1001.70,1000.34,998.17,995.04,995.22,998.94,1003.78,1006.86,1009.50,1011.87,1013.83,1015.84,1018.05,1020.21,1022.36,1024.82,1027.13,1029.44,1032.17,1035.80,1039.58,1043.26,1046.83,1050.30,1053.82,1057.84,1062.14,1066.41,1070.29,1074.40,1078.63,1082.74,1086.45,1089.58,1092.64,1096.01,1099.77,1103.52,1106.38,1109.57,1113.13,1116.56,1119.61,1122.13,1124.32,1126.31,1128.37,1130.18,1131.53,1132.40,1132.69,1132.13,1131.03,1129.48,1127.82,1127.52,1126.98,1126.41,1126.77,1129.90,1132.32,1133.91,1135.07,1136.34,1138.36,1140.55,1142.76,1144.94,1147.08,1149.06,1150.98,1152.80,1154.33,1155.65,1156.92,1158.22,1159.52,1160.56,1161.30,1161.86,1162.23,1162.25,1162.22,1161.83,1161.08,1160.08,1159.14,1157.82,1156.40,1155.09,1153.81,1152.44,1151.03,1149.62
871.87,872.79,873.71,874.63,875.26,875.37,875.38,875.33,875.28,875.28,875.26,875.01,874.64,874.25,873.85,873.41,873.00,872.63,872.29,872.01,871.97,871.97,871.97,871.97,871.97,871.96,871.97,872.01,872.02,872.21,872.62,873.32,874.31,875.22,876.12,877.04,877.89,878.12,878.26,878.31,878.21,878.05,878.77,879.90,881.23,882.66,884.18,885.90,887.59,889.01,890.66,892.70,894.85,897.03,899.18,900.51,900.83,900.27,899.33,900.31,901.61,902.91,904.22,905.53,906.83,907.96,908.89,909.71,910.66,911.64,912.83,914.45,916.18,917.97,919.60,920.98,922.23,923.41,924.35,925.02,925.25,924.38,924.11,925.22,927.89,930.43,932.63,933.85,933.93,933.22,932.52,933.36,935.25,937.38,939.65,940.51,940.87,941.25,941.72,942.05,942.55,943.19,943.68,943.59,943.23,942.75,942.51,943.59,945.60,947.90,950.10,951.70,953.04,954.39,955.78,957.20,958.66,959.86,960.88,961.81,962.80,963.77,964.52,965.09,965.69,966.52,967.36,968.15,968.88,969.53,970.38,971.40,972.57,973.73,974.89,976.05,977.21,978.32,979.17,979.92,980.65,981.45,982.30,983.30,983.76,983.87,984.38,985.04,985.74,986.20,986.25,986.49,987.01,988.53,991.06,993.69,996.62,999.58,1002.26,1004.20,1005.16,1005.10,1004.60,1003.80,1002.27,999.99,999.36,1001.44,1006.62,1009.32,1011.62,1013.87,1015.98,1018.14,1020.54,1022.87,1025.20,1028.03,1031.09,1033.86,1036.81,1040.68,1044.19,1047.70,1051.38,1055.29,1059.30,1062.63,1066.53,1071.08,1075.43,1079.76,1083.65,1087.23,1090.57,1093.46,1096.46,1099.96,1103.97,1107.95,1111.44,1114.88,1118.28,1121.38,1123.82,1126.05,1128.18,1130.28,1132.64,1134.52,1135.74,1136.36,1136.52,1135.86,1134.86,1133.70,1132.53,1132.10,1131.23,1129.97,1129.44,1132.49,1135.03,1136.72,1138.05,1139.80,1142.30,1145.12,1147.79,1150.03,1151.89,1153.52,1155.10,1156.68,1158.18,1159.51,1160.82,1162.19,1163.60,1164.82,1165.71,1166.38,1166.80,1166.85,1166.85,1166.45,1165.67,1164.69,1163.85,1162.38,1160.75,1159.30,1157.91,1156.50,1155.11,1153.68
871.08,872.00,872.93,873.82,874.64,875.25,875.32,875.26,875.23,875.23,875.20,874.89,874.48,874.05,873.66,873.26,872.87,872.56,872.42,872.55,872.68,872.73,872.73,872.73,872.73,872.70,872.64,872.66,872.97,873.27,873.40,873.56,874.57,875.61,876.72,877.77,878.58,879.26,879.77,879.96,879.70,879.23,879.21,879.90,881.04,882.09,883.49,885.22,887.01,888.77,890.98,893.17,895.31,897.42,899.54,900.99,901.65,901.57,900.83,900.76,901.60,902.84,904.15,905.46,906.73,907.94,909.14,910.43,911.67,912.90,914.22,915.74,917.32,918.88,920.45,921.96,923.26,924.50,925.63,926.54,926.91,926.34,925.58,926.23,929.09,931.66,933.99,936.04,937.59,938.18,937.85,937.15,937.00,938.37,940.46,941.45,941.84,942.12,942.66,942.94,943.34,943.95,944.59,944.65,944.36,943.93,943.65,944.35,946.25,948.51,950.61,952.13,953.61,955.03,956.46,957.96,959.38,960.38,961.24,962.13,963.06,963.91,964.68,965.39,966.14,967.02,967.81,968.51,969.17,969.85,970.89,972.05,973.22,974.43,975.60,976.76,977.92,979.06,980.09,980.96,981.76,982.55,983.39,984.28,984.97,985.51,986.17,986.86,987.59,988.12,988.22,988.24,988.84,990.16,992.21,994.78,997.66,1000.85,1003.87,1006.01,1007.42,1007.68,1007.32,1006.49,1004.80,1003.07,1002.33,1003.84,1009.28,1012.34,1014.41,1016.12,1017.78,1020.21,1022.95,1025.51,1027.91,1030.77,1034.52,1037.98,1040.97,1043.77,1047.29,1051.47,1055.71,1059.64,1063.34,1066.83,1071.65,1077.29,1081.55,1085.58,1088.97,1091.84,1094.40,1097.07,1100.40,1104.33,1108.63,1112.69,1116.40,1119.60,1122.43,1125.04,1127.35,1129.87,1132.44,1134.92,1137.40,1139.19,1140.23,1140.64,1140.55,1139.59,1138.31,1137.11,1136.31,1136.09,1135.59,1134.52,1133.85,1136.52,1138.63,1140.26,1142.21,1145.48,1148.25,1150.39,1152.26,1154.04,1155.72,1157.34,1159.04,1160.81,1162.50,1164.07,1165.50,1166.87,1168.22,1169.62,1170.64,1171.47,1172.11,1172.25,1172.28,1171.88,1171.10,1170.09,1169.08,1167.82,1166.30,1164.50,1162.50,1160.61,1158.91,1157.30
870.50,871.32,872.15,873.01,873.91,874.75,875.17,875.19,875.15,875.14,875.06,874.73,874.32,873.90,873.52,873.20,872.92,872.79,872.88,873.17,873.39,873.49,873.52,873.52,873.52,873.44,873.35,873.35,873.76,874.26,874.36,874.18,874.77,875.95,877.35,878.60,879.32,880.09,880.78,881.08,880.82,880.30,880.09,880.63,881.88,883.37,884.70,885.87,886.95,888.24,890.57,892.68,894.69,896.77,899.05,900.88,902.20,902.82,902.43,902.07,902.30,903.01,904.10,905.36,906.63,907.90,909.21,910.60,911.99,913.34,914.72,916.16,917.67,919.15,920.78,922.55,924.16,925.55,926.78,927.83,928.49,928.64,927.72,927.66,929.81,932.44,935.05,937.50,939.55,940.61,940.50,939.60,938.92,939.56,941.21,942.36,942.91,943.09,943.57,943.88,944.24,944.77,945.48,945.85,945.71,945.30,944.88,944.80,946.43,948.59,950.59,951.98,953.41,954.70,956.00,957.55,959.10,960.28,961.20,961.94,962.63,963.28,964.01,964.79,965.54,966.61,967.78,968.78,969.51,970.42,971.61,972.86,974.06,975.16,976.29,977.43,978.60,979.79,980.98,981.96,982.82,983.61,984.45,985.27,986.04,986.77,987.51,988.26,989.14,989.99,990.56,990.59,991.17,992.37,994.11,996.27,999.05,1002.27,1005.49,1008.11,1009.76,1010.43,1010.47,1009.85,1008.19,1006.61,1005.59,1006.37,1011.14,1014.61,1017.07,1018.79,1020.11,1022.24,1025.06,1027.99,1030.83,1033.71,1037.32,1040.77,1043.77,1046.39,1049.88,1054.29,1058.96,1063.43,1067.38,1072.01,1077.28,1082.51,1086.43,1090.09,1093.33,1096.21,1098.78,1101.49,1104.99,1109.09,1113.44,1117.20,1120.57,1123.49,1126.18,1128.90,1131.52,1134.30,1137.06,1139.63,1141.93,1143.60,1144.56,1144.93,1144.83,1144.24,1143.15,1141.97,1141.16,1140.93,1140.72,1139.83,1138.86,1140.43,1143.31,1145.54,1147.46,1150.30,1152.68,1154.57,1156.28,1157.97,1159.73,1161.56,1163.43,1165.34,1167.27,1169.17,1170.91,1172.52,1174.02,1175.50,1176.51,1177.32,1177.96,1178.19,1178.18,1177.82,1177.12,1176.13,1175.00,1173.65,1172.01,1170.02,1167.80,1165.56,1163.41,1161.32
870.12,870.83,871.55,872.36,873.23,874.09,874.87,875.08,875.10,875.06,874.89,874.55,874.17,873.80,873.44,873.22,873.13,873.22,873.51,873.82,874.09,874.25,874.32,874.33,874.44,874.33,874.13,874.13,874.54,875.22,875.43,875.10,875.08,876.31,877.99,879.45,880.11,880.80,881.56,882.00,881.85,881.45,881.31,881.87,883.28,885.43,886.79,887.38,887.56,887.93,889.84,891.75,893.73,895.92,898.33,900.52,902.48,903.86,903.97,903.73,903.42,903.48,904.18,905.28,906.55,907.86,909.15,910.43,911.86,913.28,914.69,916.12,917.59,919.06,920.79,922.85,924.83,926.46,927.85,929.06,930.09,931.03,930.19,929.38,930.36,933.01,935.88,938.46,940.50,941.63,941.72,941.26,940.78,940.88,942.06,943.35,944.06,944.13,944.46,944.85,945.18,945.59,946.35,947.05,947.13,946.78,946.16,945.32,946.44,948.29,950.11,951.44,952.72,953.80,954.93,956.47,958.21,959.70,960.78,961.39,961.81,962.26,962.94,963.71,964.40,965.72,967.41,968.89,969.84,971.07,972.39,973.71,974.97,975.99,977.04,978.15,979.33,980.57,981.85,982.94,983.85,984.63,985.47,986.25,987.03,987.80,988.58,989.47,990.56,991.80,992.95,993.20,993.76,994.86,996.40,997.98,1000.65,1003.79,1007.08,1010.15,1012.00,1013.12,1013.70,1013.56,1012.28,1010.85,1009.55,1009.47,1012.73,1016.45,1019.45,1021.50,1022.71,1024.39,1027.07,1030.31,1033.72,1036.70,1039.83,1042.94,1045.96,1048.97,1052.60,1057.04,1062.01,1067.14,1071.64,1077.47,1082.78,1087.05,1090.61,1093.96,1097.29,1100.49,1103.44,1106.36,1109.94,1114.01,1118.16,1121.45,1124.30,1127.06,1129.90,1133.02,1136.12,1139.10,1141.90,1144.36,1146.31,1147.80,1148.74,1149.17,1149.19,1149.16,1148.53,1147.52,1146.55,1146.24,1146.21,1145.52,1144.32,1144.63,1148.29,1151.15,1152.80,1154.45,1156.28,1158.23,1160.13,1161.96,1163.90,1166.05,1168.15,1170.20,1172.37,1174.59,1176.66,1178.55,1180.24,1181.71,1182.68,1183.41,1183.96,1184.22,1184.15,1183.80,1183.18,1182.21,1181.01,1179.47,1177.64,1175.53,1173.27,1170.77,1168.15,1165.50
870.21,870.91,871.71,872.37,872.96,873.56,874.18,874.74,875.03,874.98,874.77,874.41,874.10,873.80,873.51,873.46,873.61,873.86,874.16,874.47,874.86,875.12,875.22,875.30,875.96,875.75,875.19,875.16,875.61,876.24,876.59,876.45,876.01,876.89,878.54,880.15,880.93,881.63,882.46,883.11,883.31,883.12,883.10,883.65,884.93,886.88,888.58,889.56,889.67,889.04,889.31,890.99,893.56,896.44,898.41,900.27,902.25,904.09,905.16,905.05,904.77,904.61,904.74,905.33,906.48,907.77,908.96,909.98,911.37,912.83,914.32,915.92,917.40,918.87,920.62,922.71,924.82,926.87,928.79,930.48,931.77,933.14,932.63,931.45,931.21,933.67,936.39,938.82,940.82,942.24,942.86,942.64,942.20,942.29,943.40,944.61,945.29,945.31,945.42,945.80,946.07,946.36,947.10,947.94,948.39,948.28,947.54,946.69,946.68,947.49,948.90,950.49,951.66,952.66,953.71,955.09,956.87,958.51,959.76,960.50,960.86,961.25,961.87,962.57,963.17,964.76,966.66,968.46,969.97,971.54,973.00,974.42,975.83,977.12,978.11,979.13,980.29,981.57,982.78,983.88,984.82,985.60,986.39,987.17,987.94,988.71,989.53,990.70,992.04,993.45,994.80,995.70,996.34,997.38,998.79,999.88,1002.41,1005.38,1008.41,1011.32,1013.63,1015.28,1016.50,1017.28,1017.32,1016.79,1015.74,1014.66,1014.90,1018.15,1021.13,1023.47,1025.39,1027.03,1029.29,1032.36,1036.01,1039.41,1042.44,1045.33,1048.44,1052.24,1056.75,1061.51,1066.46,1071.59,1076.74,1081.99,1086.77,1090.94,1094.53,1097.98,1101.48,1104.91,1108.13,1111.38,1115.12,1118.83,1122.19,1125.08,1127.90,1131.00,1134.34,1137.76,1141.09,1144.18,1146.91,1149.08,1150.53,1151.74,1152.67,1153.23,1153.35,1153.41,1153.24,1152.76,1151.97,1151.68,1151.59,1151.20,1150.51,1150.34,1152.39,1154.60,1156.35,1157.81,1159.83,1162.05,1164.22,1166.23,1168.34,1170.75,1173.22,1175.62,1177.90,1180.24,1182.34,1184.18,1185.74,1187.07,1188.14,1188.95,1189.42,1189.56,1189.42,1189.00,1188.31,1187.29,1185.98,1184.47,1182.67,1180.49,1178.14,1175.42,1172.46,1169.44
870.42,871.15,871.93,872.55,873.08,873.63,874.15,874.77,875.14,875.12,874.85,874.50,874.18,873.92,873.77,873.89,874.16,874.51,874.94,875.37,875.89,876.20,876.34,876.68,877.63,877.82,877.56,877.42,877.52,877.52,877.71,877.94,877.34,877.51,878.80,880.46,881.36,882.18,883.07,883.89,884.49,884.77,885.05,885.68,886.79,888.33,889.94,891.09,891.29,890.29,889.91,891.64,894.51,897.62,899.58,901.14,902.90,904.79,906.20,906.32,906.11,905.88,905.75,905.97,906.66,907.69,908.89,909.98,911.38,912.87,914.48,916.30,917.99,919.72,921.63,923.71,925.83,927.99,930.10,932.01,933.52,935.01,935.29,934.72,934.05,934.97,937.24,939.51,941.38,942.92,943.96,943.95,943.54,943.65,944.67,945.81,946.45,946.45,946.38,946.72,947.02,947.25,947.75,948.65,949.48,949.74,949.16,948.52,948.08,948.13,948.74,949.71,950.62,951.51,952.48,953.66,955.23,956.66,957.86,958.77,959.42,960.04,960.70,961.36,962.07,963.69,965.68,967.79,969.88,971.83,973.52,975.07,976.59,978.13,979.33,980.51,981.77,983.09,984.27,985.25,986.01,986.62,987.38,988.15,988.99,989.94,991.12,992.47,993.93,995.38,996.71,997.81,998.66,999.54,1000.54,1001.72,1003.97,1006.49,1009.14,1012.02,1014.73,1016.92,1018.78,1020.29,1021.18,1021.28,1020.67,1019.52,1018.50,1020.44,1022.85,1025.28,1027.80,1029.80,1032.07,1035.03,1038.59,1041.91,1044.90,1047.98,1051.39,1055.47,1060.51,1065.74,1070.92,1075.95,1080.79,1085.67,1090.41,1094.80,1098.53,1102.10,1105.69,1109.24,1112.62,1116.01,1119.58,1122.96,1125.99,1128.88,1132.02,1135.47,1139.13,1142.76,1145.92,1148.60,1150.91,1152.79,1154.14,1155.36,1156.41,1157.19,1157.51,1157.67,1157.74,1157.58,1157.09,1156.82,1156.58,1156.24,1155.80,1155.45,1156.53,1158.26,1160.10,1161.72,1163.88,1166.14,1168.36,1170.53,1172.99,1175.57,1178.18,1180.78,1183.29,1185.65,1187.73,1189.58,1191.19,1192.61,1193.74,1194.46,1194.70,1194.69,1194.52,1194.06,1193.30,1192.31,1190.95,1189.37,1187.46,1185.13,1182.57,1179.72,1176.60,1173.33
870.77,871.50,872.20,872.84,873.47,874.12,874.62,875.10,875.43,875.48,875.14,874.81,874.45,874.17,874.16,874.38,874.73,875.21,875.82,876.44,877.11,877.45,877.61,878.19,879.21,880.08,880.49,880.25,879.80,878.94,878.81,879.38,878.84,878.11,878.87,880.48,881.47,882.45,883.40,884.34,885.29,886.14,886.82,887.61,888.57,889.66,890.94,892.13,892.52,891.63,891.36,893.30,896.21,899.19,901.39,902.77,904.24,905.86,907.18,907.55,907.42,907.19,907.07,907.07,907.11,907.72,908.94,910.30,911.81,913.35,915.03,917.00,919.00,921.18,923.39,925.51,927.56,929.65,931.69,933.61,935.28,936.69,937.89,938.47,938.02,936.87,938.43,940.48,942.17,943.73,945.06,945.22,944.85,944.99,945.89,946.94,947.57,947.58,947.35,947.64,948.00,948.24,948.41,949.28,950.43,951.11,950.88,950.54,950.17,949.81,949.51,949.44,949.98,950.71,951.53,952.49,953.75,954.90,955.97,957.02,957.99,958.84,959.51,960.14,961.07,962.50,964.49,966.87,969.44,971.72,973.62,975.31,976.95,978.77,980.39,981.94,983.45,984.92,986.15,986.92,987.37,987.71,988.44,989.25,990.23,991.49,993.18,994.63,996.11,997.53,998.76,999.78,1000.83,1001.45,1001.89,1003.33,1005.12,1007.07,1009.38,1012.39,1015.40,1018.14,1020.61,1022.70,1024.04,1024.56,1024.47,1023.92,1023.04,1023.37,1024.80,1027.07,1029.96,1032.63,1035.28,1038.23,1041.39,1044.31,1047.31,1050.82,1054.69,1058.80,1064.05,1069.74,1075.21,1080.00,1083.92,1088.67,1093.68,1098.45,1102.39,1106.08,1109.76,1113.38,1116.85,1120.29,1123.51,1126.63,1129.72,1132.86,1136.52,1140.31,1144.09,1147.68,1150.38,1152.39,1154.13,1155.79,1157.41,1158.84,1160.10,1161.13,1161.69,1161.96,1162.08,1162.05,1161.85,1161.61,1161.16,1160.69,1160.28,1159.93,1160.69,1162.21,1164.07,1166.01,1168.22,1170.38,1172.53,1174.87,1177.74,1180.39,1182.98,1185.64,1188.38,1190.72,1192.79,1194.70,1196.47,1198.05,1199.19,1199.73,1199.70,1199.57,1199.40,1198.91,1198.13,1197.19,1195.85,1194.18,1192.12,1189.57,1186.70,1183.71,1180.52,1177.09
871.46,872.06,872.62,873.24,873.92,874.58,875.12,875.60,875.99,876.16,875.85,875.49,875.12,874.77,874.56,874.66,875.25,876.02,876.80,877.57,878.28,878.73,878.85,878.85,879.91,880.95,881.55,881.48,880.90,880.14,879.94,880.25,879.85,878.48,878.84,880.42,881.42,882.42,883.41,884.38,885.34,886.32,887.21,888.14,889.14,890.23,891.66,893.16,893.98,893.50,893.16,895.04,897.87,900.74,902.67,904.25,905.65,906.98,908.17,908.64,908.67,908.55,908.41,908.30,908.03,908.26,909.16,910.55,912.44,914.14,915.66,917.22,919.32,921.88,924.52,926.99,929.12,931.25,933.26,935.15,936.93,938.21,939.37,940.28,940.53,939.58,940.07,941.40,943.10,944.78,946.24,946.48,946.14,946.29,947.18,948.09,948.66,948.73,948.44,948.61,948.95,949.25,949.45,949.96,951.18,952.21,952.31,952.05,951.68,951.31,951.01,951.00,951.35,951.69,952.07,952.80,954.15,955.79,957.20,958.08,958.38,958.36,958.63,959.21,959.98,961.09,963.01,965.42,967.96,970.19,971.93,973.65,975.63,978.00,980.16,982.23,984.34,986.51,988.03,988.64,988.83,988.98,989.63,990.67,991.94,993.49,995.41,996.89,998.28,999.66,1001.04,1002.33,1003.25,1003.60,1003.59,1004.06,1004.96,1006.81,1009.41,1012.46,1015.70,1018.88,1021.91,1024.56,1026.34,1027.46,1027.92,1027.82,1027.36,1027.30,1027.65,1028.97,1031.88,1035.47,1038.72,1041.55,1044.14,1046.91,1050.00,1053.83,1058.21,1062.92,1068.21,1073.89,1079.00,1082.96,1086.49,1090.88,1095.88,1100.95,1105.17,1109.07,1113.05,1116.93,1120.52,1124.17,1127.44,1130.53,1133.63,1137.03,1141.12,1145.19,1148.77,1151.38,1153.54,1155.36,1157.05,1158.83,1161.03,1162.66,1164.06,1165.26,1165.89,1166.10,1166.16,1166.13,1165.95,1165.68,1165.13,1164.55,1164.10,1163.86,1164.62,1166.05,1167.88,1169.95,1172.21,1174.39,1176.70,1179.34,1182.16,1184.86,1187.48,1190.06,1192.63,1194.97,1197.16,1199.15,1200.80,1202.14,1203.15,1203.70,1203.79,1203.68,1203.45,1202.99,1202.28,1201.31,1200.18,1198.76,1196.80,1194.03,1190.66,1187.24,1183.82,1180.30
872.34,872.85,873.30,873.86,874.47,875.06,875.63,876.12,876.55,876.83,876.63,876.32,875.99,875.60,875.13,874.89,875.54,876.52,877.48,878.44,879.25,879.80,879.94,879.65,880.52,881.54,882.26,882.39,881.79,881.15,880.97,881.20,880.91,879.15,879.09,880.41,881.39,882.37,883.37,884.35,885.31,886.31,887.32,888.36,889.46,890.68,892.23,893.89,895.09,895.27,895.04,896.43,898.88,901.73,903.86,905.59,907.00,908.21,909.22,909.69,909.85,909.82,909.65,909.39,908.96,909.06,909.86,911.17,913.24,915.19,916.81,918.19,919.98,922.50,925.33,928.09,930.32,932.61,934.75,936.74,938.58,939.67,940.65,941.61,942.26,941.74,941.84,942.77,944.34,946.06,947.45,947.69,947.41,947.56,948.47,949.37,949.98,950.12,949.67,949.77,950.15,950.60,950.96,951.36,952.36,953.31,953.64,953.43,953.17,952.96,952.86,952.98,953.32,953.55,953.80,954.29,954.94,956.70,958.63,959.86,959.55,958.79,958.66,959.20,960.04,960.88,962.35,964.16,966.02,967.90,969.60,971.40,973.52,976.19,978.72,981.15,983.65,986.31,988.56,989.86,990.67,991.29,991.90,992.76,993.90,995.40,997.48,999.13,1000.56,1002.00,1003.55,1004.99,1005.65,1005.70,1005.41,1005.28,1005.43,1006.92,1009.50,1012.64,1016.07,1019.54,1022.94,1026.05,1028.43,1030.20,1031.22,1031.65,1031.78,1031.65,1031.39,1031.89,1034.14,1037.82,1041.63,1044.76,1047.26,1050.06,1053.23,1057.13,1061.71,1066.92,1072.36,1077.74,1082.33,1085.87,1089.59,1093.99,1098.83,1103.69,1108.01,1112.17,1116.43,1120.54,1124.23,1127.88,1131.17,1134.40,1137.83,1141.84,1145.84,1149.47,1152.48,1154.52,1156.40,1158.42,1160.50,1162.64,1165.13,1166.82,1168.26,1169.52,1170.21,1170.37,1170.39,1170.33,1170.13,1169.81,1169.26,1168.62,1168.05,1167.86,1168.53,1169.94,1171.85,1174.04,1176.20,1178.32,1180.66,1183.40,1186.15,1188.90,1191.58,1194.14,1196.60,1198.88,1201.08,1203.05,1204.61,1205.82,1206.74,1207.34,1207.55,1207.47,1207.21,1206.74,1206.03,1204.99,1203.90,1202.53,1200.66,1198.03,1194.64,1190.91,1187.10,1183.21
873.37,873.82,874.20,874.65,875.10,875.55,876.13,876.63,877.09,877.44,877.45,877.27,877.03,876.63,875.92,875.25,875.73,876.74,877.85,878.98,879.95,880.62,880.90,880.75,881.22,882.06,882.88,883.21,882.63,882.00,881.91,882.32,882.13,880.19,879.65,880.49,881.45,882.39,883.38,884.37,885.34,886.31,887.32,888.44,889.73,891.15,892.74,894.36,895.84,896.83,896.90,897.53,899.30,902.14,904.95,906.78,908.28,909.53,910.28,910.73,910.96,910.97,910.76,910.35,909.90,910.16,911.16,912.36,914.32,916.47,918.46,920.01,921.24,923.33,926.02,928.92,931.16,933.63,936.03,938.24,940.10,941.05,941.86,942.72,943.43,943.26,943.70,944.62,945.92,947.54,948.69,948.89,948.66,948.78,949.72,950.73,951.50,951.72,951.07,951.16,951.66,952.30,952.88,953.46,954.00,954.50,954.88,954.77,954.70,954.77,954.95,955.14,955.58,956.06,956.53,956.79,956.00,957.32,959.74,961.84,961.37,960.23,959.70,960.11,961.35,961.97,962.74,963.56,964.32,965.58,967.26,969.03,970.95,973.56,976.19,978.76,981.37,984.23,987.50,990.19,992.47,994.28,995.14,995.51,996.06,997.20,999.33,1001.27,1002.91,1004.50,1006.20,1007.61,1007.97,1007.74,1007.29,1007.08,1006.74,1007.56,1009.67,1012.93,1016.51,1020.13,1023.72,1027.18,1030.31,1032.72,1034.34,1035.40,1036.21,1036.23,1035.89,1035.86,1036.94,1039.77,1044.01,1047.83,1050.74,1053.71,1056.96,1060.71,1065.19,1070.69,1076.35,1081.20,1085.30,1088.97,1093.34,1098.14,1102.68,1106.90,1111.13,1115.56,1120.04,1124.28,1128.02,1131.41,1134.72,1138.26,1142.33,1147.04,1150.42,1153.01,1155.22,1157.26,1159.23,1161.79,1164.56,1167.20,1169.59,1171.27,1172.68,1173.90,1174.68,1174.81,1174.82,1174.74,1174.49,1174.12,1173.67,1173.01,1172.27,1172.05,1172.50,1173.86,1175.89,1178.19,1180.16,1182.11,1184.34,1186.99,1189.71,1192.52,1195.27,1197.90,1200.34,1202.51,1204.59,1206.50,1208.06,1209.27,1210.18,1210.79,1211.07,1210.97,1210.69,1210.15,1209.36,1208.27,1207.02,1205.48,1203.68,1201.48,1198.55,1194.69,1190.38,1185.85
874.38,874.73,874.99,875.32,875.70,876.10,876.61,877.09,877.55,877.98,878.25,878.27,878.09,877.71,877.10,876.59,876.85,877.53,878.34,879.11,880.12,881.13,881.86,881.91,882.20,882.88,883.65,884.05,883.53,882.86,882.84,883.46,883.47,881.41,880.40,880.83,881.93,882.92,883.95,884.87,885.60,886.36,887.32,888.61,890.22,891.93,893.57,895.23,896.79,898.01,898.51,899.06,900.25,902.35,905.23,907.72,909.52,910.69,911.30,911.76,912.03,912.04,911.73,911.38,911.36,912.21,913.71,914.90,916.13,917.96,920.09,922.03,923.61,925.43,927.67,930.13,931.96,934.11,936.48,938.80,940.67,941.91,942.96,943.90,944.65,945.11,945.77,946.63,947.71,949.12,950.16,950.31,949.97,949.87,950.76,951.80,952.72,953.22,952.82,952.92,953.42,954.09,954.66,955.27,955.70,956.01,956.19,956.07,956.00,956.38,957.10,957.46,957.76,958.46,959.25,959.42,957.98,958.37,960.31,962.91,964.09,963.03,961.58,961.13,962.98,963.54,964.53,965.70,966.54,967.08,967.63,968.15,968.96,970.98,973.25,975.73,978.43,981.41,984.68,987.80,991.16,994.76,997.58,998.29,998.53,999.15,1000.82,1002.86,1004.87,1006.77,1008.53,1009.94,1010.12,1009.70,1009.07,1008.66,1008.13,1008.36,1009.83,1013.02,1016.75,1020.51,1024.22,1027.88,1031.36,1034.35,1036.79,1038.67,1039.85,1040.49,1040.38,1040.16,1040.71,1042.66,1046.63,1050.66,1054.06,1057.26,1060.59,1064.32,1068.82,1074.52,1079.81,1084.28,1088.49,1092.85,1097.62,1102.18,1106.44,1110.53,1114.76,1119.19,1123.69,1127.90,1131.45,1134.63,1138.25,1142.61,1147.28,1150.63,1153.24,1155.52,1157.72,1160.15,1162.78,1165.73,1168.72,1171.44,1173.71,1175.50,1177.05,1178.38,1179.19,1179.34,1179.34,1179.25,1178.95,1178.57,1178.16,1177.60,1176.94,1176.59,1176.71,1177.58,1179.20,1181.49,1183.45,1185.44,1187.71,1190.36,1193.10,1195.90,1198.60,1201.17,1203.57,1205.75,1207.92,1209.95,1211.55,1212.81,1213.57,1214.05,1214.26,1213.96,1213.54,1212.89,1212.03,1210.97,1209.74,1208.28,1206.48,1204.22,1201.53,1197.83,1193.22,1188.01
875.29,875.57,875.72,875.96,876.27,876.65,877.11,877.57,878.03,878.49,878.92,879.15,879.16,878.99,878.63,878.22,878.23,878.58,879.14,879.57,880.36,881.47,882.58,883.03,883.30,883.84,884.51,884.92,884.40,883.73,883.78,884.62,884.95,883.00,881.51,881.32,882.54,883.64,884.76,885.71,886.36,886.89,887.56,888.80,890.64,892.75,894.50,896.17,897.75,899.07,899.93,900.59,901.52,903.10,905.63,908.42,910.36,911.48,912.19,912.78,913.10,913.12,912.87,912.77,913.11,914.35,916.24,917.74,918.62,919.94,921.84,924.16,926.15,927.69,929.49,931.63,933.31,935.09,937.06,939.12,940.95,942.41,943.72,944.85,945.77,946.63,947.47,948.32,949.26,950.40,951.35,951.62,951.39,951.08,951.72,952.71,953.76,954.55,954.64,954.83,955.27,955.87,956.40,956.92,957.26,957.44,957.48,957.37,957.27,957.80,958.84,959.57,959.89,960.68,961.51,961.38,959.64,959.38,960.94,963.96,966.52,966.13,964.06,962.51,964.47,965.23,966.44,967.96,969.22,969.53,969.24,968.65,968.34,969.60,971.41,973.43,975.71,978.49,981.53,984.72,988.48,993.09,998.10,1000.09,1001.00,1001.78,1002.86,1004.48,1006.46,1008.50,1010.35,1011.88,1012.07,1011.61,1010.94,1010.38,1009.67,1009.31,1010.15,1013.26,1017.04,1020.83,1024.60,1028.37,1032.07,1035.56,1038.68,1041.25,1042.91,1044.18,1044.54,1044.59,1045.04,1046.39,1049.76,1053.53,1057.05,1060.47,1063.95,1067.85,1072.49,1078.12,1082.81,1087.27,1091.91,1096.79,1101.41,1105.57,1109.70,1113.97,1118.37,1122.82,1127.21,1131.24,1134.62,1137.76,1141.88,1146.58,1151.00,1153.33,1155.52,1157.84,1160.37,1163.23,1166.38,1169.62,1172.74,1175.55,1177.86,1179.80,1181.47,1182.85,1183.69,1183.88,1183.88,1183.75,1183.44,1182.99,1182.53,1181.97,1181.30,1180.75,1180.58,1181.08,1182.35,1184.48,1186.46,1188.55,1190.91,1193.56,1196.31,1199.04,1201.66,1204.15,1206.54,1208.87,1211.24,1213.45,1215.16,1216.38,1216.98,1217.27,1217.30,1216.80,1216.21,1215.44,1214.50,1213.39,1212.15,1210.71,1208.90,1206.57,1203.88,1200.31,1195.60,1190.03
876.05,876.28,876.39,876.57,876.84,877.18,877.63,878.09,878.55,879.00,879.40,879.83,880.23,880.51,880.50,879.94,879.68,879.84,880.34,880.61,880.88,881.68,882.93,884.02,884.44,884.90,885.47,885.82,885.26,884.57,884.72,885.81,886.55,885.07,883.11,882.05,883.21,884.50,885.75,886.88,887.77,888.12,888.24,889.06,890.87,893.45,895.39,897.11,898.71,900.10,901.18,902.01,903.11,904.67,906.49,908.88,910.64,911.81,912.92,913.78,914.16,914.28,914.32,914.67,915.12,916.31,918.31,920.53,921.82,922.57,923.83,926.41,928.60,929.86,931.32,933.41,935.44,936.94,938.13,939.39,941.11,942.56,944.03,945.46,946.70,947.60,948.55,949.49,950.38,951.23,952.08,952.73,952.91,952.51,952.66,953.51,954.61,955.67,956.44,956.81,957.16,957.62,958.12,958.43,958.60,958.71,958.77,958.69,958.61,958.99,959.99,961.31,961.94,962.65,963.10,962.40,960.63,960.23,961.85,965.25,968.23,969.16,967.09,964.38,965.70,966.95,968.15,969.63,971.41,972.23,971.89,970.76,969.58,970.03,971.44,972.64,973.89,975.99,978.70,981.58,984.80,989.11,995.87,1000.09,1002.98,1004.99,1005.76,1006.37,1007.74,1009.62,1011.61,1013.40,1013.80,1013.50,1012.94,1012.37,1011.44,1010.52,1010.80,1013.79,1017.45,1021.13,1024.85,1028.67,1032.56,1036.41,1039.90,1042.91,1045.27,1047.07,1048.28,1049.16,1050.00,1051.20,1053.69,1056.63,1059.74,1063.30,1067.04,1071.33,1076.20,1081.35,1085.35,1090.30,1095.63,1100.55,1104.38,1108.11,1112.36,1117.07,1121.78,1126.38,1130.50,1134.18,1137.53,1140.84,1145.56,1149.81,1152.85,1155.24,1157.53,1160.22,1163.30,1166.56,1169.88,1173.30,1176.60,1179.58,1182.17,1184.29,1186.00,1187.33,1188.13,1188.42,1188.41,1188.23,1187.91,1187.30,1186.68,1185.94,1185.06,1184.28,1183.90,1184.31,1185.47,1187.26,1189.22,1191.46,1193.92,1196.56,1199.25,1201.86,1204.39,1206.87,1209.30,1211.91,1214.56,1216.99,1218.86,1219.94,1220.39,1220.48,1220.22,1219.58,1218.84,1217.93,1216.83,1215.54,1214.23,1212.67,1210.82,1208.53,1205.55,1201.97,1197.38,1191.91
876.78,877.04,877.15,877.27,877.46,877.75,878.15,878.58,878.99,879.44,879.95,880.57,881.16,881.61,881.70,881.16,880.82,880.91,881.34,881.50,881.59,882.06,883.02,884.33,885.29,885.92,886.40,886.69,886.15,885.50,885.72,886.93,887.85,887.09,885.39,883.83,883.85,885.53,886.87,887.96,889.00,889.68,889.83,889.94,890.71,893.35,895.86,898.15,900.07,901.41,902.56,903.59,904.81,906.34,907.96,909.73,911.12,912.23,913.39,914.40,915.14,915.67,916.05,916.59,917.10,918.03,919.65,922.21,924.21,925.35,926.48,928.50,930.68,932.05,933.41,935.19,937.12,938.91,939.71,940.12,941.51,942.94,944.48,946.02,947.43,948.48,949.46,950.36,951.18,951.97,952.84,953.75,954.29,954.02,953.86,954.48,955.52,956.69,957.68,958.32,958.87,959.38,959.72,959.89,960.14,960.42,960.61,960.52,960.40,960.52,961.18,962.73,963.75,964.46,964.62,963.71,961.91,961.40,962.98,966.48,969.52,970.63,968.93,966.38,966.97,968.83,969.80,970.88,973.00,974.63,974.98,973.89,972.08,971.85,973.86,975.78,977.12,978.08,979.56,980.68,982.34,985.43,990.48,995.22,999.58,1003.87,1008.13,1009.50,1010.51,1011.82,1013.50,1015.31,1015.72,1015.44,1014.91,1014.42,1013.56,1012.58,1012.47,1014.56,1017.63,1021.17,1024.98,1028.96,1032.86,1036.69,1040.24,1043.49,1046.46,1049.28,1052.02,1054.47,1056.37,1057.81,1059.25,1061.15,1063.68,1066.88,1070.98,1075.37,1079.81,1084.21,1088.25,1093.91,1099.40,1103.54,1107.12,1111.18,1115.76,1120.64,1125.38,1129.67,1133.49,1137.06,1140.56,1144.10,1148.26,1151.86,1154.52,1156.99,1159.70,1162.88,1166.38,1169.94,1173.63,1177.34,1180.88,1184.08,1186.81,1188.97,1190.67,1191.95,1192.69,1192.87,1192.82,1192.56,1192.00,1191.32,1190.52,1189.58,1188.55,1187.63,1187.10,1187.45,1188.52,1190.02,1191.87,1194.06,1196.49,1199.11,1201.64,1204.18,1206.83,1209.51,1212.08,1214.94,1217.59,1219.86,1221.60,1222.71,1223.33,1223.60,1223.46,1222.86,1221.90,1220.61,1219.11,1217.54,1216.08,1214.43,1212.49,1210.05,1206.85,1203.21,1198.70,1193.35
877.51,877.82,877.93,878.00,878.11,878.35,878.71,879.06,879.44,879.89,880.54,881.28,881.98,882.53,882.75,882.26,881.92,881.95,882.30,882.39,882.40,882.60,883.19,884.46,885.85,886.76,887.30,887.55,887.02,886.42,886.71,887.99,889.08,888.97,887.76,885.99,884.75,886.50,888.06,889.22,890.28,891.29,891.74,891.55,891.61,893.85,896.50,899.03,901.06,902.35,903.60,904.83,906.18,907.71,909.33,910.66,911.75,912.77,913.89,914.99,916.02,916.88,917.53,918.16,918.76,919.58,920.98,923.58,926.04,927.78,929.12,930.57,932.64,934.17,935.54,937.05,938.72,940.59,941.24,941.22,942.15,943.44,944.98,946.57,948.06,949.27,950.24,951.11,951.93,952.75,953.58,954.61,955.45,955.54,955.24,955.52,956.38,957.64,958.77,959.72,960.56,961.24,961.59,961.69,962.07,962.55,962.85,962.79,962.69,962.53,962.69,964.12,965.45,966.19,966.20,965.25,963.44,962.67,964.10,967.68,970.61,971.76,970.51,968.25,968.04,970.54,971.58,972.35,974.42,976.63,977.76,977.02,974.88,973.70,976.25,979.03,980.84,981.45,982.17,982.24,982.82,984.64,987.27,990.99,995.38,1000.78,1007.75,1011.14,1013.11,1014.59,1015.88,1017.38,1017.69,1017.40,1016.92,1016.51,1015.78,1014.94,1014.57,1015.53,1017.79,1021.14,1025.01,1029.09,1032.92,1036.60,1040.13,1043.59,1047.06,1050.72,1054.76,1058.59,1061.54,1063.47,1064.54,1065.86,1067.87,1070.63,1074.84,1079.07,1083.00,1086.88,1091.59,1097.54,1102.75,1106.30,1109.98,1114.44,1119.28,1124.18,1128.68,1132.56,1136.12,1139.64,1143.28,1146.96,1150.43,1153.48,1156.11,1158.76,1161.99,1165.64,1169.45,1173.27,1177.31,1181.38,1185.22,1188.63,1191.54,1193.73,1195.35,1196.49,1197.11,1197.16,1197.04,1196.68,1195.89,1195.08,1194.08,1192.97,1191.85,1190.86,1190.22,1190.62,1191.73,1192.94,1194.53,1196.56,1198.92,1201.46,1203.88,1206.35,1209.08,1211.97,1214.70,1217.64,1220.16,1222.25,1223.93,1225.19,1226.08,1226.57,1226.61,1226.16,1225.11,1223.51,1221.60,1219.72,1217.96,1216.14,1214.02,1211.36,1208.01,1204.25,1199.80,1194.55
878.24,878.59,878.71,878.74,878.81,879.00,879.31,879.58,879.92,880.44,881.17,881.88,882.62,883.33,883.81,883.42,883.09,883.06,883.28,883.31,883.32,883.39,883.69,884.60,886.01,887.24,888.09,888.38,887.88,887.31,887.62,888.95,890.33,890.61,889.93,888.34,886.17,887.26,889.27,890.89,891.74,892.84,893.77,894.36,894.86,895.98,897.74,899.55,901.13,902.41,903.87,905.29,906.78,908.42,910.14,911.53,912.59,913.51,914.56,915.69,916.69,917.58,918.37,919.01,919.78,920.95,922.63,924.88,927.15,929.44,931.38,932.69,934.52,936.13,937.61,939.04,940.36,941.62,942.41,942.81,943.18,944.08,945.50,947.09,948.59,949.90,950.87,951.79,952.75,953.69,954.29,955.20,956.27,957.02,956.84,956.60,957.11,958.50,959.79,961.09,962.28,963.30,964.04,964.17,964.67,965.27,965.60,965.67,965.77,965.37,964.84,965.67,967.06,967.88,967.93,967.11,965.34,963.98,965.08,968.84,971.52,972.98,972.11,969.79,968.69,971.87,973.61,974.43,975.81,978.00,979.65,979.60,977.60,974.90,977.37,980.47,983.00,985.02,986.44,987.60,988.63,989.51,990.10,990.63,992.43,996.06,1002.09,1009.07,1014.52,1017.84,1018.89,1019.54,1019.63,1019.40,1019.01,1018.66,1018.02,1017.49,1017.06,1016.83,1018.09,1021.12,1024.91,1028.88,1032.55,1036.04,1039.57,1043.22,1047.07,1050.96,1055.45,1059.90,1063.52,1066.30,1068.40,1070.18,1071.93,1074.29,1078.06,1081.82,1085.35,1089.35,1095.63,1100.91,1105.20,1108.97,1113.16,1117.81,1122.68,1127.38,1131.26,1134.74,1138.14,1141.63,1145.26,1148.90,1152.03,1154.86,1157.61,1160.62,1164.44,1168.43,1172.42,1176.43,1180.68,1185.23,1189.49,1193.09,1196.30,1198.52,1199.93,1200.75,1201.15,1201.16,1200.91,1200.42,1199.59,1198.41,1197.21,1196.03,1194.90,1193.90,1193.22,1193.88,1195.27,1196.20,1197.24,1199.02,1201.24,1203.66,1206.06,1208.42,1211.11,1214.09,1216.96,1219.68,1221.98,1224.00,1225.90,1227.48,1228.63,1229.25,1229.36,1229.23,1228.33,1226.70,1224.60,1222.30,1220.02,1217.81,1215.39,1212.48,1209.05,1205.13,1200.65,1195.48
878.93,879.40,879.54,879.54,879.57,879.77,880.16,880.36,880.61,881.10,881.82,882.52,883.26,884.01,884.60,884.49,884.28,884.18,884.24,884.35,884.47,884.59,884.69,884.88,886.09,887.47,888.61,889.19,888.99,888.61,888.56,889.22,890.75,891.73,891.36,889.77,887.65,887.71,889.51,891.45,892.73,894.14,895.34,896.30,897.20,898.38,899.77,901.04,902.16,903.21,904.49,905.47,906.65,908.26,910.11,911.50,912.73,913.96,915.22,916.32,917.30,918.22,919.16,920.10,921.30,922.88,924.77,926.75,928.88,931.06,933.02,934.57,936.28,937.88,939.30,940.54,941.70,942.84,943.83,944.49,944.57,944.93,946.16,947.74,949.26,950.84,952.10,953.19,954.19,955.13,955.52,956.04,956.95,958.13,958.40,958.14,958.25,959.12,960.60,962.30,963.83,965.12,966.12,966.58,967.29,967.98,968.30,968.51,968.70,968.28,967.38,967.13,968.61,969.54,969.64,969.09,967.78,965.81,966.25,969.82,972.26,974.10,973.84,971.73,969.59,972.22,974.86,976.60,977.69,979.39,981.13,981.19,979.25,976.87,978.36,981.54,984.95,987.56,989.22,990.56,991.90,993.18,993.81,994.09,994.80,996.23,999.02,1004.93,1011.14,1016.63,1020.55,1021.65,1021.93,1021.81,1021.43,1021.09,1020.91,1020.75,1020.32,1019.48,1019.40,1021.59,1025.01,1028.85,1032.30,1035.49,1038.86,1042.53,1046.45,1050.52,1055.37,1060.22,1064.22,1067.75,1070.66,1073.12,1075.33,1077.72,1080.90,1084.16,1087.73,1092.50,1098.63,1103.39,1107.40,1111.41,1115.87,1120.65,1125.46,1129.85,1133.11,1136.15,1139.38,1142.85,1146.50,1150.07,1153.18,1156.07,1159.02,1162.59,1166.62,1170.77,1174.95,1179.21,1184.00,1188.92,1193.48,1197.24,1200.02,1201.97,1203.29,1204.09,1204.44,1204.50,1204.28,1203.78,1202.89,1201.63,1200.46,1199.23,1197.93,1196.82,1196.08,1196.80,1198.33,1199.25,1199.94,1201.29,1203.08,1205.13,1207.44,1209.97,1212.80,1215.82,1218.72,1221.30,1223.54,1225.61,1227.56,1228.94,1229.72,1230.13,1230.25,1230.22,1229.69,1228.79,1227.30,1224.73,1222.07,1219.51,1216.74,1213.49,1209.95,1205.92,1201.47,1196.39
879.72,880.34,880.53,880.52,880.53,880.74,881.19,881.31,881.46,881.85,882.50,883.19,883.92,884.66,885.31,885.53,885.47,885.32,885.25,885.47,885.72,885.92,885.89,885.44,886.19,887.59,889.03,890.00,890.21,890.00,889.61,889.55,891.04,892.65,892.51,890.93,889.12,888.29,889.51,891.45,893.19,894.89,896.33,897.61,898.90,900.41,901.68,902.69,903.57,904.45,905.51,906.09,906.88,908.21,909.83,911.15,912.58,914.13,915.64,916.80,917.85,918.87,919.97,921.24,922.84,924.73,926.74,928.57,930.61,932.56,934.42,936.24,937.91,939.45,940.76,941.84,942.93,944.07,945.23,946.07,946.06,945.98,946.95,948.41,949.95,951.80,953.43,954.75,955.81,956.74,956.95,957.00,957.57,959.04,959.81,959.72,959.51,959.80,961.30,963.26,965.09,966.66,967.99,968.87,969.79,970.52,970.87,971.21,971.40,970.96,969.84,968.69,970.10,971.12,971.32,970.99,970.17,967.73,967.48,970.62,972.87,975.07,975.60,974.09,971.23,972.62,975.88,978.62,979.64,980.82,982.48,982.49,980.62,978.95,979.44,982.50,986.55,989.58,991.38,992.71,994.26,996.13,997.49,998.36,998.76,998.74,998.70,1001.95,1007.08,1013.76,1020.96,1023.11,1024.05,1024.34,1024.11,1023.93,1024.22,1024.29,1023.81,1022.61,1021.45,1022.51,1025.17,1028.73,1032.00,1034.98,1038.17,1041.72,1045.60,1049.72,1054.82,1059.99,1064.35,1068.57,1072.09,1075.20,1078.04,1080.65,1083.39,1086.29,1090.06,1095.65,1101.08,1105.43,1109.44,1113.69,1118.30,1123.18,1127.78,1131.68,1134.42,1137.10,1140.19,1143.67,1147.41,1150.95,1154.16,1157.20,1160.39,1164.47,1168.61,1172.89,1177.30,1181.95,1187.28,1192.49,1197.20,1200.96,1203.28,1204.97,1206.24,1207.11,1207.51,1207.65,1207.48,1207.01,1206.13,1204.93,1203.86,1202.59,1201.08,1199.78,1198.86,1199.46,1200.95,1201.99,1202.57,1203.54,1204.88,1206.57,1208.76,1211.48,1214.44,1217.44,1220.28,1222.75,1225.02,1227.14,1228.93,1229.92,1230.27,1230.43,1230.55,1230.54,1230.35,1230.15,1229.36,1226.88,1223.97,1221.07,1217.96,1214.42,1210.73,1206.63,1202.26,1197.29
880.82,881.67,881.99,882.01,882.04,882.25,882.48,882.54,882.57,882.74,883.24,883.90,884.61,885.33,886.05,886.54,886.61,886.49,886.43,886.75,887.06,887.28,887.26,886.74,886.45,887.59,889.38,890.80,891.46,891.37,890.93,890.67,891.68,893.48,893.58,892.14,890.44,889.50,889.71,890.78,892.49,894.20,896.02,897.83,899.55,901.09,902.52,903.91,905.23,906.37,907.46,908.33,908.93,909.25,909.58,910.68,912.15,913.76,915.36,916.88,918.28,919.60,920.88,922.30,923.94,925.81,927.80,929.72,931.78,933.75,935.65,937.49,939.25,940.66,941.86,942.96,944.09,945.20,946.32,947.25,947.50,947.42,947.93,949.00,950.56,952.55,954.49,956.13,957.43,958.35,958.48,958.06,958.13,959.64,960.85,960.96,960.76,960.86,961.87,963.63,965.61,967.61,969.56,970.88,971.86,972.59,973.09,973.58,973.53,972.84,971.63,970.62,971.48,972.47,972.93,972.57,971.88,969.44,968.71,971.02,973.32,975.65,977.29,977.37,974.87,974.14,976.93,980.14,981.34,982.36,983.82,983.85,982.21,980.71,980.94,983.50,987.34,990.97,993.07,994.64,996.19,997.98,1000.26,1001.51,1002.61,1003.68,1004.28,1004.38,1005.44,1010.07,1018.87,1022.62,1025.32,1026.86,1027.28,1027.70,1028.15,1028.06,1027.32,1025.94,1024.76,1024.32,1025.35,1028.16,1031.47,1034.58,1037.63,1040.87,1044.67,1048.48,1053.59,1059.09,1063.98,1068.66,1072.48,1075.96,1079.29,1082.32,1085.14,1088.16,1092.23,1098.19,1102.86,1107.02,1111.24,1115.74,1120.38,1125.26,1129.27,1132.30,1134.83,1137.35,1140.39,1143.98,1147.99,1151.69,1155.02,1158.27,1161.76,1165.96,1170.33,1174.80,1179.57,1184.98,1190.55,1195.84,1200.35,1203.69,1206.10,1207.87,1209.16,1210.06,1210.60,1210.81,1210.66,1210.23,1209.53,1208.62,1207.58,1206.24,1204.58,1202.98,1201.55,1201.64,1202.81,1203.98,1204.96,1205.89,1207.02,1208.57,1210.66,1213.36,1216.24,1219.08,1221.68,1224.12,1226.48,1228.51,1229.76,1230.25,1230.51,1230.70,1230.80,1230.74,1230.54,1230.32,1229.81,1228.33,1225.40,1222.23,1218.88,1215.17,1211.24,1207.16,1202.97,1198.15
881.45,882.38,882.99,883.29,883.46,883.62,883.74,883.77,883.79,883.87,884.13,884.66,885.33,886.06,886.78,887.38,887.64,887.66,887.58,887.80,888.21,888.56,888.66,888.25,887.63,888.01,889.29,891.08,892.27,892.66,892.52,892.31,893.12,894.54,894.62,893.42,891.91,891.87,892.09,892.10,892.13,893.57,895.59,897.75,899.79,901.37,902.82,904.30,905.77,907.13,908.43,909.66,910.42,910.56,910.44,910.98,912.09,913.54,915.10,916.71,918.30,919.87,921.42,922.93,924.61,926.42,928.30,930.25,932.34,934.40,936.43,938.38,940.12,941.50,942.73,943.93,945.15,946.29,947.44,948.46,949.04,949.03,949.24,949.94,951.32,953.36,955.39,957.24,958.75,959.62,959.74,959.26,959.07,960.08,961.44,962.09,962.25,962.29,962.98,964.16,965.90,968.02,970.15,971.77,973.14,974.31,975.19,975.81,975.79,975.08,973.84,972.77,973.16,974.03,974.60,974.18,972.94,970.47,969.62,971.54,973.93,976.45,978.62,979.60,977.95,975.98,977.91,980.89,982.24,983.48,985.03,985.18,983.71,982.24,983.22,985.82,988.89,991.46,994.06,996.28,998.16,999.92,1002.19,1004.01,1005.75,1007.74,1010.07,1010.49,1008.64,1008.89,1014.64,1020.88,1025.26,1028.07,1029.62,1030.35,1030.74,1030.72,1030.19,1029.07,1028.13,1027.39,1027.51,1028.78,1030.41,1033.07,1036.14,1039.41,1042.99,1046.88,1052.00,1057.63,1062.99,1067.93,1072.11,1075.98,1079.70,1083.12,1086.36,1089.90,1094.17,1099.46,1103.79,1107.96,1112.31,1116.94,1121.58,1126.26,1129.97,1132.69,1135.09,1137.46,1140.44,1144.08,1148.23,1152.11,1155.69,1159.25,1163.03,1167.28,1171.86,1176.60,1181.79,1187.84,1193.39,1198.51,1202.89,1206.23,1208.75,1210.55,1211.98,1213.11,1213.79,1214.06,1213.98,1213.59,1212.87,1212.04,1210.91,1209.45,1207.69,1205.86,1204.09,1203.88,1204.88,1206.04,1207.16,1208.27,1209.48,1210.95,1212.78,1215.39,1218.14,1220.75,1223.13,1225.46,1227.71,1229.46,1230.19,1230.48,1230.71,1230.92,1231.05,1230.94,1230.70,1230.46,1230.12,1229.22,1226.39,1223.00,1219.37,1215.49,1211.48,1207.32,1203.15,1198.46
881.91,882.84,883.73,884.38,884.77,884.94,885.03,885.06,885.10,885.16,885.17,885.46,886.06,886.82,887.50,888.13,888.59,888.79,888.75,888.82,889.30,889.81,890.11,889.86,889.25,888.76,889.20,891.07,892.72,893.74,894.12,894.18,894.91,895.79,895.73,894.72,893.43,894.70,895.44,894.69,892.91,893.51,895.19,897.45,899.81,901.44,902.89,904.34,905.83,907.36,908.89,910.42,911.50,911.89,911.75,911.71,912.33,913.50,914.95,916.54,918.20,919.94,921.72,923.34,925.06,926.79,928.52,930.42,932.55,934.72,936.90,939.00,940.67,942.07,943.39,944.70,946.02,947.23,948.41,949.54,950.44,950.63,950.74,951.15,952.21,954.19,956.23,958.18,959.80,960.60,960.82,960.50,960.19,960.65,961.99,963.13,963.72,963.86,964.36,964.93,966.23,968.17,970.27,972.08,973.87,975.55,976.92,977.80,977.95,977.36,976.15,974.97,974.98,975.69,976.29,975.79,973.85,971.40,970.55,972.17,974.72,977.43,979.83,981.30,980.62,978.06,978.99,981.40,983.04,984.62,986.28,986.53,985.15,983.62,985.42,988.21,990.62,992.09,994.93,997.67,999.92,1001.70,1003.68,1005.97,1008.29,1011.10,1015.27,1017.15,1013.94,1010.29,1011.39,1018.75,1024.46,1028.59,1031.33,1032.38,1032.75,1032.94,1032.85,1032.18,1031.57,1030.99,1030.60,1030.42,1030.17,1031.97,1034.70,1037.76,1041.06,1045.10,1050.13,1055.76,1061.57,1066.70,1071.24,1075.47,1079.47,1083.25,1087.06,1091.20,1095.60,1100.05,1104.25,1108.48,1112.90,1117.58,1122.18,1126.61,1130.16,1132.86,1135.19,1137.46,1140.41,1144.09,1148.31,1152.34,1156.20,1160.07,1164.10,1168.39,1173.20,1178.28,1183.88,1190.33,1195.75,1200.65,1205.01,1208.58,1211.18,1213.07,1214.69,1216.08,1216.89,1217.27,1217.28,1216.92,1216.11,1215.24,1213.97,1212.37,1210.49,1208.47,1206.48,1206.10,1206.97,1208.06,1209.23,1210.55,1211.95,1213.43,1215.06,1217.47,1220.00,1222.36,1224.54,1226.74,1228.75,1230.11,1230.44,1230.69,1230.92,1231.15,1231.30,1231.13,1230.85,1230.57,1230.32,1229.72,1226.93,1223.30,1219.40,1215.42,1211.41,1207.12,1202.96,1198.60
882.42,883.35,884.22,885.05,885.79,886.32,886.50,886.58,886.65,886.67,886.50,886.33,886.74,887.53,888.22,888.84,889.34,889.76,890.05,890.06,890.44,891.10,891.69,891.58,890.99,890.13,889.81,890.82,892.48,894.08,895.30,896.07,896.73,897.36,897.10,895.96,894.91,897.49,898.96,898.83,897.34,895.41,895.09,896.81,899.64,901.38,902.92,904.40,905.88,907.38,908.91,910.46,911.90,912.95,913.00,912.86,913.11,913.87,915.15,916.72,918.32,919.98,921.79,923.62,925.31,926.96,928.61,930.29,932.42,934.68,936.95,939.13,940.77,942.20,943.57,944.94,946.31,947.65,948.95,950.16,951.19,951.98,952.42,952.77,953.39,955.00,957.03,958.90,960.34,961.08,961.69,961.63,961.47,961.96,962.97,964.01,964.83,965.37,965.80,966.32,967.04,968.22,970.23,971.99,973.72,975.57,977.52,979.10,979.53,979.18,978.23,976.98,976.81,977.38,977.91,977.38,975.24,973.01,972.03,973.05,975.87,978.77,981.18,982.74,982.59,980.51,980.52,982.24,984.63,986.47,987.89,987.95,986.54,984.84,986.15,988.86,991.90,994.57,996.41,998.62,1000.83,1002.78,1004.83,1006.98,1009.69,1013.30,1018.01,1020.21,1019.53,1017.17,1014.99,1017.07,1023.06,1028.58,1032.04,1033.94,1034.71,1035.31,1035.73,1035.55,1035.15,1034.55,1034.12,1033.98,1033.77,1034.07,1034.84,1036.32,1039.32,1043.17,1047.81,1053.30,1059.52,1064.93,1069.76,1074.13,1078.18,1082.32,1086.72,1091.15,1095.59,1100.06,1104.28,1108.51,1112.89,1117.47,1121.93,1126.21,1129.76,1132.58,1134.95,1137.26,1140.29,1144.06,1148.37,1152.42,1156.39,1160.45,1164.65,1169.02,1174.11,1179.66,1185.54,1191.67,1197.00,1201.94,1206.52,1210.45,1213.10,1215.29,1217.16,1218.65,1219.59,1220.18,1220.34,1220.00,1219.05,1218.08,1216.71,1214.91,1212.78,1210.61,1208.62,1208.08,1208.72,1209.79,1211.08,1212.45,1213.98,1215.72,1217.51,1219.47,1221.55,1223.67,1225.77,1227.84,1229.39,1230.35,1230.70,1230.94,1231.18,1231.40,1231.54,1231.28,1230.93,1230.61,1230.32,1229.65,1226.48,1222.47,1218.42,1214.56,1210.65,1206.14,1202.21,1198.94
882.94,883.87,884.75,885.64,886.51,887.24,887.66,887.97,888.15,888.13,887.87,887.48,887.60,888.18,888.92,889.56,890.09,890.64,891.18,891.34,891.68,892.32,893.02,893.10,892.26,890.98,890.20,890.79,892.32,894.10,895.81,897.21,898.06,898.68,898.52,897.51,896.25,898.62,900.33,900.87,900.16,897.92,896.31,896.87,899.16,901.13,902.90,904.59,906.18,907.65,909.16,910.70,912.26,913.64,914.15,914.09,914.07,914.45,915.56,916.79,918.50,920.31,921.97,923.65,925.26,926.85,928.42,930.00,932.12,934.41,936.72,938.92,940.68,942.20,943.65,945.10,946.55,947.95,949.31,950.56,951.67,952.74,953.56,954.11,954.59,955.74,957.61,959.37,960.66,961.41,962.20,962.51,962.73,963.37,964.15,964.99,965.84,966.61,967.20,967.75,968.28,969.02,970.36,971.82,973.49,975.42,977.59,979.55,980.27,980.22,979.65,978.76,978.62,979.03,979.40,978.89,977.03,975.44,974.15,974.02,977.58,980.37,982.54,984.19,984.75,983.12,982.14,983.01,985.95,988.29,989.71,989.87,988.76,987.08,986.99,988.82,991.96,995.58,998.07,1000.02,1001.76,1003.48,1005.50,1007.54,1010.40,1014.37,1019.19,1021.58,1022.50,1021.64,1018.92,1018.05,1021.80,1026.96,1031.54,1033.98,1035.76,1037.29,1038.45,1038.87,1038.78,1038.26,1037.91,1037.93,1037.72,1037.20,1036.88,1037.32,1039.52,1042.36,1045.99,1050.75,1056.89,1063.08,1068.07,1072.46,1076.62,1080.86,1085.46,1090.07,1094.67,1099.34,1103.71,1108.03,1112.40,1116.84,1121.18,1125.39,1129.06,1132.10,1134.53,1136.94,1139.94,1143.67,1148.14,1152.46,1156.59,1160.74,1165.01,1169.41,1174.69,1180.53,1186.57,1192.43,1197.58,1202.66,1207.49,1211.60,1214.50,1217.06,1219.15,1220.63,1221.31,1221.73,1221.78,1221.46,1220.77,1220.07,1218.91,1217.09,1214.68,1212.30,1210.35,1209.72,1210.25,1211.49,1212.86,1214.32,1215.91,1217.67,1219.46,1221.17,1222.95,1224.85,1226.78,1228.69,1229.88,1230.51,1230.89,1231.22,1231.47,1231.66,1231.70,1231.38,1231.01,1230.65,1230.32,1229.55,1225.86,1221.27,1216.86,1212.93,1208.79,1204.15,1200.14,1197.11
883.46,884.39,885.31,886.19,887.04,887.87,888.54,889.16,889.52,889.51,889.20,888.76,888.59,888.85,889.64,890.29,890.84,891.47,892.16,892.58,892.94,893.50,894.19,894.46,893.29,891.66,890.63,891.04,892.37,894.00,895.90,897.83,899.03,899.81,899.94,899.16,897.58,898.73,900.30,901.47,901.73,900.50,898.28,897.46,898.52,900.70,902.74,904.69,906.49,908.02,909.53,911.00,912.48,913.92,915.04,915.30,915.16,915.23,916.19,917.05,918.78,920.63,922.05,923.43,924.93,926.49,928.02,929.57,931.64,933.91,936.20,938.40,940.38,942.03,943.57,945.11,946.66,948.14,949.53,950.82,951.98,953.12,954.25,955.14,955.72,956.50,958.09,959.65,960.84,961.65,962.50,963.20,963.87,964.66,965.31,965.97,966.74,967.64,968.48,969.11,969.71,970.28,970.76,971.77,973.27,975.15,977.29,979.38,980.40,980.74,980.65,980.31,980.33,980.58,980.73,980.26,978.98,978.16,976.53,975.11,979.39,981.92,983.80,985.59,986.92,985.85,984.07,984.04,987.11,989.97,991.63,992.10,991.50,990.04,988.29,988.72,991.29,995.37,999.45,1001.51,1002.76,1004.10,1005.96,1007.91,1010.77,1014.73,1019.45,1021.98,1023.73,1024.18,1022.58,1020.67,1021.13,1024.71,1030.07,1032.90,1035.89,1038.63,1040.78,1041.97,1042.41,1042.17,1041.99,1042.11,1041.81,1041.02,1040.29,1040.13,1041.28,1042.71,1045.20,1048.93,1054.28,1061.18,1066.21,1070.56,1074.86,1079.08,1083.61,1088.30,1093.11,1098.06,1102.70,1107.15,1111.53,1115.85,1120.11,1124.28,1128.10,1131.38,1133.89,1136.43,1139.35,1143.02,1147.69,1152.40,1156.72,1160.94,1165.20,1169.61,1174.98,1180.95,1187.04,1192.70,1197.62,1202.86,1207.89,1212.11,1215.32,1218.26,1220.56,1222.00,1222.36,1222.46,1222.29,1221.99,1221.68,1221.36,1220.48,1218.73,1216.14,1213.57,1211.71,1211.07,1211.59,1213.10,1214.52,1216.07,1217.70,1219.37,1221.07,1222.66,1224.29,1226.01,1227.72,1229.39,1230.27,1230.68,1231.08,1231.50,1231.80,1231.92,1231.82,1231.43,1231.05,1230.67,1230.28,1229.33,1225.01,1219.68,1214.75,1210.61,1206.08,1201.35,1197.16,1193.87
883.98,884.91,885.84,886.71,887.58,888.44,889.11,889.86,890.47,890.74,890.39,889.90,889.63,889.75,890.43,891.06,891.62,892.24,892.94,893.59,894.11,894.68,895.31,895.65,894.56,893.07,891.97,891.96,893.01,894.24,895.95,898.08,899.67,900.82,901.13,900.56,899.28,898.78,899.89,901.58,902.73,902.08,900.06,898.39,898.05,899.96,902.00,904.09,906.12,907.99,909.75,910.89,911.99,913.34,914.95,916.23,916.53,916.47,917.28,918.54,919.32,920.09,921.28,922.68,924.20,925.75,927.30,928.90,930.76,932.90,935.16,937.39,939.60,941.35,942.93,944.49,946.15,947.98,949.63,951.02,952.18,953.34,954.50,955.60,956.59,957.51,958.63,959.79,960.89,961.83,962.78,963.70,964.54,965.26,965.89,966.63,967.45,968.36,969.35,970.20,970.93,971.52,971.92,972.50,973.30,974.62,976.66,978.65,980.05,980.97,981.45,981.47,981.63,981.74,981.65,981.20,980.57,980.07,978.37,976.49,980.20,982.66,984.70,986.74,988.54,988.74,987.26,986.52,988.39,991.21,993.36,994.41,994.35,993.41,991.23,989.97,990.59,993.95,999.13,1002.06,1003.85,1005.36,1006.66,1008.58,1011.23,1014.81,1019.50,1022.14,1024.30,1025.60,1025.20,1023.50,1022.67,1024.00,1027.35,1030.90,1034.32,1038.16,1041.86,1044.31,1045.86,1046.59,1046.78,1046.57,1046.21,1045.59,1044.94,1044.55,1044.84,1045.14,1047.59,1050.62,1053.31,1059.13,1063.99,1068.45,1072.88,1077.13,1081.51,1086.05,1090.92,1096.28,1101.28,1105.84,1110.22,1114.53,1118.77,1122.83,1126.60,1129.96,1132.69,1135.32,1138.30,1142.10,1147.02,1151.99,1156.52,1160.85,1165.10,1169.46,1174.79,1180.68,1186.64,1192.14,1196.90,1202.05,1207.19,1211.66,1214.84,1218.09,1220.59,1222.15,1222.97,1223.20,1223.01,1222.62,1222.16,1221.66,1220.66,1218.92,1216.51,1214.13,1212.47,1212.01,1212.67,1214.26,1215.77,1217.39,1219.09,1220.81,1222.51,1224.09,1225.69,1227.36,1229.03,1230.03,1230.63,1231.05,1231.43,1231.79,1232.14,1232.20,1231.88,1231.40,1231.00,1230.61,1230.03,1228.44,1223.38,1217.19,1211.57,1207.15,1202.36,1197.65,1193.54,1190.30
884.44,885.42,886.35,887.23,888.11,888.99,889.69,890.46,891.21,891.71,891.53,891.05,890.79,890.88,891.39,891.90,892.39,892.97,893.68,894.44,895.10,895.74,896.39,896.81,896.09,894.79,893.56,893.16,894.42,895.63,896.76,898.11,900.11,901.65,902.23,901.91,900.90,899.87,900.41,901.95,903.53,903.24,901.43,899.55,898.57,899.50,901.29,903.34,905.41,907.42,909.15,910.07,911.09,912.63,914.59,916.54,917.54,917.86,918.29,919.38,920.11,920.63,921.27,922.35,923.72,925.16,926.61,928.11,929.70,931.69,933.97,936.38,938.64,940.60,942.40,944.15,945.99,948.01,949.76,951.18,952.34,953.50,954.66,955.85,957.06,958.15,959.14,960.09,961.07,962.14,963.14,964.12,965.03,965.79,966.47,967.29,968.16,969.05,970.09,971.13,972.05,972.79,973.27,973.68,974.17,974.99,976.30,977.74,979.47,980.82,981.60,982.04,982.55,982.71,982.53,982.11,981.70,981.11,979.38,977.60,980.92,983.41,985.61,987.81,989.82,990.95,989.96,988.84,989.57,992.22,994.67,996.39,997.19,996.91,995.31,993.58,993.13,995.55,999.29,1002.12,1004.38,1006.31,1007.74,1009.57,1012.01,1015.28,1019.58,1022.26,1024.78,1026.82,1027.57,1026.62,1025.62,1025.44,1026.54,1029.25,1032.87,1037.66,1042.50,1045.84,1048.34,1049.92,1050.56,1050.33,1050.17,1050.02,1049.69,1049.32,1049.13,1048.47,1050.02,1052.46,1054.62,1058.10,1061.64,1065.84,1070.67,1075.02,1079.35,1083.90,1088.89,1094.46,1099.82,1104.45,1108.73,1112.93,1117.13,1121.14,1124.88,1128.34,1131.37,1134.05,1137.16,1141.18,1146.34,1151.49,1156.11,1160.46,1164.66,1168.89,1174.08,1179.76,1185.48,1190.76,1195.42,1200.33,1205.33,1209.94,1213.32,1216.53,1219.30,1221.45,1222.80,1223.45,1223.42,1222.96,1222.25,1221.47,1220.11,1218.15,1215.78,1213.64,1212.18,1211.93,1212.77,1214.50,1216.23,1218.05,1219.94,1221.83,1223.64,1225.30,1226.95,1228.57,1229.92,1230.54,1231.00,1231.45,1231.85,1232.20,1232.43,1232.34,1231.88,1231.40,1230.98,1230.55,1229.58,1226.76,1220.90,1214.04,1207.96,1203.27,1198.02,1193.04,1188.96,1186.09
884.85,885.89,886.85,887.74,888.62,889.52,890.31,891.04,891.81,892.50,892.63,892.23,892.05,892.20,892.53,892.86,893.23,893.71,894.39,895.16,895.93,896.69,897.42,897.95,897.77,896.73,895.33,894.54,896.37,897.88,898.25,898.19,900.41,902.27,903.24,903.29,902.49,901.92,901.92,902.83,904.33,904.14,902.42,900.92,900.06,899.61,900.83,902.63,904.60,906.56,908.08,908.97,910.17,912.06,914.24,916.43,918.21,919.25,919.23,919.64,920.98,922.01,922.08,922.58,923.59,924.82,926.11,927.42,928.78,930.64,932.93,935.48,937.67,939.91,942.08,944.12,946.17,948.22,949.93,951.31,952.47,953.63,954.79,955.98,957.21,958.42,959.57,960.52,961.39,962.58,963.55,964.49,965.42,966.32,967.09,967.98,968.88,969.77,970.78,971.93,973.05,974.02,974.69,975.16,975.76,976.24,976.46,977.06,978.89,980.40,981.24,982.13,983.13,983.51,983.40,983.02,982.40,981.41,979.73,978.49,981.70,984.28,986.59,988.84,990.86,992.50,992.04,990.83,990.63,993.15,995.74,998.07,999.84,1000.25,999.85,998.73,998.19,999.62,1000.32,1002.22,1004.61,1006.94,1009.01,1010.82,1013.13,1016.17,1019.75,1022.44,1025.29,1027.97,1029.70,1029.87,1029.41,1028.57,1027.81,1028.47,1031.85,1037.23,1042.80,1046.61,1049.81,1052.07,1053.26,1053.47,1053.81,1054.25,1054.36,1054.16,1053.82,1052.51,1052.43,1054.25,1057.60,1058.50,1060.05,1063.46,1068.41,1072.70,1077.05,1081.81,1086.99,1092.59,1098.26,1102.95,1107.10,1111.10,1115.23,1119.22,1122.99,1126.58,1129.95,1132.71,1136.00,1140.23,1145.52,1150.85,1155.48,1159.78,1163.91,1167.95,1172.87,1178.27,1183.70,1188.67,1193.27,1197.83,1202.47,1207.04,1210.77,1213.76,1216.80,1219.74,1221.57,1222.81,1223.10,1222.68,1221.73,1220.61,1218.76,1216.46,1214.03,1212.09,1210.83,1210.80,1211.89,1213.88,1215.89,1218.02,1220.20,1222.37,1224.38,1226.22,1228.01,1229.56,1230.39,1230.92,1231.38,1231.85,1232.30,1232.68,1232.66,1232.34,1231.83,1231.41,1230.96,1230.40,1228.81,1224.37,1217.82,1210.55,1204.13,1199.11,1193.30,1187.89,1183.76,1181.51
885.17,886.20,887.23,888.17,889.08,890.00,890.88,891.69,892.49,893.24,893.73,893.47,893.39,893.61,893.91,894.18,894.39,894.66,895.13,895.93,896.75,897.55,898.30,898.98,899.25,898.80,897.48,895.87,897.88,899.52,899.88,899.49,900.68,902.44,904.01,904.84,904.40,904.34,904.51,905.05,905.71,904.87,903.33,902.57,902.46,901.60,901.44,902.56,904.48,906.61,908.36,909.65,910.99,912.63,914.71,916.88,918.80,920.15,920.46,920.44,921.24,922.40,923.35,923.73,924.06,925.01,926.54,928.02,929.53,931.30,933.15,934.98,937.29,939.70,941.99,944.12,946.21,948.36,950.10,951.44,952.60,953.76,954.92,956.11,957.34,958.52,959.65,960.75,961.88,963.08,964.02,964.92,965.92,966.98,967.71,968.63,969.63,970.58,971.54,972.64,973.78,974.87,975.83,976.61,977.32,977.89,978.22,978.40,979.11,980.11,981.20,982.24,983.35,984.11,984.32,983.77,982.73,981.48,980.14,979.68,982.71,985.35,987.74,989.96,991.88,993.67,993.68,992.56,991.77,994.45,997.45,999.82,1001.38,1002.22,1002.06,1001.62,1001.47,1002.13,1003.23,1004.60,1005.98,1007.44,1009.62,1012.25,1014.81,1017.33,1020.20,1023.11,1026.11,1028.97,1031.30,1032.46,1032.26,1031.63,1031.00,1030.66,1031.71,1036.39,1042.49,1046.66,1050.18,1053.00,1055.21,1056.79,1057.87,1058.60,1058.81,1058.64,1058.37,1057.37,1056.60,1057.18,1059.74,1062.12,1063.53,1064.97,1067.00,1069.88,1074.21,1079.27,1084.70,1090.44,1096.28,1101.11,1105.28,1109.15,1113.15,1117.07,1120.85,1124.53,1128.16,1131.43,1134.87,1138.81,1143.68,1149.59,1154.39,1158.66,1162.74,1166.68,1171.17,1176.32,1181.60,1186.27,1190.68,1194.86,1198.91,1202.88,1206.81,1210.02,1212.96,1215.64,1217.68,1219.28,1220.06,1220.09,1219.31,1217.60,1215.48,1213.28,1211.14,1209.17,1208.07,1208.41,1210.03,1212.53,1214.55,1216.92,1219.52,1222.11,1224.35,1226.45,1228.43,1230.02,1230.69,1231.23,1231.71,1232.20,1232.69,1233.04,1232.74,1232.22,1231.70,1231.20,1230.74,1229.72,1227.15,1221.49,1215.19,1207.79,1200.68,1194.79,1188.97,1183.57,1179.62,1177.75
885.32,886.37,887.45,888.47,889.45,890.40,891.33,892.20,893.03,893.85,894.61,894.66,894.73,894.93,895.16,895.36,895.48,895.63,895.93,896.63,897.46,898.28,899.08,899.87,900.41,900.26,898.98,897.00,899.00,900.76,901.37,901.09,901.52,903.11,904.94,906.25,906.31,906.54,906.82,907.07,906.97,905.61,904.37,904.46,905.36,904.95,903.84,903.77,905.07,907.58,909.47,910.95,912.28,913.66,915.48,917.49,919.34,920.81,921.54,921.48,921.76,922.67,924.07,924.84,925.06,925.68,926.89,928.31,929.95,931.98,934.06,935.88,937.96,939.85,941.84,944.05,946.25,948.42,950.21,951.65,952.97,954.13,955.27,956.41,957.55,958.66,959.80,961.05,962.36,963.57,964.52,965.48,966.55,967.68,968.25,969.21,970.30,971.34,972.32,973.38,974.50,975.65,976.80,977.82,978.70,979.47,979.97,979.73,979.63,980.27,981.51,982.63,983.77,984.77,985.17,984.39,983.08,981.80,980.84,980.97,983.75,986.45,988.85,991.01,992.95,994.90,995.49,994.66,993.40,995.82,998.79,1001.03,1002.43,1003.69,1003.95,1004.04,1004.16,1004.52,1006.36,1007.69,1008.47,1009.15,1010.82,1013.27,1015.89,1018.49,1021.15,1024.09,1026.98,1029.82,1032.50,1034.60,1035.03,1034.98,1034.90,1034.52,1033.88,1036.70,1041.81,1046.59,1050.47,1053.66,1056.56,1059.15,1061.03,1062.29,1062.88,1062.96,1062.84,1062.25,1061.44,1061.17,1062.26,1064.69,1066.66,1067.78,1068.38,1069.78,1072.60,1076.61,1081.69,1087.89,1093.95,1098.83,1103.01,1106.94,1110.98,1114.84,1118.59,1122.30,1126.09,1129.95,1133.63,1137.38,1141.82,1147.96,1152.91,1157.21,1161.23,1165.12,1169.22,1173.98,1179.03,1183.59,1187.77,1191.64,1195.29,1198.80,1202.40,1205.50,1208.22,1210.63,1212.64,1214.32,1215.29,1215.56,1214.95,1213.08,1210.98,1208.99,1207.16,1205.32,1204.26,1204.56,1206.33,1209.59,1212.46,1215.08,1217.95,1221.18,1223.75,1226.15,1228.40,1230.19,1230.85,1231.44,1232.02,1232.59,1233.08,1233.29,1232.81,1232.16,1231.58,1231.02,1230.50,1228.52,1224.62,1218.56,1212.51,1204.91,1197.37,1191.15,1185.33,1179.80,1175.82,1174.03
885.37,886.48,887.56,888.65,889.72,890.71,891.64,892.52,893.40,894.31,895.20,895.75,896.00,896.10,896.21,896.30,896.43,896.58,896.81,897.28,898.05,898.89,899.75,900.63,901.22,900.93,899.61,897.91,899.73,901.60,902.58,902.73,903.05,904.47,906.09,907.41,908.08,908.34,908.55,908.53,907.91,906.39,905.60,906.48,908.41,909.22,907.97,906.33,906.34,909.31,911.17,912.52,913.75,915.00,916.48,918.21,919.86,921.30,922.36,922.70,922.73,923.04,924.03,925.63,926.47,926.83,927.12,928.07,929.67,932.27,935.35,938.12,939.61,940.37,941.70,943.99,946.35,948.42,950.24,951.91,953.56,954.76,955.90,956.97,957.95,958.98,960.20,961.51,962.84,964.05,965.09,966.17,967.34,968.43,968.76,969.67,970.82,971.94,973.02,974.12,975.25,976.42,977.58,978.72,979.85,980.83,981.32,980.65,980.41,980.99,982.18,983.33,984.48,985.54,985.92,984.92,983.61,982.52,981.90,982.32,984.85,987.58,989.93,991.99,994.13,996.27,997.55,997.22,995.60,997.13,999.52,1001.57,1003.16,1004.89,1005.92,1006.32,1006.48,1007.05,1009.28,1011.02,1011.97,1012.33,1012.94,1013.95,1016.23,1019.44,1022.45,1025.21,1027.84,1030.52,1033.40,1036.31,1037.84,1038.66,1039.22,1039.70,1038.73,1038.90,1041.39,1046.72,1050.83,1054.14,1057.21,1060.20,1062.86,1064.99,1066.38,1067.07,1067.20,1066.95,1066.66,1066.20,1065.54,1065.65,1068.38,1071.04,1072.47,1072.86,1072.77,1074.33,1078.28,1084.96,1091.23,1096.04,1100.23,1104.41,1108.71,1112.60,1116.29,1119.94,1123.78,1128.20,1132.25,1136.03,1140.13,1145.94,1150.99,1155.40,1159.39,1163.25,1167.04,1171.29,1175.93,1180.56,1184.52,1188.19,1191.72,1195.01,1197.76,1200.28,1202.74,1205.04,1206.80,1208.24,1209.00,1209.15,1208.63,1207.16,1205.28,1203.48,1201.90,1200.46,1199.38,1199.17,1200.60,1204.75,1209.41,1212.39,1215.45,1219.55,1222.60,1225.34,1227.97,1230.11,1230.84,1231.54,1232.30,1233.02,1233.48,1233.41,1232.85,1232.16,1231.50,1230.88,1230.16,1226.74,1221.29,1215.72,1209.53,1201.69,1194.21,1188.36,1182.43,1176.54,1172.29,1170.25
886.27,887.16,888.06,888.98,889.93,890.93,891.90,892.82,893.75,894.74,895.74,896.59,897.00,897.11,897.18,897.26,897.43,897.61,897.77,897.98,898.65,899.50,900.43,901.39,901.93,901.48,900.23,898.92,900.10,901.77,903.09,903.91,904.70,905.92,907.19,908.32,909.17,909.70,909.81,909.47,908.56,907.14,906.73,907.49,909.09,910.59,910.03,908.29,907.63,909.87,911.51,913.22,914.80,916.21,917.68,919.18,920.53,921.73,922.84,923.71,923.89,923.93,924.38,925.64,927.02,928.03,928.57,928.88,929.67,931.80,934.79,937.84,939.89,941.29,942.83,944.75,946.70,948.41,950.06,951.75,953.55,955.12,956.66,958.03,959.13,960.19,961.30,962.43,963.54,964.64,965.82,966.99,968.17,969.27,969.67,970.15,970.95,972.09,973.30,974.51,975.77,977.04,978.20,979.40,980.69,981.81,982.29,981.73,981.58,981.99,982.89,984.04,985.16,986.26,986.72,985.78,984.73,983.77,983.27,983.83,986.31,988.91,991.16,993.20,995.45,997.71,999.28,999.30,997.67,997.93,999.86,1002.13,1004.31,1006.48,1007.78,1008.40,1008.70,1009.25,1011.12,1013.06,1014.43,1015.09,1015.67,1016.32,1017.33,1019.01,1021.88,1025.28,1028.50,1031.57,1034.67,1037.78,1040.03,1041.75,1043.10,1044.07,1044.53,1045.06,1046.28,1048.72,1050.77,1053.54,1056.74,1060.06,1063.16,1066.00,1068.45,1070.28,1071.02,1071.27,1071.25,1070.91,1070.17,1069.50,1070.28,1071.30,1072.33,1074.17,1074.67,1076.02,1078.53,1082.23,1087.85,1092.73,1097.16,1101.64,1106.41,1110.76,1114.54,1117.98,1121.67,1126.40,1130.81,1134.71,1138.46,1143.28,1148.50,1153.23,1157.25,1161.10,1164.72,1168.50,1172.59,1177.04,1181.08,1184.75,1188.07,1190.92,1193.29,1195.60,1197.82,1199.82,1201.28,1202.26,1202.71,1202.69,1202.12,1200.88,1198.58,1196.32,1194.74,1194.01,1193.53,1193.50,1194.79,1198.83,1203.89,1208.13,1212.41,1217.20,1221.14,1224.33,1227.31,1229.82,1230.76,1231.61,1232.48,1233.31,1233.80,1233.37,1232.67,1231.95,1231.27,1230.56,1228.65,1224.33,1218.67,1213.31,1205.23,1197.97,1191.61,1185.64,1179.41,1173.46,1169.14,1166.95
887.35,888.14,888.85,889.54,890.31,891.25,892.24,893.19,894.16,895.19,896.28,897.31,897.87,898.04,898.14,898.23,898.43,898.65,898.80,898.85,899.38,900.18,901.11,902.11,902.59,902.03,900.90,899.94,900.45,901.82,903.30,904.61,905.77,906.88,907.95,908.98,909.93,910.73,910.85,910.38,909.39,908.28,908.15,908.58,909.51,911.12,911.57,910.24,909.09,910.11,911.38,913.28,915.18,916.88,918.57,920.02,921.20,922.24,923.31,924.50,924.98,925.04,925.08,925.74,927.23,928.68,929.70,930.19,930.31,931.76,934.20,936.89,939.27,941.38,943.33,945.19,946.99,948.47,949.94,951.55,953.39,955.26,957.13,958.80,960.12,961.32,962.51,963.57,964.52,965.55,966.73,967.86,969.01,970.18,970.75,970.98,971.45,972.38,973.45,974.70,976.06,977.43,978.66,979.91,981.31,982.55,983.22,982.91,982.91,983.23,983.86,984.83,985.91,987.02,987.60,986.98,986.16,985.26,984.78,985.35,987.78,990.10,992.22,994.30,996.62,998.94,1000.76,1001.13,999.63,998.94,1000.51,1002.99,1005.67,1008.14,1009.57,1010.41,1010.92,1011.42,1012.89,1014.86,1016.54,1017.57,1018.36,1019.10,1019.37,1019.79,1021.93,1025.16,1028.75,1032.28,1035.58,1038.85,1041.55,1043.94,1046.01,1047.55,1049.27,1050.45,1051.03,1051.21,1051.64,1053.66,1056.40,1059.41,1062.83,1066.36,1069.70,1072.54,1074.24,1075.15,1075.38,1075.16,1074.60,1073.73,1073.13,1072.92,1073.59,1076.07,1077.30,1078.44,1079.79,1081.83,1086.81,1091.34,1095.40,1099.51,1104.34,1109.15,1113.12,1116.39,1119.92,1124.69,1129.28,1133.29,1136.75,1140.65,1145.72,1150.59,1154.74,1158.59,1162.17,1165.66,1169.30,1173.38,1177.44,1181.09,1184.21,1186.77,1188.93,1191.09,1193.14,1194.94,1196.21,1196.93,1197.19,1197.09,1196.52,1195.35,1193.10,1190.95,1189.60,1189.38,1189.38,1189.57,1190.60,1193.85,1198.90,1204.12,1209.30,1214.53,1219.78,1223.50,1226.76,1229.53,1230.72,1231.70,1232.64,1233.54,1234.08,1233.37,1232.55,1231.76,1231.03,1230.18,1226.87,1222.00,1216.75,1211.61,1202.01,1195.05,1189.34,1183.07,1176.66,1170.82,1166.78,1164.86
888.39,889.42,889.97,890.44,891.03,891.79,892.70,893.68,894.68,895.72,896.86,897.94,898.60,898.90,899.04,899.19,899.44,899.71,899.90,899.99,900.35,900.98,901.82,902.76,903.20,902.66,901.68,900.93,900.95,901.94,903.29,904.67,905.84,906.99,908.13,909.27,910.38,911.37,911.71,911.42,910.66,910.07,910.06,910.16,910.41,911.36,912.95,912.36,910.85,910.38,911.06,912.64,914.58,916.66,918.77,920.47,921.77,922.84,923.87,924.97,925.87,926.30,926.21,926.29,927.22,928.41,929.85,931.83,931.90,932.79,934.36,935.88,937.81,939.97,942.32,944.79,947.09,948.66,950.00,951.42,953.21,955.11,957.02,958.83,960.43,961.92,963.55,964.86,965.85,966.93,967.88,968.78,969.85,971.18,971.97,972.37,972.71,973.13,973.62,974.70,976.03,977.46,978.87,980.20,981.63,983.06,984.18,984.20,984.39,984.77,985.25,985.79,986.81,987.87,988.60,988.56,987.84,986.97,986.44,986.85,989.15,990.98,992.92,995.12,997.43,999.74,1001.89,1002.71,1001.47,1000.54,1001.86,1004.34,1007.24,1009.75,1011.28,1012.36,1013.13,1013.65,1014.96,1016.76,1018.45,1019.72,1020.72,1021.88,1022.67,1023.15,1023.82,1025.23,1028.42,1032.26,1035.78,1039.34,1042.22,1044.86,1047.42,1049.76,1051.80,1052.96,1053.47,1053.80,1054.30,1055.46,1056.80,1058.49,1062.10,1066.26,1070.08,1073.47,1076.56,1078.37,1078.94,1078.76,1078.17,1077.57,1077.60,1078.09,1078.90,1079.78,1080.63,1080.75,1081.55,1085.33,1089.91,1093.40,1096.12,1098.77,1102.82,1107.90,1112.08,1115.28,1118.72,1123.11,1127.59,1131.62,1134.97,1138.35,1142.66,1147.27,1151.72,1155.55,1159.25,1162.78,1166.20,1169.72,1173.58,1177.01,1180.01,1182.57,1184.65,1186.63,1188.62,1190.47,1191.80,1192.65,1192.98,1192.97,1192.60,1191.27,1190.15,1189.26,1188.63,1188.42,1188.55,1188.74,1189.23,1190.96,1195.83,1201.16,1206.31,1211.68,1218.68,1223.03,1226.46,1229.35,1230.76,1231.82,1232.81,1233.75,1234.32,1233.53,1232.60,1231.69,1230.81,1229.73,1225.08,1220.10,1215.73,1210.99,1201.15,1193.70,1187.44,1180.75,1174.39,1168.88,1165.63,1164.61
889.40,890.38,890.94,891.41,891.91,892.51,893.25,894.20,895.24,896.35,897.50,898.59,899.36,899.80,899.95,900.11,900.34,900.61,900.85,900.95,901.34,901.90,902.60,903.44,903.98,903.48,902.61,902.10,901.86,902.43,903.47,904.75,905.95,907.12,908.30,909.49,910.65,911.82,912.55,912.64,912.07,911.50,911.40,911.38,911.42,911.97,913.52,913.73,912.98,912.24,912.21,912.65,913.83,915.82,918.07,920.01,921.53,922.78,924.04,925.32,926.42,927.16,927.44,927.45,927.90,928.60,929.69,931.57,932.97,934.60,936.21,937.38,938.85,940.35,942.45,945.18,947.32,948.89,950.22,951.53,953.10,954.94,956.74,958.41,959.93,961.33,963.14,964.83,966.30,967.91,969.07,969.92,970.87,972.21,973.06,973.52,973.85,974.17,974.59,975.36,976.21,977.21,978.65,980.23,981.80,983.33,984.70,985.44,985.89,986.32,986.76,987.19,987.90,988.74,989.50,989.85,989.48,988.46,987.92,988.62,990.66,992.24,993.72,995.41,997.57,999.75,1002.12,1003.79,1003.90,1002.97,1003.46,1005.72,1009.02,1011.28,1012.84,1014.10,1015.12,1015.86,1017.02,1018.61,1020.21,1021.57,1022.68,1023.82,1024.99,1026.06,1026.73,1027.53,1029.13,1032.11,1036.68,1040.69,1043.47,1046.02,1048.67,1051.13,1053.32,1054.89,1055.91,1056.48,1057.13,1057.99,1058.97,1060.32,1063.03,1066.50,1070.17,1073.89,1077.58,1080.09,1081.65,1082.31,1082.18,1082.61,1083.09,1083.87,1084.97,1085.90,1086.47,1086.33,1086.45,1088.39,1091.36,1095.51,1099.27,1101.92,1104.83,1108.42,1111.57,1114.25,1117.29,1120.73,1125.06,1129.49,1133.16,1136.39,1139.86,1143.86,1148.29,1152.40,1156.18,1159.78,1163.23,1166.51,1169.74,1172.82,1175.63,1178.07,1180.07,1182.01,1183.96,1185.80,1187.20,1188.25,1188.86,1189.24,1189.37,1188.68,1188.25,1187.90,1187.58,1187.49,1187.72,1188.16,1188.79,1190.12,1194.25,1199.15,1204.28,1209.95,1217.35,1222.23,1226.18,1229.46,1230.96,1232.04,1233.04,1234.00,1234.57,1233.68,1232.62,1231.59,1230.39,1228.29,1223.49,1218.88,1214.99,1210.44,1200.34,1192.40,1185.67,1178.70,1172.47,1167.75,1165.20,1164.48
890.25,891.21,891.85,892.36,892.83,893.33,893.90,894.75,895.77,896.93,898.09,899.19,900.04,900.60,900.85,901.03,901.23,901.49,901.75,901.88,902.33,902.88,903.47,904.19,904.82,904.41,903.66,903.33,902.95,903.09,903.78,904.96,906.20,907.33,908.50,909.72,910.93,912.26,913.37,913.84,913.43,912.84,912.60,912.50,912.49,912.81,913.90,914.78,915.04,914.50,913.94,913.47,913.80,915.17,917.01,919.10,920.90,922.42,923.95,925.50,926.82,927.87,928.56,928.79,929.01,929.38,930.09,931.49,933.82,936.07,937.87,939.14,940.37,941.35,943.11,945.73,947.58,949.12,950.45,951.71,953.06,954.81,956.42,957.87,959.18,960.46,962.28,964.20,966.12,968.17,969.66,970.63,971.57,972.87,973.80,974.47,974.95,975.31,975.80,976.33,976.77,977.33,978.54,980.17,981.84,983.47,985.04,986.44,987.18,987.68,988.12,988.51,989.00,989.72,990.55,991.19,991.14,989.97,989.37,990.30,992.32,993.95,995.07,996.12,997.83,999.63,1002.01,1004.42,1006.01,1005.66,1005.31,1007.00,1010.37,1012.45,1014.15,1015.66,1016.96,1017.97,1019.07,1020.45,1021.93,1023.34,1024.51,1025.56,1026.97,1028.61,1029.88,1030.84,1031.42,1033.36,1037.85,1042.05,1045.19,1047.82,1050.24,1052.52,1054.72,1056.68,1058.23,1059.19,1060.07,1060.88,1061.93,1063.42,1065.32,1067.75,1070.76,1074.20,1077.68,1080.69,1083.41,1085.34,1086.19,1087.64,1088.70,1089.75,1090.97,1092.08,1092.30,1092.12,1091.89,1092.07,1093.57,1097.88,1102.23,1104.97,1107.16,1109.58,1112.01,1114.44,1117.14,1119.73,1123.72,1128.15,1131.86,1134.95,1137.82,1141.21,1145.27,1149.45,1153.29,1156.93,1160.37,1163.46,1166.16,1168.92,1171.54,1173.75,1175.69,1177.60,1179.51,1181.31,1182.73,1183.91,1184.86,1185.68,1186.38,1186.48,1186.60,1186.59,1186.48,1186.65,1187.10,1187.81,1188.67,1189.93,1193.34,1197.79,1202.96,1209.08,1216.24,1221.35,1225.72,1229.39,1231.08,1232.20,1233.21,1234.17,1234.76,1233.93,1232.77,1231.59,1230.05,1226.96,1222.34,1218.08,1214.43,1209.97,1199.59,1191.24,1184.15,1177.05,1171.04,1167.17,1165.15,1164.42
890.70,891.89,892.71,893.27,893.75,894.28,894.77,895.36,896.23,897.38,898.54,899.63,900.49,901.16,901.72,901.99,902.17,902.39,902.67,902.84,903.35,903.91,904.46,905.05,905.66,905.48,904.94,904.57,904.18,903.90,904.30,905.49,906.76,907.74,908.80,910.02,911.38,912.81,914.17,914.85,914.57,914.21,913.87,913.66,913.66,913.91,914.37,915.61,916.72,916.64,916.04,915.85,915.67,915.42,915.72,917.70,919.86,921.76,923.50,925.34,927.06,928.42,929.32,930.15,930.70,931.31,932.09,933.13,934.49,936.11,937.91,939.81,941.29,942.66,944.24,946.07,947.79,949.31,950.65,951.89,953.19,954.79,956.12,957.27,958.43,959.73,961.28,963.03,964.91,966.87,968.71,970.10,971.27,972.54,973.83,975.11,976.02,976.50,977.08,977.63,978.15,978.59,978.99,980.07,981.64,983.42,985.20,986.89,987.94,988.57,988.96,989.37,989.98,990.95,992.06,992.92,992.89,991.73,990.91,991.56,994.21,996.51,997.73,998.24,998.86,999.74,1001.68,1004.28,1006.92,1008.41,1007.57,1008.03,1010.52,1012.78,1014.97,1016.94,1018.59,1019.83,1021.05,1022.31,1023.68,1025.09,1026.26,1027.35,1028.73,1030.58,1032.96,1035.10,1036.92,1038.15,1039.15,1042.84,1047.65,1051.05,1052.71,1054.59,1056.56,1058.49,1060.33,1061.93,1063.15,1064.13,1065.58,1067.75,1069.83,1071.27,1072.82,1074.58,1076.39,1079.50,1083.38,1087.12,1089.91,1091.81,1093.88,1095.44,1096.28,1096.71,1096.35,1096.12,1096.46,1097.63,1098.83,1100.88,1103.03,1105.04,1107.82,1111.10,1114.45,1117.62,1120.30,1122.77,1125.93,1129.16,1131.80,1134.56,1137.48,1140.45,1143.56,1147.12,1150.96,1154.51,1157.69,1160.52,1163.17,1165.88,1168.25,1170.13,1172.00,1173.82,1175.65,1177.39,1178.72,1179.85,1181.06,1182.33,1183.51,1184.19,1184.83,1185.19,1185.36,1186.06,1186.97,1187.87,1188.73,1189.91,1193.09,1197.32,1202.78,1209.54,1215.87,1220.52,1224.80,1228.68,1230.86,1232.12,1233.15,1234.12,1234.82,1234.40,1233.24,1231.87,1230.03,1226.55,1222.12,1217.90,1214.11,1209.61,1198.97,1190.39,1183.18,1176.16,1170.57,1167.39,1165.54,1164.48
891.11,892.22,893.20,894.01,894.67,895.20,895.71,896.21,896.86,897.76,898.89,899.90,900.70,901.41,902.12,902.64,903.02,903.34,903.60,903.85,904.38,904.95,905.49,905.99,906.50,906.43,906.04,905.65,905.23,904.92,905.06,905.89,907.35,908.46,909.50,910.66,912.02,913.41,914.80,915.63,915.58,915.32,915.02,914.83,914.88,915.31,915.61,916.51,917.61,918.26,918.22,918.24,918.02,917.38,916.67,917.34,919.18,921.47,923.33,925.25,927.10,928.73,930.04,931.27,932.32,933.33,934.38,935.51,936.75,937.89,939.02,940.27,941.42,942.74,944.30,946.08,947.87,949.41,950.75,952.04,953.52,955.15,956.63,957.95,959.20,960.54,961.96,963.49,965.14,966.87,968.36,969.63,970.85,972.22,973.67,975.19,976.49,977.40,978.07,978.63,979.28,979.94,980.43,980.88,982.05,983.69,985.53,987.31,988.60,989.47,990.03,990.59,991.34,992.39,993.57,994.59,995.08,994.36,993.41,993.21,995.05,997.88,999.85,1000.68,1000.93,1001.55,1002.99,1004.75,1006.61,1009.09,1009.71,1010.24,1011.61,1013.91,1016.18,1018.28,1020.11,1021.51,1022.84,1024.15,1025.50,1026.86,1028.09,1029.21,1030.70,1032.75,1035.42,1038.11,1041.04,1043.06,1043.41,1044.56,1048.71,1052.45,1054.69,1056.81,1058.92,1061.18,1063.39,1065.21,1066.40,1067.27,1068.91,1071.61,1073.71,1074.97,1075.97,1076.91,1077.90,1080.09,1083.35,1087.07,1090.72,1093.77,1096.70,1099.02,1100.34,1100.56,1100.39,1100.46,1100.95,1101.88,1102.93,1104.85,1107.15,1109.34,1110.90,1113.33,1116.26,1119.32,1122.16,1125.46,1128.86,1131.86,1134.16,1136.51,1138.92,1141.52,1144.42,1147.61,1150.72,1153.52,1156.00,1158.19,1160.66,1163.18,1165.45,1167.36,1169.19,1171.24,1173.45,1175.62,1177.32,1178.79,1180.28,1181.82,1183.19,1183.70,1184.36,1184.96,1185.51,1186.42,1187.41,1188.26,1189.12,1190.66,1194.74,1198.56,1203.36,1209.75,1214.64,1218.34,1222.09,1226.06,1229.40,1231.19,1232.29,1233.24,1234.25,1234.92,1234.01,1232.39,1230.20,1226.68,1222.53,1218.37,1214.34,1209.43,1198.63,1190.08,1182.90,1175.85,1170.44,1167.53,1165.74,1164.54
891.32,892.26,893.37,894.43,895.32,895.96,896.60,897.13,897.62,898.23,899.28,900.12,900.85,901.56,902.33,903.09,903.71,904.18,904.50,904.84,905.38,905.94,906.44,906.90,907.30,907.32,907.06,906.65,906.23,906.02,905.97,906.34,907.87,909.20,910.38,911.57,912.87,914.18,915.52,916.41,916.56,916.36,916.14,915.97,916.06,916.77,917.12,917.47,918.21,919.49,920.10,920.36,920.26,919.63,918.32,917.63,918.98,921.49,923.40,925.31,927.18,928.99,930.69,932.15,933.58,934.96,936.34,937.74,939.16,940.04,940.53,940.95,941.67,942.78,944.21,945.94,947.86,949.47,950.87,952.27,953.97,955.66,957.36,958.95,960.39,961.84,963.22,964.60,966.03,967.56,968.59,969.61,970.78,972.18,973.63,975.15,976.69,978.07,978.90,979.57,980.38,981.33,982.15,982.23,982.95,984.27,985.99,987.75,989.25,990.38,991.20,991.95,992.86,993.94,995.10,996.25,997.27,997.14,996.26,995.28,995.73,998.56,1001.20,1002.77,1003.27,1004.09,1005.17,1006.02,1006.68,1009.18,1011.22,1012.35,1013.16,1015.45,1017.56,1019.63,1021.54,1023.09,1024.52,1025.91,1027.28,1028.62,1029.96,1031.12,1032.76,1034.98,1037.66,1040.68,1044.43,1047.48,1048.28,1047.07,1049.70,1053.36,1056.55,1059.04,1061.38,1064.04,1066.68,1068.70,1069.93,1070.84,1072.62,1075.50,1077.43,1078.78,1079.66,1080.26,1080.85,1082.02,1084.21,1087.28,1091.08,1094.99,1098.42,1101.35,1103.44,1103.97,1104.42,1104.97,1105.49,1105.93,1106.87,1109.03,1111.87,1114.44,1114.72,1116.14,1118.41,1121.12,1124.07,1128.05,1131.82,1134.94,1137.23,1139.32,1141.18,1143.47,1146.34,1149.20,1151.53,1153.56,1155.35,1156.94,1159.17,1161.54,1163.82,1165.92,1167.85,1170.23,1172.87,1175.52,1177.82,1179.69,1181.37,1182.92,1184.15,1184.24,1184.72,1185.42,1186.24,1187.20,1188.09,1188.87,1189.98,1192.48,1197.41,1200.44,1203.97,1209.37,1212.74,1215.27,1218.11,1221.79,1226.42,1228.99,1230.65,1232.01,1233.39,1235.11,1234.73,1233.10,1230.62,1227.27,1223.37,1219.27,1214.99,1209.52,1198.65,1190.14,1182.99,1175.94,1170.56,1167.76,1165.97,1164.66
890.94,891.83,892.89,894.00,895.12,896.20,897.28,898.03,898.59,899.12,899.88,900.43,901.04,901.74,902.46,903.23,903.96,904.66,905.28,905.78,906.28,906.73,907.16,907.62,908.02,908.16,908.01,907.59,907.29,907.20,907.08,907.11,908.10,909.66,911.38,912.96,914.16,915.46,916.66,917.44,917.59,917.39,917.26,917.04,917.06,918.10,918.62,918.58,918.80,919.97,920.89,921.53,921.58,920.88,919.71,918.95,919.95,922.10,923.96,925.78,927.62,929.42,931.08,932.45,933.75,935.20,936.86,938.64,940.30,941.42,942.12,942.58,943.27,944.07,944.80,945.70,947.66,949.48,951.16,952.79,954.49,956.18,957.88,959.58,961.27,962.95,964.55,966.02,967.47,969.06,970.07,971.02,972.05,973.10,974.16,975.38,976.76,978.24,979.49,980.60,981.67,982.71,983.71,984.33,984.81,985.48,986.63,988.39,989.97,991.33,992.46,993.41,994.44,995.56,996.74,997.93,999.02,999.46,999.22,998.31,997.09,998.26,1000.65,1003.31,1005.33,1007.05,1008.45,1009.30,1009.43,1009.69,1010.82,1012.76,1015.20,1017.37,1019.10,1020.93,1022.82,1024.51,1026.05,1027.47,1028.89,1030.34,1031.87,1033.15,1034.86,1037.13,1039.84,1043.21,1046.95,1050.18,1051.80,1051.16,1052.02,1054.75,1058.54,1061.11,1063.52,1066.46,1069.60,1072.22,1074.22,1075.97,1077.90,1079.97,1081.38,1082.76,1083.89,1084.74,1085.42,1086.37,1088.07,1090.40,1093.24,1096.25,1099.14,1102.05,1104.81,1106.87,1108.47,1109.61,1110.38,1110.85,1111.59,1112.78,1114.80,1117.34,1118.27,1120.09,1122.39,1124.91,1127.63,1130.71,1134.08,1137.31,1139.96,1142.25,1144.14,1146.26,1148.77,1151.22,1153.44,1155.36,1157.03,1158.57,1160.59,1163.01,1165.52,1167.95,1170.35,1173.04,1175.75,1178.56,1181.66,1183.73,1185.21,1186.17,1186.44,1186.15,1186.41,1186.87,1187.45,1188.30,1188.97,1189.87,1192.06,1196.94,1201.34,1202.50,1203.87,1207.37,1209.54,1210.82,1211.92,1214.18,1219.80,1223.58,1227.32,1230.53,1232.27,1234.15,1234.93,1234.08,1231.62,1228.70,1224.90,1220.87,1216.45,1210.34,1199.53,1190.78,1183.50,1176.70,1171.12,1168.35,1166.51,1165.02
890.40,891.40,892.49,893.66,894.86,896.06,897.29,898.29,899.16,899.93,900.61,901.02,901.46,902.00,902.64,903.40,904.17,904.93,905.66,906.33,906.92,907.42,907.88,908.33,908.73,908.94,908.90,908.59,908.38,908.35,908.29,908.21,908.54,909.80,911.57,913.45,915.10,916.52,917.72,918.47,918.61,918.50,918.41,918.15,918.11,919.24,920.17,920.22,920.03,920.45,921.50,922.51,922.63,921.64,920.36,919.67,920.56,922.49,924.33,926.12,927.92,929.64,931.16,932.47,933.73,935.21,936.95,938.91,940.57,942.00,943.23,944.20,944.90,945.59,946.02,946.34,947.52,949.49,951.41,953.15,954.91,956.65,958.38,960.15,961.99,963.80,965.57,967.19,968.69,970.13,971.09,972.01,972.97,973.92,974.96,976.10,977.36,978.73,980.12,981.49,982.83,984.09,985.19,986.15,986.77,987.26,987.94,989.20,990.67,992.12,993.46,994.68,995.76,996.90,998.10,999.28,1000.34,1001.11,1001.26,1000.52,999.03,998.78,1000.26,1002.90,1005.63,1008.13,1010.03,1011.32,1011.85,1011.46,1011.78,1013.48,1016.18,1018.25,1020.15,1022.08,1024.00,1025.82,1027.52,1029.04,1030.51,1032.04,1033.64,1035.12,1036.89,1039.09,1041.79,1045.26,1048.84,1052.00,1054.13,1054.71,1055.07,1056.68,1059.70,1062.84,1065.59,1068.62,1071.84,1074.87,1077.46,1079.72,1081.77,1083.61,1085.07,1086.68,1088.21,1089.46,1090.25,1090.99,1092.35,1094.17,1096.33,1098.91,1101.30,1103.84,1106.59,1109.20,1111.49,1113.41,1114.86,1115.71,1116.54,1117.47,1118.98,1121.09,1122.45,1124.38,1126.66,1129.08,1131.54,1134.18,1137.24,1140.30,1142.86,1145.14,1147.16,1149.18,1151.27,1153.36,1155.40,1157.21,1159.03,1161.23,1163.44,1165.87,1168.36,1170.86,1173.54,1176.54,1179.76,1183.14,1186.42,1188.25,1189.35,1189.90,1189.65,1188.31,1188.16,1188.72,1189.75,1191.31,1192.53,1194.11,1196.95,1201.94,1205.25,1205.41,1205.22,1206.44,1207.75,1208.61,1209.20,1210.49,1214.29,1217.95,1221.84,1226.09,1230.45,1233.22,1235.11,1234.88,1232.35,1229.62,1225.97,1222.07,1217.63,1211.17,1200.45,1191.70,1184.81,1178.93,1173.34,1169.68,1167.26,1165.67
890.08,891.10,892.22,893.41,894.60,895.76,896.98,898.19,899.39,900.52,901.32,901.79,902.09,902.41,902.94,903.61,904.35,905.10,905.83,906.65,907.37,908.00,908.54,909.02,909.49,909.78,909.85,909.70,909.55,909.56,909.60,909.53,909.26,909.88,911.40,913.52,915.79,917.47,918.75,919.51,919.66,919.67,919.64,919.39,919.29,920.35,921.72,922.06,921.59,921.06,922.06,923.34,923.53,922.26,920.70,920.01,920.85,922.65,924.47,926.24,928.02,929.67,931.08,932.35,933.64,935.11,936.83,938.82,940.44,942.16,943.96,945.55,946.42,947.17,947.56,947.52,947.64,949.55,951.58,953.36,955.20,957.01,958.81,960.67,962.62,964.50,966.42,968.18,969.71,970.93,971.86,972.76,973.70,974.69,975.90,977.08,978.24,979.45,980.81,982.31,983.87,985.36,986.56,987.75,988.67,989.27,989.61,990.24,991.46,992.89,994.37,995.82,996.89,998.02,999.23,1000.37,1001.41,1002.37,1002.75,1002.26,1001.19,1000.05,1000.39,1002.25,1005.10,1008.18,1010.60,1012.50,1013.85,1013.91,1013.74,1014.67,1016.72,1018.61,1020.91,1023.11,1025.14,1027.04,1028.90,1030.55,1032.11,1033.68,1035.30,1036.97,1038.84,1040.98,1043.62,1046.98,1050.30,1053.29,1055.78,1057.70,1058.36,1059.14,1061.02,1064.76,1067.76,1070.67,1073.75,1077.00,1080.02,1082.54,1084.72,1086.69,1088.61,1090.61,1092.56,1094.23,1095.11,1095.63,1096.72,1098.18,1099.85,1102.19,1104.17,1106.28,1108.71,1111.32,1113.99,1116.59,1118.81,1120.25,1121.43,1122.56,1123.89,1125.50,1127.17,1129.08,1131.26,1133.59,1135.81,1138.30,1141.08,1143.78,1146.06,1148.22,1150.37,1152.28,1153.98,1155.72,1157.60,1159.40,1161.53,1164.49,1167.00,1169.41,1171.78,1174.22,1177.15,1180.56,1184.41,1188.35,1191.43,1192.85,1193.57,1193.95,1193.71,1191.75,1191.36,1192.14,1193.79,1196.10,1198.09,1200.35,1203.30,1207.01,1209.04,1208.60,1207.29,1206.44,1207.01,1207.78,1208.46,1209.12,1210.28,1213.23,1216.38,1221.03,1228.26,1232.35,1235.23,1235.48,1232.86,1230.11,1226.63,1222.94,1218.66,1212.23,1201.96,1193.02,1186.36,1181.63,1176.26,1171.48,1168.26,1166.59
890.85,891.29,892.23,893.33,894.44,895.56,896.73,897.87,899.10,900.45,901.78,902.65,903.06,903.28,903.59,903.86,904.49,905.25,906.01,906.80,907.61,908.33,908.98,909.63,910.43,910.98,911.21,911.16,911.06,911.06,911.12,911.11,910.65,910.37,911.50,913.73,916.20,918.44,919.87,920.66,920.94,921.01,921.15,921.00,920.88,921.73,923.14,923.61,923.09,922.14,922.69,923.99,924.36,923.20,921.34,920.08,920.66,922.45,924.13,925.80,927.58,929.33,930.89,932.26,933.54,934.98,936.66,938.51,940.33,942.23,944.15,945.94,947.49,948.61,949.16,949.06,948.60,949.86,951.54,953.25,955.12,957.05,958.99,961.02,963.15,965.18,967.14,968.91,970.43,971.60,972.56,973.50,974.51,975.59,976.90,978.11,979.25,980.38,981.61,983.09,984.64,986.18,987.62,989.06,990.24,991.03,991.44,991.90,992.75,993.99,995.48,996.82,997.75,998.83,1000.03,1001.19,1002.32,1003.37,1003.96,1003.83,1003.17,1002.59,1002.13,1002.41,1004.79,1007.92,1010.69,1013.03,1015.00,1016.50,1016.86,1017.06,1017.65,1019.09,1021.49,1024.01,1026.29,1028.17,1030.07,1031.84,1033.53,1035.18,1036.81,1038.49,1040.56,1042.97,1045.50,1048.29,1051.22,1054.15,1057.00,1059.70,1061.25,1062.67,1064.74,1068.18,1070.43,1072.85,1075.72,1078.91,1082.00,1084.65,1087.02,1089.34,1092.08,1094.68,1096.95,1098.74,1099.65,1100.01,1100.83,1101.99,1103.28,1105.00,1106.90,1108.95,1111.19,1113.72,1116.48,1119.11,1121.53,1123.67,1125.61,1127.43,1129.12,1130.75,1132.73,1134.82,1136.82,1138.79,1140.97,1143.37,1145.71,1147.93,1150.02,1152.12,1154.19,1155.94,1157.36,1158.79,1160.73,1162.97,1165.46,1168.24,1170.66,1173.00,1175.33,1177.87,1181.34,1185.52,1189.53,1193.06,1195.80,1196.94,1197.66,1198.46,1199.38,1199.99,1200.41,1201.22,1202.59,1204.18,1206.17,1208.02,1209.73,1211.48,1212.49,1211.20,1209.19,1207.80,1207.50,1207.85,1208.30,1208.81,1209.84,1212.41,1215.40,1219.65,1226.08,1231.53,1235.12,1235.61,1232.95,1229.93,1226.62,1223.34,1219.63,1214.22,1205.81,1195.49,1187.24,1183.10,1178.55,1173.62,1169.93,1167.97
892.04,892.14,892.68,893.52,894.52,895.59,896.74,897.88,899.11,900.49,901.99,903.17,903.93,904.37,904.56,904.68,905.01,905.52,906.17,906.94,907.77,908.59,909.37,910.17,911.19,912.06,912.59,912.68,912.65,912.63,912.70,912.68,912.16,911.57,912.16,913.94,916.48,918.99,920.58,921.59,922.24,922.56,922.80,922.80,922.78,923.45,924.77,925.26,924.74,923.56,923.43,924.62,925.27,924.50,922.57,920.99,920.94,922.07,923.51,925.08,926.79,928.53,930.21,931.78,933.22,934.80,936.57,938.46,940.39,942.34,944.24,946.07,947.92,949.36,950.23,950.37,949.79,950.58,951.97,953.57,955.25,956.94,958.79,960.84,963.11,965.40,967.61,969.50,971.00,972.22,973.26,974.29,975.37,976.56,977.90,979.12,980.22,981.29,982.44,983.88,985.39,986.91,988.42,989.91,991.24,992.33,993.10,993.59,994.28,995.32,996.63,997.84,998.62,999.63,1000.82,1001.98,1003.13,1004.26,1005.11,1005.50,1005.48,1005.42,1004.88,1004.39,1005.39,1007.47,1010.11,1012.84,1015.46,1018.18,1019.43,1019.79,1019.83,1020.43,1021.99,1024.21,1026.59,1028.72,1030.90,1032.88,1034.71,1036.46,1038.18,1040.12,1042.42,1044.98,1047.48,1049.97,1052.55,1055.20,1057.96,1060.96,1063.49,1065.80,1068.17,1070.95,1072.77,1074.66,1077.09,1080.25,1083.43,1086.37,1089.25,1092.29,1095.58,1098.07,1100.12,1101.83,1103.06,1103.73,1104.63,1105.68,1106.72,1108.15,1109.81,1111.67,1113.76,1116.08,1118.71,1121.23,1123.63,1126.07,1128.49,1130.88,1133.04,1135.04,1137.61,1140.01,1142.19,1144.21,1146.15,1148.15,1150.01,1151.86,1153.83,1155.93,1158.18,1160.16,1161.74,1163.30,1165.23,1167.42,1169.75,1172.12,1174.39,1176.90,1179.59,1182.64,1186.74,1191.12,1194.85,1197.83,1200.28,1201.66,1202.72,1203.79,1205.05,1206.68,1207.64,1208.61,1209.90,1211.25,1212.61,1213.66,1214.54,1215.46,1216.01,1214.26,1211.46,1209.01,1208.39,1208.54,1208.78,1209.18,1210.46,1212.91,1215.79,1219.98,1226.41,1232.08,1235.10,1235.00,1232.18,1229.31,1226.43,1223.59,1220.37,1215.87,1209.45,1199.77,1190.85,1185.46,1181.39,1177.36,1174.11,1171.97
893.43,893.45,893.51,894.04,894.87,895.84,896.93,898.12,899.36,900.64,902.06,903.44,904.66,905.51,905.73,905.89,905.88,905.97,906.40,907.09,907.90,908.79,909.72,910.71,911.85,913.04,913.94,914.22,914.26,914.25,914.29,914.24,913.76,913.28,913.29,914.24,916.64,919.12,920.83,922.15,923.31,924.02,924.45,924.69,924.89,925.44,926.60,927.04,926.50,925.14,924.22,925.23,926.25,926.08,924.32,922.67,921.79,921.81,922.88,924.33,925.89,927.53,929.27,931.10,932.79,934.58,936.53,938.58,940.53,942.44,944.30,946.10,947.94,949.61,950.90,951.50,951.14,951.69,952.87,954.33,955.72,956.99,958.55,960.46,962.74,965.26,967.81,969.88,971.39,972.69,973.87,975.01,976.20,977.52,978.85,980.05,981.15,982.19,983.29,984.68,986.12,987.56,988.99,990.38,991.76,993.14,994.41,995.11,995.89,996.80,997.80,998.88,999.55,1000.47,1001.63,1002.78,1003.94,1005.10,1006.19,1007.15,1007.84,1008.20,1008.09,1007.56,1006.90,1007.30,1009.28,1012.09,1015.24,1018.84,1021.06,1022.24,1022.63,1022.53,1022.78,1024.13,1026.31,1028.84,1031.45,1033.69,1035.69,1037.57,1039.50,1041.82,1044.36,1046.95,1049.48,1051.92,1054.26,1056.56,1058.95,1061.91,1065.29,1068.44,1071.08,1073.13,1074.83,1076.26,1078.08,1081.14,1084.43,1087.77,1091.38,1095.30,1098.81,1100.76,1102.27,1103.82,1105.48,1106.76,1108.04,1109.18,1110.11,1111.55,1112.89,1114.47,1116.37,1118.40,1120.76,1123.09,1125.38,1127.81,1130.44,1133.20,1135.88,1138.53,1141.78,1144.55,1147.11,1149.40,1151.00,1152.50,1153.98,1155.62,1157.57,1159.74,1162.34,1164.78,1166.84,1168.78,1170.56,1172.34,1174.23,1176.31,1178.56,1181.41,1184.72,1188.49,1192.96,1196.95,1200.10,1202.57,1204.84,1206.86,1208.49,1209.73,1210.69,1212.03,1213.22,1214.43,1215.80,1217.26,1217.69,1217.91,1218.40,1219.39,1219.89,1217.97,1214.43,1210.69,1209.88,1209.93,1210.02,1210.34,1211.89,1214.33,1217.33,1221.90,1228.77,1233.70,1235.08,1233.79,1230.80,1228.37,1226.06,1223.63,1220.80,1217.09,1212.50,1205.08,1196.58,1189.10,1185.13,1182.40,1180.00,1177.66
894.71,894.85,894.83,895.21,895.80,896.37,897.10,898.21,899.42,900.69,902.27,903.74,905.11,906.23,906.84,907.06,907.03,906.98,907.05,907.31,908.03,908.95,910.01,911.35,912.72,914.10,915.22,915.75,915.86,915.88,915.87,915.79,915.56,915.14,914.83,915.08,916.58,918.66,920.26,921.65,923.08,924.34,925.60,926.52,927.08,927.60,928.51,928.93,928.35,926.53,924.88,925.76,927.24,927.86,926.51,925.00,923.60,922.74,923.20,924.32,925.57,927.04,928.88,930.86,932.59,934.38,936.35,938.42,940.42,942.42,944.37,946.21,948.06,949.89,951.56,952.72,952.76,953.24,954.34,955.78,957.11,958.43,959.70,961.09,962.81,965.12,967.53,969.61,971.27,972.59,973.90,975.29,976.75,978.20,979.58,980.79,981.93,983.04,984.18,985.46,986.71,987.92,989.14,990.41,991.77,993.19,994.62,995.91,997.11,998.17,999.09,999.97,1000.61,1001.49,1002.57,1003.74,1004.89,1006.05,1007.20,1008.27,1009.12,1009.92,1010.39,1010.36,1009.63,1009.28,1009.56,1010.99,1014.00,1017.67,1020.26,1022.31,1024.12,1025.47,1025.41,1025.28,1026.14,1028.88,1031.78,1034.26,1036.47,1038.63,1040.95,1043.47,1046.07,1048.67,1051.16,1053.66,1056.09,1058.54,1061.09,1063.76,1067.13,1070.38,1073.11,1075.20,1076.94,1078.20,1079.52,1081.83,1085.14,1088.88,1093.08,1097.46,1100.54,1102.39,1103.87,1105.35,1107.01,1108.63,1110.43,1112.02,1113.15,1114.76,1116.19,1117.56,1119.06,1120.86,1122.83,1124.94,1127.17,1129.55,1132.17,1134.97,1138.13,1141.70,1145.18,1148.16,1150.66,1152.75,1154.44,1156.01,1157.66,1159.54,1161.79,1164.19,1166.92,1169.63,1172.05,1173.99,1175.38,1176.90,1178.94,1181.75,1184.72,1188.07,1191.82,1195.75,1199.01,1201.89,1204.41,1206.72,1209.20,1211.96,1214.26,1215.85,1216.70,1217.80,1219.07,1220.38,1221.62,1222.56,1222.83,1223.08,1223.64,1224.65,1225.22,1223.16,1219.59,1215.76,1213.35,1212.93,1213.00,1213.34,1214.72,1216.68,1221.14,1226.88,1232.13,1235.65,1234.65,1232.04,1229.36,1227.24,1225.16,1222.99,1220.61,1217.75,1214.13,1209.24,1202.81,1195.52,1191.32,1188.32,1185.52,1182.41
895.79,896.20,896.25,896.59,897.07,897.48,898.01,898.93,899.94,901.06,902.63,904.18,905.62,906.87,907.75,908.20,908.25,908.13,907.92,907.78,908.33,909.26,910.58,912.63,914.27,915.66,916.72,917.23,917.40,917.43,917.40,917.32,917.20,916.97,916.58,916.32,916.80,918.25,919.69,921.20,922.91,924.63,926.46,927.79,928.59,929.22,930.01,930.27,929.63,927.86,925.95,926.58,928.19,929.42,928.64,927.35,925.74,924.29,923.90,924.61,925.76,927.17,928.85,930.65,932.35,934.17,936.16,938.24,940.30,942.36,944.37,946.27,948.20,950.11,951.91,953.36,953.92,954.64,955.76,957.10,958.34,959.70,961.05,962.36,963.75,965.63,967.72,969.62,971.18,972.40,973.64,975.04,976.55,978.11,979.69,980.92,982.05,983.22,984.54,985.83,986.98,988.02,989.12,990.31,991.66,993.11,994.64,996.25,997.72,998.97,1000.00,1000.92,1001.71,1002.59,1003.60,1004.71,1005.87,1007.02,1008.16,1009.26,1010.29,1011.44,1012.35,1012.79,1012.53,1012.34,1012.08,1012.66,1014.80,1017.27,1019.13,1021.30,1024.08,1026.84,1027.88,1027.49,1027.25,1028.99,1031.88,1034.89,1037.51,1039.69,1042.16,1044.85,1047.59,1050.24,1052.66,1055.13,1057.62,1060.30,1063.23,1065.83,1068.89,1071.99,1074.82,1077.24,1079.12,1080.45,1081.62,1083.23,1085.76,1089.22,1093.86,1099.07,1101.84,1103.74,1105.31,1106.79,1108.42,1110.35,1112.51,1114.47,1115.95,1117.69,1119.20,1120.46,1121.67,1123.30,1125.04,1126.99,1129.19,1131.66,1134.18,1136.93,1140.49,1144.89,1148.35,1151.21,1153.58,1155.60,1157.52,1159.42,1161.42,1163.62,1166.17,1168.98,1171.93,1174.78,1177.32,1179.33,1180.76,1182.63,1185.13,1188.26,1191.58,1194.90,1198.35,1201.74,1204.10,1206.47,1208.89,1211.36,1213.90,1217.03,1219.55,1221.22,1222.05,1223.05,1224.20,1225.49,1226.73,1227.46,1227.94,1228.49,1229.34,1230.68,1231.83,1230.26,1226.78,1222.22,1217.88,1216.88,1216.94,1217.49,1219.44,1221.86,1226.52,1231.68,1234.92,1235.69,1233.17,1230.20,1228.00,1226.16,1224.23,1222.23,1220.18,1218.01,1215.15,1211.86,1207.28,1201.29,1196.92,1193.22,1189.57,1185.59
896.66,897.47,897.69,898.08,898.61,899.13,899.68,900.33,901.00,901.83,903.21,904.83,906.29,907.52,908.49,909.30,909.50,909.33,908.96,908.51,908.87,909.90,911.74,914.68,916.49,917.70,918.42,918.63,918.86,918.95,918.93,918.84,918.70,918.74,918.49,917.93,917.46,918.15,919.45,921.13,923.10,925.12,927.11,928.50,929.37,930.26,931.06,931.05,930.38,929.16,927.45,927.70,929.13,930.70,930.55,929.52,928.01,926.33,924.97,925.15,926.38,927.88,929.24,930.56,932.20,934.07,936.09,938.15,940.21,942.23,944.21,946.22,948.27,950.19,951.88,953.29,954.45,955.62,956.86,958.08,959.18,960.53,962.29,964.04,965.47,966.85,968.54,970.06,971.28,972.31,973.32,974.52,975.91,977.48,979.27,980.46,981.50,982.75,984.36,985.80,986.94,987.91,989.00,990.14,991.51,993.03,994.64,996.24,997.71,999.09,1000.38,1001.57,1002.66,1003.62,1004.57,1005.63,1006.79,1007.95,1009.07,1010.18,1011.51,1012.88,1014.04,1014.88,1015.33,1016.05,1016.54,1017.09,1017.86,1018.15,1018.49,1020.02,1022.96,1026.62,1029.81,1030.48,1029.64,1029.41,1031.88,1035.66,1038.91,1041.00,1043.34,1046.05,1048.86,1051.58,1053.96,1056.34,1058.84,1061.77,1065.20,1067.98,1070.63,1073.37,1076.27,1079.19,1081.30,1082.93,1084.29,1085.46,1086.59,1089.10,1093.80,1099.93,1102.66,1104.79,1106.60,1108.20,1109.88,1112.10,1114.41,1116.58,1118.49,1120.28,1121.83,1123.07,1124.18,1125.73,1127.41,1129.29,1131.49,1134.18,1136.64,1139.39,1143.25,1148.10,1151.31,1153.79,1156.04,1158.23,1160.49,1162.88,1165.32,1167.88,1170.74,1174.02,1177.24,1180.10,1182.56,1184.81,1186.82,1189.53,1192.67,1195.50,1198.64,1201.41,1203.92,1206.28,1208.42,1210.95,1213.76,1216.58,1219.01,1222.06,1224.34,1225.81,1226.76,1227.86,1228.80,1229.97,1231.33,1232.21,1233.11,1234.06,1235.32,1237.28,1239.37,1238.87,1235.60,1229.81,1223.88,1222.34,1222.26,1222.99,1225.89,1229.44,1232.75,1235.42,1236.51,1233.68,1230.72,1228.41,1226.72,1225.12,1223.32,1221.43,1219.59,1217.90,1215.70,1213.03,1209.77,1205.79,1201.40,1196.83,1192.11,1187.27
897.45,898.50,899.06,899.57,900.11,900.66,901.24,901.89,902.53,903.26,904.42,905.91,907.32,908.55,909.54,910.49,910.85,910.60,909.85,909.29,909.74,911.84,915.06,917.76,918.80,919.36,919.73,919.91,920.22,920.59,920.75,920.63,920.37,920.44,920.33,919.77,918.81,919.32,920.78,922.38,923.86,925.80,927.77,929.18,930.14,931.26,932.02,932.04,931.47,930.38,928.80,929.00,930.28,931.75,931.79,930.98,929.87,928.52,926.90,925.98,926.98,928.83,930.59,931.76,933.19,934.98,936.97,938.86,940.27,941.83,943.65,945.66,947.70,949.64,951.28,952.59,953.88,955.25,956.65,958.03,959.30,960.75,962.72,964.87,966.84,968.39,969.74,970.93,972.00,972.98,974.11,975.61,977.20,978.49,979.41,979.99,980.95,982.55,984.32,985.87,987.04,987.98,988.98,990.08,991.50,993.08,994.67,996.11,997.35,998.52,999.70,1000.98,1002.34,1003.59,1004.79,1006.04,1007.34,1008.54,1009.78,1011.15,1012.67,1014.13,1015.48,1016.68,1017.63,1018.64,1019.59,1020.38,1020.87,1020.84,1021.42,1022.40,1024.06,1027.37,1030.83,1032.28,1032.03,1031.28,1032.67,1036.70,1040.88,1043.90,1046.23,1047.78,1049.59,1051.96,1054.74,1057.45,1060.18,1063.33,1067.05,1070.07,1072.61,1074.94,1077.41,1080.52,1083.12,1085.16,1086.86,1088.34,1089.36,1090.95,1094.08,1098.61,1101.58,1104.71,1107.39,1109.57,1111.66,1113.93,1116.24,1118.47,1120.48,1122.28,1123.93,1125.39,1126.75,1128.26,1130.00,1131.99,1134.28,1137.06,1140.05,1143.55,1147.32,1151.01,1153.82,1156.21,1158.61,1161.14,1163.81,1166.52,1169.32,1172.44,1175.95,1179.01,1181.98,1184.76,1187.36,1190.08,1192.93,1196.00,1198.97,1201.44,1203.99,1206.43,1208.88,1211.43,1214.01,1216.57,1219.23,1221.89,1224.29,1226.91,1229.00,1230.68,1232.24,1233.76,1235.07,1236.34,1237.48,1238.04,1238.83,1239.99,1241.61,1243.78,1245.79,1245.73,1243.38,1238.97,1234.78,1233.35,1232.51,1231.79,1232.29,1234.30,1235.76,1235.98,1234.45,1231.30,1228.90,1227.05,1225.48,1223.93,1222.25,1220.52,1218.86,1217.37,1215.66,1213.76,1211.62,1208.86,1204.69,1199.62,1194.22,1188.82
