878.38,880.60,882.36,883.23,883.65,884.04,884.42,885.69,887.22,888.69,890.07,890.55,890.31,889.76,889.35,889.21,889.72,890.50,891.03,890.46,888.68,885.19,881.36,880.47,880.63,881.40,882.59,884.10,885.43,885.71,886.07,887.04,888.64,890.16,891.57,892.96,894.44,895.97,897.42,898.51,898.98,898.94,899.11,899.79,900.79,901.48,902.19,903.26,904.54,905.87,907.40,909.12,910.72,912.04,913.19,914.35,915.35,916.23,917.10,918.02,918.96,920.10,921.59,923.12,924.19,925.06,925.96,927.16,928.28,929.28,930.04,930.54,931.41,933.30,935.55,937.91,940.71,944.39,948.35,951.39,951.72,951.23,949.53,947.28,945.08,943.49,942.24,941.70,942.37,945.02,948.48,952.45,956.13,958.19,957.11,955.42,955.59,958.44,962.36,966.41,968.12,967.40,965.16,962.87,961.55,961.32,961.71,960.05,957.17,955.59,956.37,959.69,964.12,969.21,974.53,980.01,986.66,993.71,1001.20,1008.48,1013.12,1016.24,1016.58,1014.79,1012.61,1010.52,1010.05,1011.13,1012.80,1011.27,1007.75,1003.86,1000.32,997.53,995.06,992.83,990.75,988.73,986.73,986.11,987.85,992.28,997.66,1003.23,1008.56,1013.40,1017.60,1022.71,1028.72,1034.59,1039.22,1042.07,1044.66,1047.31,1051.01,1057.72,1060.38,1062.09,1063.22,1062.81,1061.33,1060.12,1060.13,1061.57,1063.00,1064.53,1065.57,1066.18,1067.00,1068.92,1071.63,1073.95,1074.68,1073.75,1070.42,1065.53,1059.54,1053.32,1049.04,1045.81,1042.98,1039.97,1035.84,1030.78,1025.17,1019.30,1013.90,1009.24,1005.15,1001.64,999.00,996.97,997.07,998.58,1000.22,999.70,998.35,996.70,994.68,991.89,989.15,986.59,985.03,985.79,987.13,989.17,989.44,986.35,981.61,979.02,977.62,976.70,975.85,975.01,974.18,973.32,972.54,972.35,972.25,971.83,970.96,969.80,966.46,965.46,966.37,966.52,965.27,962.79,960.60,959.92,960.99,963.10,964.43,964.09,961.25,956.99,952.70,949.96,950.19,951.43,953.80,956.60,960.07,965.63,971.81,977.23,981.00,982.19,983.42,984.71,986.00,986.99,986.71,985.97,985.96,987.18
877.37,878.97,880.10,880.71,881.18,881.75,882.13,882.89,884.07,885.43,886.20,885.91,885.16,884.41,884.01,883.99,884.37,884.82,884.94,884.06,882.63,880.78,879.35,880.03,880.81,881.66,882.60,883.64,884.49,885.29,886.49,888.19,889.90,891.37,892.69,893.99,895.38,896.87,897.65,897.89,897.81,897.80,898.02,898.98,900.42,901.41,902.46,903.68,905.00,906.38,907.91,909.39,910.79,911.98,912.59,913.37,914.18,914.96,915.82,917.21,918.73,920.13,921.41,922.88,923.42,923.85,924.63,926.00,927.41,928.23,928.50,928.66,930.42,933.13,936.04,938.86,941.65,944.32,946.79,948.52,948.42,947.51,945.64,943.34,941.02,939.11,937.54,938.11,940.98,944.84,948.85,952.45,955.02,955.65,954.39,952.84,953.82,957.98,961.88,964.37,964.33,962.42,960.05,957.87,956.61,956.65,957.60,956.41,953.65,953.10,955.72,960.17,965.56,971.14,976.92,983.22,989.97,997.04,1003.82,1009.33,1011.81,1012.76,1011.99,1010.07,1008.03,1005.91,1005.56,1007.11,1009.67,1008.96,1005.76,1001.63,997.54,994.58,991.86,989.46,987.28,985.25,983.36,984.69,988.36,993.72,999.87,1006.27,1011.49,1015.80,1020.69,1027.05,1033.46,1038.79,1042.24,1044.76,1047.21,1050.36,1054.53,1059.47,1061.24,1062.08,1062.36,1061.34,1058.96,1056.81,1056.42,1058.18,1059.91,1061.25,1061.90,1062.25,1063.37,1065.59,1068.25,1070.51,1071.58,1071.57,1069.07,1064.86,1059.32,1053.05,1048.58,1045.10,1042.01,1038.85,1035.03,1030.78,1025.94,1020.50,1015.17,1010.33,1006.07,1002.36,999.23,996.89,995.67,995.57,996.41,996.29,995.47,994.32,992.88,990.94,988.79,986.52,984.64,984.04,984.31,985.43,985.09,982.16,979.11,977.58,976.55,975.60,974.71,973.85,973.00,972.10,971.26,971.01,971.09,970.81,969.84,968.19,964.70,963.64,964.53,964.93,964.95,962.71,960.12,958.92,959.78,961.88,963.75,964.24,961.84,958.76,953.98,950.06,949.78,950.11,951.43,953.81,957.33,961.90,968.03,974.55,979.79,981.53,982.84,984.10,985.24,985.93,985.49,984.78,985.31,987.29
876.25,877.39,878.02,878.30,878.64,879.28,879.43,879.57,880.03,880.63,880.45,879.76,879.15,878.98,879.51,879.86,880.10,880.21,879.95,878.92,878.23,878.29,879.17,880.77,881.90,882.80,883.60,884.28,884.74,885.92,887.65,889.63,891.25,892.58,893.83,895.07,896.27,897.29,897.38,896.97,896.50,896.45,897.19,898.68,900.48,901.73,903.00,904.27,905.53,906.76,907.98,909.21,910.38,911.24,911.27,911.89,912.91,914.06,915.19,916.90,918.67,920.12,921.11,922.19,922.22,922.30,923.03,924.67,926.36,926.91,926.75,927.04,929.80,933.17,936.48,939.43,941.66,943.23,944.44,945.19,944.96,943.68,941.55,939.09,936.64,934.58,933.31,935.36,940.35,944.91,949.10,952.19,953.74,953.20,951.82,950.64,952.28,957.12,960.89,961.74,960.34,957.81,955.46,953.47,952.26,952.36,953.57,952.72,951.08,951.98,955.99,961.27,967.57,973.60,979.72,986.53,992.58,998.66,1003.84,1007.25,1008.59,1008.67,1007.60,1005.77,1003.74,1001.64,1001.48,1003.32,1006.31,1006.53,1003.93,999.78,995.19,991.83,988.72,986.07,983.81,981.94,980.73,983.82,988.95,994.81,1001.35,1008.25,1013.55,1018.05,1024.56,1031.70,1037.65,1041.89,1044.35,1046.80,1049.24,1052.44,1056.28,1059.32,1060.63,1061.08,1060.78,1059.27,1056.29,1053.38,1052.62,1054.68,1056.74,1057.91,1058.32,1058.63,1060.13,1062.62,1065.26,1067.42,1068.62,1069.20,1067.45,1063.97,1059.03,1052.96,1048.34,1044.62,1041.24,1037.73,1033.76,1029.70,1025.14,1019.89,1014.54,1009.90,1005.86,1002.27,999.13,996.77,994.59,993.24,993.34,993.25,992.65,991.81,990.82,989.58,988.03,986.19,984.30,982.79,982.21,982.37,981.61,979.34,977.93,976.72,975.57,974.48,973.52,972.62,971.81,970.87,969.69,968.81,968.48,967.91,966.78,965.12,962.48,961.85,962.69,963.14,963.93,962.44,960.01,958.26,958.77,960.78,962.92,963.98,962.34,960.41,955.91,951.45,950.15,949.67,949.98,951.52,954.45,958.14,963.85,970.81,977.32,980.79,982.37,983.61,984.53,984.79,984.27,983.70,984.65,987.11
875.00,875.86,876.24,875.97,875.84,876.27,875.89,875.73,875.28,874.17,872.49,871.94,872.38,873.78,876.11,876.94,877.23,877.41,877.43,876.78,877.25,878.62,880.38,881.78,883.10,884.20,885.12,885.91,886.47,887.75,889.40,891.14,892.57,893.74,894.95,896.12,896.91,896.80,896.37,895.83,895.26,894.96,896.84,899.11,900.97,902.22,903.40,904.58,905.68,906.63,907.44,908.55,909.47,909.84,909.58,910.50,912.20,914.15,915.81,917.38,918.60,919.59,920.36,920.82,920.77,920.89,921.67,923.56,925.25,925.29,924.86,925.93,929.57,933.09,936.18,938.59,939.64,940.37,941.14,941.73,941.42,939.74,937.14,934.33,931.85,930.16,930.38,934.13,940.30,944.77,948.75,951.11,951.82,950.93,949.42,949.09,951.16,955.51,958.83,958.47,956.53,954.09,951.68,949.74,948.54,948.51,949.47,948.67,949.81,952.87,957.53,963.38,970.32,976.75,983.02,989.47,993.61,997.18,999.79,1001.38,1003.41,1004.54,1004.11,1002.42,1000.18,998.18,998.26,1000.03,1002.59,1003.74,1001.89,997.97,993.06,989.12,985.62,982.73,980.45,979.12,979.54,983.74,989.40,995.35,1001.74,1008.51,1014.28,1020.25,1029.32,1036.13,1040.33,1043.13,1045.48,1047.84,1050.18,1052.35,1054.43,1056.74,1058.19,1058.87,1058.48,1056.32,1052.82,1049.59,1048.81,1051.15,1053.47,1054.56,1054.94,1055.43,1057.30,1059.97,1062.66,1064.76,1065.83,1066.56,1065.50,1062.82,1058.52,1052.86,1048.34,1044.58,1041.01,1037.04,1032.55,1027.76,1022.51,1016.73,1011.03,1007.07,1003.82,1000.88,998.34,996.16,994.02,992.22,991.18,990.54,990.00,989.46,988.82,987.84,986.67,985.41,984.05,982.60,981.78,981.17,980.25,978.85,977.62,976.24,974.78,973.39,972.33,971.32,970.56,969.51,967.58,965.24,963.74,962.43,961.20,960.61,960.06,960.30,960.95,961.18,961.63,961.62,960.38,958.12,957.93,959.81,961.81,962.95,962.53,961.23,958.42,954.81,951.50,949.89,949.45,949.87,951.44,955.02,959.79,965.89,972.98,979.87,981.97,983.20,983.85,983.56,983.04,982.76,983.93,986.47
873.50,874.25,874.43,873.97,873.47,873.29,872.69,872.19,871.55,870.60,869.43,869.36,870.08,871.38,873.12,874.18,874.75,875.18,875.67,876.25,877.71,879.63,881.65,883.28,884.48,885.49,886.45,887.40,888.21,889.51,891.02,892.55,893.93,895.03,895.73,896.04,895.94,895.40,894.80,894.22,893.72,893.61,895.67,897.92,899.63,900.94,902.01,903.05,904.02,904.84,905.51,906.29,907.40,908.76,909.76,911.14,912.36,913.43,914.66,916.41,917.65,918.36,918.62,918.69,919.35,920.27,921.47,923.19,923.98,923.40,923.01,924.93,929.33,932.12,933.85,934.99,935.75,937.02,938.33,939.04,938.15,936.00,933.05,930.19,928.38,928.70,931.02,935.23,940.39,944.27,947.60,949.12,949.16,948.17,946.66,948.21,951.44,954.85,956.07,954.85,952.67,950.09,947.39,945.72,945.06,945.33,946.60,948.43,951.52,955.55,960.52,966.79,973.78,980.23,986.06,990.94,993.14,994.46,995.39,996.35,998.52,1000.50,1000.78,999.42,997.21,995.16,995.51,997.47,999.87,1001.00,998.69,994.62,989.98,986.07,982.62,979.93,978.22,978.10,980.21,985.29,991.21,997.16,1004.04,1010.39,1017.80,1025.91,1032.74,1037.88,1040.74,1042.28,1043.37,1044.75,1046.73,1048.62,1050.36,1052.41,1053.93,1054.80,1054.59,1052.53,1049.42,1046.42,1045.14,1046.55,1049.72,1051.09,1051.66,1052.45,1054.57,1057.28,1060.02,1062.22,1063.40,1064.02,1063.38,1061.15,1057.21,1052.17,1048.32,1045.03,1041.83,1038.09,1032.59,1027.12,1021.23,1014.74,1009.01,1005.04,1002.04,999.63,997.68,995.69,993.61,991.69,990.25,989.40,988.73,988.14,987.54,986.76,986.11,985.44,984.61,983.51,982.62,981.79,980.86,979.70,978.33,976.57,974.71,973.03,971.81,970.56,969.13,967.57,965.86,963.83,962.68,961.81,961.04,960.64,959.98,959.41,959.17,959.45,960.03,960.97,960.53,958.07,956.75,958.84,961.01,962.12,962.37,961.41,959.39,956.56,953.18,950.69,949.58,949.35,950.02,952.16,956.52,962.70,970.47,978.98,981.37,982.47,982.95,982.53,982.02,982.07,983.41,985.83
871.93,872.58,872.59,872.02,871.23,870.49,869.80,869.11,868.56,868.26,868.27,868.78,869.64,870.60,871.44,872.54,873.34,874.02,874.91,876.54,878.75,880.99,883.04,884.83,885.96,886.90,887.85,888.88,889.91,891.20,892.55,893.79,894.79,895.58,895.72,895.28,894.50,893.79,893.13,892.52,892.08,892.19,893.98,895.86,897.35,898.70,899.85,900.90,901.87,902.76,903.69,904.54,906.06,908.31,910.06,911.42,912.00,912.29,913.30,915.12,916.24,916.65,916.64,916.90,918.38,920.00,921.43,922.66,922.54,921.49,921.33,924.08,928.72,930.56,930.96,931.07,931.99,934.09,935.86,936.44,934.99,932.50,929.39,926.82,926.12,928.54,932.43,936.60,940.49,943.61,945.84,946.48,946.05,945.18,944.44,947.75,951.71,953.91,953.06,951.01,948.48,945.75,943.21,942.16,942.58,943.82,945.94,950.34,954.74,959.28,964.40,970.71,977.29,983.08,987.76,990.75,991.39,991.12,991.01,991.77,993.98,996.69,997.60,996.56,994.40,992.26,992.81,994.99,997.31,997.88,995.00,990.86,986.61,982.95,979.77,977.47,976.57,978.09,981.98,987.75,993.91,1000.08,1007.16,1012.79,1021.32,1030.83,1034.80,1037.99,1039.53,1039.90,1039.69,1039.95,1041.44,1043.29,1045.18,1047.16,1048.74,1049.82,1049.94,1048.34,1045.76,1043.16,1041.57,1042.16,1045.99,1047.65,1048.43,1049.48,1051.91,1054.66,1057.38,1059.62,1060.91,1061.38,1060.97,1059.11,1055.60,1051.27,1048.08,1045.26,1042.44,1039.03,1032.96,1027.02,1020.73,1013.93,1008.59,1004.99,1002.29,1000.15,998.44,996.44,994.33,992.31,990.63,989.46,988.51,987.80,987.26,986.68,986.45,986.17,985.67,984.82,983.84,982.78,981.70,980.53,978.98,976.92,974.78,972.88,971.56,970.26,968.48,966.67,965.34,964.21,963.65,963.26,962.80,962.16,960.87,959.33,958.14,958.13,958.73,960.13,960.23,957.86,955.44,957.57,960.03,961.36,962.00,961.27,959.67,957.41,954.47,951.48,949.85,949.18,949.24,950.10,954.21,960.70,968.93,977.71,980.30,981.45,981.93,981.55,980.96,981.37,982.90,985.19
870.34,870.84,870.70,869.98,869.01,868.11,867.45,866.96,866.71,867.03,868.46,869.50,870.69,871.93,872.81,873.62,874.42,875.21,876.11,877.67,880.23,882.72,884.74,886.12,887.59,888.69,889.53,890.40,891.51,892.78,893.96,894.68,894.40,894.16,893.93,893.58,892.98,892.30,891.57,890.88,890.40,890.53,891.54,892.76,893.97,895.33,896.96,898.46,899.78,901.13,903.14,905.22,907.38,909.19,909.34,909.36,909.69,910.68,912.67,914.04,914.28,914.24,914.76,916.53,918.54,920.06,920.91,921.14,920.76,919.77,920.06,923.54,927.22,928.15,928.10,928.35,929.88,932.55,933.88,933.53,931.91,929.43,926.58,924.94,925.97,929.51,933.23,936.97,940.46,942.78,943.13,942.85,942.33,942.00,943.87,947.83,950.94,951.58,949.91,946.87,943.54,940.75,939.65,939.96,942.49,946.06,950.04,954.94,959.61,964.37,969.46,974.92,980.39,984.12,986.30,987.38,987.52,987.09,986.92,987.72,990.15,993.41,994.69,993.77,991.59,989.33,989.89,992.21,994.46,993.80,990.95,987.16,983.18,979.89,977.26,975.47,975.58,979.32,985.20,991.37,997.93,1004.86,1010.97,1015.38,1022.81,1031.38,1034.36,1035.88,1035.88,1035.16,1034.35,1033.79,1034.65,1036.49,1038.82,1040.86,1042.49,1043.83,1044.51,1043.71,1041.42,1039.24,1038.14,1039.09,1042.69,1044.40,1045.25,1046.44,1049.38,1052.29,1054.78,1056.76,1058.05,1058.47,1057.98,1056.46,1053.80,1050.22,1047.31,1044.58,1041.76,1038.39,1033.18,1027.39,1021.28,1015.27,1011.13,1009.36,1007.51,1005.04,1002.66,1000.17,997.77,995.52,993.44,991.43,989.92,989.15,988.99,988.64,988.50,988.13,987.43,986.37,985.09,983.38,981.73,980.34,978.68,976.76,974.69,972.76,971.54,970.71,969.93,968.87,967.56,967.53,967.13,966.45,965.52,964.17,962.58,960.81,959.03,957.68,957.65,958.73,959.00,957.14,954.04,955.57,958.38,960.64,961.36,960.81,959.28,957.11,954.49,951.85,950.09,949.11,948.95,949.87,953.75,960.45,968.52,975.41,978.23,979.91,980.79,980.56,979.64,980.42,982.28,984.54
868.05,868.35,868.17,867.45,866.48,865.63,865.63,866.09,866.76,867.74,869.38,870.70,872.05,873.37,874.41,875.22,876.02,876.83,877.82,879.62,882.65,885.51,887.52,888.35,889.30,890.25,891.13,891.92,892.88,893.35,893.62,893.65,893.04,892.55,892.17,891.81,891.25,890.39,889.42,888.90,889.18,889.78,891.40,893.62,895.88,897.23,898.44,899.57,900.69,902.02,904.18,906.32,907.76,908.12,907.55,908.13,909.31,910.71,911.93,912.02,912.38,913.21,914.54,916.41,918.12,919.02,919.01,918.49,918.77,919.36,920.79,923.60,925.62,925.86,925.95,926.89,929.00,931.13,931.46,930.26,928.52,925.97,923.51,922.91,925.40,929.33,933.00,936.56,939.48,940.22,939.84,939.22,939.16,940.54,943.51,947.35,949.25,948.01,945.35,942.43,939.62,937.70,938.21,940.42,944.32,949.41,955.16,960.08,964.59,968.89,973.11,977.23,980.09,981.58,982.26,982.67,983.11,982.75,982.93,984.62,987.87,991.24,992.25,990.95,988.50,986.09,986.83,989.34,991.43,990.17,987.05,983.42,979.97,977.34,974.94,974.33,976.25,981.50,987.90,993.81,1000.28,1007.37,1012.51,1016.46,1023.07,1030.43,1032.40,1032.75,1031.95,1030.51,1028.85,1028.01,1028.60,1030.35,1032.88,1035.32,1037.16,1038.61,1039.45,1039.04,1037.21,1035.32,1034.78,1036.46,1039.77,1041.19,1042.17,1043.76,1046.90,1049.72,1051.97,1053.70,1054.83,1055.26,1054.92,1053.75,1051.76,1049.33,1046.74,1043.89,1040.76,1037.19,1032.75,1027.37,1021.68,1016.77,1014.82,1014.14,1012.43,1009.52,1006.55,1003.80,1001.11,998.50,996.06,993.74,992.83,992.74,992.87,992.28,991.38,990.05,988.45,986.76,984.79,982.54,980.63,979.28,977.66,976.37,975.12,973.97,973.33,972.81,972.26,971.42,970.33,970.41,969.86,968.84,967.47,965.85,964.08,962.20,960.26,958.41,957.38,956.94,956.40,955.16,952.89,953.12,955.46,958.69,960.40,959.70,957.72,955.46,953.45,951.17,949.70,948.97,948.96,949.92,953.96,961.00,968.84,974.00,976.72,978.35,978.99,978.49,977.65,979.56,981.98,983.95
865.50,865.57,865.39,864.83,864.14,863.76,864.55,866.00,867.60,869.16,870.65,872.09,873.51,874.86,876.06,876.99,877.87,878.79,880.03,882.32,885.53,888.34,890.13,890.50,890.87,891.58,892.38,892.95,893.52,893.11,892.44,891.85,891.18,890.63,890.17,889.71,889.12,888.22,887.44,887.59,889.01,890.59,893.05,896.21,899.25,900.52,901.19,901.85,902.68,903.82,905.58,907.04,907.30,906.32,905.80,907.39,909.42,910.87,910.88,910.07,910.87,912.58,914.41,916.08,917.20,917.33,916.62,916.00,917.27,919.35,921.51,923.16,923.64,923.50,923.99,925.66,928.03,929.10,928.32,926.48,924.84,922.51,920.84,921.45,925.13,929.10,932.57,935.58,937.48,936.73,936.25,936.08,937.04,940.13,943.50,946.49,946.92,944.14,940.75,938.26,936.49,935.94,938.07,942.06,947.28,953.54,960.33,965.02,969.07,972.45,975.22,977.55,977.77,977.47,977.27,977.50,978.32,978.25,979.05,981.81,985.75,988.96,989.56,987.84,985.13,982.70,983.60,986.10,987.83,986.32,983.15,979.77,976.89,974.99,972.74,973.43,977.28,983.76,990.15,995.63,1001.89,1008.90,1012.99,1016.44,1021.93,1027.83,1029.28,1029.00,1027.71,1025.66,1023.20,1022.25,1022.76,1024.57,1027.38,1030.28,1032.20,1033.65,1034.56,1034.37,1033.05,1031.54,1031.66,1034.14,1036.97,1038.00,1039.19,1041.34,1044.51,1047.06,1048.98,1050.41,1051.34,1051.77,1051.62,1050.74,1049.30,1047.95,1045.94,1043.39,1040.35,1036.73,1032.88,1027.97,1022.84,1019.02,1019.27,1019.30,1017.47,1014.08,1010.55,1007.39,1004.33,1001.35,998.59,996.21,996.24,997.01,997.33,996.18,994.30,991.98,989.52,987.16,984.52,981.80,979.70,978.50,977.13,976.47,976.05,975.76,975.73,975.46,974.92,974.14,973.26,972.94,972.10,970.76,969.07,967.28,965.35,963.37,961.41,959.53,957.74,955.85,954.35,953.42,952.04,951.03,952.50,956.15,959.12,957.99,955.45,953.17,951.90,950.15,949.12,948.79,949.14,950.33,954.59,961.77,969.25,973.03,975.21,976.33,976.47,975.76,975.65,978.79,981.75,983.40
862.85,862.69,862.48,862.46,862.89,863.99,865.40,867.08,868.87,870.66,872.24,873.58,874.96,876.37,877.64,878.70,879.93,881.37,883.35,886.68,888.77,890.07,890.88,891.38,891.87,892.38,892.62,892.31,892.06,891.37,890.53,889.67,888.76,887.97,887.29,886.61,885.87,885.64,886.70,888.84,891.90,895.42,898.02,899.95,901.38,902.34,903.13,903.93,904.83,905.80,906.29,905.96,905.10,904.36,905.36,907.35,908.95,909.56,908.96,909.47,910.62,911.74,912.76,914.74,915.23,914.74,914.23,915.36,917.62,919.16,919.96,920.38,920.49,920.83,921.88,923.70,925.35,924.92,923.27,921.46,920.57,919.51,919.80,922.06,926.33,930.08,932.65,933.62,933.14,932.15,932.39,934.54,937.77,941.18,944.43,944.98,943.54,940.71,937.64,935.36,934.83,936.22,939.81,944.61,951.71,958.96,964.50,968.64,971.76,973.47,973.82,973.48,972.73,972.21,972.07,972.37,972.92,973.58,975.44,978.85,982.32,985.02,985.44,983.81,981.22,979.13,979.94,981.80,982.59,981.25,979.08,976.49,974.02,972.64,970.69,972.37,977.62,985.12,991.52,996.78,1002.95,1009.81,1012.59,1014.51,1017.63,1021.50,1024.04,1024.36,1022.76,1020.07,1017.21,1016.13,1016.79,1019.20,1022.85,1026.00,1027.42,1028.74,1029.83,1029.77,1028.98,1028.24,1029.29,1032.39,1034.12,1034.76,1036.46,1039.37,1042.28,1044.34,1045.68,1046.64,1047.35,1047.71,1047.56,1046.83,1045.70,1044.76,1044.13,1043.53,1042.27,1039.32,1035.58,1031.17,1026.70,1023.58,1024.91,1025.26,1023.25,1019.39,1015.28,1010.92,1007.22,1003.99,1001.04,998.77,999.61,1000.98,1001.20,999.04,996.41,994.00,991.64,988.91,986.15,983.07,980.70,979.69,979.06,978.49,978.08,977.91,978.08,978.08,977.70,977.02,976.07,974.79,973.53,972.11,970.36,968.26,966.10,963.89,961.89,960.50,959.22,957.48,955.65,953.93,951.92,950.59,950.82,953.09,957.16,955.06,952.21,950.38,949.88,949.26,948.61,948.56,949.50,951.59,955.89,962.41,969.08,972.43,973.02,972.83,972.33,972.11,974.38,978.30,981.34,982.83
860.81,860.70,860.74,861.57,863.03,864.82,866.31,868.02,870.04,872.26,874.17,875.48,876.75,878.05,879.29,880.68,882.22,884.10,886.46,889.05,890.27,890.93,891.41,891.71,891.97,892.03,891.80,891.20,890.50,889.59,888.40,887.00,885.72,884.74,884.08,883.98,884.87,886.14,888.18,890.93,894.35,897.73,899.88,901.13,901.90,902.86,903.95,904.83,905.37,905.42,905.06,904.01,903.21,903.37,905.06,907.13,908.13,907.94,907.17,908.36,909.40,910.47,911.91,913.17,913.01,912.63,912.95,914.91,917.22,917.93,917.69,917.60,917.76,918.38,919.56,921.08,921.80,920.94,919.43,918.27,918.58,918.91,920.43,923.35,927.33,929.96,931.18,931.00,930.03,929.98,931.59,934.85,938.63,941.64,943.55,942.71,940.46,937.59,934.71,933.25,934.60,938.12,942.47,947.86,955.32,962.31,966.78,970.04,971.68,971.78,970.69,969.28,968.09,967.46,967.38,967.83,968.52,969.89,972.28,975.60,978.50,981.06,981.73,980.50,978.09,976.03,976.17,977.17,977.54,976.47,975.03,973.12,971.01,969.74,968.87,971.59,977.41,984.73,990.24,994.98,1000.25,1005.85,1008.88,1010.57,1012.68,1015.49,1018.24,1018.82,1016.94,1013.95,1011.21,1010.21,1011.13,1013.46,1016.93,1020.79,1021.87,1023.08,1024.46,1024.86,1024.63,1024.75,1026.45,1029.63,1031.01,1031.68,1033.59,1036.58,1039.11,1040.82,1041.77,1042.44,1043.05,1043.24,1043.09,1042.65,1042.04,1041.58,1041.49,1041.68,1041.52,1040.01,1037.22,1033.41,1029.93,1028.18,1029.72,1030.20,1028.26,1024.41,1020.28,1015.82,1011.29,1007.16,1004.10,1002.67,1004.05,1005.01,1004.04,1001.41,998.75,996.53,994.32,991.38,988.35,985.29,982.82,981.39,980.79,980.37,980.12,980.09,980.36,980.14,979.24,977.89,976.26,974.36,972.87,971.55,970.08,967.97,965.80,963.93,962.40,961.22,960.15,958.61,956.72,954.61,952.34,950.61,950.06,951.45,955.29,953.20,950.70,949.22,948.77,948.46,948.30,948.63,949.94,952.92,957.31,962.77,967.96,970.49,970.33,969.47,969.26,970.66,974.03,977.67,980.45,982.03
859.36,859.47,859.99,861.70,863.94,865.93,867.30,869.02,871.28,873.93,876.24,877.58,878.70,879.83,880.99,882.71,884.49,886.63,889.01,890.16,890.75,891.24,891.63,891.64,891.52,891.06,890.41,889.71,888.88,887.79,886.21,884.25,882.58,881.60,881.42,882.50,885.53,888.29,890.68,893.22,896.02,898.19,899.72,900.75,901.57,902.71,904.11,904.95,904.90,903.84,902.93,901.85,901.71,902.94,904.83,906.67,907.03,906.22,905.54,906.93,907.84,909.17,911.26,911.36,910.90,911.13,912.42,914.59,916.31,916.10,915.12,914.89,915.31,916.06,917.10,918.10,917.95,917.47,916.85,916.76,918.28,919.82,922.03,924.86,927.75,928.89,928.76,928.22,928.03,929.45,932.42,935.96,939.29,941.48,941.59,939.98,937.50,934.62,932.10,932.16,935.55,940.78,945.44,951.12,957.92,963.87,967.38,969.54,969.64,968.46,966.60,964.95,963.68,963.05,963.04,963.70,964.86,966.87,969.43,972.24,974.66,977.37,978.49,977.74,975.49,973.31,972.44,972.44,972.60,971.70,970.79,969.53,967.96,966.78,967.28,970.75,976.44,982.89,987.08,991.28,995.57,999.70,1003.35,1005.34,1007.30,1009.72,1012.25,1013.01,1011.02,1007.97,1005.57,1004.71,1005.92,1007.97,1010.80,1015.09,1016.02,1017.20,1018.88,1019.95,1020.31,1021.20,1023.24,1026.14,1027.56,1028.47,1030.39,1033.08,1035.13,1036.58,1037.32,1037.93,1038.72,1038.94,1038.87,1038.73,1038.65,1038.63,1038.67,1039.01,1039.48,1039.52,1037.95,1034.86,1032.54,1032.45,1033.92,1034.55,1032.85,1029.18,1025.09,1020.86,1015.62,1010.55,1007.41,1007.06,1008.77,1008.84,1006.35,1003.66,1001.42,999.39,997.09,993.91,990.54,987.69,985.23,983.26,982.41,982.19,982.15,982.21,982.31,981.50,979.80,977.58,975.12,972.85,971.27,970.14,969.10,967.38,965.52,964.13,963.05,961.84,960.79,959.43,957.63,955.40,953.15,951.01,949.90,950.59,953.54,952.01,950.16,948.94,948.25,947.86,948.16,948.88,950.43,954.22,958.67,962.95,966.37,967.77,967.32,966.51,967.24,970.45,974.00,976.93,979.32,981.07
859.02,859.47,860.82,862.94,865.21,867.09,868.64,870.69,873.11,875.70,878.18,879.58,880.63,881.62,882.68,884.38,886.16,888.04,889.80,890.50,890.81,890.96,890.99,890.91,890.68,889.97,888.87,887.62,886.99,885.86,884.18,882.13,880.33,880.06,881.64,884.58,888.09,890.59,892.86,894.63,895.70,896.77,898.03,899.50,901.05,902.43,903.93,904.34,903.75,902.42,901.12,900.57,901.10,902.72,904.62,905.67,905.46,904.58,904.24,905.38,907.05,908.64,909.54,908.99,909.72,911.02,912.61,914.48,914.96,913.99,912.67,912.24,912.94,913.75,914.48,914.92,914.60,915.41,916.66,918.15,920.02,921.77,924.13,925.97,926.40,926.34,925.82,926.14,927.75,930.43,933.44,936.55,939.08,940.04,939.10,936.96,934.27,931.65,930.50,933.67,938.40,943.30,947.84,953.02,958.30,962.61,965.04,965.90,965.35,963.96,962.07,960.12,959.23,958.93,959.10,960.01,962.05,964.50,966.88,969.10,971.56,974.70,976.18,975.61,973.37,971.14,969.10,967.83,967.53,966.33,965.70,965.32,964.96,964.71,966.17,969.13,973.46,978.80,981.86,985.96,990.62,994.83,997.24,999.03,1001.27,1003.96,1006.46,1008.04,1006.55,1003.69,1001.35,1000.46,1001.90,1004.22,1006.81,1009.38,1010.54,1011.96,1013.83,1015.67,1016.73,1017.84,1019.55,1021.80,1023.22,1024.39,1026.24,1028.45,1029.79,1031.11,1031.92,1033.01,1034.92,1036.20,1036.41,1036.38,1036.42,1036.49,1036.78,1037.26,1037.90,1038.38,1037.39,1035.22,1034.16,1035.41,1037.40,1038.65,1037.37,1033.62,1028.56,1023.70,1018.53,1013.70,1010.49,1010.64,1012.31,1011.78,1008.60,1006.41,1004.86,1002.44,999.08,995.26,991.66,988.91,986.63,984.82,984.22,984.18,984.25,984.07,983.04,981.14,979.04,976.74,974.12,971.69,970.17,969.20,968.58,968.16,967.39,965.94,964.14,962.64,961.47,960.25,958.60,956.41,954.45,952.14,950.30,949.93,952.12,951.19,949.84,948.80,948.11,947.88,948.38,949.26,951.04,955.29,959.57,962.94,964.90,964.77,964.01,964.79,967.13,970.57,973.40,975.94,978.17,979.94
859.87,861.00,863.43,865.84,867.83,869.38,871.28,873.57,875.88,878.06,880.00,881.29,882.34,883.32,884.37,886.02,887.54,888.91,890.04,890.47,890.63,890.58,890.29,889.66,889.01,888.10,886.87,885.41,884.63,883.92,882.54,880.46,878.90,879.88,882.94,886.84,889.94,891.56,892.89,893.81,894.41,896.21,898.02,899.75,901.35,902.64,903.56,903.42,902.48,901.07,899.53,899.85,901.10,902.73,904.34,904.54,903.85,903.01,902.98,903.90,905.53,907.12,908.15,908.60,909.96,911.45,912.85,914.14,913.69,912.34,910.82,909.94,910.74,911.73,912.70,913.58,914.27,916.04,918.00,919.87,921.59,922.91,924.21,924.72,924.03,923.60,923.93,925.38,927.88,930.97,934.05,936.40,937.68,937.41,935.94,933.62,931.14,929.48,930.67,935.20,939.97,944.19,948.15,952.42,956.46,959.76,961.61,961.50,960.42,958.54,956.27,954.72,954.68,955.83,957.52,959.35,961.75,964.06,966.14,968.07,970.33,973.20,974.41,973.70,971.64,969.24,966.50,964.31,963.21,961.87,962.23,963.25,964.24,964.72,965.99,967.86,970.57,974.30,976.79,980.72,985.35,989.48,991.21,993.30,996.03,999.11,1001.90,1003.88,1002.93,1000.44,998.19,997.91,999.97,1002.98,1006.07,1008.15,1009.92,1011.24,1012.53,1014.27,1015.56,1016.66,1017.93,1019.42,1020.75,1022.11,1023.98,1025.90,1026.74,1027.57,1028.46,1030.11,1032.92,1035.20,1036.31,1036.77,1036.82,1036.59,1036.56,1036.72,1036.99,1037.25,1036.89,1035.98,1036.17,1038.31,1040.90,1042.46,1041.40,1037.82,1032.71,1026.75,1021.21,1016.77,1014.38,1014.87,1015.95,1015.01,1012.01,1010.14,1008.36,1004.63,999.82,995.85,992.19,989.57,987.55,986.12,985.99,986.16,986.15,985.38,982.83,980.26,978.03,975.93,973.72,971.63,970.49,969.93,969.83,970.01,969.06,967.31,965.24,963.46,962.23,961.10,959.74,957.99,956.08,953.38,950.81,949.51,950.96,950.45,949.49,948.59,947.93,947.86,948.46,949.35,950.97,954.90,958.85,961.64,962.87,962.21,961.32,962.96,966.23,969.93,972.60,974.96,976.93,978.44
861.72,863.66,867.06,869.63,871.28,872.52,874.78,877.05,879.04,880.62,881.71,882.77,883.82,884.83,885.89,887.42,888.52,889.33,889.92,890.14,890.15,889.95,889.35,887.92,886.68,885.59,884.44,883.07,881.93,881.93,881.01,878.94,878.30,880.72,884.62,888.45,890.61,891.14,891.31,891.69,893.00,896.61,899.27,901.00,902.15,903.05,903.03,902.31,901.11,899.54,898.22,899.56,901.42,902.82,903.85,903.30,902.27,901.54,901.87,902.77,903.90,905.39,907.40,909.59,910.98,912.02,912.92,913.54,912.56,911.07,909.50,908.36,909.22,910.45,911.97,913.88,916.05,918.26,919.98,921.32,922.54,923.05,922.66,921.90,921.26,921.30,923.28,925.84,928.46,931.25,934.20,935.53,935.34,934.02,932.37,930.11,928.27,928.22,931.95,936.27,940.18,943.61,946.77,949.99,953.18,956.00,957.69,956.87,955.25,952.77,950.20,949.85,951.06,954.09,957.72,960.53,962.74,964.50,966.21,968.03,969.95,972.25,972.90,971.88,969.98,967.30,964.27,961.52,959.62,958.69,960.61,963.30,965.53,966.48,966.87,967.42,968.50,970.42,972.58,976.05,980.15,983.87,985.45,988.15,991.46,994.91,998.00,999.91,999.42,997.49,995.62,996.59,999.66,1003.69,1007.80,1010.61,1013.06,1014.00,1014.26,1015.22,1016.40,1017.53,1018.50,1019.40,1020.64,1022.16,1024.07,1025.84,1026.33,1026.35,1027.02,1028.90,1032.22,1035.34,1037.70,1038.99,1039.06,1038.30,1037.63,1037.18,1036.85,1036.55,1036.69,1037.21,1038.65,1041.35,1044.50,1046.11,1045.10,1041.85,1037.37,1030.22,1024.06,1020.09,1018.97,1019.72,1020.00,1018.83,1016.36,1014.20,1011.26,1005.78,999.62,995.90,992.47,990.17,988.46,987.36,987.83,988.30,988.00,986.26,982.28,979.38,977.23,975.46,973.91,972.43,971.88,971.94,972.30,972.30,970.27,968.11,966.20,964.30,963.09,962.01,960.98,959.84,957.87,954.70,951.49,949.42,950.02,949.71,949.04,948.29,947.68,947.73,948.38,949.16,950.34,953.27,956.56,958.93,960.02,959.65,959.07,961.03,964.68,968.84,971.78,973.93,975.47,976.52
864.65,866.75,869.69,872.07,873.94,875.72,877.92,879.41,880.73,882.05,883.08,884.03,884.89,885.72,886.59,887.60,888.38,889.01,889.40,889.30,888.95,888.22,887.05,885.38,883.89,882.66,881.48,880.22,879.36,879.66,878.61,876.74,879.13,882.24,885.09,887.32,888.50,888.51,889.33,891.13,894.03,898.17,900.27,901.49,902.33,902.56,902.13,901.16,899.34,896.96,897.74,899.63,901.40,902.48,902.67,902.00,900.95,900.36,901.44,903.12,904.83,906.59,908.42,910.06,911.00,911.65,912.18,912.48,911.75,909.99,908.64,909.26,910.74,912.01,913.56,915.58,917.50,918.93,920.12,921.10,921.60,921.39,920.59,919.81,919.78,921.53,924.84,927.96,930.37,932.33,933.57,933.44,932.36,930.83,929.10,926.90,926.40,928.67,932.37,935.77,938.71,941.45,944.36,947.04,949.99,952.74,954.28,952.93,950.52,948.28,947.39,949.74,952.65,955.64,958.22,959.85,961.07,962.26,963.57,965.11,967.09,969.96,970.97,969.81,967.26,964.36,961.30,958.51,956.94,958.48,962.16,965.90,968.66,969.79,969.95,969.79,969.83,970.58,971.67,973.62,976.32,979.25,980.76,983.42,987.05,990.72,992.83,994.06,993.79,992.81,992.48,995.52,1000.29,1005.56,1010.76,1015.20,1017.33,1017.81,1017.56,1017.55,1018.90,1020.76,1022.47,1023.87,1025.53,1027.16,1028.84,1030.22,1030.40,1029.44,1028.36,1028.66,1031.51,1035.21,1038.52,1040.63,1041.16,1040.18,1039.30,1038.69,1038.26,1037.82,1037.22,1038.88,1041.71,1044.90,1048.26,1049.88,1048.87,1045.76,1041.54,1034.25,1028.28,1024.80,1024.22,1025.09,1025.58,1024.36,1021.02,1016.31,1011.06,1004.81,998.95,995.71,993.27,992.12,990.81,989.19,990.13,991.37,990.33,986.98,983.05,979.93,977.97,976.52,975.01,973.57,973.64,974.24,974.49,973.27,970.45,968.09,966.47,965.22,964.11,963.06,962.06,960.99,959.37,956.20,952.82,950.18,949.29,948.76,948.30,947.81,947.35,947.42,948.02,948.70,949.44,950.71,952.13,953.78,955.14,955.45,956.56,959.23,963.39,968.42,971.46,972.54,973.09,973.70
867.27,868.91,870.98,873.15,875.35,877.54,879.65,880.71,881.52,882.44,883.37,884.30,885.16,885.97,886.76,887.47,888.06,888.54,888.73,888.12,887.35,886.27,884.82,883.01,880.91,878.93,877.44,876.76,876.58,876.80,876.30,875.98,879.66,882.40,884.16,885.54,887.12,887.85,889.37,891.90,895.43,899.28,900.84,901.62,902.08,901.82,901.14,899.31,896.97,895.45,897.43,899.51,901.02,901.75,901.48,900.64,899.73,899.43,900.70,902.77,904.95,907.00,908.74,909.75,910.35,910.81,911.19,911.31,910.53,908.32,907.31,910.07,912.14,913.55,914.75,915.92,916.87,917.64,918.60,919.43,919.37,918.69,918.66,919.10,920.13,922.97,926.55,929.27,930.79,931.62,931.54,930.51,929.07,927.68,926.06,924.81,925.65,928.90,931.92,934.55,936.86,939.14,941.78,944.30,946.93,949.11,949.89,948.13,945.78,944.78,946.07,949.89,952.81,954.85,956.18,956.84,957.27,957.94,958.98,960.51,962.74,965.34,966.44,965.76,963.60,960.81,957.85,955.86,956.26,959.93,964.96,969.28,972.12,973.48,973.72,973.15,972.57,972.82,973.21,973.92,975.21,976.93,977.95,980.25,983.65,987.08,988.63,989.35,989.50,989.76,991.18,995.45,1001.51,1008.15,1014.48,1019.08,1020.67,1020.83,1020.40,1020.08,1021.72,1024.29,1026.71,1028.56,1030.32,1031.89,1033.49,1034.88,1035.22,1033.83,1031.61,1030.22,1031.26,1034.49,1038.32,1041.40,1043.01,1042.66,1041.90,1041.36,1040.95,1040.32,1039.41,1041.36,1044.62,1048.08,1051.70,1053.78,1053.10,1050.11,1045.95,1038.77,1033.33,1030.46,1030.17,1031.15,1030.54,1027.83,1022.89,1016.36,1009.84,1003.62,998.59,996.19,995.03,994.91,994.43,993.40,994.60,995.68,993.80,989.56,986.03,982.72,979.90,977.65,976.10,975.04,975.69,976.67,976.76,974.30,970.82,968.44,967.16,966.23,965.17,964.13,963.06,961.86,960.43,957.64,954.52,951.76,950.08,948.98,948.26,947.72,947.26,947.11,947.56,948.12,948.57,948.96,949.37,950.35,951.64,952.84,955.41,958.70,962.86,967.61,970.48,970.82,970.71,971.04
869.33,870.06,871.12,873.07,875.47,877.81,879.86,880.93,881.49,881.88,882.57,883.56,884.63,885.65,886.49,887.18,887.67,887.98,887.87,886.64,885.46,884.27,882.87,880.91,877.80,874.63,872.70,873.00,873.68,873.63,874.43,876.70,879.59,881.08,882.17,883.89,887.12,889.54,891.51,893.80,896.81,899.73,900.98,901.45,901.48,900.93,899.95,896.80,894.18,895.14,897.15,899.07,900.28,900.60,900.33,899.21,898.59,898.73,899.71,901.67,904.00,906.23,907.96,908.65,909.08,909.51,909.89,909.84,908.61,906.19,905.84,910.42,912.90,914.40,914.94,914.57,914.20,914.56,915.57,916.54,916.38,915.78,917.40,919.88,922.15,925.01,927.70,929.14,929.24,928.79,928.06,926.85,925.56,924.60,923.41,923.92,925.82,928.53,930.62,932.75,934.80,936.84,939.14,941.65,943.75,944.87,944.42,942.51,941.15,942.09,945.32,948.96,950.20,950.76,951.24,951.65,951.82,952.15,953.05,954.80,957.31,958.80,959.63,959.88,959.08,956.74,954.23,953.91,957.49,962.58,968.46,973.00,975.66,977.27,977.79,977.05,976.19,976.52,976.77,976.77,976.87,977.15,977.31,978.91,981.47,984.20,985.82,986.43,987.26,988.93,991.98,996.46,1003.33,1011.27,1018.51,1021.80,1022.90,1022.93,1022.58,1022.60,1024.47,1027.55,1030.53,1032.69,1034.23,1035.62,1037.33,1039.14,1040.06,1038.90,1036.38,1033.57,1031.80,1033.40,1037.18,1041.21,1044.36,1045.60,1045.39,1045.13,1044.81,1043.92,1043.26,1044.67,1047.40,1050.91,1054.85,1057.77,1057.71,1054.91,1050.70,1043.89,1039.18,1036.89,1036.63,1037.34,1034.24,1028.72,1021.81,1014.63,1008.16,1002.69,998.78,997.53,997.73,998.40,999.07,999.75,1000.97,1000.93,998.29,994.00,990.82,987.19,982.54,978.54,977.08,976.85,978.02,979.19,979.00,975.58,971.62,969.34,968.36,967.35,966.27,965.22,964.01,962.54,961.03,958.88,956.36,953.88,952.14,950.26,948.92,948.06,947.47,946.87,947.07,947.48,947.81,948.20,948.64,949.12,950.00,952.07,955.48,959.16,962.80,966.18,968.67,968.82,968.52,968.72
870.69,871.21,871.85,873.08,874.87,877.06,879.04,880.14,880.62,880.84,881.56,882.65,883.94,885.21,886.18,886.75,887.14,887.13,886.43,885.08,883.75,882.43,880.88,878.47,874.70,871.77,870.42,870.85,871.25,872.22,874.14,876.79,878.76,879.77,881.82,885.11,888.95,891.36,893.41,895.60,897.96,899.97,900.83,901.00,900.72,899.96,897.73,894.37,892.47,894.39,896.54,898.29,899.08,898.86,898.52,897.38,897.23,898.26,900.08,901.95,904.10,905.78,906.45,906.91,907.20,907.35,907.23,906.40,904.87,905.17,907.39,910.84,913.03,913.53,913.22,912.51,911.66,911.36,912.11,913.68,915.56,917.26,919.56,922.04,924.14,925.33,926.05,926.17,925.68,924.74,923.75,922.74,921.98,921.88,922.31,923.71,925.49,927.30,928.83,930.44,932.21,934.12,936.03,937.64,938.75,939.29,939.04,937.93,937.88,939.13,941.26,943.06,943.55,943.73,944.40,946.09,947.41,948.18,949.00,950.31,952.43,954.20,955.17,955.19,953.98,952.27,952.15,954.16,958.72,964.83,971.14,976.13,979.23,980.62,981.19,980.41,979.40,979.69,980.19,980.14,980.01,979.95,979.37,979.68,981.00,982.91,984.66,986.18,987.82,990.18,993.78,998.19,1006.16,1014.24,1020.40,1023.45,1025.04,1025.41,1025.15,1025.08,1026.20,1029.18,1032.72,1035.82,1037.77,1039.39,1041.13,1042.98,1044.41,1043.74,1040.96,1037.46,1034.68,1033.80,1036.26,1039.85,1043.71,1047.70,1048.88,1049.28,1049.28,1048.43,1047.68,1048.69,1051.08,1054.51,1058.47,1061.52,1061.85,1059.53,1055.62,1050.29,1046.08,1043.55,1042.40,1039.82,1034.84,1028.13,1020.43,1013.45,1007.53,1003.11,1000.38,999.85,1000.75,1002.07,1003.34,1004.49,1005.77,1004.87,1002.06,998.00,993.65,988.79,983.14,978.92,978.38,978.90,980.81,981.56,980.00,976.67,973.03,970.76,969.55,968.41,967.32,966.44,965.24,963.35,961.05,959.09,957.01,954.75,952.53,950.50,949.14,948.31,947.78,947.19,946.90,946.88,947.09,947.47,947.92,948.51,949.42,951.09,954.13,957.44,960.66,963.69,966.46,966.94,966.79,966.87
872.12,872.55,873.00,873.67,874.75,876.36,877.98,879.09,879.76,880.22,881.09,882.34,883.69,884.93,885.81,886.25,886.53,886.23,885.06,883.67,882.23,880.46,878.30,875.68,872.12,869.88,869.18,869.83,870.85,873.25,876.01,878.39,879.74,881.13,883.85,887.48,890.78,892.76,894.75,896.84,898.74,900.03,900.52,900.35,899.67,898.48,895.36,892.29,891.24,893.57,895.95,897.10,897.23,896.67,896.26,895.95,896.80,898.63,900.74,902.45,904.01,904.83,904.65,904.96,904.94,904.73,904.24,903.09,902.54,905.39,909.23,911.06,912.44,912.02,911.03,910.28,910.17,910.11,911.08,913.25,916.50,919.43,921.44,923.02,924.22,923.98,923.32,922.63,921.88,920.86,919.92,919.28,919.17,919.93,921.36,922.95,924.36,925.49,926.55,927.83,929.43,931.20,932.73,933.51,933.92,934.19,934.31,934.15,935.01,936.15,937.12,937.60,937.95,938.34,939.47,941.98,943.97,945.03,945.78,946.73,948.42,950.11,950.98,950.93,950.16,950.15,952.21,955.75,960.57,967.23,973.79,979.47,983.42,984.22,984.33,983.34,982.30,982.64,983.44,983.47,983.28,983.07,982.32,981.93,982.44,983.72,985.38,987.42,989.63,992.36,996.23,1001.61,1009.65,1016.97,1022.10,1025.17,1027.34,1028.09,1027.90,1027.50,1027.80,1030.55,1034.42,1038.28,1040.99,1043.19,1045.14,1047.02,1048.80,1048.62,1045.72,1041.79,1038.36,1035.54,1036.11,1038.58,1042.53,1048.12,1050.85,1052.69,1053.85,1053.60,1053.12,1053.76,1055.51,1058.36,1062.03,1065.13,1065.92,1064.18,1060.43,1056.34,1052.48,1049.21,1046.30,1041.05,1034.38,1026.95,1019.39,1013.16,1008.16,1004.73,1002.78,1002.50,1003.67,1005.38,1007.20,1008.80,1009.57,1007.45,1004.07,999.82,994.19,988.77,983.78,980.82,981.46,982.78,984.15,983.37,980.15,977.20,974.26,972.25,970.99,969.81,968.77,967.81,966.37,964.05,961.27,959.37,957.50,955.31,952.79,950.73,949.44,948.69,948.24,947.71,947.09,946.68,946.62,946.82,947.21,947.90,948.82,950.08,952.46,955.33,958.31,961.30,964.17,964.67,964.60,964.88
873.84,874.19,874.63,875.08,875.56,876.15,877.05,878.15,879.30,880.41,881.48,882.91,884.08,884.88,885.34,885.68,885.83,885.33,883.97,882.51,880.85,878.17,874.90,872.55,870.28,869.01,868.83,870.08,873.16,877.12,880.31,882.19,883.45,886.11,888.60,890.56,892.06,893.57,895.38,897.29,898.96,899.78,899.99,899.46,898.22,896.28,893.11,890.78,890.46,892.84,895.41,895.37,894.62,894.07,893.69,895.28,897.72,900.04,901.37,902.80,903.30,903.10,902.68,902.91,902.35,901.76,901.27,900.68,902.80,906.94,910.40,910.75,910.85,910.06,908.88,908.31,910.29,911.72,913.60,916.18,919.16,921.10,921.78,921.83,921.55,920.71,919.84,919.05,918.32,917.61,917.11,917.00,917.57,919.03,920.26,921.36,922.40,923.33,924.04,925.24,926.76,928.29,929.42,929.76,930.05,930.37,930.75,931.45,932.57,933.53,934.14,934.57,935.36,936.42,937.96,940.15,941.68,942.57,943.28,944.17,945.63,946.43,946.89,947.39,948.65,951.59,954.99,958.77,963.50,970.06,976.73,983.29,988.33,988.28,987.26,985.80,984.83,985.41,986.49,986.66,986.39,986.07,985.87,985.75,986.13,987.05,988.42,990.25,992.62,995.45,999.46,1007.04,1013.68,1019.36,1024.08,1027.33,1029.91,1031.01,1030.88,1029.99,1029.62,1032.06,1035.89,1040.02,1043.79,1046.99,1049.47,1051.49,1053.36,1053.55,1050.78,1046.63,1042.57,1038.83,1037.11,1037.86,1041.20,1046.39,1050.61,1054.78,1058.16,1059.22,1059.62,1060.00,1060.73,1062.31,1065.42,1068.62,1069.99,1068.85,1064.95,1061.39,1057.61,1053.16,1047.66,1041.51,1033.33,1025.42,1018.95,1014.01,1010.27,1007.60,1005.87,1005.30,1006.40,1008.25,1010.66,1012.96,1012.30,1008.43,1003.76,998.65,992.18,987.43,985.15,985.10,987.08,989.11,988.07,984.41,979.51,977.04,975.10,973.79,972.83,971.75,970.79,969.33,967.25,964.58,961.95,960.05,958.11,955.85,953.43,951.35,950.05,949.32,948.88,948.35,947.70,947.05,946.52,946.27,946.52,947.09,947.92,949.08,950.76,953.30,956.29,959.33,961.88,961.80,961.70,962.65
875.40,875.84,876.27,876.66,877.04,877.49,878.41,879.30,880.19,881.17,882.14,882.94,883.72,884.40,884.79,885.14,885.00,884.22,882.83,881.38,878.43,874.81,871.51,869.99,868.72,868.57,869.53,871.73,875.25,879.02,882.11,884.30,886.24,888.63,890.54,891.93,893.18,894.61,896.16,897.43,898.13,898.47,898.53,897.93,896.50,894.13,891.28,889.94,890.54,892.92,894.23,893.39,892.31,892.06,893.14,895.51,898.18,900.38,901.29,902.09,902.14,901.61,900.93,901.26,900.41,899.66,899.63,900.72,903.93,906.82,908.26,907.73,907.08,907.90,908.97,910.00,912.13,914.06,915.97,917.81,919.26,919.82,919.60,919.02,918.27,917.21,916.07,915.22,914.73,914.54,915.06,915.98,917.19,918.68,920.27,921.70,923.06,924.36,925.38,926.18,926.91,927.55,927.91,928.25,928.78,929.36,930.08,931.66,933.17,934.47,935.56,936.44,937.32,938.03,938.68,939.45,940.11,940.63,941.38,942.64,944.55,946.07,947.55,949.12,951.03,954.80,959.13,963.79,968.88,974.27,980.76,987.02,991.49,991.70,990.10,988.27,987.25,987.92,989.62,990.32,990.54,990.69,990.64,990.00,989.71,990.35,992.63,995.47,998.03,1000.72,1004.49,1010.64,1016.20,1021.27,1025.89,1029.68,1032.86,1034.53,1034.81,1033.97,1032.95,1034.31,1037.37,1041.52,1045.99,1050.27,1053.80,1056.39,1057.79,1057.99,1055.89,1052.02,1047.04,1042.61,1039.55,1038.78,1040.78,1045.25,1049.73,1054.80,1059.51,1062.19,1063.69,1064.46,1065.12,1066.32,1069.02,1072.07,1073.59,1072.68,1068.61,1064.17,1059.55,1054.38,1048.22,1041.65,1032.69,1024.65,1019.06,1015.32,1012.27,1009.87,1008.24,1007.98,1009.62,1012.28,1015.21,1016.98,1014.15,1008.92,1003.25,997.71,992.35,988.56,987.82,989.80,993.47,994.36,990.89,985.20,979.51,977.81,976.92,976.21,975.45,974.36,972.65,970.36,967.80,965.21,962.69,960.88,959.12,957.16,955.00,952.90,951.40,950.34,949.52,948.94,948.26,947.54,946.81,945.98,945.74,946.19,947.12,948.23,949.55,951.61,954.19,957.00,959.38,959.27,959.62,961.15
876.04,876.75,877.39,877.90,878.35,878.87,879.82,880.45,881.03,881.66,882.23,882.29,882.69,883.39,883.98,884.51,884.06,882.98,881.47,879.44,875.41,871.41,868.61,867.95,867.60,868.37,870.19,873.04,876.47,879.72,882.62,885.21,887.80,889.88,891.41,892.67,893.99,895.27,896.32,896.85,896.75,896.74,896.74,896.26,894.96,892.50,889.92,889.32,890.57,892.71,892.69,891.44,890.57,891.02,893.30,895.94,898.36,900.10,900.63,900.90,900.67,899.92,898.99,899.40,898.59,898.15,898.87,901.00,903.98,905.24,905.25,905.05,904.93,907.23,909.98,912.11,913.71,915.38,916.77,917.67,917.77,917.27,916.43,915.51,914.64,913.65,912.53,911.87,911.84,912.43,914.13,916.09,917.84,919.22,921.12,922.92,924.65,926.38,927.93,928.71,928.91,928.73,928.36,928.59,929.25,930.09,931.20,933.35,935.06,936.60,938.10,939.47,940.35,940.77,940.90,940.88,940.98,941.27,942.01,943.52,945.93,948.39,950.68,952.69,954.59,958.55,963.70,969.31,974.80,979.18,985.10,990.58,994.34,995.47,993.80,991.56,990.07,990.39,992.52,993.88,994.95,995.89,995.80,994.37,993.10,993.33,996.90,1001.35,1004.46,1007.14,1010.49,1014.19,1018.73,1023.45,1028.03,1032.18,1035.84,1038.08,1038.85,1038.15,1036.69,1036.81,1038.92,1043.09,1048.20,1053.48,1057.77,1060.64,1061.72,1061.89,1060.33,1056.78,1051.24,1046.21,1042.41,1040.70,1041.56,1044.88,1049.04,1054.30,1059.74,1063.85,1066.64,1068.22,1069.28,1070.44,1072.68,1075.51,1077.01,1076.05,1071.44,1065.97,1060.51,1054.84,1048.56,1041.74,1032.77,1025.06,1020.09,1016.97,1014.33,1012.32,1011.18,1011.50,1013.69,1016.81,1019.60,1020.20,1015.40,1009.30,1003.35,998.14,994.37,992.16,992.74,995.74,999.67,998.43,993.02,986.38,980.85,979.81,979.75,979.42,978.55,976.96,974.24,971.06,968.12,965.78,963.74,962.14,960.63,958.95,956.80,954.72,953.09,951.71,950.44,949.64,948.87,948.06,947.13,945.88,945.07,945.25,946.16,947.25,948.44,950.12,952.25,954.67,956.80,957.10,957.97,959.75
874.89,876.16,877.46,878.34,878.97,879.54,880.10,880.55,881.00,881.32,881.01,880.54,880.71,881.54,882.74,883.67,882.99,881.58,879.63,875.86,871.69,868.49,866.75,866.71,867.28,868.44,870.26,872.93,876.05,879.02,881.83,884.56,887.40,889.76,891.52,892.93,894.22,894.98,895.13,894.98,894.75,894.73,894.73,894.60,893.95,891.88,889.25,888.80,890.02,891.50,890.80,889.69,889.85,891.64,893.89,896.34,898.17,899.13,899.13,899.27,898.79,897.73,896.57,896.95,896.72,897.47,899.25,900.54,901.49,901.69,902.26,904.50,907.20,909.64,911.67,913.13,913.83,914.21,914.48,914.60,914.37,913.65,912.51,911.41,910.67,910.11,909.69,909.71,910.42,912.22,915.09,917.87,919.99,921.27,923.08,924.93,926.79,928.75,930.95,932.65,933.17,932.73,931.90,931.56,931.96,932.93,934.47,936.58,938.07,939.32,940.66,942.33,943.22,944.03,945.00,946.06,946.46,946.88,947.56,948.84,951.47,954.47,956.40,957.37,958.62,962.51,968.38,974.77,980.50,984.81,989.54,993.89,997.51,1000.28,999.34,996.59,993.82,992.92,994.90,997.04,999.34,1001.44,1001.11,998.70,996.15,995.66,1000.65,1007.20,1011.57,1014.69,1017.47,1018.60,1022.07,1026.48,1030.92,1034.91,1038.69,1041.36,1042.59,1042.01,1040.49,1039.50,1040.70,1044.94,1050.76,1056.83,1061.02,1063.32,1064.71,1064.88,1063.33,1059.97,1054.72,1049.18,1045.37,1043.80,1044.32,1045.83,1049.10,1053.88,1059.26,1064.18,1068.52,1071.44,1073.37,1074.74,1076.36,1078.95,1080.31,1078.89,1073.03,1066.97,1061.08,1055.16,1048.84,1041.86,1034.11,1027.50,1022.75,1019.14,1016.60,1015.51,1015.65,1016.87,1019.27,1021.76,1023.15,1021.87,1015.88,1009.73,1004.82,1001.26,999.01,999.47,1001.48,1003.92,1005.05,1000.65,994.33,988.51,984.63,983.94,984.20,983.79,982.25,979.25,975.33,971.38,968.17,966.24,965.42,964.28,962.99,961.32,958.58,956.62,955.08,953.59,951.95,950.58,949.61,948.59,947.35,946.03,944.66,944.29,944.85,945.91,947.22,948.88,950.71,952.52,954.18,955.43,956.78,958.18
874.34,875.81,877.31,878.32,878.83,878.97,879.26,879.99,880.40,880.18,879.54,879.26,879.87,881.11,882.36,882.75,881.91,879.71,876.11,872.02,868.69,866.53,865.89,867.25,868.32,869.14,870.36,872.73,875.94,878.68,881.49,884.65,887.78,889.94,891.51,892.83,894.01,894.14,893.72,893.22,892.87,892.74,892.72,892.76,892.50,891.03,888.25,888.24,889.67,890.15,889.05,889.19,890.43,892.48,894.63,896.22,896.96,897.05,896.87,896.78,896.16,895.55,895.56,896.57,897.13,898.07,899.42,900.45,901.31,902.16,903.67,906.38,908.73,910.13,911.09,911.76,911.96,911.94,911.84,911.65,911.22,910.57,909.64,908.76,908.30,908.73,909.25,909.98,911.13,913.04,915.72,918.55,920.96,922.60,924.67,926.56,928.48,930.65,933.24,935.69,937.36,937.90,937.05,936.69,936.83,937.39,938.55,940.76,941.98,942.82,943.76,945.13,946.18,947.41,948.98,950.80,952.20,953.59,955.01,956.59,958.67,961.06,963.11,964.65,965.79,967.88,972.54,978.73,985.12,989.74,994.44,999.17,1003.55,1006.67,1006.16,1003.13,999.16,996.28,997.21,999.85,1003.21,1006.18,1005.82,1002.19,998.63,997.66,1002.36,1008.46,1013.56,1017.79,1021.35,1023.44,1026.50,1030.28,1034.41,1038.40,1042.03,1044.77,1046.26,1045.89,1044.52,1043.44,1044.15,1047.74,1053.96,1059.46,1063.27,1065.70,1067.45,1067.71,1065.72,1062.11,1057.20,1051.16,1048.03,1047.13,1047.69,1048.68,1051.07,1054.94,1059.74,1064.82,1069.58,1073.30,1076.18,1078.48,1080.80,1083.41,1083.99,1081.34,1074.50,1067.71,1061.52,1055.45,1048.93,1041.90,1035.82,1030.68,1026.36,1022.53,1020.29,1020.17,1021.51,1023.51,1026.08,1027.87,1027.33,1023.38,1017.12,1011.60,1007.49,1004.67,1003.03,1004.47,1006.96,1008.80,1008.02,1002.37,996.68,992.46,990.38,990.54,990.81,989.64,986.86,982.53,977.33,972.68,969.50,968.28,968.05,967.37,966.10,964.02,960.70,958.29,956.52,954.97,953.37,951.77,950.38,949.01,947.59,946.18,944.67,943.66,943.52,944.67,946.22,947.96,949.70,951.34,952.71,953.94,955.26,956.55
874.24,875.76,877.03,877.84,878.09,877.83,878.12,879.09,879.37,878.66,878.10,878.46,879.64,881.12,882.08,881.78,880.62,877.59,872.51,868.65,866.18,865.04,865.51,868.22,869.76,870.36,871.16,873.28,876.55,878.97,881.74,885.26,888.50,890.26,891.49,892.59,893.47,893.07,892.31,891.57,891.03,890.78,890.80,890.94,890.87,889.86,887.16,887.49,888.93,888.64,888.00,889.41,891.42,893.29,895.05,895.59,895.27,894.66,894.39,894.19,893.93,894.24,895.58,897.27,898.50,899.34,899.98,900.79,901.88,903.34,905.22,907.35,908.52,908.95,909.10,909.17,909.26,909.28,909.13,908.81,908.30,907.79,907.38,907.10,907.22,908.55,909.89,911.22,912.69,914.48,916.58,919.06,921.51,923.58,925.93,927.89,929.85,932.10,934.82,937.77,940.56,942.48,942.41,942.51,942.57,942.71,943.33,945.33,946.27,946.81,947.44,948.50,949.75,951.38,953.39,955.72,957.95,960.13,962.19,964.10,965.87,967.87,970.07,972.14,973.43,974.00,977.05,982.42,989.23,994.56,999.78,1005.35,1010.59,1013.20,1012.66,1009.60,1005.11,1000.73,1000.14,1002.87,1006.86,1010.26,1010.02,1005.84,1001.71,1000.11,1003.67,1008.49,1013.75,1018.77,1023.11,1026.99,1030.40,1034.01,1038.03,1042.12,1045.64,1048.58,1050.45,1050.40,1048.95,1047.84,1048.16,1050.99,1057.11,1061.80,1065.38,1068.33,1070.75,1070.87,1068.13,1064.01,1059.40,1053.26,1051.40,1051.33,1051.75,1052.52,1054.31,1057.20,1060.98,1065.51,1070.19,1074.55,1078.49,1081.96,1085.21,1087.95,1087.70,1083.71,1076.02,1068.38,1061.90,1055.78,1049.12,1042.32,1037.68,1033.87,1030.21,1026.80,1025.09,1025.81,1028.12,1030.79,1033.34,1033.94,1031.31,1025.12,1019.03,1014.37,1010.96,1008.46,1006.85,1008.59,1011.24,1012.59,1010.54,1004.84,1000.35,997.57,996.63,997.44,997.23,994.94,990.87,985.53,979.60,974.87,972.21,971.91,971.97,971.40,969.67,966.72,962.88,959.86,957.73,956.07,954.48,952.74,950.99,949.33,947.80,946.32,944.78,943.27,942.42,943.31,944.95,946.69,948.48,950.25,951.55,952.50,953.66,954.88
874.96,876.35,876.51,876.38,876.16,876.06,877.07,877.83,877.60,876.72,877.00,878.71,880.25,881.18,881.33,880.73,878.75,875.14,870.32,866.92,864.52,864.05,865.67,868.88,871.16,872.62,874.06,876.23,879.01,880.84,883.32,886.77,889.53,890.71,891.57,892.25,892.29,891.77,891.08,890.18,889.18,888.85,889.17,889.38,889.07,887.98,886.12,886.18,886.83,886.79,888.90,890.76,892.41,893.82,894.39,893.92,893.11,892.33,891.94,892.16,893.56,895.48,897.44,899.37,900.64,901.45,901.92,902.13,902.58,902.89,903.08,903.30,903.79,904.50,904.93,905.10,905.85,906.48,906.54,906.18,905.83,905.42,905.96,907.11,908.52,909.98,911.51,913.10,914.82,916.79,918.42,920.03,921.88,924.19,926.58,928.65,930.62,932.66,934.98,937.80,940.93,944.13,946.91,948.43,948.94,949.13,949.51,950.21,950.89,951.58,952.40,953.61,955.10,957.02,959.26,961.62,963.50,965.14,966.76,968.68,971.49,974.87,976.87,977.87,979.54,981.10,983.10,986.73,992.88,999.73,1006.02,1012.44,1017.90,1018.66,1017.00,1014.50,1011.41,1007.66,1005.04,1006.83,1010.28,1013.10,1013.22,1010.83,1007.13,1004.22,1005.67,1009.01,1013.29,1017.51,1021.37,1026.24,1031.63,1036.80,1041.49,1045.80,1049.61,1053.38,1056.32,1056.78,1054.40,1052.43,1052.27,1054.72,1059.45,1063.98,1068.00,1071.92,1075.96,1075.18,1071.13,1066.16,1061.63,1056.73,1057.16,1057.94,1057.36,1057.53,1059.52,1061.69,1063.71,1066.09,1070.16,1075.24,1080.45,1085.18,1088.85,1091.82,1091.13,1086.22,1077.83,1069.12,1062.26,1056.20,1049.79,1043.94,1039.64,1036.35,1033.95,1032.60,1031.87,1033.05,1035.74,1038.81,1040.82,1038.87,1034.07,1027.68,1022.27,1018.52,1015.66,1013.10,1010.69,1012.20,1014.94,1016.20,1013.91,1010.03,1007.04,1004.43,1002.52,1002.89,1001.00,997.20,992.22,986.75,981.82,978.81,977.93,978.84,978.89,977.37,973.90,969.12,964.84,961.29,958.74,956.73,954.81,952.81,951.07,949.46,947.92,946.39,944.85,943.31,942.00,941.53,942.66,944.15,946.12,948.58,950.29,951.14,952.09,953.18
875.12,875.44,874.99,874.51,874.35,874.86,876.23,876.46,875.77,875.08,876.54,878.85,880.30,880.63,879.94,878.58,875.93,872.38,868.42,865.22,862.86,862.96,865.38,868.74,871.47,873.75,875.82,877.88,880.19,882.00,884.20,886.96,889.26,890.36,891.04,891.39,891.08,890.45,889.51,888.30,887.10,886.99,887.52,887.63,887.06,886.08,884.91,885.03,886.04,887.46,889.87,891.56,892.64,893.14,892.91,892.12,891.14,890.57,891.25,892.91,894.85,896.50,897.65,898.83,899.66,900.16,900.40,900.44,900.56,900.60,900.50,900.34,900.62,901.30,901.87,902.29,903.06,903.92,904.32,904.53,905.16,905.64,906.79,908.43,910.33,912.13,913.89,915.30,916.63,918.72,920.22,921.35,922.72,924.90,927.27,929.43,931.46,933.45,935.56,937.99,940.98,944.40,947.85,950.39,952.62,954.34,955.31,956.22,956.97,957.77,958.75,960.01,961.54,963.38,965.53,967.95,969.86,971.33,972.68,974.46,977.67,981.06,982.65,983.09,984.62,986.99,989.17,992.36,997.91,1005.17,1012.09,1018.11,1022.33,1022.81,1021.16,1019.12,1016.77,1013.62,1010.40,1011.15,1013.85,1016.56,1017.09,1015.48,1012.29,1008.97,1008.34,1011.07,1014.80,1018.24,1021.11,1024.97,1030.60,1036.63,1042.38,1047.65,1053.29,1058.30,1061.82,1062.36,1059.09,1056.49,1055.78,1057.61,1061.89,1066.48,1071.49,1076.57,1080.21,1079.02,1074.52,1069.21,1064.77,1060.76,1061.83,1062.85,1062.22,1062.51,1064.63,1066.39,1067.49,1068.62,1071.99,1077.36,1083.17,1088.31,1092.08,1095.25,1094.09,1088.27,1079.58,1070.30,1063.25,1057.60,1052.29,1047.70,1043.93,1040.83,1038.74,1038.48,1038.34,1040.29,1043.57,1046.21,1046.98,1043.04,1037.12,1031.48,1027.55,1024.39,1021.61,1018.76,1015.65,1016.70,1019.41,1020.54,1017.75,1014.64,1012.17,1009.76,1007.68,1007.28,1003.72,998.93,993.90,989.17,985.91,984.38,984.04,984.24,983.12,980.15,975.16,969.16,964.60,961.10,958.67,956.73,954.81,952.85,951.19,949.64,948.09,946.51,944.96,943.37,941.81,940.65,941.01,941.78,943.43,946.18,948.15,949.28,950.40,951.58
874.69,873.83,873.04,872.54,872.71,873.91,875.33,874.98,874.04,873.84,876.32,878.75,879.77,879.44,878.02,875.86,872.79,869.53,866.48,863.43,861.34,862.08,865.23,868.65,871.63,874.51,877.05,878.97,880.88,882.85,884.82,886.76,888.65,889.67,890.15,890.20,889.71,888.98,887.71,886.17,884.88,885.11,885.84,885.89,885.18,884.38,883.71,884.13,885.89,888.80,890.58,891.80,892.26,891.87,891.07,890.30,889.63,889.72,891.72,894.28,895.82,896.45,896.53,896.87,897.22,897.43,897.53,897.64,897.62,897.75,897.91,898.00,898.37,898.98,899.66,900.35,901.05,902.16,903.06,904.00,905.67,907.15,908.76,910.57,912.60,914.70,916.58,917.64,918.38,920.37,921.85,922.82,923.86,925.63,927.90,930.11,932.20,934.21,936.22,938.25,940.95,944.21,947.50,950.67,954.64,958.13,960.14,961.91,963.08,964.21,965.48,966.72,968.26,969.98,971.99,974.40,976.46,977.96,979.27,980.96,984.07,986.81,987.97,988.17,989.30,992.09,995.04,998.65,1003.89,1010.92,1017.73,1022.74,1025.55,1026.63,1025.49,1023.68,1021.56,1018.91,1015.79,1015.52,1017.43,1020.29,1021.29,1020.04,1017.31,1013.96,1011.62,1013.81,1017.25,1020.25,1022.25,1024.67,1029.57,1035.66,1042.12,1048.50,1056.35,1062.76,1066.76,1067.25,1063.52,1060.47,1059.20,1060.38,1064.60,1069.36,1075.32,1081.30,1083.88,1082.46,1078.00,1072.71,1068.35,1065.19,1066.25,1067.21,1066.87,1067.52,1069.76,1071.37,1072.05,1072.48,1075.05,1080.31,1086.21,1091.34,1095.17,1098.63,1096.97,1090.13,1081.21,1072.15,1065.16,1059.86,1055.71,1052.21,1048.87,1045.92,1044.00,1044.31,1044.54,1047.40,1051.42,1053.23,1052.34,1046.97,1040.63,1035.95,1033.62,1030.90,1027.95,1024.72,1021.36,1022.11,1024.44,1025.09,1021.86,1018.98,1016.49,1014.19,1012.22,1010.88,1006.18,1001.13,996.69,993.18,991.53,990.98,990.29,988.54,985.49,980.90,974.79,968.22,963.65,960.45,958.32,956.65,954.98,953.33,951.80,950.24,948.58,946.87,945.21,943.49,941.74,940.23,939.89,939.93,941.03,943.57,945.67,947.23,948.69,950.08
872.93,871.91,871.05,870.84,871.50,873.03,873.91,873.23,872.74,873.54,876.08,877.90,878.05,876.91,875.08,872.78,869.87,866.85,863.97,861.28,860.29,862.19,866.22,869.99,872.92,875.72,878.19,879.99,881.76,883.66,885.52,887.25,888.75,889.01,888.90,888.58,887.83,887.01,885.62,883.91,882.55,883.05,884.12,884.50,884.08,883.46,882.85,883.86,886.12,888.76,890.30,890.88,890.84,890.25,889.11,888.65,889.42,891.34,893.81,893.62,893.11,892.88,893.09,893.79,894.25,894.63,895.03,895.37,895.46,895.66,895.94,896.26,897.09,897.95,898.78,899.67,900.89,902.92,904.65,906.09,907.75,909.40,911.53,913.75,915.77,917.79,919.25,919.99,920.39,921.51,922.97,924.27,925.30,926.29,928.25,930.39,932.49,934.50,936.51,938.51,941.14,944.38,947.85,950.89,954.65,958.61,962.07,964.71,967.09,969.41,971.44,972.59,974.35,976.37,978.51,980.68,982.71,984.45,986.22,988.20,990.40,992.19,993.18,993.58,994.10,996.13,1000.15,1005.32,1011.13,1017.45,1022.15,1025.77,1028.76,1031.26,1030.68,1028.47,1025.76,1023.26,1020.65,1019.56,1020.81,1024.05,1025.73,1024.76,1022.20,1018.91,1016.13,1016.71,1020.12,1023.84,1026.21,1028.66,1032.02,1036.28,1041.58,1048.44,1057.58,1065.36,1070.26,1070.87,1068.15,1065.01,1063.23,1064.09,1068.16,1073.13,1079.04,1084.67,1086.92,1085.25,1081.29,1076.50,1072.15,1070.26,1071.47,1072.23,1071.82,1072.63,1075.13,1076.99,1077.87,1078.27,1079.70,1084.07,1089.34,1094.08,1098.33,1102.47,1100.29,1091.98,1082.45,1075.71,1069.37,1063.78,1059.79,1056.18,1052.64,1050.21,1049.39,1049.79,1050.24,1054.13,1059.03,1059.76,1056.73,1051.19,1045.38,1041.03,1039.44,1037.09,1033.82,1030.26,1028.04,1029.49,1030.29,1029.24,1026.20,1023.24,1020.25,1017.70,1015.63,1013.18,1009.34,1005.74,1002.96,1001.19,999.82,998.86,996.38,991.21,985.18,979.13,972.99,967.30,963.49,960.54,958.60,957.25,956.18,955.45,954.13,952.33,950.20,948.06,945.92,943.77,941.73,940.20,939.74,939.70,940.10,941.23,943.27,945.23,947.08,948.84
871.16,869.63,869.16,869.82,870.94,871.84,871.86,871.35,871.75,873.48,875.56,876.23,875.62,874.19,872.29,869.81,867.01,864.20,861.68,860.02,860.49,863.19,867.42,871.57,874.58,877.25,879.52,881.12,882.75,884.52,886.17,887.43,887.86,887.60,887.19,886.65,885.78,884.92,883.63,881.99,880.63,881.48,882.64,883.14,882.90,882.38,881.96,882.83,884.72,886.99,888.37,888.47,888.34,888.40,888.63,889.31,890.45,891.83,892.77,891.37,890.02,889.60,890.24,890.83,891.48,892.10,892.69,893.35,894.18,895.08,895.91,896.55,897.31,898.13,899.01,900.18,902.24,904.88,907.09,908.78,910.39,912.34,914.79,917.07,918.70,920.22,921.29,921.94,922.35,923.06,924.46,925.80,926.80,927.49,929.00,931.02,933.14,935.21,937.29,939.43,942.13,945.32,948.62,951.33,954.40,957.81,961.23,964.06,966.85,969.71,972.38,974.27,976.61,979.01,981.54,984.40,987.01,989.13,991.16,993.23,995.21,996.90,998.11,999.03,1000.25,1002.44,1007.12,1012.68,1017.78,1022.77,1026.49,1029.87,1033.28,1036.39,1036.59,1034.24,1030.80,1027.72,1025.10,1023.55,1024.38,1027.69,1030.13,1029.48,1026.98,1023.58,1020.32,1019.32,1022.50,1027.36,1031.51,1034.55,1036.94,1040.22,1044.89,1050.67,1058.54,1066.05,1071.83,1074.26,1072.69,1069.77,1067.64,1067.88,1071.84,1076.95,1082.85,1088.27,1090.25,1088.38,1084.61,1080.36,1076.82,1075.68,1076.79,1077.32,1076.87,1077.77,1080.16,1082.19,1083.49,1084.20,1084.84,1087.93,1092.27,1096.93,1101.60,1105.92,1102.80,1093.20,1084.14,1078.57,1072.87,1067.34,1063.07,1059.37,1056.52,1055.08,1055.10,1055.65,1056.82,1061.16,1065.79,1065.26,1060.80,1055.09,1049.85,1046.20,1044.77,1042.26,1038.83,1035.55,1034.56,1035.81,1035.61,1033.69,1030.56,1027.26,1024.00,1021.09,1018.50,1015.70,1012.66,1010.18,1008.45,1007.25,1004.95,1002.02,997.53,990.96,984.53,978.79,973.49,968.87,965.79,963.05,960.70,958.91,958.01,957.71,956.76,955.01,952.41,949.16,946.61,944.27,942.03,940.26,939.70,939.57,939.64,940.14,941.68,943.69,945.74,947.70
869.29,867.13,867.25,868.86,870.24,870.10,869.67,869.87,871.20,873.35,874.53,873.91,872.71,871.30,869.47,866.80,864.12,861.64,859.81,859.66,861.67,864.88,868.87,873.36,876.49,878.97,880.92,882.27,883.79,885.34,886.62,887.16,886.31,885.73,885.24,884.61,883.64,882.77,881.72,880.30,879.03,880.20,881.29,881.78,881.68,881.24,881.08,881.45,882.55,884.45,885.76,885.79,885.98,887.12,889.14,890.88,891.56,891.17,889.90,888.41,887.31,887.34,888.54,888.79,889.57,890.38,891.13,892.29,894.05,895.79,897.24,898.20,898.68,899.35,900.28,901.72,904.38,907.29,909.62,911.38,912.97,915.21,917.71,919.75,920.88,921.88,922.74,923.46,924.06,924.77,926.11,927.34,928.28,929.02,930.11,931.98,934.11,936.23,938.30,940.56,943.28,946.29,949.14,951.44,953.67,956.07,958.71,961.34,964.04,967.00,970.15,973.10,976.11,978.84,981.79,985.58,989.04,991.69,993.93,996.02,998.21,1000.38,1002.20,1003.98,1006.58,1009.54,1014.40,1019.43,1023.15,1026.72,1030.25,1033.97,1037.81,1041.15,1042.53,1040.53,1036.49,1032.41,1029.64,1027.83,1028.20,1031.22,1034.37,1034.23,1031.90,1028.36,1024.57,1022.16,1024.78,1030.45,1036.70,1040.71,1042.97,1046.17,1050.70,1054.66,1059.86,1065.99,1072.36,1077.38,1077.14,1074.64,1072.23,1071.76,1075.52,1080.75,1086.74,1092.07,1093.73,1091.72,1088.07,1084.47,1082.08,1081.14,1081.94,1082.24,1081.82,1082.81,1084.92,1087.10,1088.92,1090.05,1090.22,1091.86,1095.15,1099.88,1104.79,1108.59,1104.44,1094.18,1086.36,1081.08,1075.88,1070.67,1066.11,1062.64,1060.98,1060.62,1061.13,1061.82,1063.87,1068.18,1071.80,1069.85,1064.66,1058.90,1054.29,1051.61,1049.97,1046.93,1043.43,1040.77,1040.86,1041.51,1040.63,1038.29,1034.88,1031.16,1027.76,1024.46,1021.28,1018.58,1016.19,1014.44,1013.14,1011.50,1007.69,1002.41,996.24,989.69,984.28,979.77,975.82,972.44,969.93,967.18,964.15,961.73,960.84,960.57,959.81,958.02,954.82,950.22,947.28,944.81,942.40,940.34,939.70,939.44,939.42,939.82,940.67,942.50,944.59,946.62
866.71,864.51,864.96,866.37,867.17,866.85,868.47,870.41,871.84,872.40,871.92,870.72,869.41,867.95,865.91,863.31,860.99,859.41,859.16,860.93,863.92,867.32,871.11,875.58,878.68,880.66,882.08,883.32,884.73,885.90,886.29,885.71,884.59,883.81,883.33,882.73,881.48,880.57,879.73,878.65,877.71,878.86,879.85,880.40,880.53,880.38,880.34,880.67,881.50,882.91,884.48,885.70,887.19,888.96,889.98,890.24,889.79,888.84,887.56,886.29,886.78,888.39,890.14,890.43,890.88,891.60,892.80,894.98,896.93,898.33,899.43,900.51,901.30,902.25,903.44,904.84,906.27,908.69,910.74,912.31,913.98,915.92,917.84,919.36,920.43,922.05,923.25,924.07,924.82,926.02,927.44,928.61,929.59,930.60,931.73,933.46,935.45,937.40,938.96,940.83,943.04,945.41,947.60,949.38,951.08,953.10,955.64,958.16,960.87,963.87,967.11,970.32,973.39,976.13,978.89,982.23,986.13,989.56,992.42,994.82,997.27,1000.08,1003.23,1006.59,1010.06,1013.85,1017.94,1021.61,1024.47,1027.87,1031.35,1035.00,1038.89,1043.05,1046.79,1046.48,1042.75,1037.66,1035.65,1033.48,1032.70,1034.57,1038.02,1039.16,1037.72,1034.34,1030.07,1026.92,1027.90,1032.05,1038.11,1043.56,1047.83,1052.40,1057.17,1060.18,1063.24,1067.57,1073.33,1079.66,1081.49,1079.50,1076.84,1075.94,1079.03,1084.49,1090.77,1096.01,1097.00,1094.94,1092.11,1089.58,1087.73,1085.81,1086.14,1086.41,1086.20,1087.37,1089.56,1092.03,1094.26,1095.59,1095.46,1096.01,1098.38,1102.86,1107.32,1108.92,1104.37,1095.81,1089.69,1084.22,1079.01,1074.18,1070.28,1068.36,1067.62,1067.53,1067.84,1068.33,1070.54,1074.32,1076.65,1073.18,1068.28,1063.20,1059.60,1058.04,1055.96,1052.22,1048.58,1046.29,1046.67,1047.48,1045.90,1042.67,1038.95,1035.13,1031.49,1028.05,1024.90,1022.32,1020.26,1018.72,1016.91,1013.46,1008.78,1003.34,997.47,991.47,986.34,982.37,979.88,978.25,975.70,972.14,968.93,966.94,966.63,965.95,964.19,961.18,956.77,951.45,947.88,944.97,942.32,940.23,939.63,939.33,939.28,939.62,940.11,941.64,943.55,945.52
863.88,861.91,862.40,863.83,865.07,865.89,868.62,870.63,871.30,870.62,869.25,867.68,866.09,864.35,862.22,859.99,858.82,858.83,860.33,863.64,867.10,870.56,874.18,878.07,880.60,882.11,883.22,884.30,885.13,885.56,885.27,884.24,883.01,881.97,881.38,880.81,879.56,878.47,877.69,876.94,876.39,877.37,878.23,878.91,879.44,879.77,880.14,880.87,881.92,883.33,885.13,886.39,887.63,888.83,889.04,888.44,887.47,886.46,885.79,885.64,887.23,889.49,891.43,892.22,892.97,893.95,895.42,897.73,899.57,900.79,901.83,903.12,904.43,905.71,906.90,907.89,908.51,910.14,911.73,913.14,914.68,916.24,917.74,919.01,920.14,921.89,922.83,923.42,924.21,925.84,927.68,929.08,930.26,931.53,932.71,934.16,935.78,937.39,938.65,940.25,942.04,943.92,945.78,947.33,948.83,950.55,952.77,955.45,958.50,961.64,964.77,967.95,970.84,973.51,976.16,979.09,982.67,986.37,989.67,992.41,995.04,998.05,1001.48,1005.20,1008.94,1012.74,1016.31,1019.52,1022.42,1025.89,1029.76,1033.94,1038.49,1043.58,1049.00,1050.78,1048.89,1044.56,1042.05,1039.56,1038.01,1038.53,1041.70,1043.77,1043.66,1041.09,1035.95,1032.12,1031.59,1034.01,1039.09,1045.38,1051.13,1056.64,1061.62,1064.83,1067.56,1070.90,1075.62,1081.89,1085.29,1084.15,1081.75,1080.67,1082.91,1088.47,1095.04,1100.47,1101.56,1099.17,1096.59,1094.67,1093.26,1090.90,1090.87,1091.04,1090.97,1092.42,1094.41,1097.02,1099.54,1100.73,1100.29,1100.61,1102.45,1106.12,1110.58,1109.88,1104.90,1098.00,1092.75,1087.52,1082.91,1078.78,1075.33,1074.16,1073.88,1073.91,1074.16,1074.87,1077.76,1080.80,1081.52,1077.14,1072.53,1067.95,1064.78,1063.35,1060.76,1057.30,1054.38,1052.65,1052.65,1053.08,1050.65,1046.59,1042.63,1038.85,1035.15,1031.76,1028.86,1026.58,1025.01,1022.77,1019.39,1014.70,1009.92,1005.04,1000.06,995.12,990.83,987.58,985.41,983.60,980.43,976.39,973.74,972.55,972.20,970.86,968.39,964.56,959.28,953.50,948.88,945.14,942.13,940.07,939.49,939.18,939.13,939.50,939.86,941.11,942.74,944.51
860.94,859.56,860.04,861.83,864.23,866.84,869.43,870.11,869.53,868.20,866.67,864.89,862.85,860.71,858.78,857.37,857.95,859.93,863.06,867.31,870.85,874.27,877.64,880.45,882.00,883.13,884.18,885.04,884.91,884.41,883.73,882.83,881.57,880.23,879.40,878.80,877.80,876.46,875.77,875.45,875.42,876.18,876.92,877.78,878.73,879.59,880.56,881.91,883.45,885.02,886.75,887.01,886.78,886.60,886.51,885.85,885.06,884.52,884.78,886.29,888.29,890.31,892.10,893.62,895.13,896.64,898.19,899.86,901.46,902.77,904.05,905.62,907.46,909.00,910.00,910.49,910.91,911.68,912.77,914.01,915.22,916.39,917.65,918.91,920.13,921.48,921.64,921.80,922.62,924.58,927.02,928.83,930.22,931.66,932.87,934.00,935.20,936.46,937.70,939.17,940.74,942.40,944.24,945.81,947.35,948.83,950.52,953.50,957.07,960.34,963.21,966.15,968.73,971.28,973.90,976.60,979.34,982.78,986.20,989.20,991.97,994.82,997.67,1000.69,1004.23,1007.43,1010.81,1014.30,1017.81,1021.45,1025.96,1031.23,1037.04,1043.09,1049.49,1053.50,1054.64,1052.62,1048.89,1046.05,1043.96,1043.14,1045.56,1048.10,1049.32,1047.92,1042.16,1037.97,1036.40,1037.20,1040.67,1046.74,1053.16,1059.16,1064.47,1068.99,1072.77,1075.77,1079.20,1084.39,1088.66,1088.57,1086.92,1085.98,1087.39,1092.89,1099.58,1105.28,1107.04,1104.20,1101.40,1099.66,1098.65,1096.45,1096.22,1096.20,1096.18,1097.96,1099.59,1102.20,1104.83,1105.55,1104.91,1105.74,1107.46,1110.02,1114.47,1111.77,1106.42,1100.76,1095.70,1091.15,1087.61,1084.32,1081.01,1079.77,1079.52,1079.66,1080.14,1081.39,1085.13,1087.18,1086.13,1081.55,1077.14,1072.88,1069.66,1067.62,1064.55,1062.12,1060.43,1059.31,1058.50,1058.05,1054.86,1050.22,1045.97,1042.29,1038.68,1035.48,1032.91,1031.02,1029.93,1026.55,1021.29,1015.99,1011.71,1007.66,1003.76,1000.17,997.13,994.65,991.81,988.32,984.24,980.20,978.52,978.06,977.07,974.88,972.07,967.96,962.36,956.21,950.23,945.46,942.00,939.91,939.32,939.00,938.98,939.43,939.84,940.85,942.16,943.64
858.38,858.47,859.98,862.41,864.87,866.65,867.93,867.92,867.05,865.63,864.07,862.23,859.98,857.92,857.15,857.82,859.87,862.86,866.51,870.32,873.97,877.16,879.66,881.07,881.87,882.89,883.96,884.52,883.74,882.91,882.10,881.22,880.15,878.78,877.54,876.56,875.76,874.52,874.68,875.59,876.61,877.54,878.32,879.14,880.00,880.86,881.94,883.41,884.65,884.97,885.06,884.60,884.09,883.77,883.61,883.18,883.49,884.48,885.81,887.63,889.40,891.02,892.49,894.05,895.66,897.25,898.76,900.20,901.73,903.22,904.72,906.32,907.92,909.32,910.51,911.53,912.35,913.14,913.95,914.74,915.49,916.33,917.33,918.40,919.47,920.43,920.04,920.18,921.51,923.84,926.46,928.08,929.14,930.38,931.64,933.04,934.55,936.09,937.60,939.02,940.76,942.76,944.66,946.17,947.69,949.13,950.69,953.62,956.91,959.80,962.24,964.78,967.14,969.47,971.87,974.41,976.94,979.57,982.27,985.11,988.17,991.00,993.73,996.56,999.74,1002.90,1006.12,1009.38,1012.75,1016.51,1021.31,1027.51,1034.74,1041.71,1049.07,1055.08,1058.95,1059.62,1057.22,1053.47,1050.07,1048.41,1050.04,1052.43,1053.30,1052.12,1049.00,1046.55,1045.42,1045.22,1045.99,1048.76,1054.76,1061.62,1068.51,1075.51,1079.72,1081.84,1084.04,1088.46,1092.18,1092.62,1092.07,1092.17,1093.56,1098.51,1104.41,1109.45,1111.32,1108.82,1106.29,1104.73,1103.92,1102.31,1101.95,1101.70,1101.68,1103.62,1105.74,1108.29,1110.32,1110.42,1110.27,1111.76,1114.05,1116.36,1118.10,1114.82,1109.73,1104.50,1100.02,1096.37,1093.23,1089.99,1086.61,1085.05,1084.73,1085.16,1086.22,1087.80,1090.28,1090.55,1088.41,1084.57,1080.67,1076.99,1074.02,1071.79,1068.92,1066.70,1065.01,1063.66,1062.48,1061.29,1058.57,1054.35,1049.19,1045.22,1041.74,1038.71,1036.24,1034.29,1032.62,1029.98,1025.80,1019.99,1016.23,1012.31,1008.67,1005.88,1003.26,1000.53,997.01,992.80,988.75,985.59,983.72,982.34,980.45,977.59,974.30,970.52,965.69,958.76,951.77,946.38,942.56,940.00,939.26,938.89,938.85,939.31,939.77,940.72,941.95,943.26
856.29,858.41,860.65,862.86,864.55,865.25,865.58,865.18,864.25,862.91,861.23,859.17,857.53,856.81,857.65,859.79,862.56,865.73,869.07,871.89,875.39,878.31,880.07,880.51,881.22,882.43,883.54,883.74,882.58,881.49,880.49,879.44,878.17,876.82,875.49,874.37,873.78,873.50,874.61,876.38,878.06,879.05,879.79,880.54,881.35,882.18,883.03,884.06,884.57,883.82,882.75,881.99,881.57,881.48,881.73,882.03,883.30,885.28,887.25,889.00,890.47,891.76,893.02,894.45,895.97,897.46,898.86,900.11,901.60,903.18,904.68,906.00,907.40,908.73,910.12,911.49,912.41,913.16,913.71,914.15,914.66,915.35,916.21,917.14,918.08,918.99,919.19,919.92,921.48,923.48,925.52,926.89,928.07,929.65,930.98,932.50,934.04,935.52,937.09,938.45,940.20,942.29,944.38,946.38,948.34,950.08,951.69,954.03,956.64,958.97,960.99,963.15,965.34,967.47,969.65,972.04,974.41,976.48,978.56,980.98,983.95,986.89,989.65,992.36,995.33,998.55,1001.79,1004.97,1008.25,1012.30,1017.45,1024.21,1032.22,1039.92,1047.99,1055.28,1061.09,1064.38,1064.86,1061.30,1057.21,1054.93,1055.33,1057.08,1057.54,1056.56,1055.28,1054.18,1053.61,1053.05,1052.27,1052.44,1057.04,1064.20,1072.79,1081.47,1085.88,1087.64,1089.24,1092.83,1095.86,1096.95,1097.48,1098.36,1099.93,1104.51,1109.64,1113.84,1115.57,1114.07,1111.97,1110.43,1109.77,1108.91,1108.10,1107.48,1107.61,1109.65,1112.01,1114.38,1115.99,1115.91,1115.93,1117.23,1118.96,1120.22,1119.90,1116.61,1112.03,1107.24,1103.28,1100.53,1098.07,1095.24,1091.93,1089.68,1089.12,1089.51,1090.62,1092.31,1092.90,1091.41,1088.41,1084.78,1080.97,1077.30,1074.04,1071.26,1068.39,1066.30,1064.76,1063.58,1062.53,1061.47,1059.92,1056.93,1051.84,1047.57,1043.68,1040.21,1037.27,1034.84,1032.59,1030.39,1027.36,1022.48,1019.39,1015.78,1012.31,1009.63,1006.99,1003.64,999.74,995.57,991.79,989.16,986.65,984.08,981.41,978.19,974.83,971.53,967.56,960.85,953.35,947.48,943.24,940.14,939.25,938.82,938.72,939.10,939.57,940.35,941.32,942.31
854.80,859.10,861.43,862.43,862.71,862.58,862.64,862.04,861.14,859.97,858.13,855.93,855.87,857.73,860.40,863.02,865.63,868.18,870.45,871.99,874.99,877.52,878.86,879.12,880.45,882.01,883.02,882.79,881.56,880.23,878.94,877.52,875.63,874.25,873.19,872.36,872.06,873.53,875.49,877.50,879.28,880.15,880.72,881.40,882.25,883.06,883.41,883.49,883.05,881.78,880.46,879.91,879.82,880.16,881.25,882.73,884.57,886.65,888.67,890.19,891.40,892.51,893.66,894.90,896.19,897.49,898.71,899.82,901.29,902.81,904.02,904.77,906.13,907.58,909.05,910.38,910.94,911.41,911.74,912.06,912.66,913.43,914.35,915.28,916.19,917.39,919.22,920.97,922.33,923.25,924.09,925.33,927.20,929.69,931.09,932.44,933.60,934.54,935.87,937.23,938.74,940.54,942.88,945.91,948.76,951.13,952.88,954.20,955.92,957.65,959.30,961.13,963.14,965.13,967.17,969.36,971.53,973.42,975.18,977.03,979.46,982.57,985.40,987.98,990.97,994.25,997.70,1001.10,1004.55,1009.16,1014.80,1021.70,1029.64,1037.74,1046.20,1053.96,1060.80,1066.47,1070.86,1069.08,1065.43,1062.72,1061.51,1062.13,1062.40,1061.80,1060.75,1060.10,1059.90,1059.64,1058.90,1058.00,1060.30,1066.86,1076.81,1086.01,1090.45,1092.61,1094.40,1097.11,1099.61,1101.55,1103.02,1104.30,1106.25,1110.76,1115.30,1118.69,1120.16,1120.15,1118.52,1116.82,1116.32,1116.27,1114.74,1113.71,1114.14,1115.91,1117.73,1119.59,1121.02,1121.26,1121.07,1121.22,1121.03,1120.12,1119.08,1116.21,1112.31,1108.06,1104.37,1102.39,1101.01,1099.16,1096.16,1093.04,1092.12,1092.08,1092.58,1094.05,1092.68,1089.79,1086.15,1082.01,1077.75,1073.39,1069.18,1065.36,1062.13,1060.15,1059.05,1058.46,1058.05,1058.01,1058.15,1057.10,1053.46,1049.05,1044.25,1039.70,1035.74,1032.43,1029.74,1027.22,1024.72,1022.21,1019.83,1016.84,1013.56,1010.35,1007.41,1003.42,999.55,996.06,992.56,989.81,986.50,982.95,979.74,976.48,973.46,970.61,967.33,962.11,954.77,948.58,943.90,940.28,939.27,938.79,938.58,938.79,939.20,939.66,940.15,940.67
854.20,857.89,859.48,859.91,859.74,859.22,859.02,858.34,857.37,856.21,855.03,855.50,857.54,860.55,863.87,866.87,869.05,870.68,871.98,873.14,874.94,876.51,877.83,879.51,881.24,881.89,881.74,881.15,880.05,878.82,877.52,875.99,873.88,872.08,871.17,871.08,871.75,873.54,875.62,877.71,879.50,880.40,880.97,881.37,881.67,882.01,882.09,882.01,881.50,880.31,879.18,879.23,879.72,880.48,881.97,883.77,885.74,887.70,889.39,890.75,891.74,892.57,893.38,894.29,895.23,896.35,897.63,898.94,900.51,901.69,902.40,902.86,904.13,905.50,906.91,908.13,908.53,909.09,909.65,910.32,911.38,912.55,913.90,915.31,916.58,917.44,918.31,919.35,920.47,921.41,922.52,924.11,926.16,928.41,929.79,930.86,931.90,933.03,934.39,936.04,937.75,939.49,941.52,944.43,947.23,949.58,951.31,952.81,954.45,956.08,957.62,959.17,960.67,962.45,964.47,966.56,968.47,970.18,971.75,973.40,975.75,978.61,981.05,983.34,986.46,989.95,993.60,997.26,1001.24,1006.84,1013.20,1020.05,1027.35,1035.11,1043.34,1051.52,1059.29,1066.16,1072.01,1073.57,1072.48,1070.07,1068.22,1067.52,1067.34,1067.08,1066.13,1065.47,1065.50,1065.70,1065.36,1063.91,1064.13,1068.85,1078.09,1087.88,1092.23,1094.94,1097.53,1100.24,1102.61,1104.84,1107.09,1109.59,1112.83,1117.09,1121.28,1124.65,1126.14,1126.03,1124.46,1122.95,1122.73,1123.07,1121.98,1121.42,1121.59,1120.32,1118.93,1118.51,1118.79,1119.12,1119.43,1119.35,1117.95,1115.16,1113.41,1111.46,1108.29,1104.02,1099.83,1097.82,1096.92,1095.77,1093.48,1091.17,1090.46,1090.40,1090.60,1091.03,1089.67,1087.15,1083.84,1079.76,1075.26,1070.38,1065.44,1060.86,1057.14,1054.83,1052.77,1051.08,1050.99,1051.33,1052.38,1052.93,1051.44,1048.25,1043.52,1038.76,1034.48,1030.40,1026.50,1023.07,1020.14,1017.66,1015.11,1012.26,1009.13,1005.90,1003.18,1000.38,997.26,993.77,989.94,986.48,983.61,980.78,977.45,974.07,970.73,967.36,964.03,960.77,954.75,949.08,944.36,940.39,939.33,938.88,938.54,938.39,938.55,938.86,939.17,939.47
853.05,855.33,856.05,856.10,855.78,855.25,855.03,854.80,854.49,854.16,854.26,856.98,860.50,864.11,867.54,870.55,872.32,873.26,873.80,874.75,875.71,876.63,877.92,880.28,881.68,881.36,880.28,879.37,878.34,877.20,875.95,874.49,872.58,870.63,869.85,870.30,871.76,873.58,875.61,877.61,879.28,880.18,880.76,880.88,880.63,880.36,880.28,880.23,879.88,879.03,878.48,879.18,880.22,881.27,882.82,884.51,886.26,887.92,889.31,890.56,891.43,892.05,892.54,893.05,893.69,894.68,895.99,897.41,898.99,899.91,900.45,901.14,902.41,903.76,905.18,906.50,907.17,908.00,908.84,909.82,911.24,912.73,914.42,916.17,917.71,918.46,918.72,919.15,919.82,920.46,921.70,923.33,925.13,926.87,928.22,929.24,930.37,931.81,933.47,935.50,937.53,939.38,941.08,943.44,945.78,947.87,949.67,951.41,953.15,954.82,956.34,957.64,958.75,960.27,962.20,964.29,965.99,967.58,969.04,970.54,972.72,975.50,977.94,980.41,984.03,987.57,991.26,995.10,999.50,1005.97,1012.44,1018.82,1025.41,1032.77,1040.49,1048.76,1057.01,1064.45,1071.45,1076.25,1078.27,1077.64,1076.83,1075.29,1074.10,1073.21,1071.93,1071.39,1071.70,1072.33,1072.50,1070.85,1069.66,1072.06,1079.07,1088.95,1093.59,1097.00,1100.27,1103.06,1105.33,1108.51,1112.07,1115.65,1119.42,1123.11,1126.62,1129.48,1130.49,1130.01,1128.77,1127.85,1127.93,1128.03,1126.50,1125.15,1123.93,1120.32,1116.74,1114.66,1114.03,1114.44,1115.25,1115.20,1113.38,1109.86,1107.58,1105.99,1102.95,1098.42,1094.04,1091.93,1091.25,1090.57,1088.94,1087.36,1086.80,1086.79,1086.90,1086.47,1085.63,1083.76,1080.91,1077.20,1073.00,1068.05,1062.79,1057.58,1052.76,1049.17,1045.97,1043.54,1043.43,1043.75,1045.37,1047.26,1047.89,1046.26,1042.20,1037.67,1033.32,1028.64,1023.70,1019.36,1015.73,1012.65,1009.75,1006.89,1003.81,1000.56,998.09,996.50,994.39,991.25,987.06,982.94,980.13,977.74,974.63,971.25,967.55,963.59,959.85,957.60,953.13,948.54,944.31,940.54,939.46,939.01,938.62,938.30,938.25,938.34,938.41,938.54
850.71,851.36,851.40,851.18,850.95,850.87,851.02,852.05,853.56,855.37,857.43,860.63,864.41,868.16,871.14,873.52,875.01,875.74,875.94,876.70,877.64,878.66,879.77,880.98,880.94,880.04,878.84,877.67,876.52,875.30,874.08,872.89,871.71,870.19,869.58,870.13,871.81,873.69,875.62,877.32,878.57,879.41,879.89,879.84,879.24,878.37,878.26,878.30,878.17,877.89,878.35,879.66,881.03,882.15,883.37,884.57,885.73,886.89,888.14,889.31,890.19,890.79,891.09,891.18,891.68,892.62,893.85,895.09,896.51,897.46,898.45,900.10,901.58,903.03,904.63,906.37,907.91,909.16,910.18,911.24,912.70,914.26,915.96,917.64,919.13,920.35,921.49,922.16,922.16,921.59,922.25,923.24,924.30,925.48,926.86,928.18,929.59,931.31,933.60,935.99,938.38,940.54,942.12,943.67,945.22,946.96,948.97,950.67,952.49,954.26,955.84,956.98,958.02,959.26,960.92,963.15,964.72,966.29,967.74,969.06,970.80,973.89,977.13,980.64,985.33,988.67,992.22,996.10,1000.65,1007.49,1012.93,1018.23,1024.22,1031.19,1038.14,1045.92,1053.89,1061.28,1069.76,1076.95,1082.12,1085.28,1087.89,1086.52,1083.70,1080.73,1078.49,1078.39,1079.04,1079.99,1080.72,1079.31,1077.80,1077.67,1080.79,1089.76,1095.29,1099.56,1103.21,1105.92,1108.13,1113.41,1119.03,1123.04,1125.68,1128.31,1130.45,1131.66,1131.28,1130.60,1130.26,1130.44,1130.82,1129.78,1126.06,1121.65,1117.49,1113.72,1110.60,1108.59,1107.77,1108.31,1109.35,1109.45,1108.21,1105.69,1103.18,1100.82,1096.97,1092.07,1088.34,1086.29,1085.58,1085.08,1083.87,1082.22,1081.47,1081.45,1081.67,1081.04,1080.78,1079.40,1076.91,1073.86,1070.72,1066.51,1061.54,1055.88,1049.09,1042.89,1038.76,1036.71,1035.97,1035.90,1037.78,1040.67,1043.07,1043.06,1040.25,1036.43,1032.20,1027.25,1021.79,1016.77,1012.34,1008.47,1005.23,1002.32,999.16,995.71,993.26,992.16,991.16,989.21,985.04,980.62,976.81,973.73,971.17,967.98,964.17,959.81,955.39,952.45,949.50,946.49,943.47,940.74,939.70,939.21,938.91,938.74,938.66,938.36,938.00,937.88
849.36,849.97,850.54,851.13,851.80,852.54,853.17,854.71,856.61,858.77,861.62,865.25,868.56,871.09,872.47,873.08,873.89,874.85,875.94,877.57,878.62,879.50,880.27,880.61,880.06,879.05,877.89,876.71,875.37,873.78,872.30,871.13,870.37,869.25,869.22,870.26,871.88,873.77,875.32,876.19,876.29,876.39,876.55,876.41,876.02,875.68,875.66,876.07,876.71,877.43,878.45,879.68,880.79,881.70,882.66,883.68,884.65,885.63,886.70,887.52,888.27,888.88,889.34,889.92,890.47,891.30,892.47,893.88,895.72,897.46,899.17,901.01,902.60,904.15,905.79,907.46,908.93,910.12,911.27,912.45,913.63,914.83,916.11,917.36,918.52,919.60,921.31,923.08,924.10,923.26,923.76,924.64,925.57,926.49,927.37,928.35,929.56,931.20,933.54,935.96,938.37,940.63,942.55,944.46,946.01,947.52,949.26,951.21,953.47,955.71,957.64,958.91,960.24,961.74,963.52,965.50,966.61,967.93,969.67,971.75,973.72,976.24,980.08,985.14,990.73,994.80,999.37,1004.23,1008.89,1013.46,1017.70,1022.47,1027.64,1032.00,1036.90,1043.17,1050.32,1057.81,1066.57,1074.25,1080.47,1085.52,1090.76,1091.69,1090.23,1087.72,1085.24,1084.38,1084.72,1085.76,1086.89,1086.57,1085.89,1085.53,1086.72,1091.81,1097.35,1102.64,1107.33,1111.19,1114.93,1120.26,1124.96,1127.38,1127.63,1128.10,1128.19,1127.52,1125.97,1125.48,1125.87,1126.77,1127.38,1125.23,1121.14,1116.52,1111.94,1107.68,1104.68,1102.53,1101.49,1102.27,1103.70,1103.99,1102.88,1100.37,1097.25,1094.23,1090.88,1087.24,1083.84,1081.57,1080.62,1079.97,1078.64,1076.55,1075.40,1074.92,1074.68,1074.07,1074.18,1073.39,1071.47,1068.78,1066.52,1064.18,1060.68,1055.26,1048.36,1041.46,1036.09,1032.14,1028.71,1028.22,1030.26,1033.55,1036.67,1037.43,1035.97,1033.77,1030.90,1026.07,1020.65,1015.05,1009.52,1004.48,1000.89,998.38,995.51,991.59,987.91,986.04,985.52,985.27,983.28,980.25,975.86,971.46,968.31,965.05,961.03,956.41,951.94,949.49,947.35,945.03,942.68,940.80,939.89,939.54,939.44,939.44,939.35,938.84,938.08,937.50
850.21,851.27,852.48,853.76,855.08,856.35,857.26,858.97,860.93,863.05,865.90,869.20,871.37,872.23,872.00,871.53,871.96,873.24,875.27,877.72,879.02,879.82,880.23,879.90,879.05,877.98,876.85,875.68,874.37,872.63,870.92,869.59,868.99,868.58,869.22,870.61,872.06,873.75,874.73,874.74,873.87,873.21,872.97,872.85,872.89,873.36,873.64,874.53,875.90,877.49,878.91,880.00,880.85,881.56,882.29,883.19,884.05,884.88,885.76,886.48,887.31,888.11,888.87,890.04,890.87,891.72,892.73,893.90,895.58,897.81,900.06,901.83,903.43,904.96,906.48,907.94,909.16,910.22,911.45,912.72,913.66,914.55,915.61,916.72,917.79,918.87,921.03,923.77,925.85,925.14,925.54,926.43,927.40,928.23,928.67,929.26,930.19,931.59,933.56,935.66,937.95,940.33,942.64,945.05,946.93,948.50,950.15,952.37,954.97,957.72,960.28,962.15,963.85,965.68,967.54,969.12,969.82,971.17,973.39,976.26,978.58,980.40,983.98,989.36,995.39,1000.58,1006.60,1012.72,1017.61,1020.07,1023.47,1027.85,1032.18,1034.33,1037.53,1042.29,1048.29,1055.33,1063.51,1070.96,1077.66,1084.11,1091.43,1095.05,1095.55,1094.01,1091.68,1090.02,1089.96,1090.93,1092.26,1093.05,1093.24,1093.21,1093.44,1095.10,1100.08,1106.24,1112.40,1117.75,1122.30,1125.87,1127.99,1128.05,1126.11,1124.88,1123.53,1121.65,1119.37,1118.91,1119.85,1121.38,1122.19,1119.34,1115.39,1110.98,1106.25,1101.53,1098.31,1096.10,1095.06,1095.87,1097.42,1098.27,1097.68,1095.24,1091.50,1087.90,1085.05,1082.55,1079.33,1076.82,1075.77,1075.10,1073.56,1070.81,1069.08,1068.19,1067.81,1067.42,1067.87,1067.51,1065.92,1063.18,1061.24,1060.62,1058.91,1054.39,1047.96,1040.84,1034.34,1028.39,1022.40,1020.69,1022.59,1026.10,1029.35,1030.43,1030.26,1029.79,1028.65,1024.94,1019.94,1013.93,1007.46,1001.49,997.27,994.77,992.10,988.05,983.31,980.37,979.76,980.59,980.57,979.20,974.93,969.74,965.82,962.24,958.00,953.45,949.41,947.63,945.99,944.12,942.28,941.07,940.37,940.16,940.19,940.25,940.01,939.22,938.06,937.09
855.68,857.33,858.63,859.56,860.38,861.28,861.93,863.50,865.66,867.99,869.71,870.88,870.82,869.81,868.73,869.60,870.68,872.16,874.35,876.83,878.65,879.64,879.82,879.08,877.83,876.52,875.22,874.00,873.34,872.13,870.45,868.69,867.82,868.88,870.15,871.27,872.46,873.57,873.64,873.07,872.18,871.14,870.46,870.49,871.21,872.35,873.47,874.85,876.50,878.35,880.07,881.38,882.35,883.02,883.61,884.26,884.93,885.56,886.22,887.60,889.12,890.47,891.61,893.06,894.60,895.82,896.41,896.11,895.83,897.32,899.54,901.12,902.56,903.79,904.96,906.13,907.30,908.39,909.64,910.92,911.92,912.96,914.54,916.37,918.17,919.90,922.48,925.32,927.40,927.16,927.36,928.14,929.21,930.16,930.62,931.13,931.92,932.95,933.92,935.05,937.10,939.80,942.31,944.83,947.24,949.55,951.79,954.15,956.59,959.73,963.46,966.76,968.90,970.77,972.40,973.42,974.14,976.32,979.26,982.33,984.86,986.29,987.64,990.11,995.52,1002.16,1009.94,1017.35,1022.74,1025.20,1028.79,1032.76,1036.31,1038.74,1041.96,1045.86,1050.28,1055.39,1061.75,1068.52,1075.72,1083.61,1092.25,1098.07,1099.97,1098.99,1097.27,1095.54,1095.25,1095.93,1097.07,1098.41,1098.83,1098.95,1099.29,1100.61,1104.14,1110.80,1118.94,1125.78,1128.34,1127.21,1124.72,1121.95,1119.15,1117.99,1117.13,1115.83,1113.79,1112.65,1113.89,1116.03,1116.98,1114.46,1110.63,1105.54,1099.63,1094.78,1090.69,1088.70,1088.28,1088.53,1089.49,1091.72,1092.92,1091.36,1087.19,1083.11,1079.92,1077.23,1073.99,1071.36,1070.70,1070.53,1068.92,1065.28,1062.62,1061.79,1062.42,1062.55,1063.42,1063.08,1061.08,1057.53,1054.70,1054.65,1054.65,1052.22,1046.40,1038.91,1031.77,1025.13,1018.22,1013.46,1014.47,1018.16,1020.88,1021.72,1022.63,1023.60,1024.26,1023.77,1019.77,1013.67,1006.88,1000.73,995.25,991.51,988.56,985.40,980.83,976.96,975.27,975.39,975.40,975.23,972.47,968.18,963.81,959.51,955.13,951.28,948.48,946.96,945.52,944.11,942.83,941.96,941.58,941.39,941.32,941.19,940.39,939.04,937.48,936.40
859.51,861.02,862.21,863.05,863.83,864.74,865.59,866.80,868.26,869.55,869.64,868.88,868.32,868.32,869.05,870.28,871.43,872.80,874.66,876.82,878.39,878.92,878.56,877.76,876.47,875.06,873.62,872.28,871.55,871.11,869.95,868.18,867.72,869.25,870.52,871.28,872.06,872.54,872.25,871.52,870.65,869.85,869.81,870.33,871.24,872.38,873.70,875.20,876.82,878.52,880.19,882.24,883.79,884.54,885.10,885.67,886.30,886.93,887.64,889.19,890.94,892.58,893.99,895.40,897.15,898.80,899.77,899.11,898.10,898.38,899.38,900.31,901.58,902.83,904.27,905.88,907.19,908.25,909.29,910.59,912.45,913.49,915.22,917.46,919.86,922.19,924.84,927.24,928.83,928.84,928.97,929.79,931.01,932.14,932.95,933.58,934.28,935.05,935.56,936.28,937.52,939.36,941.83,944.30,946.81,949.26,951.62,954.02,956.47,959.61,963.75,968.80,972.51,975.38,977.41,978.34,979.33,981.52,984.54,987.80,990.08,991.60,993.27,995.73,999.78,1004.40,1011.39,1018.75,1024.45,1028.48,1032.91,1037.09,1040.54,1043.23,1047.01,1051.76,1056.48,1060.33,1065.50,1071.26,1077.48,1084.56,1093.09,1099.71,1103.32,1104.46,1104.10,1102.46,1101.70,1101.74,1102.24,1102.99,1103.56,1104.27,1105.97,1110.19,1113.68,1119.23,1125.53,1129.22,1128.07,1124.62,1120.56,1116.57,1113.09,1112.06,1111.64,1110.68,1108.37,1107.11,1107.94,1109.93,1111.38,1108.89,1106.13,1101.99,1096.30,1090.83,1085.83,1082.97,1081.94,1082.01,1082.98,1085.89,1088.02,1087.16,1082.97,1078.62,1074.70,1071.12,1067.66,1065.55,1065.30,1065.51,1064.49,1060.94,1057.33,1055.90,1056.70,1057.00,1058.65,1058.36,1055.86,1052.01,1048.72,1048.89,1049.37,1047.34,1041.82,1034.95,1028.10,1021.14,1013.12,1006.04,1005.13,1007.71,1010.41,1012.66,1014.31,1015.88,1017.67,1019.58,1018.10,1013.28,1006.67,1000.19,993.75,988.67,984.79,981.63,977.65,973.88,971.81,971.34,971.18,971.03,969.28,966.06,961.86,957.95,954.04,950.73,948.40,947.03,945.87,944.77,943.82,943.26,942.85,942.31,941.71,940.96,939.56,938.00,936.34,935.32
861.97,863.00,863.94,864.71,865.50,866.44,867.43,868.25,868.87,868.99,867.77,866.00,866.04,867.87,870.47,871.76,872.85,874.06,875.50,877.13,878.03,877.86,876.97,876.21,875.07,873.65,872.10,870.63,869.67,869.85,869.26,867.75,867.71,869.29,870.38,870.85,871.30,871.24,870.72,870.04,869.43,869.25,870.02,871.02,871.95,872.92,874.18,875.59,877.03,878.43,879.91,882.68,885.00,886.13,886.69,887.21,887.84,888.57,889.42,890.92,892.71,894.53,896.22,897.60,899.33,901.26,902.72,902.38,901.34,900.63,900.40,900.63,901.49,902.50,904.05,906.16,907.87,909.13,910.28,911.90,914.53,915.40,916.79,918.96,921.76,924.63,927.27,929.18,930.20,930.37,930.51,931.39,932.72,934.02,935.25,936.12,936.82,937.39,937.63,938.10,938.54,939.38,941.55,943.71,946.04,948.41,950.74,953.15,955.69,958.73,962.90,969.09,974.37,978.50,981.35,982.72,984.40,986.58,989.48,992.81,995.02,997.25,1000.11,1003.30,1005.86,1007.82,1012.65,1018.79,1024.62,1030.40,1035.97,1040.87,1044.86,1048.13,1052.22,1057.64,1062.85,1066.13,1070.67,1075.82,1081.11,1086.89,1094.56,1101.08,1106.06,1109.47,1110.76,1109.71,1108.72,1108.25,1108.29,1108.66,1109.61,1111.05,1113.93,1120.29,1123.82,1127.56,1130.55,1129.78,1125.24,1120.84,1116.57,1112.13,1108.05,1106.79,1106.55,1105.80,1103.06,1101.58,1101.84,1103.56,1105.52,1103.00,1101.01,1098.11,1093.53,1087.84,1082.32,1078.23,1075.94,1075.84,1076.77,1080.10,1082.84,1082.56,1078.66,1074.15,1069.54,1065.07,1061.50,1060.04,1060.16,1060.61,1060.02,1056.89,1052.55,1050.33,1050.81,1051.31,1053.51,1053.07,1050.06,1046.13,1042.61,1042.61,1042.96,1040.97,1036.03,1029.98,1023.50,1016.33,1007.58,999.39,996.59,997.55,1000.20,1003.77,1005.98,1008.03,1010.75,1014.37,1015.63,1012.71,1006.87,1000.21,992.96,986.65,981.65,977.97,974.38,971.13,969.03,968.10,967.63,967.02,965.83,963.58,959.97,956.74,953.48,950.67,948.63,947.42,946.51,945.63,944.86,944.40,943.82,942.90,941.79,940.49,938.69,936.93,935.13,934.10
861.77,862.00,862.48,862.92,863.41,864.01,864.40,864.94,865.31,865.16,864.17,864.28,866.58,869.75,871.66,873.00,874.22,875.44,876.66,877.56,877.17,876.23,875.21,874.44,873.63,872.38,870.81,869.23,868.39,868.40,868.05,867.13,866.81,868.22,869.18,869.65,870.25,869.87,869.09,868.67,869.04,870.03,871.06,872.07,873.04,873.98,875.04,876.12,877.17,878.24,879.46,882.33,885.47,887.80,888.38,888.81,889.46,890.32,891.35,892.59,894.30,896.28,898.28,900.02,901.58,903.19,904.75,905.67,905.54,905.15,904.83,904.66,904.39,903.96,904.51,906.52,909.19,911.45,914.07,916.95,919.18,919.45,919.33,920.22,922.86,926.16,928.95,930.75,931.56,931.75,932.10,932.95,934.15,935.50,937.00,938.35,939.29,939.70,939.73,939.88,940.20,940.83,942.01,943.19,945.00,947.18,949.54,952.03,954.63,957.64,961.43,966.47,972.08,977.34,981.66,984.72,988.16,991.14,993.99,996.98,1000.22,1004.60,1008.76,1011.95,1013.46,1014.42,1015.30,1017.87,1023.46,1029.92,1036.86,1043.47,1049.40,1054.36,1057.35,1060.97,1065.23,1069.48,1074.49,1080.75,1086.81,1092.15,1098.03,1103.06,1107.91,1112.43,1115.57,1116.53,1116.33,1116.12,1116.82,1118.69,1120.92,1123.03,1125.10,1127.71,1130.10,1131.37,1130.43,1125.94,1120.90,1117.38,1114.03,1109.92,1105.31,1102.62,1101.72,1101.05,1097.91,1095.35,1095.24,1097.09,1099.28,1096.77,1093.56,1091.11,1088.99,1084.97,1080.26,1074.87,1070.57,1069.88,1070.03,1073.61,1076.89,1077.01,1073.93,1069.49,1064.68,1060.15,1056.95,1055.86,1056.23,1056.51,1055.26,1052.44,1048.15,1045.23,1044.75,1045.84,1047.48,1046.28,1042.79,1038.95,1035.48,1034.39,1033.97,1032.66,1029.56,1023.93,1017.08,1009.55,1001.65,995.48,991.97,991.10,993.00,995.78,998.39,1001.39,1005.08,1009.13,1012.13,1011.67,1007.99,1001.75,993.93,986.85,980.86,975.95,971.65,969.04,967.40,966.24,965.22,963.81,962.29,960.51,958.18,955.42,952.66,950.44,948.98,948.02,947.20,946.40,945.57,944.66,943.75,942.72,941.67,940.57,938.97,936.65,934.29,932.87
859.01,858.94,859.38,859.82,860.21,860.57,860.69,861.14,861.45,861.40,861.36,863.09,866.74,870.56,872.20,873.70,875.11,876.25,876.87,876.76,875.78,874.61,873.51,872.66,872.06,871.04,869.71,868.32,867.33,866.94,866.53,865.95,865.68,866.87,867.63,867.93,868.36,868.26,868.37,868.86,869.78,871.04,872.14,873.16,874.16,875.15,876.13,877.11,878.10,879.15,880.64,883.52,886.75,889.44,890.39,891.12,891.96,892.92,893.94,894.93,896.15,897.78,899.95,902.38,904.23,905.70,907.05,908.56,909.60,910.02,909.97,909.56,908.87,907.66,907.02,907.52,908.96,910.87,913.73,917.16,920.07,921.25,921.87,922.92,924.99,927.65,929.84,931.36,932.30,932.97,933.66,934.54,935.62,936.92,938.36,939.85,941.01,941.59,941.63,941.77,942.09,942.64,943.56,944.42,945.64,947.08,948.70,950.78,953.80,957.24,960.96,965.25,969.98,975.05,979.81,983.60,987.42,991.11,995.01,999.31,1003.81,1008.75,1013.33,1017.10,1019.57,1021.71,1022.17,1023.07,1026.41,1031.35,1038.11,1044.99,1051.42,1057.55,1061.28,1064.78,1068.89,1073.80,1078.28,1084.42,1090.87,1096.65,1101.72,1106.03,1110.35,1114.74,1118.73,1121.51,1122.53,1123.13,1124.59,1126.96,1129.53,1131.88,1133.64,1134.29,1133.93,1131.75,1127.70,1121.90,1116.65,1113.65,1111.10,1107.68,1103.09,1099.15,1097.16,1096.11,1093.33,1090.01,1089.30,1090.66,1092.50,1090.96,1088.18,1086.03,1084.42,1081.22,1077.29,1072.22,1067.38,1064.99,1064.57,1067.53,1070.48,1070.97,1068.90,1064.85,1060.14,1055.59,1052.24,1051.13,1052.12,1052.79,1050.83,1046.97,1042.58,1039.41,1038.40,1039.83,1041.35,1040.13,1036.60,1032.11,1027.46,1026.94,1027.30,1026.01,1023.35,1018.91,1012.91,1005.91,999.01,994.01,989.68,986.85,987.00,989.13,991.78,994.82,998.54,1003.44,1007.34,1008.74,1007.20,1002.06,995.11,988.50,982.69,977.58,972.40,968.99,966.57,964.75,963.39,961.82,960.36,958.95,957.30,954.72,952.31,950.43,949.18,948.35,947.59,946.84,945.98,944.90,943.89,942.88,941.90,940.92,939.67,937.38,934.36,931.81
855.06,854.91,855.50,856.27,856.97,857.44,857.64,858.20,858.68,859.03,860.04,863.00,867.13,870.87,872.48,874.14,875.68,876.57,876.43,875.37,874.21,873.04,871.90,870.97,870.46,869.68,868.66,867.54,866.38,865.59,865.02,864.64,864.64,865.61,866.21,866.38,866.62,867.16,868.45,869.80,870.81,871.82,872.92,874.02,875.11,876.23,877.26,878.33,879.46,880.70,882.55,885.24,888.12,890.65,892.11,893.31,894.55,895.79,896.81,897.63,898.32,899.50,901.72,904.81,907.05,908.52,909.70,911.47,913.57,914.84,915.17,914.68,913.93,912.36,910.68,909.39,908.83,909.58,911.75,915.00,918.70,921.28,923.48,925.35,926.91,928.76,930.20,931.43,932.61,933.86,934.90,935.85,936.88,938.13,939.39,940.89,942.28,943.24,943.45,943.73,944.08,944.63,945.64,946.50,947.23,947.84,948.50,949.86,953.25,957.09,960.81,964.59,968.14,972.46,977.03,980.98,984.60,988.84,994.01,999.95,1005.42,1010.15,1014.70,1019.13,1023.19,1027.23,1029.17,1029.99,1031.07,1033.93,1039.95,1046.39,1052.46,1058.96,1064.05,1068.50,1073.19,1078.53,1082.28,1087.83,1094.30,1100.57,1105.33,1109.41,1113.14,1116.91,1121.23,1125.44,1127.94,1129.73,1131.83,1134.10,1136.08,1137.85,1139.06,1138.57,1135.29,1129.89,1123.67,1117.94,1112.70,1109.87,1107.82,1105.14,1100.82,1096.00,1092.91,1091.30,1089.12,1085.22,1083.74,1084.39,1085.83,1085.51,1083.64,1081.47,1079.29,1076.57,1073.39,1069.37,1064.74,1060.49,1059.57,1061.59,1063.90,1064.80,1063.89,1060.35,1055.83,1051.25,1047.49,1046.01,1047.50,1048.63,1046.01,1040.92,1036.49,1033.32,1032.09,1033.86,1035.55,1034.58,1030.99,1025.43,1019.61,1020.32,1021.78,1019.94,1017.05,1014.05,1009.59,1003.75,997.92,993.51,988.41,983.81,981.88,983.27,985.78,988.43,991.62,997.03,1001.51,1004.34,1004.66,1000.91,995.42,989.95,984.97,980.23,974.33,969.64,966.00,963.36,961.86,960.49,959.26,958.13,956.81,954.42,952.28,950.57,949.34,948.55,947.83,947.08,946.23,945.17,944.17,943.22,942.29,941.38,940.46,938.56,934.88,930.71
