843.27,844.79,846.46,848.21,849.71,850.67,851.43,851.55,851.14,850.40,849.79,849.76,849.92,850.41,851.62,852.89,851.73,848.95,845.18,840.89,836.56,834.60,835.40,837.68,836.54,835.75,836.65,839.41,841.20,841.70,841.65,841.24,840.19,838.54,838.03,838.90,841.04,844.06,847.91,852.36,856.97,860.50,863.02,864.15,863.90,862.53,860.52,857.47,851.56,841.21,831.37,822.91,815.95,811.53,811.88,813.84,816.43,818.98,820.77,822.66,824.73,826.25,826.83,827.54,829.43,832.86,837.87,844.32,850.37,854.52,857.85,861.85,866.72,870.84,874.72,878.78,883.23,888.21,894.65,902.07,909.15,914.45,919.14,923.36,927.10,931.33,935.70,940.08,943.99,946.18,946.69,945.61,944.21,944.29,947.10,948.71,948.63,947.00,944.94,942.70,940.34,937.67,934.43,931.96,933.51,937.28,941.62,945.90,947.10,945.31,940.78,934.07,927.14,920.54,914.45,909.41,906.59,905.84,905.73,905.71,906.17,908.58,912.21,916.20,919.61,923.67,928.48,933.53,938.71,944.80,951.28,957.68,963.68,969.16,976.59,984.78,991.24,993.04,992.93,995.17,995.64,991.38,983.34,973.86,965.91,960.42,957.88,956.65,955.92,956.45,959.43,964.46,970.35,976.65,983.95,993.67,1001.96,1009.20,1015.50,1019.86,1019.00,1015.33,1011.05,1006.77,1001.36,994.51,987.67,983.30,985.78,990.26,991.02,986.33,975.68,964.47,952.88,942.11,932.44,923.90,924.25,930.99,939.89,945.29,940.78,935.22,929.82,925.08,923.93,932.21,941.48,948.31,951.83,953.83,955.62,958.45,963.15,967.98,972.84,978.29,983.84,986.78,983.17,977.15,969.42,958.99,949.07,940.39,933.87,929.91,926.38,920.06,911.98,902.94,893.31,881.68,877.28,880.26,888.92,897.18,903.14,908.34,913.65,919.46,924.94,928.50,929.08,925.30,920.09,913.37,907.72,905.70,908.64,913.88,919.33,923.77,925.46,923.04,917.00,909.38,902.18,896.50,892.37,889.70,888.59,888.78,890.55,893.91,898.27,902.64,905.54,904.52,901.22,896.61,890.31,882.29,875.36,868.88
842.90,844.38,846.01,847.79,849.39,850.44,851.16,851.21,850.80,850.13,849.51,849.45,849.59,850.05,851.19,852.11,850.48,847.14,842.88,838.75,834.58,832.77,833.45,834.84,833.94,833.99,835.35,837.57,838.99,839.16,838.58,837.48,836.22,835.42,836.26,838.37,841.07,844.84,849.12,853.68,858.11,860.86,862.67,862.89,861.72,860.07,857.42,851.83,841.38,824.99,811.00,804.55,801.62,800.55,801.39,803.04,805.66,808.48,810.30,812.66,815.89,818.90,821.31,825.00,829.49,834.50,839.95,845.72,850.42,853.45,855.75,858.61,862.89,867.32,871.67,876.03,880.70,885.55,892.52,900.63,907.31,912.94,918.13,922.69,926.62,931.25,935.78,939.91,942.77,942.54,941.82,940.44,939.62,940.90,943.30,943.69,942.42,940.07,937.79,935.40,932.79,929.84,926.56,924.82,927.45,931.99,936.41,940.73,943.25,942.53,938.13,930.70,923.65,917.13,911.17,906.11,902.40,901.28,901.10,901.19,902.19,905.01,908.83,912.89,916.52,921.23,926.78,932.51,938.20,944.85,951.79,958.31,964.11,969.41,977.55,984.65,988.59,987.93,987.16,988.23,987.56,982.62,973.61,963.91,957.19,953.80,952.57,951.51,951.14,952.60,956.78,961.82,967.25,973.08,980.25,990.67,998.00,1005.45,1012.71,1017.02,1014.94,1010.61,1006.03,1001.68,997.01,991.18,983.76,977.33,977.71,981.71,982.59,979.12,970.92,959.87,948.29,938.39,930.04,920.95,917.90,921.97,930.33,937.93,935.35,929.57,922.70,917.09,919.64,928.72,937.36,943.37,946.82,948.50,949.95,952.69,957.72,962.83,968.59,974.63,980.22,983.45,980.71,975.60,968.40,957.63,946.43,936.72,929.47,924.98,920.94,915.53,908.46,900.22,891.66,880.72,873.77,873.49,881.23,889.63,895.84,901.18,906.52,912.36,918.16,922.51,924.41,922.35,917.79,911.08,904.04,898.96,899.59,903.58,909.17,915.13,919.64,921.17,917.50,910.49,902.46,896.00,890.33,886.00,883.49,882.72,883.33,885.59,889.11,893.37,897.90,900.80,901.25,898.71,894.36,886.29,878.74,871.74
842.62,844.04,845.54,847.27,848.94,850.16,850.86,850.85,850.46,849.89,849.36,849.31,849.50,850.05,851.13,851.27,848.69,844.66,840.23,836.31,832.43,830.69,831.13,832.10,831.50,832.19,833.89,835.58,836.38,835.94,834.61,832.87,831.98,833.28,836.07,839.47,842.70,846.20,850.14,854.19,857.87,860.42,861.24,860.81,859.43,857.14,853.71,839.61,820.84,806.15,798.68,794.62,792.20,791.27,792.08,793.54,795.34,797.17,798.90,801.50,807.11,813.65,819.69,825.93,831.66,836.83,841.18,844.21,847.15,849.70,851.99,854.56,859.05,863.85,868.67,873.51,878.42,883.90,891.09,898.93,905.11,910.60,915.71,920.57,925.28,930.04,934.59,937.71,938.89,938.11,937.27,936.41,936.46,938.08,938.26,937.08,934.82,932.01,930.15,927.46,924.14,920.67,918.05,918.25,921.61,926.46,931.50,935.79,939.10,939.11,935.00,927.47,920.40,913.70,907.38,901.82,897.81,896.62,896.50,896.86,898.57,901.52,905.71,910.53,915.08,919.91,925.53,931.62,937.97,944.89,952.82,959.63,964.78,969.61,977.53,982.32,983.62,982.70,981.56,980.44,977.60,971.62,962.63,954.47,949.51,947.34,946.24,944.83,945.62,948.94,954.47,958.98,964.51,970.89,978.74,989.51,996.95,1005.21,1012.32,1013.50,1010.45,1006.08,1001.39,996.61,991.79,986.41,980.10,973.81,970.12,970.52,971.01,969.64,964.59,954.53,943.98,934.74,926.80,918.71,912.68,914.39,921.78,929.32,928.82,924.59,917.67,911.14,916.19,924.65,932.39,938.12,941.21,942.01,943.20,946.49,952.56,957.33,962.91,969.85,977.02,980.43,978.28,973.59,966.95,957.54,947.45,936.18,926.53,920.08,914.20,909.46,903.70,896.52,888.54,879.09,871.66,869.28,874.46,882.01,888.77,894.79,900.30,905.55,910.73,915.43,918.94,919.60,915.88,910.02,903.41,897.61,896.28,898.06,901.27,905.62,911.48,915.80,915.85,911.62,903.57,895.94,889.24,883.67,879.80,878.51,877.87,878.51,880.29,883.12,888.31,893.02,895.61,895.44,894.75,890.41,884.00,876.22
842.22,843.55,844.96,846.65,848.38,849.80,850.52,850.54,850.20,849.71,849.18,849.11,849.35,849.98,850.98,850.58,846.49,841.62,837.89,834.88,831.52,829.71,829.63,830.08,829.88,830.65,832.05,833.31,833.69,832.94,831.67,830.35,829.88,831.43,834.90,839.18,842.84,846.25,849.81,853.32,856.54,859.30,859.48,858.53,856.92,853.75,845.77,826.75,806.44,795.99,790.91,787.14,784.52,783.35,783.35,783.67,784.56,786.17,788.95,793.70,800.12,808.12,817.38,825.41,830.98,834.75,837.23,839.09,841.76,844.74,847.87,851.39,856.18,861.23,866.44,871.75,876.83,882.62,889.38,896.48,902.70,908.14,913.44,918.65,923.59,927.99,931.96,934.18,934.45,933.59,932.87,933.04,933.94,934.91,933.74,931.20,928.27,925.41,923.01,919.81,916.39,913.28,911.42,912.59,915.99,920.61,925.88,930.85,934.81,935.25,931.35,923.94,916.45,909.71,903.56,897.91,893.35,891.84,891.86,892.89,895.58,898.91,903.58,909.08,914.17,918.97,924.58,930.92,937.85,945.24,953.71,960.45,964.89,968.89,974.15,976.64,976.50,975.02,973.57,971.47,967.63,960.90,950.93,944.96,942.02,940.82,940.14,939.45,941.16,945.38,951.49,956.30,962.30,969.50,978.21,988.90,996.39,1004.65,1011.19,1010.78,1007.05,1002.12,996.95,991.91,987.26,982.35,976.88,970.41,962.74,959.46,959.03,958.94,956.44,948.47,939.03,930.33,922.82,915.59,908.36,908.71,915.07,922.35,924.28,920.24,912.60,905.98,912.25,920.64,927.89,933.13,935.79,936.27,937.49,940.94,947.18,952.62,958.08,964.71,971.89,976.08,975.18,971.13,965.01,957.01,948.06,937.16,926.91,918.81,911.04,905.89,900.57,894.11,886.60,877.91,869.88,865.73,868.73,875.15,881.81,888.39,894.54,899.11,903.49,907.75,911.69,914.32,913.20,908.91,902.91,896.63,893.01,893.52,895.71,898.96,903.99,908.98,912.22,911.56,904.93,896.52,889.11,882.88,878.13,875.41,873.87,873.36,873.78,875.52,879.73,884.21,887.63,889.45,890.80,889.70,885.87,879.65
841.70,842.98,844.36,845.99,847.74,849.31,850.13,850.21,849.97,849.54,848.97,848.86,849.15,849.84,850.78,849.98,844.57,839.17,836.64,834.76,831.87,829.75,828.86,828.69,828.72,829.26,830.14,831.02,831.14,830.36,829.53,829.03,828.87,829.82,833.13,837.80,841.95,845.41,848.67,851.78,854.81,857.95,857.64,856.19,854.17,849.60,835.69,814.78,796.87,790.62,785.50,780.99,777.84,776.30,775.27,774.22,774.61,776.70,780.89,788.16,794.68,802.87,814.08,823.31,828.08,829.97,830.59,832.25,835.62,839.70,844.23,849.32,854.73,859.91,865.27,870.80,875.92,881.69,887.73,893.89,900.12,905.45,910.95,916.42,921.38,925.42,928.57,929.96,929.67,928.97,928.65,929.88,931.35,931.12,928.94,925.17,921.67,919.00,915.93,912.43,909.40,907.10,905.93,907.46,910.62,914.83,920.05,925.98,930.55,931.17,927.23,919.96,912.16,905.55,899.81,894.27,889.22,887.09,887.18,889.20,892.94,896.92,902.16,908.23,913.62,918.47,924.10,930.62,937.99,945.76,954.38,960.66,964.01,966.58,968.60,969.18,968.24,965.92,964.20,961.53,956.99,949.68,939.64,936.03,934.91,934.40,934.25,934.72,937.28,941.88,948.12,953.55,960.46,968.71,978.20,988.48,995.85,1003.48,1009.24,1008.55,1004.38,998.61,992.80,987.70,983.24,978.63,973.44,966.39,955.60,949.10,947.51,948.02,947.40,941.82,933.72,925.70,918.58,911.87,904.37,903.95,909.44,916.45,920.43,915.98,907.50,901.13,907.69,916.06,922.97,927.66,929.90,930.85,932.75,936.53,942.58,948.88,954.14,959.77,966.02,971.20,971.92,968.61,962.81,955.88,947.83,938.46,928.95,919.82,910.27,904.15,898.72,892.71,885.55,877.23,868.54,862.72,863.39,868.78,875.04,881.87,888.60,892.81,896.67,900.28,903.88,907.57,909.42,907.31,902.40,895.84,890.06,889.38,891.07,893.81,897.34,901.89,907.29,910.13,906.26,897.46,889.56,882.96,877.55,873.16,870.63,869.11,868.49,869.45,872.09,875.36,878.73,881.84,884.19,885.69,885.03,881.70
841.03,842.44,843.83,845.40,847.02,848.48,849.45,849.73,849.61,849.21,848.65,848.59,848.95,849.70,850.56,849.52,844.55,840.26,839.15,837.86,834.78,831.62,829.29,828.35,827.77,828.01,828.67,829.20,829.26,828.90,828.49,828.15,827.82,828.68,831.12,835.04,840.09,843.76,847.05,850.33,853.71,856.97,856.10,853.99,850.84,843.29,825.74,807.33,793.30,786.54,780.70,775.61,772.01,770.08,768.65,767.31,768.89,772.79,777.46,784.72,791.82,799.45,808.51,818.06,822.26,823.48,823.82,825.87,830.67,836.69,843.15,849.81,857.01,862.17,866.75,871.55,876.34,881.50,886.89,892.26,897.29,902.03,907.10,912.43,917.77,922.41,925.09,925.54,924.50,924.02,924.79,926.35,927.20,925.57,921.94,916.86,912.68,910.24,908.02,905.52,903.53,902.06,901.10,902.61,905.77,909.90,914.98,921.43,926.70,927.09,922.15,914.70,907.87,901.84,896.28,890.96,886.12,882.64,882.35,885.86,890.49,895.61,901.60,907.94,913.54,919.11,924.92,931.47,939.01,946.29,954.50,959.55,960.42,959.68,961.05,961.32,959.63,956.18,954.22,950.09,943.45,935.61,931.42,929.70,928.95,928.60,928.64,929.85,933.40,938.55,944.50,950.10,958.98,968.74,978.37,987.88,994.57,1000.68,1005.57,1006.60,1002.39,995.68,989.44,984.70,979.74,974.70,968.28,959.81,949.02,941.09,938.47,938.62,938.40,934.24,928.25,921.69,914.84,907.52,899.83,899.11,904.36,911.52,915.21,910.89,902.59,895.98,901.68,908.95,915.24,919.67,921.63,925.05,929.71,935.32,941.64,947.43,951.99,956.33,961.20,967.00,969.38,966.64,960.47,953.23,945.27,938.12,930.97,922.58,911.59,904.52,898.69,892.63,885.64,877.47,868.47,860.70,857.60,862.81,868.77,874.89,881.08,886.34,891.17,894.74,897.45,900.13,902.73,903.87,901.74,895.48,888.77,885.19,885.49,888.75,892.58,896.50,901.15,905.63,907.03,898.61,890.40,883.38,877.34,872.08,867.49,864.54,863.36,864.03,865.95,868.29,870.64,872.94,875.57,878.39,880.32,880.45
839.73,841.50,843.07,844.64,846.15,847.44,848.42,848.79,848.80,848.55,848.19,848.32,848.84,849.67,850.52,849.69,845.86,842.59,841.70,840.34,837.12,833.24,829.79,828.20,826.96,826.82,827.25,827.61,827.70,827.56,827.34,827.11,826.94,827.78,829.51,832.51,837.55,842.30,846.55,850.17,853.16,856.05,854.76,852.01,848.11,839.94,820.70,803.82,791.99,784.87,778.53,773.15,768.42,764.33,761.17,759.89,763.01,768.81,774.16,781.23,788.48,795.73,803.18,811.08,814.45,815.82,817.30,821.46,828.34,835.32,842.01,848.70,855.58,860.75,865.48,870.33,875.04,879.80,884.55,889.26,893.90,898.26,903.19,908.61,914.17,918.91,921.30,921.28,919.87,919.59,920.65,921.48,921.00,918.18,913.89,908.85,904.82,902.45,900.61,898.79,897.47,896.59,896.15,898.12,901.42,905.82,911.64,918.78,923.18,922.57,917.20,910.16,904.04,898.22,892.56,887.20,882.35,878.42,878.52,883.49,888.68,894.85,901.73,908.62,914.50,920.46,926.31,932.46,939.12,945.29,951.42,954.70,954.42,952.63,954.64,954.65,951.70,946.59,942.66,937.60,931.50,925.79,924.40,923.47,922.80,922.52,923.10,925.77,930.30,935.65,941.37,948.20,958.55,969.19,978.73,987.19,993.74,999.12,1003.24,1004.57,1000.27,993.47,987.30,982.61,976.74,970.45,963.07,954.38,944.45,935.49,931.21,930.31,930.53,927.61,922.74,916.87,910.23,902.75,895.08,893.83,898.53,906.07,909.87,905.61,897.33,890.71,896.45,902.26,907.66,912.87,917.76,922.82,928.23,933.85,939.46,944.70,949.11,953.12,957.46,963.31,967.19,965.25,958.96,951.25,943.55,937.63,931.84,924.18,912.75,904.53,898.27,892.65,886.18,878.05,868.84,859.69,853.36,856.83,862.78,868.69,874.00,878.88,883.96,887.63,890.11,892.43,895.18,898.65,899.27,894.61,887.61,881.85,880.52,883.34,887.35,891.61,895.99,900.77,904.38,898.55,891.09,884.06,877.76,871.68,865.11,860.64,858.49,858.23,859.47,861.32,863.34,865.50,868.17,871.45,874.64,876.91
838.07,840.33,842.18,843.79,845.18,846.27,847.14,847.54,847.69,847.68,847.65,848.08,848.80,849.71,850.58,850.22,847.86,845.38,843.77,841.84,838.57,834.29,830.15,828.13,826.32,825.71,825.86,826.14,826.30,826.23,826.06,825.96,826.25,827.13,828.36,830.45,834.69,841.27,846.99,850.93,853.04,855.11,853.57,850.34,846.09,839.07,819.78,803.35,792.19,785.17,778.42,772.90,766.68,759.47,753.84,752.69,757.09,764.35,770.48,777.22,784.14,791.09,797.74,803.01,805.57,807.85,811.60,818.75,827.80,834.77,840.36,846.04,851.03,856.19,861.60,867.03,871.91,876.51,880.70,884.90,889.80,894.20,899.41,905.09,910.61,915.07,917.24,917.10,915.70,915.58,916.16,915.59,913.48,909.75,905.46,901.34,897.96,895.52,893.63,892.10,891.16,890.82,891.28,894.16,897.77,902.69,909.68,917.30,919.82,917.85,912.62,906.32,900.47,894.51,888.55,883.01,877.92,874.45,875.60,881.84,887.47,894.40,902.10,909.71,916.04,921.99,927.56,932.79,937.69,942.36,945.61,947.06,946.75,945.66,948.63,948.28,943.96,937.08,930.56,925.27,921.42,919.17,917.90,916.99,916.32,916.20,917.70,922.33,927.81,933.19,938.83,947.58,958.90,969.84,979.10,986.49,993.27,998.59,1002.08,1002.55,998.02,991.71,985.95,981.00,974.04,966.24,958.34,950.25,941.18,931.42,924.99,922.56,923.46,921.66,917.15,911.49,905.12,897.87,890.29,888.30,892.27,900.34,904.53,900.32,891.94,885.40,891.61,896.34,901.32,908.09,917.18,922.82,927.29,931.53,935.89,940.74,945.49,949.96,954.49,960.08,965.18,964.24,958.15,949.99,942.67,936.90,931.33,924.17,913.07,903.72,897.10,892.27,886.61,878.59,869.14,859.12,850.73,851.11,856.90,863.03,867.63,871.25,875.94,879.64,882.30,884.75,887.42,892.38,895.52,893.36,886.60,879.38,876.29,877.81,881.72,886.82,891.45,895.81,899.41,897.57,891.62,884.94,878.62,871.71,863.48,857.57,854.20,852.57,853.02,854.55,856.63,859.11,861.67,864.88,868.39,871.72
836.87,839.52,841.49,843.03,844.22,845.06,845.81,846.36,846.74,846.99,847.21,847.90,848.76,849.70,850.57,850.45,849.08,846.92,844.34,841.80,838.29,833.98,829.88,827.93,826.07,824.93,824.53,824.71,824.82,824.86,824.87,825.06,825.84,826.86,827.97,829.39,832.46,841.61,848.04,851.63,853.23,853.91,852.47,849.45,845.34,839.31,821.79,805.27,793.56,787.07,779.32,773.36,766.34,757.70,751.05,749.42,753.00,759.49,765.79,771.35,777.13,783.52,790.12,794.83,797.75,802.20,809.07,817.70,827.07,832.92,837.08,842.01,845.70,850.28,855.42,860.83,866.20,870.99,875.01,878.93,883.97,889.82,896.01,901.84,906.79,911.08,912.92,912.84,911.84,911.71,911.04,909.25,906.32,902.28,898.15,894.51,891.33,888.67,886.60,885.03,884.57,885.32,887.54,891.63,896.09,901.57,908.59,914.85,916.09,913.80,909.08,903.06,896.64,890.16,883.96,878.38,873.10,871.08,873.58,880.36,887.01,893.84,901.48,909.53,916.73,922.12,926.35,929.59,932.03,935.26,937.55,938.57,938.49,938.18,939.92,938.85,934.36,927.28,921.50,917.25,914.18,912.15,910.58,909.71,909.34,909.90,912.88,919.10,925.52,931.34,937.39,947.54,959.42,970.24,978.98,985.94,992.74,998.20,1001.47,1000.93,995.79,989.79,984.28,978.94,971.29,963.45,955.79,947.60,937.26,926.89,918.21,914.18,916.27,915.30,911.38,906.40,900.80,893.79,885.86,883.16,886.77,895.48,899.27,895.38,887.28,880.24,885.34,891.98,899.85,908.53,916.29,920.80,923.86,926.97,931.14,935.93,941.28,946.63,951.88,957.54,963.09,963.12,957.90,949.51,942.18,935.00,928.03,920.65,910.26,900.73,894.13,889.84,885.06,878.13,867.81,857.37,850.55,846.92,850.87,857.13,862.81,866.56,870.66,873.83,876.02,877.91,880.87,886.88,891.93,892.21,886.38,878.27,873.29,872.92,876.44,881.26,886.05,890.79,895.18,896.39,891.97,885.85,879.47,871.68,862.84,856.27,852.01,849.16,848.50,848.98,850.21,852.19,854.58,857.79,861.49,865.41
836.28,838.89,840.84,842.21,843.22,843.97,844.78,845.58,846.17,846.54,846.96,847.82,848.79,849.74,850.53,850.49,849.46,847.30,844.08,841.13,837.31,833.11,829.41,827.53,825.70,824.17,823.31,823.39,823.47,823.60,823.92,824.55,825.63,826.71,827.80,828.89,831.38,842.30,848.94,851.98,853.13,852.95,851.67,848.98,845.13,839.73,823.95,807.87,795.85,789.24,780.88,774.38,766.90,757.83,750.46,747.41,749.30,754.41,760.22,764.79,769.49,775.16,781.78,786.92,791.17,797.47,806.08,815.04,823.53,828.41,831.70,835.88,839.60,844.21,849.22,854.38,859.76,864.82,869.54,874.28,879.78,886.61,893.37,899.36,904.13,907.88,909.17,909.00,908.24,907.81,906.24,903.24,899.34,895.15,891.26,887.84,884.85,882.38,880.58,879.22,879.11,880.53,884.09,889.72,895.10,900.95,907.73,912.78,912.98,910.25,905.58,899.41,892.49,885.72,879.49,874.04,868.98,868.64,872.45,879.47,886.84,893.58,900.93,908.91,916.41,921.12,923.38,924.67,926.17,928.80,930.71,931.57,931.59,931.55,931.02,928.86,924.84,919.14,914.58,910.65,907.40,905.00,903.34,902.54,902.96,904.91,909.33,916.23,922.96,929.03,935.72,947.79,959.97,970.37,978.51,984.86,990.83,996.05,999.43,998.81,993.36,987.57,981.97,975.98,968.28,960.94,953.52,945.03,933.81,922.15,911.73,906.19,907.89,908.57,905.91,901.53,896.03,889.28,881.64,879.04,882.54,891.01,894.44,889.71,881.82,876.37,881.66,889.49,898.19,906.79,913.52,917.32,919.64,922.22,926.36,931.44,937.39,943.62,949.81,955.77,961.51,962.24,957.70,949.09,941.53,932.97,924.46,916.40,906.87,897.98,891.28,886.56,882.22,876.53,866.76,856.94,850.97,844.39,845.88,851.30,857.59,861.76,865.36,867.91,869.79,871.89,875.25,881.24,887.26,890.01,885.40,877.17,871.12,869.30,871.98,875.96,880.44,885.32,890.44,894.11,891.75,886.68,880.18,871.72,862.95,856.09,851.06,847.20,845.11,844.37,844.77,846.32,848.30,851.23,854.75,858.75
836.16,838.37,840.16,841.33,842.18,843.06,844.10,845.20,845.96,846.32,846.88,847.85,848.88,849.82,850.48,850.33,849.03,846.59,843.18,840.00,835.78,831.83,828.79,826.93,825.13,823.40,822.25,822.19,822.27,822.54,823.24,824.38,825.54,826.64,827.74,828.82,831.36,843.01,849.45,851.90,852.61,852.27,851.19,848.84,845.32,840.15,825.81,810.79,798.91,791.51,782.97,775.88,768.28,759.55,751.63,746.39,745.91,749.10,753.78,757.85,761.75,766.71,773.30,779.50,785.64,793.17,801.96,810.25,817.02,821.28,824.32,827.79,832.81,838.20,843.40,848.32,853.34,858.81,864.98,871.44,877.66,884.82,891.62,897.71,902.65,905.51,906.04,905.63,904.86,903.72,901.57,897.49,892.63,888.42,884.70,881.30,878.54,876.67,875.52,874.69,874.79,876.42,880.85,888.20,894.44,900.39,906.73,910.94,910.27,906.92,901.87,895.29,888.10,881.34,875.29,870.11,865.59,867.06,872.12,879.16,886.86,893.75,900.83,908.23,915.09,918.75,918.71,918.48,920.73,923.63,925.57,926.34,926.18,925.67,922.43,919.01,915.87,912.67,909.18,904.79,900.73,897.85,896.33,895.87,897.61,901.48,907.07,913.75,920.17,926.27,933.76,948.19,960.41,970.01,977.35,982.84,987.31,991.90,995.65,995.93,990.65,984.96,978.96,972.14,964.95,958.41,951.13,942.30,930.95,917.55,906.08,899.08,898.58,901.29,900.49,896.60,890.59,884.20,877.50,875.81,879.43,886.63,889.56,883.08,875.60,873.92,880.79,888.45,895.46,902.01,908.60,912.39,914.95,917.78,922.03,927.66,934.09,941.06,948.22,954.55,960.28,961.50,957.55,948.68,940.73,931.18,921.37,912.36,903.73,896.07,889.15,883.14,878.59,873.94,866.25,858.03,851.67,843.53,842.16,845.64,851.71,856.28,859.46,861.47,863.33,866.49,870.35,875.34,881.37,886.44,883.52,875.90,869.65,867.01,868.44,871.24,874.95,879.53,885.08,890.51,890.78,887.29,880.72,871.93,863.83,856.93,851.14,846.49,842.80,840.79,840.44,841.64,843.00,845.34,848.31,851.95
835.47,837.35,839.00,840.34,841.43,842.38,843.58,844.86,845.74,846.20,846.86,847.89,848.98,849.92,850.43,849.89,847.98,845.25,842.01,838.43,833.86,830.25,827.93,826.17,824.39,822.62,821.35,821.11,821.28,821.86,822.82,824.10,825.35,826.58,827.73,828.81,831.30,842.59,848.97,851.28,851.61,851.42,850.91,849.08,845.74,840.36,827.35,813.50,802.05,794.13,785.02,777.64,770.21,762.01,754.14,747.47,743.73,743.32,746.62,751.10,755.42,760.50,767.01,773.53,779.91,787.54,796.06,803.35,809.41,813.34,816.19,819.63,825.82,832.28,838.24,843.74,849.63,856.54,863.56,870.33,876.88,884.34,891.02,896.69,901.01,903.17,903.06,902.50,901.55,898.74,894.86,890.89,887.07,883.26,878.78,875.13,872.56,871.05,870.06,869.78,870.27,872.37,878.06,886.51,893.20,898.83,904.02,906.73,905.63,902.31,897.48,891.35,884.07,877.47,871.62,866.34,861.98,865.41,871.90,878.94,887.13,894.63,902.29,909.27,912.87,913.27,911.84,911.78,915.14,918.87,921.34,922.08,921.06,918.61,914.60,911.17,908.40,905.63,902.28,898.20,894.37,891.44,889.67,891.04,894.62,899.60,905.50,911.85,917.83,924.00,932.50,948.37,959.98,967.78,973.17,978.23,982.14,986.43,990.34,991.46,987.36,981.74,975.34,968.24,961.24,955.13,948.11,939.43,928.36,915.07,903.38,894.82,891.06,892.58,892.93,890.14,884.51,878.82,872.68,871.96,875.87,880.87,881.10,875.25,870.68,872.39,879.49,885.90,891.44,896.53,901.63,905.82,909.86,914.39,919.87,925.91,932.33,939.30,946.41,952.16,957.47,960.01,957.82,948.74,940.35,930.86,921.01,911.63,903.26,896.32,889.61,882.87,876.66,871.55,865.74,859.33,852.48,844.24,839.82,840.48,845.45,849.84,852.23,854.14,856.56,860.41,865.00,869.30,874.66,880.67,881.41,874.76,868.60,865.72,865.90,868.04,871.02,874.77,879.69,885.44,888.28,886.82,880.85,872.88,865.91,858.74,851.83,846.67,842.13,838.82,837.26,837.68,838.30,839.98,842.37,845.79
834.58,836.06,837.47,839.13,840.69,841.84,843.13,844.49,845.47,846.07,846.86,847.93,849.04,849.98,850.27,849.22,846.64,843.64,840.54,836.36,831.93,828.84,827.00,825.28,823.55,821.83,820.51,820.11,820.51,821.36,822.47,823.79,825.10,826.41,827.62,828.75,831.14,841.39,847.46,849.85,850.29,850.41,850.08,848.29,844.83,839.40,828.35,815.65,804.44,796.38,786.91,779.57,772.45,764.64,756.73,749.10,742.65,738.74,739.85,744.14,749.10,754.76,761.47,768.18,774.48,781.71,789.61,796.27,801.58,805.38,808.82,813.57,821.50,828.97,835.55,841.51,847.89,855.87,863.29,869.85,876.25,883.52,890.14,895.49,899.01,900.60,899.74,898.56,896.99,892.87,888.16,884.63,881.57,877.64,872.35,868.57,866.22,865.02,864.30,864.49,865.82,869.14,876.29,885.05,891.82,897.03,900.89,901.92,900.64,897.95,893.88,887.83,880.34,873.72,867.98,862.75,858.78,864.01,871.75,878.85,887.55,895.06,902.03,907.46,908.50,906.85,905.01,905.23,908.88,913.55,916.20,916.65,915.00,911.62,907.58,904.21,901.38,898.42,894.78,890.88,887.42,885.00,884.22,887.65,892.70,898.30,904.38,910.71,916.41,922.86,932.59,948.66,958.49,963.97,967.52,972.20,976.24,980.70,985.03,987.20,984.17,978.48,971.81,964.86,958.19,952.21,945.29,936.80,926.33,913.94,902.34,892.69,886.33,884.71,884.91,883.16,878.65,873.62,867.66,868.16,872.85,875.50,872.64,867.45,865.81,870.62,877.59,882.78,887.22,891.55,896.06,900.85,906.14,912.11,918.78,924.96,930.89,937.15,943.55,948.84,954.14,958.26,958.13,949.58,940.69,931.41,921.81,912.30,904.18,897.56,890.69,883.19,875.69,869.67,864.74,859.58,852.72,843.99,837.66,836.14,839.50,843.57,845.79,847.78,850.43,854.38,859.31,863.44,868.17,873.90,876.99,872.62,867.64,864.59,863.41,864.70,867.28,870.76,875.36,880.89,885.00,885.07,880.45,874.11,868.22,861.10,853.41,847.20,842.20,837.98,835.13,834.14,833.81,835.03,837.14,840.34
833.65,834.63,835.68,837.71,839.91,841.41,842.75,844.06,845.11,845.91,846.88,847.95,849.06,849.96,849.97,848.34,845.09,841.80,838.78,833.83,830.23,827.82,826.09,824.32,822.64,821.04,819.72,819.17,820.00,821.00,822.15,823.46,824.78,826.10,827.36,828.60,830.88,839.42,844.77,847.38,848.57,849.14,848.39,845.96,842.04,836.92,828.68,817.08,805.84,798.04,788.67,781.73,774.99,767.30,759.06,750.98,742.88,736.17,734.03,736.99,742.45,749.12,756.46,763.38,769.56,776.02,782.95,789.62,794.04,798.07,803.20,810.86,821.13,829.39,836.21,842.23,848.20,856.42,863.76,869.80,875.51,881.92,888.56,893.86,896.58,897.66,895.90,893.47,890.61,886.00,882.02,879.00,875.75,870.88,865.09,861.43,859.38,858.49,858.37,859.02,861.80,867.28,875.93,884.02,890.42,895.12,897.57,896.90,895.68,894.26,891.54,884.87,876.96,870.08,864.29,859.40,856.35,863.01,871.66,878.89,888.01,894.50,898.78,901.16,901.27,899.93,898.86,899.14,901.89,907.41,909.58,909.36,907.62,905.04,901.43,897.89,894.56,891.07,886.83,882.78,879.72,878.57,880.54,885.85,891.69,897.43,903.78,910.52,916.23,923.26,934.37,949.00,955.67,958.58,960.84,965.02,969.88,975.11,980.23,983.71,981.29,975.36,968.63,962.27,956.14,949.97,942.86,934.59,925.07,914.14,902.90,892.84,885.18,878.82,877.15,875.95,873.19,868.68,862.61,864.56,870.45,870.89,865.25,860.25,860.81,868.19,874.88,879.31,883.28,887.75,893.25,898.75,904.59,911.18,918.53,924.42,929.30,934.16,939.33,944.67,950.69,956.38,958.25,951.20,941.89,932.81,923.52,914.02,906.36,899.62,892.08,883.73,875.82,868.68,863.22,858.32,852.11,842.03,835.43,832.84,834.11,837.81,840.73,843.00,845.30,848.67,853.30,857.84,862.27,866.49,869.56,869.02,866.60,863.43,860.77,860.82,863.40,867.55,872.56,877.54,881.02,881.62,879.01,875.06,870.20,863.77,856.04,848.00,842.88,838.32,834.23,831.16,829.55,830.54,832.79,835.79
833.94,834.23,835.04,837.14,839.52,841.16,842.43,843.69,844.82,845.83,846.88,847.91,848.97,849.83,849.81,847.75,843.64,840.09,837.75,832.92,829.71,827.67,826.06,824.09,822.22,820.54,819.10,818.33,819.46,820.63,821.82,823.15,824.50,825.86,827.20,828.54,830.69,837.56,842.14,844.72,846.27,847.33,846.50,843.93,840.05,835.35,828.73,818.80,808.32,799.99,791.31,784.56,777.88,770.23,761.69,753.34,744.29,735.60,730.37,731.64,736.84,744.10,752.31,759.22,765.23,771.15,777.42,784.22,789.79,795.96,803.47,812.74,822.47,830.62,837.58,843.62,849.25,856.83,863.86,869.85,875.22,881.03,887.36,892.37,894.50,894.60,892.44,888.62,883.81,879.25,875.52,872.43,868.80,863.53,858.41,855.14,853.46,853.23,854.18,856.52,861.11,867.98,876.77,883.61,888.92,892.47,893.43,891.69,890.36,889.95,888.79,882.57,874.18,867.06,861.32,856.70,855.15,862.29,871.23,878.75,886.88,892.14,894.60,894.87,893.58,892.41,892.65,894.27,897.42,902.19,903.78,903.04,900.88,898.31,894.82,891.07,887.19,883.08,878.61,875.24,873.81,875.05,879.08,885.01,891.07,897.02,903.57,910.64,917.03,924.96,936.25,947.31,952.18,954.56,956.63,959.86,965.20,970.85,976.40,980.81,978.39,972.73,966.45,960.43,953.89,946.87,940.00,933.00,924.68,914.93,904.34,894.18,885.47,877.62,872.87,869.57,866.58,862.65,858.15,860.19,864.82,863.85,858.58,855.62,857.57,864.66,871.34,876.23,881.44,887.34,893.04,898.66,904.66,910.98,917.16,921.96,926.12,930.64,936.08,942.71,949.37,954.72,956.34,950.68,942.65,934.72,925.77,915.75,908.80,902.18,895.21,887.43,878.38,870.50,863.68,857.50,850.96,840.91,833.82,829.74,828.84,831.47,834.60,837.46,840.25,843.63,847.63,852.00,856.64,861.24,864.52,865.00,864.17,862.28,858.86,858.01,860.34,864.73,870.01,874.65,876.68,875.90,872.92,870.47,868.05,864.04,857.76,849.17,843.88,839.08,834.38,830.07,826.42,826.56,828.69,831.95
834.79,834.47,834.92,836.95,839.38,841.03,842.23,843.42,844.52,845.43,846.15,846.99,847.95,848.82,848.85,846.03,841.77,838.56,836.89,832.89,830.07,828.11,826.39,824.16,822.03,820.21,818.57,817.49,818.85,820.26,821.57,822.92,824.32,825.71,827.11,828.54,830.58,835.81,839.73,842.36,844.22,845.76,844.89,842.38,838.80,834.45,828.95,820.83,811.63,803.12,795.15,788.12,780.99,773.10,764.20,755.57,745.78,735.60,727.92,727.13,731.93,739.62,748.37,755.58,761.80,767.88,774.29,781.46,788.51,796.50,805.69,815.81,824.59,832.20,838.92,844.82,850.19,856.86,863.62,869.81,875.01,880.30,886.01,890.52,892.18,891.09,888.20,883.29,877.24,872.58,868.86,865.54,861.46,855.80,851.68,849.22,848.25,848.97,851.48,855.45,861.49,869.25,877.61,882.97,886.78,888.85,888.45,886.29,885.02,885.40,885.68,880.69,871.93,864.34,858.35,853.88,853.75,860.77,869.60,877.38,884.04,887.85,888.82,887.61,885.29,884.51,886.51,890.00,893.91,897.71,898.35,896.93,894.40,891.80,888.27,884.33,880.05,875.31,870.77,868.60,869.30,873.00,878.17,884.28,890.46,896.65,903.38,910.95,918.09,926.13,935.84,943.47,947.46,949.95,952.11,954.96,961.24,967.45,973.17,977.88,975.37,970.15,964.43,958.56,951.45,943.79,937.22,931.33,924.19,915.80,906.36,896.44,886.69,878.01,870.76,865.24,861.20,857.27,853.90,855.27,858.17,856.57,851.92,851.42,854.94,861.60,868.86,874.80,881.37,888.31,893.62,898.78,904.29,909.80,914.76,918.75,922.82,927.61,933.69,941.48,948.12,952.64,953.86,949.75,943.28,936.44,927.85,917.60,911.19,904.80,898.45,891.38,881.79,873.50,865.68,858.37,851.29,841.52,833.87,828.40,825.40,825.70,828.18,831.42,834.87,838.43,842.10,846.37,851.22,856.22,859.78,860.75,861.10,860.48,856.64,854.97,857.21,861.97,867.51,871.93,872.81,870.72,866.85,864.57,863.98,862.40,858.22,850.38,845.00,840.01,834.93,829.70,824.24,822.87,824.29,827.60
836.21,835.52,835.34,837.13,839.53,841.09,842.24,843.34,844.12,844.37,844.04,844.34,845.14,846.12,846.22,841.94,839.03,837.38,836.01,833.79,831.51,829.23,826.91,824.46,822.06,820.03,818.11,816.60,818.09,819.88,821.46,822.86,824.30,825.70,827.09,828.58,830.58,834.20,837.76,840.73,842.98,844.93,843.93,841.66,838.66,834.45,829.66,823.33,816.00,808.39,800.92,792.75,784.34,775.70,766.25,757.25,746.81,735.71,726.81,723.45,727.94,735.94,744.49,752.67,759.93,767.45,775.45,783.41,791.45,799.71,808.77,818.90,827.33,833.99,839.82,845.23,850.48,856.19,862.84,869.54,874.67,879.54,884.21,887.85,889.16,886.71,882.22,876.87,871.23,865.97,862.04,858.49,853.92,847.70,844.64,843.64,843.99,846.05,850.87,855.75,862.34,870.33,877.83,881.48,883.31,883.60,882.19,880.60,879.81,880.70,882.01,879.29,870.41,861.86,855.03,850.50,851.31,857.52,865.73,873.60,878.47,880.54,880.28,878.40,876.04,876.21,880.57,886.33,891.02,894.24,893.24,890.74,888.12,885.79,882.05,878.05,873.64,868.37,863.90,863.54,866.72,872.38,877.27,883.29,889.64,896.09,903.04,911.41,919.07,925.50,930.75,936.38,940.57,943.47,945.79,949.64,957.89,965.11,970.70,974.65,972.10,967.46,962.20,956.25,948.69,941.18,934.80,929.19,922.99,916.46,908.96,899.87,889.02,879.30,871.31,864.64,858.99,853.86,849.88,849.66,851.11,850.03,844.99,846.85,852.68,860.09,868.97,876.50,883.72,890.27,894.39,898.26,902.13,906.26,910.79,915.02,920.09,925.87,932.56,940.54,945.89,949.59,951.22,949.02,943.87,937.50,929.30,919.68,913.29,907.26,901.06,894.15,885.68,877.42,869.73,862.40,854.79,845.16,836.97,830.53,825.60,821.46,821.81,824.81,828.84,832.63,836.64,841.28,846.07,850.57,854.46,856.24,857.40,857.31,853.42,850.95,853.55,859.17,864.98,869.31,870.02,867.69,863.11,858.80,858.08,858.05,856.52,851.42,846.13,841.02,835.72,829.84,823.42,819.58,819.20,821.93
838.00,837.43,836.88,837.76,839.40,840.91,842.04,843.13,843.69,843.59,843.17,842.95,842.90,842.92,842.44,839.48,837.50,836.14,834.80,833.32,831.25,827.97,824.50,823.25,821.37,819.35,817.27,815.71,817.38,819.41,821.13,822.53,823.95,825.32,826.69,828.23,830.29,833.43,836.77,839.78,842.13,843.87,842.85,840.76,838.08,834.30,829.98,824.65,818.32,811.04,803.60,795.10,786.03,776.62,766.95,757.88,747.21,735.62,725.84,721.02,725.03,733.13,742.02,751.05,760.05,769.01,777.87,786.27,794.04,801.63,809.80,818.99,826.92,832.75,838.02,843.47,849.09,854.88,861.77,868.76,873.77,878.23,881.78,884.00,883.89,880.28,875.60,869.81,863.40,858.13,855.44,852.11,847.28,841.57,839.47,839.12,840.25,843.61,850.33,856.13,862.95,870.25,875.38,876.97,877.28,876.80,875.52,874.38,874.13,875.58,877.59,875.91,867.32,858.60,851.57,847.32,849.16,854.91,861.88,868.19,871.38,872.30,871.20,868.99,867.51,869.57,875.87,882.84,887.47,889.71,887.78,884.61,881.61,879.30,876.12,872.52,868.17,862.74,858.99,860.27,864.44,869.94,875.19,881.66,888.36,894.93,901.62,909.78,916.87,922.09,925.45,929.39,933.11,936.76,940.84,946.63,955.77,963.30,968.71,971.89,968.76,963.82,958.76,953.34,945.34,938.31,932.19,926.34,919.79,913.38,906.87,899.54,890.90,882.31,873.26,865.55,859.53,853.70,848.53,845.42,844.01,843.27,841.19,845.07,852.56,861.54,870.30,877.58,884.04,889.41,892.47,895.21,898.02,901.27,905.60,911.93,918.19,924.53,931.06,937.42,941.44,944.55,946.86,947.18,943.69,937.66,930.07,921.83,915.43,908.95,902.13,894.96,887.54,879.81,872.66,865.39,857.10,848.42,840.32,833.60,827.99,821.77,818.45,819.46,823.29,827.47,830.83,834.42,839.15,844.95,848.85,851.05,852.49,852.61,849.59,847.66,850.58,856.44,862.47,866.69,866.78,863.54,857.91,852.84,851.58,851.52,851.04,848.84,845.47,841.09,835.86,829.78,823.35,818.43,816.67,818.14
839.66,839.29,838.61,838.60,839.35,840.71,841.79,842.80,843.18,842.89,842.65,842.06,841.26,840.34,839.26,837.87,836.44,834.98,833.55,832.32,830.01,825.78,821.44,821.28,820.04,818.18,816.20,814.99,816.75,818.82,820.58,821.98,823.39,824.75,826.18,827.80,829.92,832.91,836.15,839.12,841.42,842.68,841.66,839.69,837.20,833.91,829.96,825.19,819.25,811.76,804.22,795.66,786.33,776.51,766.94,757.93,747.10,735.10,724.63,719.05,722.72,730.90,740.24,749.92,760.49,770.64,779.93,788.45,795.69,802.56,809.77,817.70,825.03,830.25,835.22,840.91,847.18,853.49,860.75,867.96,872.86,876.57,878.80,879.38,877.69,873.33,868.80,862.80,855.76,850.59,848.91,845.97,841.36,836.53,835.14,835.20,836.95,841.47,849.72,856.39,863.13,869.12,871.48,871.30,870.64,869.86,868.84,867.90,868.26,870.22,872.52,871.19,863.25,854.88,847.91,843.82,846.63,852.09,857.56,861.63,863.16,863.19,861.64,859.58,859.53,863.78,871.48,879.05,883.55,884.75,882.22,878.61,875.28,872.94,870.47,867.33,863.12,857.90,854.96,857.53,862.17,867.07,872.69,879.90,886.97,893.41,899.57,906.67,912.57,916.84,919.61,922.97,926.65,931.23,937.12,944.64,954.13,961.64,966.58,968.41,964.57,959.38,954.48,949.49,941.69,935.30,929.29,922.98,916.06,909.44,903.48,897.70,891.51,884.60,875.13,866.92,860.93,854.62,848.21,842.43,838.31,837.43,838.60,844.28,853.23,863.78,871.77,877.73,882.58,886.42,888.77,890.95,893.51,896.57,900.93,909.13,916.40,922.99,928.95,933.45,936.44,939.22,942.18,944.72,943.13,937.56,930.52,923.57,917.20,910.24,902.81,895.45,888.95,881.95,875.31,867.98,859.13,851.61,843.82,836.94,830.93,823.64,816.92,815.23,817.93,822.44,825.23,827.69,831.98,838.48,842.46,845.14,846.95,847.42,845.41,844.34,847.70,853.79,860.02,864.21,863.76,859.48,852.73,847.59,845.61,844.93,844.78,844.84,843.55,840.30,835.50,829.43,822.99,817.53,814.66,814.74
840.61,840.19,839.83,839.57,839.75,840.67,841.56,842.27,842.46,842.19,842.05,841.57,840.90,840.04,838.86,837.28,835.68,834.10,832.52,830.97,827.42,822.97,819.17,818.34,817.43,816.03,814.80,814.73,816.31,817.96,819.49,820.96,822.47,823.98,825.67,827.51,829.53,832.42,835.69,838.71,840.82,841.32,840.23,838.27,835.80,832.90,829.26,824.48,817.90,809.14,801.54,792.96,783.92,774.84,766.07,757.26,746.05,733.43,722.64,717.27,721.17,729.61,739.25,749.01,760.14,770.62,779.72,787.65,794.82,801.74,808.50,815.03,821.58,826.73,831.87,837.94,845.25,852.47,860.19,867.58,872.46,874.39,874.72,873.59,870.70,866.70,862.07,856.53,850.39,845.06,842.40,839.93,836.72,832.99,831.61,832.11,834.51,839.73,848.86,856.24,862.16,865.94,865.64,864.87,864.49,863.88,862.50,861.10,862.23,864.52,866.25,864.28,857.73,850.48,843.73,839.15,842.68,848.02,851.86,853.11,852.97,852.34,851.13,850.37,852.61,859.00,866.85,874.18,879.11,879.46,876.62,872.97,869.66,867.44,865.41,862.43,858.50,854.21,851.78,854.74,859.62,864.55,870.01,878.37,885.66,891.32,896.63,901.07,905.00,908.60,912.37,918.10,923.73,929.49,935.86,943.59,952.80,959.97,963.60,962.27,957.86,953.42,948.74,943.38,937.70,932.13,925.65,918.66,912.58,906.35,900.53,894.75,888.71,883.15,875.45,868.29,862.37,855.83,848.56,841.98,836.87,834.58,836.76,843.92,854.31,865.72,872.51,875.63,877.62,879.59,882.18,885.40,889.59,894.10,898.94,906.58,914.17,920.55,925.36,928.96,931.76,934.78,938.16,941.41,942.16,937.47,930.66,924.04,917.88,911.03,903.78,896.76,890.89,884.74,878.10,870.32,861.36,854.93,847.53,840.27,833.50,826.08,818.14,813.21,812.66,817.21,820.60,823.00,825.66,829.42,833.99,837.77,840.71,842.15,840.70,840.22,844.47,851.33,857.75,862.15,861.79,856.78,848.94,844.64,841.78,840.20,839.69,839.94,839.54,837.76,834.22,828.43,821.09,815.47,811.90,810.80
841.03,840.62,840.37,840.17,840.32,841.03,841.61,841.80,841.72,841.48,841.34,841.00,840.53,839.83,838.61,837.07,835.46,833.82,832.18,830.50,826.84,822.59,818.78,816.54,815.11,813.87,813.29,814.07,815.57,817.07,818.54,820.02,821.52,822.48,823.89,826.01,828.88,831.87,834.88,837.69,839.73,839.78,838.50,836.54,834.18,831.46,827.34,821.26,813.64,805.02,797.09,788.62,780.38,772.58,764.46,755.88,744.64,731.79,720.70,716.17,720.76,729.58,739.38,749.17,759.45,769.00,777.45,785.11,793.15,800.63,807.31,813.14,818.85,824.00,829.51,836.13,844.37,852.40,860.28,867.30,871.52,871.90,870.52,868.21,865.04,861.18,856.59,851.64,846.53,841.49,837.37,834.28,831.23,827.56,826.02,827.68,831.53,837.78,847.39,854.59,859.47,861.59,859.64,858.34,857.70,857.02,855.87,854.77,856.07,857.93,858.93,857.28,852.37,846.36,839.78,833.97,836.49,840.55,843.32,843.97,843.51,842.59,841.40,841.55,846.33,853.97,862.15,869.40,874.02,873.61,871.01,867.68,864.36,861.88,859.86,857.25,853.82,849.97,848.38,851.87,856.99,862.17,868.70,877.50,884.31,888.81,892.73,895.50,898.39,902.30,908.16,916.28,922.85,928.91,935.37,942.96,951.58,958.10,960.55,957.00,952.06,947.40,942.84,938.21,933.73,929.20,923.35,916.63,910.63,904.49,897.31,890.32,884.69,879.47,873.02,866.95,861.37,854.48,846.88,840.01,834.55,832.01,835.75,844.01,854.35,864.52,870.18,871.70,872.49,874.07,877.36,881.86,887.20,892.39,896.99,903.05,910.46,916.80,921.18,924.43,927.09,929.96,933.44,937.58,940.17,936.75,930.63,924.18,917.93,911.19,904.01,897.17,892.15,886.66,880.52,873.27,864.87,858.27,850.12,842.17,835.18,828.29,820.26,813.91,810.50,811.17,813.68,816.20,818.77,821.88,826.13,830.05,833.10,834.50,833.34,835.72,841.89,849.46,855.92,860.21,858.75,853.51,846.65,842.42,838.38,835.72,834.58,834.68,834.74,834.22,831.85,826.57,819.38,813.75,809.29,806.74
841.15,840.87,840.62,840.60,840.87,841.40,841.67,841.36,840.97,840.71,840.54,840.32,840.07,839.56,838.39,837.00,835.45,833.82,832.17,830.50,827.22,823.29,819.26,815.54,813.14,811.93,811.94,813.31,814.76,816.21,817.66,819.11,820.42,820.75,821.69,823.94,827.82,831.12,833.85,836.36,838.35,838.10,836.60,834.62,832.35,829.47,824.51,816.90,808.23,799.99,791.93,783.89,776.63,770.04,762.43,754.06,743.03,730.06,718.27,715.16,720.81,730.16,740.10,749.86,758.94,767.22,774.86,782.40,791.34,799.34,806.08,811.65,816.71,821.99,827.95,835.12,844.11,852.81,860.58,866.78,869.83,868.86,866.14,863.03,859.85,856.05,851.60,847.26,843.10,838.51,833.13,829.06,825.57,821.82,820.52,823.50,828.76,835.90,845.73,852.46,856.09,856.47,853.02,851.29,850.26,849.42,848.61,848.00,849.12,850.32,850.67,849.53,846.08,841.13,834.77,828.04,828.75,831.03,832.92,833.80,833.59,832.77,832.16,833.72,841.02,849.95,858.52,865.34,868.79,867.71,865.61,862.65,859.16,856.27,854.14,851.91,848.99,845.45,844.96,849.20,854.69,860.26,868.16,876.50,882.25,885.55,888.13,890.33,893.26,898.20,906.29,916.20,923.18,929.25,935.64,942.87,950.58,956.05,957.21,952.04,946.56,941.34,936.86,933.24,929.57,926.15,921.49,915.60,909.46,903.27,894.42,885.78,880.10,874.77,869.44,864.35,858.99,851.74,843.96,837.08,831.75,829.69,834.94,844.04,853.69,861.68,866.04,866.73,867.34,869.41,873.74,879.32,885.26,890.63,894.82,899.22,905.88,912.04,916.48,919.67,922.22,924.84,928.26,933.20,937.19,935.46,930.41,923.99,917.56,910.77,903.54,896.83,892.57,887.56,881.99,875.53,867.91,860.79,851.80,843.25,836.22,830.03,822.62,815.94,810.41,806.56,806.92,808.90,811.51,814.58,818.04,821.67,824.54,825.89,825.56,831.52,839.81,847.94,854.20,858.11,855.44,850.31,844.96,840.37,835.15,831.26,829.14,828.84,829.17,829.73,828.63,824.38,817.90,812.33,806.94,802.90
840.96,841.05,840.83,840.89,841.09,841.21,841.37,840.85,840.22,839.81,839.59,839.36,839.29,839.03,838.02,836.81,835.39,833.88,832.37,830.86,828.12,824.38,820.05,815.74,812.06,810.84,811.38,812.77,814.17,815.54,816.92,818.18,818.90,819.19,819.80,821.63,825.71,829.77,832.58,834.86,836.65,836.20,834.54,832.54,830.09,826.14,820.20,812.15,802.96,793.83,786.84,780.23,773.79,767.32,760.00,751.82,741.26,728.00,714.00,713.40,720.86,731.04,741.30,750.91,759.63,767.21,774.09,781.64,790.21,797.86,804.57,810.54,815.62,821.40,827.83,835.23,844.54,853.52,860.65,865.24,866.21,864.29,861.31,857.98,854.46,850.73,846.60,842.67,838.94,834.75,829.60,824.74,820.55,817.77,818.35,822.17,827.57,834.52,844.29,850.83,852.77,850.34,844.46,842.50,841.44,840.46,839.52,838.90,839.54,840.37,840.58,839.20,836.24,831.45,825.59,820.15,818.75,819.19,820.08,820.80,820.89,821.08,823.50,828.90,838.20,849.86,858.84,863.71,863.93,862.55,861.02,858.06,853.82,850.48,848.46,846.41,843.70,840.75,841.76,847.30,853.66,859.81,868.47,874.06,877.69,880.24,882.44,886.54,891.99,899.09,908.31,917.88,924.85,931.10,937.55,944.12,950.16,953.58,952.98,946.94,940.79,935.26,930.85,927.65,924.60,922.30,919.24,914.85,908.88,902.63,893.10,882.93,875.20,869.77,865.76,861.22,855.27,847.74,839.55,832.89,828.50,827.87,833.60,843.15,852.06,857.62,859.95,860.69,862.33,865.88,871.79,877.44,882.71,887.53,891.80,895.78,900.36,905.59,910.79,914.06,916.66,919.17,922.49,927.61,932.20,933.02,929.81,923.08,916.60,909.16,901.64,895.10,890.93,886.04,880.62,874.49,867.41,860.40,851.87,843.53,836.36,830.39,824.50,818.70,813.16,808.23,804.16,802.87,803.70,805.94,808.27,811.49,814.62,817.28,820.17,829.00,838.59,846.76,852.26,855.23,852.79,848.24,843.15,837.80,831.91,826.49,822.52,821.44,822.00,823.34,823.96,822.26,816.97,811.46,805.36,800.05
841.24,841.31,841.07,841.22,841.47,841.43,841.45,840.67,839.63,838.71,838.23,838.02,838.11,838.15,837.61,836.54,835.25,833.90,832.54,831.16,828.78,825.01,820.22,815.38,811.32,810.18,810.88,812.13,813.45,814.79,816.08,817.14,817.58,818.05,818.75,820.34,823.95,828.45,831.48,833.67,835.19,834.70,833.05,830.59,827.28,822.46,815.68,808.00,799.38,790.09,783.84,777.70,771.18,764.34,757.45,749.18,739.21,726.48,711.66,712.58,721.63,732.54,742.46,751.80,760.29,767.55,774.07,781.22,789.13,796.27,802.82,809.12,814.81,821.12,827.91,835.57,845.27,853.88,859.70,862.45,861.79,859.18,855.80,852.15,848.48,845.03,841.48,838.02,834.55,830.50,825.54,820.63,816.42,814.20,816.66,821.29,826.65,833.13,842.53,847.56,847.17,842.87,837.37,834.75,832.89,831.24,829.86,828.99,828.95,829.12,828.93,827.65,825.22,820.98,815.81,811.23,809.08,808.67,808.88,809.56,811.40,814.77,820.35,828.65,840.65,852.98,859.60,861.10,858.92,857.37,855.93,853.12,849.03,845.64,843.64,841.60,838.97,836.49,839.23,845.86,852.43,857.72,864.29,868.36,871.89,875.50,879.21,885.44,892.55,900.70,910.26,919.50,926.68,933.30,939.82,945.71,950.40,951.94,949.36,941.89,935.27,930.04,925.84,922.33,918.73,916.82,915.10,912.37,907.15,900.26,890.32,879.88,871.67,865.94,862.06,857.77,851.93,844.12,835.54,828.78,825.04,825.98,831.66,840.99,849.13,853.16,854.11,855.38,858.31,863.06,869.19,874.37,879.04,883.53,887.92,891.77,895.51,899.80,904.39,907.75,910.86,913.97,917.63,922.61,927.60,930.29,928.85,922.73,916.26,908.98,901.72,895.24,890.50,885.51,880.03,873.84,866.77,859.83,852.11,844.61,838.01,832.50,826.79,820.73,814.85,809.89,804.47,801.01,799.68,800.37,801.80,804.01,806.66,810.10,815.91,825.40,835.12,843.46,849.17,851.91,850.32,846.66,841.84,835.97,829.55,823.35,818.23,815.69,815.68,817.01,818.38,818.47,815.43,810.72,804.81,798.75
841.68,841.60,841.35,841.54,841.81,841.77,841.69,840.67,839.15,837.58,836.67,836.47,836.68,836.99,837.04,836.19,835.07,833.86,832.60,831.30,829.06,825.20,819.98,814.57,810.71,809.78,810.47,811.52,812.71,814.01,815.20,816.10,816.55,817.31,818.27,819.75,822.60,827.18,830.44,832.63,833.88,833.42,831.81,828.70,824.22,818.79,811.49,804.42,796.79,787.98,782.19,775.91,768.77,761.26,754.72,746.43,737.06,725.15,710.42,712.30,722.65,734.12,743.42,752.42,760.71,767.89,774.22,780.66,787.85,794.56,800.94,807.48,814.09,821.03,828.24,836.18,845.99,853.67,857.85,858.81,856.96,853.72,849.82,845.88,842.30,839.27,836.36,833.37,830.07,826.03,821.21,816.66,812.80,810.91,814.99,820.35,825.71,831.67,840.26,842.96,840.11,834.66,830.71,827.34,824.49,822.07,820.19,818.89,818.07,817.37,816.60,815.45,813.48,810.00,805.64,801.57,799.41,799.01,799.46,801.01,805.39,812.70,821.20,831.58,845.85,856.74,859.53,857.43,853.80,852.12,850.54,848.07,844.70,841.46,839.35,837.28,834.70,832.49,836.89,844.09,850.31,854.20,857.73,861.51,866.40,872.09,877.92,886.12,894.07,902.41,911.95,920.94,928.46,935.42,941.80,946.58,950.29,950.34,946.03,937.31,930.34,925.40,921.19,916.90,912.35,910.34,909.52,908.29,904.06,896.40,886.40,876.58,868.93,862.71,858.22,853.91,848.56,840.70,831.97,825.08,821.75,824.08,829.39,837.81,844.90,847.91,848.28,850.61,854.91,860.43,865.88,870.37,874.61,878.98,883.49,887.20,890.68,894.17,897.69,901.13,904.87,908.88,913.20,918.06,923.50,927.50,927.67,922.85,916.49,909.82,903.16,896.82,891.30,886.08,880.42,873.98,866.66,859.87,852.80,846.18,840.48,835.47,829.26,822.37,815.93,811.30,806.42,801.85,798.53,797.25,797.61,798.48,800.24,804.00,811.98,820.83,829.95,838.44,844.91,848.07,847.69,845.13,840.71,834.60,827.88,821.38,815.59,811.42,810.33,811.05,812.42,813.58,813.11,809.79,804.77,798.53
841.57,841.76,841.67,841.65,841.60,841.41,841.62,840.53,838.80,836.92,835.35,834.95,835.11,835.46,835.78,835.73,834.88,833.66,832.36,830.96,828.37,824.59,819.56,813.35,809.89,809.44,810.36,811.32,812.33,813.38,814.42,815.38,816.20,817.18,818.19,819.55,821.97,826.01,829.20,831.46,832.61,831.98,830.20,826.61,821.49,815.88,809.08,801.77,794.16,786.63,781.03,774.57,766.84,758.43,751.47,744.18,735.24,723.13,708.55,711.90,722.84,734.38,743.67,752.32,760.37,767.41,773.42,778.88,785.60,792.50,799.17,805.68,813.06,821.10,829.32,837.60,846.02,851.90,854.62,854.62,852.20,847.91,843.46,839.65,836.79,834.28,831.63,828.80,825.64,821.82,817.20,812.84,809.26,807.87,812.69,818.44,824.14,830.02,836.50,836.87,832.66,826.54,821.79,818.32,815.78,813.66,811.70,809.83,808.13,806.56,805.02,803.30,801.14,798.21,794.69,791.07,788.58,789.41,793.17,799.34,806.07,814.97,825.31,837.02,849.69,855.38,855.12,852.09,848.65,846.76,845.31,843.49,840.94,837.59,835.15,833.24,830.92,828.58,833.62,839.78,845.00,848.88,852.54,858.01,865.26,872.83,878.60,887.77,895.52,903.44,913.33,922.08,929.71,936.51,941.75,943.67,946.96,946.62,942.22,934.70,927.30,921.07,915.44,910.22,905.96,903.63,902.61,901.60,898.01,890.47,881.49,872.98,865.93,858.97,853.76,849.07,843.87,836.91,829.13,822.74,819.70,822.37,827.13,833.32,838.12,840.12,841.55,846.11,851.60,856.88,861.31,865.50,869.70,874.17,878.73,881.64,884.02,887.23,891.34,894.89,898.52,902.95,908.11,913.87,920.30,924.99,926.39,923.43,917.56,911.30,905.30,899.61,894.03,888.53,882.72,876.15,868.79,862.76,854.81,847.70,842.49,837.49,831.39,824.33,817.50,812.59,808.07,803.89,800.05,796.78,794.58,794.16,795.36,798.97,806.94,815.04,823.28,831.37,838.49,842.86,843.94,842.65,839.09,833.26,826.86,820.26,813.98,809.11,806.79,806.32,806.95,808.20,808.97,807.69,804.40,799.19
841.48,841.89,841.85,841.61,841.26,840.86,840.78,839.56,837.86,836.01,834.16,833.43,833.43,833.80,834.33,834.77,834.40,833.44,832.11,830.71,827.91,824.19,819.31,812.69,809.37,809.19,810.27,811.18,812.10,813.05,814.04,815.07,816.08,817.12,818.16,819.38,821.30,824.55,827.60,829.83,830.75,830.03,827.81,824.09,819.26,814.16,807.57,799.76,791.79,784.76,779.09,772.58,764.68,755.94,748.75,742.03,733.03,720.50,706.38,711.14,722.09,732.94,741.65,750.27,758.72,765.93,771.95,777.93,784.98,791.61,797.68,803.69,811.14,820.25,829.32,837.50,844.56,849.15,850.93,850.26,847.25,842.29,837.53,833.89,831.63,829.36,826.62,823.75,820.73,817.20,812.94,808.64,805.37,805.09,810.14,816.10,822.18,828.05,832.35,830.07,825.05,819.19,813.39,808.77,805.83,803.75,801.88,799.92,797.98,795.93,793.68,791.20,788.56,785.65,782.73,780.55,780.68,785.08,791.96,800.22,808.79,819.62,831.05,842.08,850.86,852.00,849.56,846.15,843.04,840.57,838.55,836.70,834.81,832.45,830.32,828.40,826.44,825.32,830.73,836.10,841.04,845.98,850.95,857.48,865.44,873.43,879.45,889.23,896.65,904.06,913.94,922.49,929.64,935.43,939.14,939.63,943.61,943.82,939.81,933.09,925.21,917.45,910.46,904.73,900.37,897.28,895.74,894.63,891.13,884.30,876.56,869.27,862.78,855.25,849.54,844.56,839.38,833.10,826.38,820.57,817.80,820.79,824.93,829.19,832.20,833.69,836.29,842.08,848.05,853.05,857.01,860.97,865.11,869.70,874.37,876.43,877.87,880.68,885.06,889.03,892.87,897.50,902.69,908.01,914.58,921.24,925.32,924.67,919.72,913.76,907.72,901.80,895.98,890.09,883.98,877.37,870.27,864.53,856.55,849.37,844.20,839.26,833.37,826.51,819.67,814.33,809.86,805.94,802.08,798.09,794.43,792.29,791.85,794.08,801.12,808.72,816.94,825.15,832.28,837.30,839.46,839.42,837.09,832.11,826.17,819.61,813.07,807.72,804.33,802.58,802.25,803.23,804.40,804.55,802.99,799.21
841.41,841.94,841.88,841.48,840.93,840.30,839.50,838.17,836.65,835.03,833.20,832.02,831.75,832.14,832.82,833.42,833.66,833.17,831.88,830.57,827.77,824.10,819.34,812.75,809.20,808.97,810.13,811.04,811.97,812.94,813.97,815.04,816.07,817.09,818.14,819.26,820.63,823.01,825.80,827.86,828.38,827.61,824.89,821.34,817.49,813.28,806.54,798.19,789.74,782.50,776.50,770.01,762.25,753.60,746.41,739.86,730.38,717.36,704.07,710.10,720.66,730.28,737.93,746.51,755.76,763.53,770.06,777.77,785.64,791.53,796.29,801.55,808.54,818.50,828.14,835.82,841.77,845.67,847.01,845.85,842.05,836.79,832.04,828.67,826.80,824.44,821.37,818.33,815.46,812.24,808.45,804.20,801.36,802.57,807.54,813.61,820.01,825.74,827.77,823.07,817.82,812.85,806.10,799.51,795.34,792.78,791.02,789.36,787.67,785.49,782.68,779.43,776.22,773.14,770.97,771.38,776.28,785.38,794.67,802.97,813.16,825.71,837.18,845.83,849.45,847.16,843.34,839.79,836.93,833.76,830.73,828.22,826.52,825.78,824.52,822.52,821.01,822.26,828.03,833.32,838.91,845.56,852.37,859.38,866.72,873.92,880.48,890.25,897.34,904.28,913.71,921.92,928.13,932.36,934.50,935.12,940.64,942.05,938.64,932.05,923.63,914.50,906.53,900.65,895.77,891.62,889.31,887.78,883.96,878.18,871.74,865.46,859.39,851.64,845.66,840.46,835.25,829.43,823.70,818.38,815.82,819.17,822.62,825.31,827.16,828.73,832.35,838.36,844.18,849.01,853.02,856.87,860.97,865.67,870.43,871.64,872.40,874.73,878.96,883.54,887.81,892.45,897.02,900.91,906.70,916.17,923.99,925.98,922.47,916.87,910.19,903.19,896.93,890.66,884.24,877.62,870.95,865.08,857.93,851.26,845.86,841.07,835.40,829.01,822.48,816.60,811.88,807.91,804.21,800.48,796.42,792.46,789.64,789.53,794.94,802.11,810.81,819.56,826.66,831.76,834.59,835.65,834.70,831.04,825.67,819.29,812.70,807.01,802.75,799.77,798.34,798.71,799.71,800.56,800.51,798.32
841.13,841.74,841.91,841.55,840.95,840.27,839.33,838.27,836.88,835.08,833.01,831.23,830.53,830.75,831.49,832.16,832.65,832.57,831.71,830.53,827.79,824.30,819.96,813.95,809.64,808.67,809.57,810.82,811.78,812.69,813.70,814.85,816.04,817.12,818.19,819.28,820.50,822.45,824.65,826.06,825.99,824.94,822.33,819.21,815.93,811.98,804.85,796.46,788.16,780.82,774.27,767.48,759.44,750.54,743.59,737.17,727.14,713.87,702.19,709.03,719.29,728.21,735.00,741.88,751.22,760.21,768.46,777.42,785.30,790.39,794.39,799.50,806.00,816.16,825.66,832.56,838.08,841.80,843.08,841.50,836.33,830.86,826.93,824.31,822.41,819.62,816.32,813.25,810.47,807.50,803.92,800.29,798.38,800.51,805.56,811.80,818.15,822.84,821.70,817.59,813.37,808.75,801.65,793.71,787.53,783.44,781.35,779.76,777.93,775.71,772.91,769.27,766.13,764.34,765.05,769.91,777.40,786.97,797.05,807.70,820.89,830.87,839.15,845.08,845.33,840.93,836.50,832.95,830.13,827.25,824.29,820.79,817.44,816.52,816.12,814.47,813.69,817.34,824.18,831.47,839.07,846.99,854.42,862.93,870.38,876.59,882.65,890.29,896.97,903.90,912.13,919.01,924.36,927.74,929.43,931.36,938.19,940.60,937.64,930.61,921.27,912.17,904.42,898.37,893.14,888.16,884.44,881.49,877.58,872.60,867.16,861.44,855.25,848.24,842.20,836.72,831.51,826.53,821.25,815.97,813.34,816.76,819.41,820.46,821.71,824.43,828.53,834.26,839.70,844.44,848.97,853.36,857.71,862.40,866.86,867.12,867.50,869.63,873.72,878.46,882.72,887.03,891.23,894.96,899.03,909.65,920.01,924.63,923.83,919.37,911.99,903.39,896.83,890.89,884.66,878.04,871.29,865.38,859.33,853.64,848.56,843.72,838.43,832.60,826.24,819.64,814.50,809.97,805.81,801.88,797.45,793.19,789.21,786.95,789.87,795.82,803.41,812.41,822.17,827.50,830.52,831.89,831.57,829.59,825.04,819.01,812.55,806.82,802.18,798.34,795.62,794.59,795.30,796.22,796.70,795.68
841.52,842.19,842.28,841.98,841.54,841.04,840.14,839.31,838.12,836.30,833.97,831.53,829.93,829.43,830.15,830.95,831.55,831.77,831.43,830.43,827.94,824.82,821.01,815.75,810.49,808.37,808.68,810.18,811.26,812.19,813.31,814.69,816.04,817.17,818.23,819.24,820.28,821.95,823.64,824.47,823.90,822.55,820.02,817.18,814.15,810.08,803.00,795.40,787.78,780.10,772.72,765.12,756.51,747.43,740.62,734.68,724.43,710.94,700.52,707.66,717.89,726.57,732.70,738.20,746.62,755.91,765.27,774.74,782.63,787.38,790.97,796.01,802.94,812.54,821.56,828.43,833.60,837.21,838.29,836.35,830.73,825.43,821.40,818.51,816.39,813.61,810.60,807.82,805.31,802.68,799.52,796.46,795.30,798.29,803.88,810.16,815.78,818.80,815.66,811.83,807.88,803.25,796.66,788.94,782.11,776.71,773.00,770.39,768.36,766.12,763.28,759.84,757.79,758.84,763.22,771.12,779.87,790.06,801.52,814.22,827.41,834.88,840.21,843.12,840.07,834.59,830.09,826.69,823.80,820.36,816.79,812.39,807.92,806.25,805.89,805.32,806.68,813.38,822.24,831.14,840.12,849.01,856.57,864.89,871.43,876.35,881.63,887.68,894.18,900.97,907.76,913.41,918.24,921.55,923.75,927.24,934.31,937.92,936.31,928.99,919.46,910.76,903.29,896.99,891.10,885.43,880.40,875.85,871.21,866.47,861.75,856.68,850.88,844.86,838.82,833.12,827.96,823.40,818.45,813.00,809.77,812.37,814.48,814.79,816.05,819.88,824.56,829.93,835.21,840.32,845.66,850.77,855.69,860.32,863.65,862.64,862.69,864.76,868.77,873.53,877.38,881.10,884.94,888.85,892.92,902.42,913.70,922.58,924.47,921.09,913.67,904.46,897.57,891.72,885.86,879.70,873.33,867.57,862.24,857.16,852.18,846.95,841.91,836.78,830.97,823.81,817.34,812.06,807.44,802.97,797.85,793.31,788.78,785.15,785.47,789.98,796.36,804.66,815.00,822.30,825.80,826.80,826.26,826.01,823.69,818.79,812.51,806.73,801.70,796.90,792.84,790.46,790.50,791.23,791.91,791.75
842.73,843.39,843.10,842.84,842.76,842.63,841.88,841.19,840.22,838.62,836.01,832.92,830.05,828.30,828.78,829.68,830.33,830.74,830.84,830.10,828.16,825.56,822.34,817.94,811.65,808.16,807.57,809.07,810.34,811.44,812.86,814.63,816.08,817.18,818.07,818.83,819.62,821.19,822.60,823.06,822.16,820.47,817.85,815.05,811.98,807.52,801.04,794.92,788.40,780.22,771.91,762.97,753.52,744.37,737.65,732.34,722.22,708.72,699.02,705.97,716.48,725.35,731.07,735.90,742.48,750.77,760.17,769.42,777.45,782.36,785.96,790.94,799.19,807.59,815.87,823.45,828.30,831.74,832.54,830.47,825.55,820.72,815.53,811.25,808.73,806.45,804.17,801.98,799.87,797.72,795.26,792.68,791.99,795.85,802.49,808.68,812.82,813.61,810.00,805.44,800.61,795.64,790.37,784.54,778.62,772.36,765.93,761.32,759.01,756.75,753.94,751.61,751.89,757.06,765.22,774.02,783.13,794.86,808.33,821.88,831.63,837.56,840.61,840.12,833.92,828.29,824.15,821.05,818.11,813.17,808.07,802.83,798.00,795.28,794.28,795.73,800.77,811.03,822.86,832.39,841.54,850.94,858.15,864.21,868.63,872.14,876.63,882.29,888.97,895.43,900.69,905.28,909.92,913.92,917.55,922.58,928.83,933.91,934.65,927.38,918.57,910.35,903.06,896.53,889.73,883.48,877.42,871.32,865.17,859.95,855.45,851.06,846.29,841.22,835.20,829.44,824.37,819.69,815.04,809.24,804.75,805.50,807.48,808.35,810.37,814.96,820.34,825.45,830.93,836.95,843.26,849.10,854.77,859.18,860.53,858.04,857.88,860.02,863.98,868.66,871.74,874.79,878.32,882.64,888.65,894.90,905.22,919.36,924.14,921.95,915.39,906.81,899.55,893.44,888.04,882.81,877.38,871.97,866.89,861.88,856.61,850.63,845.59,841.24,836.35,829.01,820.37,814.26,809.29,803.99,797.78,792.73,788.12,784.01,781.92,784.72,790.03,796.67,804.71,815.35,819.80,820.09,818.77,820.16,821.46,818.58,812.59,806.72,801.20,795.24,789.87,786.34,785.35,785.63,786.17,786.52
844.17,844.46,844.30,844.20,844.20,844.19,843.76,843.11,842.04,840.25,837.29,833.99,830.88,828.44,827.43,827.65,828.34,828.93,829.11,828.80,827.67,825.62,822.83,819.28,812.68,808.61,807.19,807.67,809.18,810.87,812.67,814.54,816.09,816.74,816.52,816.19,816.97,819.02,820.77,821.34,820.18,817.80,814.88,812.01,808.92,804.43,798.30,792.49,786.41,778.96,771.13,761.24,750.74,741.28,735.30,728.39,718.19,706.15,697.61,704.47,715.23,724.43,730.18,734.83,740.14,746.76,754.94,764.54,772.13,777.21,781.36,786.63,794.84,802.98,810.52,817.19,822.33,825.40,826.98,826.42,822.00,816.58,811.41,807.16,804.11,801.48,798.85,796.41,794.31,792.66,790.91,789.36,789.54,793.70,801.56,807.97,810.68,808.93,804.59,798.64,792.89,787.78,783.24,778.75,772.25,765.05,758.70,754.00,750.80,748.63,747.72,749.10,753.24,760.39,768.86,777.39,788.76,801.47,813.71,824.55,833.75,838.48,837.70,832.94,826.97,821.24,817.07,814.30,812.08,807.55,801.73,794.61,787.48,784.16,784.88,789.86,798.26,809.92,824.52,833.54,841.03,849.07,854.95,859.21,862.70,866.27,871.27,877.88,885.60,892.21,895.91,898.43,902.54,907.30,912.32,918.07,924.91,931.32,933.58,927.05,918.78,910.66,903.69,897.89,891.43,884.77,877.98,870.90,863.24,856.21,850.15,845.02,840.58,835.34,829.58,824.13,819.29,814.77,810.08,803.58,797.49,795.90,798.34,801.85,805.80,810.30,815.58,821.39,827.90,834.75,841.09,846.96,852.32,855.54,854.86,852.31,852.78,855.37,859.25,863.34,866.29,869.62,873.82,879.06,884.88,889.61,896.88,908.70,920.38,922.21,917.56,909.66,902.11,896.14,891.14,886.35,881.28,876.25,871.38,866.26,860.50,853.83,848.31,843.88,839.47,833.09,823.86,817.27,811.94,806.00,798.50,792.98,788.37,784.19,780.85,780.72,784.40,790.11,796.59,804.94,810.46,812.71,812.92,815.48,818.81,817.78,812.96,807.12,801.03,794.06,787.71,783.39,781.26,780.32,780.04,780.07
845.49,845.47,845.43,845.41,845.38,845.32,845.10,844.60,843.52,841.54,838.35,835.06,831.96,829.15,826.91,826.08,826.25,826.64,826.84,826.82,826.40,825.11,823.00,820.05,813.38,808.98,806.94,806.53,808.25,810.38,812.49,814.42,815.88,815.82,814.61,813.36,813.67,815.45,817.05,817.58,816.48,813.92,811.00,808.00,804.64,800.07,794.40,789.01,783.39,776.56,768.82,758.70,748.01,738.55,732.63,724.19,714.00,703.47,696.19,702.91,714.03,723.74,729.64,734.37,738.91,744.19,750.97,760.03,767.54,773.08,777.73,783.01,790.74,798.49,805.25,810.85,815.97,819.31,822.17,823.35,819.66,813.35,808.20,804.15,800.69,797.56,794.40,791.55,789.38,788.28,787.11,786.63,787.73,792.02,800.67,807.17,808.61,804.58,799.16,792.01,785.60,780.45,776.24,771.77,764.64,756.94,750.82,746.79,744.12,743.39,745.15,749.95,756.78,764.94,773.34,781.77,794.01,806.26,816.68,825.12,833.66,836.13,832.19,824.95,819.30,813.29,809.01,806.69,805.65,802.31,796.26,787.94,779.26,775.37,778.67,786.69,796.99,808.74,825.15,833.69,839.45,845.53,849.96,853.24,856.63,860.90,867.01,874.88,883.15,889.22,891.18,891.92,895.90,901.48,907.64,914.02,921.42,928.54,931.97,927.23,919.44,911.47,904.81,899.60,893.59,886.66,879.41,871.82,863.50,855.51,848.33,842.28,837.46,832.02,826.36,820.86,815.65,810.65,805.08,798.10,791.44,788.55,790.99,795.84,801.07,805.99,811.08,817.60,824.92,832.18,838.13,843.66,848.59,850.92,848.92,846.63,847.60,850.44,854.22,857.93,861.22,865.38,870.52,876.22,881.25,885.16,889.88,898.31,914.21,920.71,919.54,913.43,905.71,898.99,893.84,889.26,884.29,879.30,874.50,869.01,862.44,855.31,849.29,844.43,840.12,835.06,826.80,820.03,814.31,808.18,799.72,793.96,789.44,785.25,781.24,778.42,779.82,784.04,789.31,794.76,800.32,804.74,807.86,811.33,815.51,816.17,813.09,807.43,800.94,793.63,786.88,781.87,778.58,776.31,774.94,774.21
846.45,846.38,846.26,846.18,846.03,845.72,845.48,845.34,844.50,842.51,839.35,836.27,833.26,830.35,827.76,825.62,824.41,824.00,824.16,824.08,824.14,823.90,822.90,820.14,813.59,809.00,806.63,805.98,807.80,810.00,812.23,814.26,815.34,814.31,812.63,811.07,810.17,810.33,810.72,810.84,810.22,808.44,806.07,802.83,798.70,793.92,788.98,784.50,779.53,772.69,763.97,754.67,745.23,736.30,729.13,720.04,710.14,700.63,694.70,701.18,712.87,723.30,729.45,734.50,738.92,743.66,749.22,756.13,764.25,770.66,775.60,780.39,787.52,794.35,800.28,805.23,809.67,814.30,818.74,821.30,818.65,811.38,805.83,801.75,798.10,794.58,790.97,787.76,785.52,785.00,784.25,784.72,786.71,791.04,799.76,805.90,806.33,800.66,793.74,785.93,779.31,774.17,769.84,763.48,756.20,748.76,742.25,739.38,739.69,742.43,747.33,754.04,761.13,769.44,778.38,787.32,797.54,807.25,816.05,823.84,830.48,828.93,823.60,817.07,810.82,804.31,799.90,798.17,798.68,797.07,791.30,783.31,775.04,770.52,776.92,786.59,796.48,806.92,823.61,832.10,836.71,840.64,843.87,847.36,851.62,857.08,864.63,873.75,881.38,885.66,885.69,885.58,890.22,896.69,903.55,910.63,917.99,924.87,929.25,927.77,920.43,912.81,906.42,901.23,895.38,888.40,881.00,873.48,865.95,858.82,851.81,845.11,839.07,833.71,827.86,821.58,815.05,808.50,800.96,793.91,788.40,785.96,787.33,790.66,795.72,802.10,807.19,814.05,821.51,828.51,833.81,838.73,843.41,845.63,843.48,841.44,842.38,845.08,848.73,852.59,856.75,862.23,868.33,873.59,877.67,881.32,885.10,891.17,905.28,916.43,920.81,918.38,910.80,901.81,895.63,890.99,885.92,880.44,875.42,869.17,861.41,854.21,847.84,842.31,837.69,833.95,828.44,821.89,815.79,810.13,801.43,795.86,791.47,787.26,783.11,778.52,776.80,778.33,782.72,786.36,790.29,796.11,803.27,807.53,811.33,813.39,812.62,807.49,800.97,794.37,788.06,782.36,777.93,774.42,771.79,769.89
846.32,846.32,846.26,846.29,846.25,845.95,845.67,845.48,844.87,843.36,840.46,837.76,834.95,832.08,829.39,827.02,825.16,823.61,822.35,821.60,821.78,822.19,822.04,819.80,813.54,808.88,806.43,806.07,808.16,810.18,812.20,814.01,814.46,813.05,811.28,809.75,808.69,808.17,807.91,807.63,806.97,805.36,802.80,798.69,793.50,788.79,784.36,779.65,774.07,767.00,758.88,750.10,741.20,732.39,723.69,714.67,705.11,696.37,692.39,699.03,711.56,722.99,729.63,735.04,739.90,744.71,749.68,755.10,762.17,768.67,774.48,780.33,788.20,794.87,800.63,805.78,810.46,815.26,819.21,820.62,816.59,809.13,803.45,799.24,795.48,791.48,787.25,783.82,781.81,781.57,781.32,782.83,785.90,790.78,800.00,804.65,803.80,797.89,790.26,782.34,775.30,769.38,764.27,757.85,750.59,743.72,738.64,736.71,738.39,742.28,747.82,754.87,762.32,770.82,779.68,788.09,796.94,805.00,812.36,818.74,822.82,819.71,814.25,808.50,802.92,797.23,793.14,791.37,791.81,790.67,786.01,779.31,772.01,767.53,775.98,786.48,795.49,803.91,819.62,828.18,832.76,836.21,839.58,844.07,849.36,855.30,862.21,870.96,876.98,879.61,879.37,880.25,885.91,892.92,899.78,906.62,913.49,920.38,926.11,927.72,921.49,914.25,907.86,902.40,896.47,889.77,882.77,875.91,869.66,862.96,856.04,849.18,842.64,836.63,830.63,824.03,816.91,810.23,802.79,795.36,789.11,785.57,783.73,785.78,790.78,797.62,803.55,809.63,816.60,823.73,829.14,834.88,839.50,840.97,838.07,836.32,837.73,840.62,844.16,848.21,853.26,859.09,864.95,869.80,873.86,877.73,881.60,886.41,895.27,909.23,918.49,920.37,915.86,906.27,898.42,892.68,887.80,882.14,876.06,868.76,860.52,853.60,847.26,841.52,836.55,832.31,826.33,820.33,814.99,809.92,802.73,797.55,793.22,789.07,784.94,780.50,776.11,774.21,777.19,780.67,783.96,788.44,794.81,802.20,806.93,809.93,810.83,807.85,802.56,797.00,791.21,784.96,778.83,774.20,770.42,767.30
845.73,845.87,845.94,846.08,846.14,845.92,845.66,845.40,844.97,843.92,841.42,839.25,836.76,834.01,831.35,829.10,827.06,824.63,821.81,819.89,819.63,820.18,820.54,818.76,813.06,808.53,806.16,806.22,808.66,810.58,812.29,813.72,813.74,812.22,810.57,809.20,808.20,807.30,806.55,805.81,804.88,803.30,800.76,795.80,789.23,784.08,779.49,774.41,768.38,761.11,753.68,745.28,736.69,727.85,717.77,708.82,699.60,691.54,689.14,696.69,710.20,722.55,729.92,736.10,741.49,746.46,751.14,755.59,761.14,767.37,774.10,781.54,790.29,797.11,802.97,808.47,813.63,817.92,820.47,819.82,813.54,806.17,800.56,796.21,792.27,787.70,783.30,780.04,778.32,778.25,778.86,781.47,785.55,791.08,800.68,803.52,801.25,795.30,787.37,779.67,772.36,765.62,759.84,753.81,746.61,740.24,736.61,735.45,737.90,742.14,747.51,754.26,761.99,770.45,778.91,786.73,794.51,801.41,807.70,813.00,815.47,811.53,806.09,800.96,796.28,791.34,787.29,784.92,784.49,783.43,780.06,774.06,767.03,764.61,775.26,786.30,794.44,801.14,814.63,822.90,828.10,832.37,836.42,841.59,847.44,853.47,859.28,866.55,870.67,872.22,872.80,875.54,882.21,889.60,896.38,902.72,909.10,916.20,923.05,926.86,922.49,915.90,909.49,903.77,897.96,891.78,885.29,878.89,873.17,866.50,859.58,852.70,845.94,839.23,833.08,826.31,818.96,812.55,805.71,798.12,790.99,786.04,781.40,781.75,785.98,792.83,799.73,805.38,811.78,818.85,825.00,831.79,835.99,836.31,832.64,831.06,833.23,836.55,840.04,844.14,849.74,855.55,860.97,865.64,870.00,874.30,878.57,882.81,887.50,902.27,914.69,920.49,919.66,911.12,901.74,894.34,889.57,883.54,876.31,868.24,859.90,852.88,846.77,841.18,835.94,830.76,823.63,818.13,813.63,809.11,803.70,799.06,794.79,790.67,786.59,782.65,776.68,771.93,772.48,775.93,778.83,781.68,786.08,794.81,800.38,804.71,807.58,806.91,803.79,799.77,794.75,788.26,780.77,775.13,770.34,766.06
844.76,845.13,845.42,845.53,845.52,845.42,845.30,845.19,844.84,843.91,841.95,840.53,838.56,836.08,833.62,831.57,829.96,827.55,823.70,819.83,818.03,817.84,818.07,816.40,811.67,807.72,805.65,806.12,809.00,811.06,812.48,813.40,813.58,812.27,810.93,809.84,808.75,807.55,806.30,805.02,803.64,802.10,800.55,795.18,786.69,779.72,773.52,768.50,763.16,755.96,748.39,740.23,731.87,722.90,711.91,702.61,693.77,686.29,684.22,694.14,708.75,721.73,730.28,738.11,743.88,748.86,753.52,757.77,761.81,767.41,774.85,784.06,793.22,800.42,806.55,812.21,817.80,820.73,821.11,817.85,808.87,801.76,796.44,792.00,787.68,782.41,779.03,776.72,775.24,775.31,777.58,781.36,786.10,792.20,801.64,802.65,798.79,792.41,784.54,777.63,770.45,763.33,757.55,751.76,744.67,738.41,735.12,734.48,737.30,741.52,746.42,752.36,760.14,767.99,775.69,783.42,790.46,796.76,802.75,808.24,811.72,807.08,801.16,796.29,792.24,787.07,782.12,778.26,776.11,774.88,772.76,765.49,756.68,760.74,774.53,785.97,793.53,799.64,808.90,815.94,822.57,829.59,834.77,839.34,844.54,850.19,855.12,859.40,861.62,863.26,866.18,871.63,879.04,886.67,893.65,899.46,905.69,913.21,920.47,924.46,923.31,918.00,911.68,905.94,900.82,895.55,889.47,882.63,875.38,868.03,860.97,854.16,847.41,840.25,833.90,827.11,819.87,813.76,807.38,800.32,793.21,787.12,782.02,779.55,781.22,787.64,795.30,802.04,808.14,814.47,822.34,829.76,832.61,831.27,827.16,825.45,828.73,832.88,836.33,840.16,845.54,851.10,856.39,861.38,866.17,871.06,875.82,880.41,885.66,897.73,909.68,918.10,920.49,915.82,905.67,895.92,890.91,883.87,875.81,867.76,859.86,851.54,845.96,840.99,835.78,829.82,821.97,816.65,812.49,808.26,804.13,800.22,796.15,791.91,787.83,783.98,778.75,772.98,769.04,771.66,774.18,776.45,779.22,783.57,788.91,795.77,801.76,802.75,803.15,801.61,797.94,791.85,784.13,777.72,772.13,766.85
843.94,844.10,844.65,844.86,844.79,844.60,844.37,844.29,844.05,843.43,842.29,841.19,839.74,837.85,835.53,833.18,831.32,828.88,825.13,820.86,818.28,816.62,815.32,813.70,810.24,806.81,804.95,805.95,808.53,810.44,811.67,812.38,812.78,812.33,811.55,810.67,809.72,808.63,807.32,805.80,804.09,802.34,800.83,795.71,787.18,778.92,771.28,765.01,758.85,751.39,743.50,735.14,726.42,716.94,705.85,696.55,688.37,682.28,681.97,691.84,706.86,720.80,730.46,738.64,744.59,749.85,754.93,759.52,763.25,768.05,774.98,784.64,793.89,801.95,808.86,814.64,819.43,820.55,818.38,812.85,803.53,797.02,791.90,787.33,782.98,778.74,775.80,773.57,772.32,773.55,777.34,781.86,786.94,793.25,801.09,799.92,794.43,787.61,780.58,774.57,767.96,761.13,755.56,749.74,743.34,737.51,733.71,732.98,736.39,741.00,745.82,751.40,758.50,765.34,772.13,779.53,786.41,792.78,798.70,804.01,808.00,803.84,798.09,793.11,788.76,783.36,778.07,773.25,768.96,764.75,760.34,753.64,748.39,756.58,771.69,783.32,790.85,796.69,803.68,810.26,817.43,825.31,831.73,836.03,840.13,844.61,849.21,852.64,854.50,856.80,861.41,867.48,874.85,883.18,891.45,897.35,903.64,910.46,916.83,921.15,923.21,920.49,915.27,909.19,903.76,898.28,891.93,884.59,876.42,868.63,861.58,854.88,848.01,840.63,834.27,827.54,820.36,814.23,807.97,801.19,794.25,787.83,782.32,778.20,777.98,783.19,790.83,798.68,805.27,811.45,819.79,827.15,828.83,826.25,821.97,820.55,824.20,828.83,832.84,836.92,841.82,847.04,852.29,857.45,862.74,868.34,873.84,879.17,885.18,894.20,905.20,915.54,919.93,918.51,908.96,898.09,891.88,884.11,875.19,866.63,858.69,850.48,845.02,840.16,835.05,829.33,822.38,817.35,813.16,808.97,805.31,801.66,797.73,793.59,789.56,785.76,781.22,775.61,769.66,768.30,769.50,771.54,773.94,776.87,781.02,786.10,791.52,796.30,798.91,799.83,798.49,794.18,788.01,780.80,774.34,768.72
843.15,842.93,843.68,843.92,843.73,843.45,843.13,843.07,842.95,842.66,842.23,841.39,840.39,838.99,836.65,833.92,831.62,829.13,825.88,821.97,819.06,816.08,813.19,811.45,809.02,806.01,804.28,805.54,807.69,809.34,810.41,811.04,811.60,811.94,811.75,811.16,810.50,809.74,808.53,806.93,805.02,803.05,801.33,796.72,788.86,779.50,770.48,762.73,755.42,747.58,739.16,730.40,721.09,710.92,699.92,690.85,683.66,679.31,680.78,689.64,704.80,719.92,730.84,738.84,744.67,750.08,755.50,760.41,764.18,768.26,774.43,784.02,792.95,801.97,809.83,815.69,819.47,818.77,814.25,807.02,798.42,792.43,787.40,782.77,778.67,775.66,772.71,770.38,769.68,772.47,777.56,782.66,788.06,794.52,800.07,796.90,790.08,782.83,776.79,771.52,765.50,759.17,753.92,748.14,742.46,737.03,732.52,731.18,735.23,740.49,745.50,750.96,757.05,762.81,768.65,775.36,782.20,788.84,794.84,800.03,804.35,801.04,795.65,790.40,785.49,779.84,774.35,768.81,762.64,755.18,748.27,742.99,742.34,752.68,768.18,779.57,786.91,792.82,798.83,805.53,812.89,820.64,827.61,831.83,835.01,838.29,842.51,845.88,848.38,851.92,857.96,864.23,871.47,880.30,889.53,895.45,901.56,907.50,912.96,917.71,922.38,922.24,918.35,912.00,906.04,900.06,893.35,885.70,877.16,869.05,862.01,855.36,848.35,840.89,834.55,828.04,821.15,815.04,808.88,802.14,795.13,788.50,782.48,777.30,775.60,779.22,786.19,795.05,802.48,808.85,816.96,823.79,824.45,821.05,816.82,815.93,819.93,824.99,829.52,833.87,838.47,843.46,848.67,853.90,859.71,866.05,872.34,878.48,885.42,892.02,901.71,912.81,918.52,919.88,911.93,900.90,892.99,884.67,875.04,865.88,857.75,849.89,844.48,839.64,834.78,829.85,824.35,819.61,815.24,811.01,807.33,803.65,799.71,795.59,791.68,787.98,783.89,778.68,772.00,766.71,765.81,767.02,769.16,771.70,774.80,777.41,781.13,788.53,792.72,796.09,797.48,795.51,791.32,783.82,776.85,771.15
842.25,841.59,842.35,842.25,841.73,841.61,841.53,841.55,841.58,841.50,841.13,840.77,839.97,838.38,835.64,832.76,830.15,827.60,824.96,822.23,819.58,816.56,813.41,811.01,808.49,805.71,803.89,804.42,806.51,807.83,808.71,809.39,809.83,810.16,810.31,810.31,810.20,810.07,809.06,807.51,805.68,803.81,801.99,798.12,791.21,780.72,770.48,761.80,753.88,745.55,736.20,726.82,716.73,705.69,694.69,686.18,680.71,678.32,680.14,687.49,702.70,719.31,732.06,739.50,744.51,749.32,754.38,759.06,762.67,766.43,772.30,781.64,789.19,799.05,807.84,813.69,817.14,815.01,809.20,801.74,794.71,788.64,783.46,779.12,775.71,772.78,768.95,766.87,767.83,772.32,778.18,783.75,789.74,796.57,799.11,794.96,787.78,780.14,774.82,769.53,763.75,757.95,753.07,747.85,742.41,736.97,732.00,728.99,733.53,739.81,745.55,751.17,756.07,760.90,765.78,770.90,777.49,784.33,790.70,796.29,800.95,798.42,793.28,787.68,782.27,776.31,770.46,764.46,757.65,749.05,742.70,739.69,741.27,749.88,764.79,774.79,780.90,787.60,794.66,802.46,809.92,816.29,821.47,825.80,829.17,832.00,835.11,838.72,843.43,849.43,856.79,864.11,871.74,880.00,887.96,892.99,897.90,903.57,909.49,914.80,920.14,921.19,918.30,912.29,906.08,899.83,893.18,885.98,878.11,869.86,862.66,855.88,848.78,841.43,835.09,829.17,823.38,817.73,811.93,804.73,796.77,789.38,782.54,776.95,774.33,776.03,781.10,790.56,799.21,806.15,813.08,818.60,818.61,815.19,811.47,811.43,816.54,822.19,826.60,830.67,835.76,841.01,846.13,851.25,857.51,864.61,871.57,878.31,886.51,893.09,900.90,909.63,915.84,919.13,914.56,905.19,894.85,886.41,876.52,867.06,858.74,850.54,845.29,840.78,836.57,833.10,829.18,824.59,819.99,815.70,811.19,807.12,802.70,798.14,794.60,791.12,786.75,781.47,775.51,769.88,765.39,763.40,764.34,766.70,770.14,772.69,774.94,778.89,784.00,789.86,794.18,794.95,792.22,786.14,779.89,774.31
840.76,840.27,841.09,840.87,839.89,838.99,838.83,838.92,839.08,839.21,839.17,839.09,838.35,836.81,834.38,831.63,828.78,825.99,823.24,820.35,817.92,815.42,812.83,810.49,808.09,805.57,803.67,803.43,805.06,806.26,807.12,807.75,808.11,808.46,808.80,809.12,809.39,809.61,808.90,807.50,805.68,803.83,802.09,798.68,792.26,781.34,770.93,762.17,754.00,745.08,735.08,724.39,713.54,702.66,691.82,683.27,678.46,677.05,679.02,685.36,700.28,717.95,732.53,738.87,742.98,747.02,751.49,756.18,760.14,764.04,769.29,777.03,784.33,794.27,803.63,810.37,813.87,811.12,805.08,797.90,791.31,785.00,780.10,776.20,772.73,768.74,764.70,764.02,767.31,772.84,778.95,784.67,790.90,797.67,798.12,793.56,786.33,778.38,773.35,768.17,762.79,757.51,752.71,747.51,741.78,735.95,730.63,726.80,730.96,737.62,744.04,749.25,752.77,757.69,763.13,767.40,772.72,779.57,786.36,792.20,796.89,795.26,790.64,784.89,778.95,772.61,766.51,760.25,753.12,744.53,739.13,737.64,740.52,748.75,764.39,774.86,780.50,785.47,791.19,798.86,806.19,811.70,815.54,818.94,822.44,826.38,831.25,836.72,842.73,849.34,856.63,863.91,871.04,878.16,884.91,890.20,894.93,899.99,905.82,912.68,919.07,920.12,917.04,911.15,905.24,899.08,892.68,886.21,879.75,871.90,864.64,857.61,850.31,843.56,837.66,832.01,826.37,820.68,814.64,807.09,798.80,790.99,782.62,776.46,772.88,772.74,777.48,786.64,795.64,803.21,809.63,813.36,812.76,809.87,807.32,808.50,813.45,818.96,823.69,827.92,833.50,839.07,844.25,849.39,856.23,863.72,871.01,878.17,886.74,893.05,899.38,906.23,912.42,916.84,915.03,907.86,897.19,888.27,879.61,871.11,862.75,854.35,848.43,843.68,839.72,836.70,833.21,829.01,824.61,820.26,815.57,811.02,806.30,801.63,797.79,794.06,789.67,784.40,778.30,772.87,767.35,763.01,760.70,760.66,763.48,766.05,768.13,771.18,776.51,782.92,788.90,792.81,792.67,788.57,783.18,777.64
838.67,838.65,839.51,839.33,837.98,836.02,835.50,835.52,835.76,836.13,836.50,836.64,836.00,834.68,832.80,830.32,827.38,824.31,821.11,817.45,815.02,813.15,811.44,809.67,807.53,805.26,803.34,802.47,803.50,804.68,805.58,806.12,806.45,806.82,807.25,807.72,808.23,808.65,808.33,807.22,805.38,803.55,801.90,798.59,792.27,781.56,771.61,763.17,754.93,745.38,734.89,722.82,711.28,700.86,690.24,681.50,676.88,675.84,677.63,683.10,697.61,715.73,731.23,736.66,739.96,743.18,747.00,751.89,756.59,761.12,766.00,772.04,779.70,789.30,798.88,806.66,810.17,807.25,801.57,794.93,788.18,781.66,777.15,773.52,769.53,764.29,760.64,761.77,767.29,773.45,779.54,785.35,791.61,797.83,796.94,792.36,785.39,777.39,772.35,767.28,762.15,757.05,751.90,746.34,740.26,734.17,728.66,724.55,728.05,734.75,741.75,746.50,749.11,754.41,760.66,764.62,768.50,775.07,782.12,788.18,792.62,791.75,787.83,782.26,775.75,769.09,762.82,756.37,749.07,741.07,736.63,736.14,739.66,747.67,764.76,776.60,782.14,784.48,788.03,794.92,801.88,806.85,810.02,812.74,816.75,822.44,829.71,836.98,843.54,849.86,856.45,863.09,869.49,875.55,881.43,887.56,892.67,897.16,902.75,911.25,918.53,918.90,915.02,909.12,903.60,897.60,891.59,885.99,881.04,874.24,867.27,860.09,852.64,846.51,841.11,835.50,829.47,823.37,816.84,809.11,800.83,792.81,783.32,776.54,771.82,769.84,774.46,782.76,791.67,799.84,805.89,807.81,806.75,804.75,803.88,806.32,810.53,815.48,820.58,825.11,831.51,837.51,842.77,848.01,855.27,862.97,870.44,877.72,885.77,891.66,897.13,902.89,908.82,913.91,914.38,909.59,899.71,890.27,883.19,876.04,867.75,859.02,851.97,846.65,842.70,839.66,836.07,832.30,828.26,823.86,819.28,814.27,809.33,804.66,800.29,796.15,791.83,786.65,780.31,775.26,769.97,764.23,758.72,755.79,756.73,758.60,760.82,764.32,769.79,776.01,782.76,789.23,792.05,790.38,786.29,781.05
835.31,835.84,836.64,836.60,835.39,833.14,831.75,831.22,831.38,832.02,832.63,833.16,832.95,831.98,830.35,828.15,825.52,822.47,818.84,814.56,811.36,809.48,808.59,807.88,806.05,804.00,802.26,801.38,802.09,803.18,804.01,804.44,804.81,805.20,805.63,806.11,806.66,807.21,807.51,806.93,805.18,803.39,801.62,797.60,790.70,781.34,772.24,764.29,756.05,745.90,735.02,722.49,710.51,699.82,689.38,680.93,676.62,675.50,676.15,680.27,694.57,711.56,724.51,730.77,733.68,736.13,739.50,744.88,750.83,757.04,763.27,769.67,777.90,786.92,796.07,803.82,806.40,803.64,798.69,792.63,785.58,779.32,774.73,770.50,765.62,760.38,758.23,760.66,766.79,773.20,779.17,785.37,791.52,796.10,795.12,791.03,784.91,777.70,772.25,767.01,761.29,755.08,748.58,742.07,736.49,731.22,726.00,722.10,725.43,732.05,739.27,744.49,748.41,753.27,758.51,762.79,766.54,772.08,778.69,785.13,788.72,787.86,784.90,780.31,773.32,766.60,760.21,753.55,746.20,738.82,734.92,734.80,737.94,743.83,762.52,775.71,781.16,782.03,784.81,790.66,796.75,801.53,805.62,810.57,816.79,823.82,830.58,836.36,842.33,848.43,854.36,860.16,866.60,872.86,879.02,886.09,891.79,896.56,902.33,911.00,917.92,916.99,912.18,906.24,900.37,894.19,888.74,884.10,879.75,875.43,869.90,863.24,855.95,849.72,844.20,838.32,831.72,824.64,817.77,810.22,802.17,794.18,786.34,779.08,772.68,768.65,771.02,777.88,786.66,795.16,800.12,801.06,800.05,799.39,800.91,804.07,807.77,811.95,816.55,821.31,829.72,836.52,841.58,846.93,853.93,861.86,869.45,875.96,881.78,887.22,893.46,900.18,905.78,911.29,913.47,910.72,902.04,892.66,885.75,879.06,871.08,861.19,852.69,846.69,842.64,839.53,836.01,832.36,828.45,824.11,819.54,814.20,809.00,804.19,799.64,795.38,790.93,786.05,780.65,775.88,770.89,765.79,761.02,757.43,753.43,751.73,752.88,757.08,763.74,770.47,776.91,782.95,788.03,789.61,788.17,784.46
833.34,833.23,833.60,833.52,832.44,830.14,828.12,826.88,826.68,827.40,828.13,828.85,829.01,828.46,827.07,825.10,822.38,818.47,813.25,808.32,805.72,804.84,805.08,805.66,804.59,802.94,801.43,800.64,800.97,801.76,802.40,802.76,803.15,803.56,804.02,804.53,805.08,805.66,806.23,806.14,804.93,803.11,801.05,796.54,789.50,781.41,772.69,764.83,756.66,746.55,735.18,722.35,710.30,699.71,689.29,680.74,676.55,675.43,675.29,678.40,691.94,707.25,717.38,723.00,726.19,729.14,733.00,738.85,745.82,753.21,760.83,768.98,778.44,787.07,795.28,802.09,803.66,800.64,795.86,789.96,782.63,776.94,772.15,767.24,761.82,756.97,756.66,760.22,766.20,771.98,777.82,784.48,790.76,794.34,793.37,789.53,784.10,777.75,771.72,765.34,759.07,752.53,744.97,738.61,733.55,728.56,723.35,720.56,724.17,730.98,738.56,744.27,749.23,753.78,758.07,762.04,765.59,770.19,776.23,782.57,784.67,782.97,780.00,776.08,770.16,764.03,757.87,751.11,743.47,736.53,733.13,733.21,736.07,741.09,759.06,771.12,775.52,776.41,780.63,786.94,793.42,799.11,804.08,809.99,816.52,823.27,829.73,835.29,841.08,847.11,853.07,858.54,865.31,872.10,878.64,885.78,892.07,897.85,904.07,911.49,917.30,915.06,909.39,903.22,896.87,890.25,884.80,880.54,876.75,873.94,869.90,864.31,857.50,851.60,846.05,840.00,833.10,825.54,818.43,811.09,803.33,795.32,788.22,780.96,773.80,768.22,768.05,773.97,782.34,790.46,794.94,795.24,793.89,793.59,796.38,801.02,805.04,809.00,813.38,818.73,827.89,835.15,840.41,845.95,852.63,859.34,865.94,872.14,876.75,881.46,887.24,894.04,901.13,908.69,912.68,911.42,903.80,894.74,887.93,880.97,872.21,861.18,852.22,845.87,841.38,837.75,834.17,830.20,826.03,821.77,817.28,811.91,806.67,801.93,797.68,793.45,789.29,784.96,780.32,776.13,772.07,768.10,764.24,760.29,754.35,750.07,748.75,751.46,757.49,764.40,770.81,776.28,781.80,785.42,786.86,785.99
832.42,830.92,830.43,829.91,828.77,826.70,824.44,822.62,821.97,822.50,823.13,823.89,824.29,824.05,822.73,820.42,817.28,812.42,805.81,800.75,799.57,800.15,801.52,803.24,803.13,801.77,800.17,799.17,799.11,799.59,800.16,800.70,801.29,801.86,802.41,802.96,803.50,804.06,804.66,804.99,804.57,802.80,800.48,795.75,788.86,781.75,773.00,764.88,756.75,747.11,735.32,722.27,710.35,700.09,689.75,680.84,676.42,675.21,674.71,677.26,689.59,703.01,710.89,715.47,719.61,723.89,728.68,734.74,742.14,749.94,758.65,769.17,780.23,788.64,795.70,801.00,801.44,797.91,792.84,786.73,779.45,774.44,769.34,763.74,758.06,753.79,755.25,759.81,765.47,770.32,776.09,783.12,789.59,792.74,791.49,787.56,782.55,776.88,770.31,762.60,755.99,749.70,741.57,735.99,731.23,726.06,720.87,719.79,724.01,731.23,739.39,745.50,751.20,755.66,759.21,762.41,765.57,769.44,774.79,780.32,780.38,777.22,773.50,769.84,765.79,760.62,754.97,748.31,740.43,733.82,730.98,731.34,734.22,739.32,754.41,763.82,767.15,769.41,776.29,784.13,791.86,798.96,804.77,810.63,816.22,821.86,828.37,834.69,840.56,846.48,852.69,858.08,865.48,873.00,879.89,886.57,893.35,900.36,907.02,912.40,916.66,913.27,906.87,900.32,893.36,886.17,880.31,875.93,872.56,870.33,867.52,863.27,857.40,852.34,846.95,840.83,833.88,826.28,818.97,811.78,804.35,796.39,789.22,782.24,775.01,768.25,765.39,770.72,778.57,785.92,790.35,790.17,788.27,787.69,790.94,797.07,802.10,806.49,811.06,817.17,826.07,833.43,839.13,844.79,851.06,855.80,860.82,866.87,871.23,875.37,880.13,886.42,895.78,906.01,911.76,911.68,905.15,896.63,890.05,882.47,872.27,860.23,851.65,845.15,839.78,835.20,831.32,826.79,822.22,818.04,813.70,808.49,803.40,798.90,795.13,791.11,787.51,783.97,780.05,776.77,774.01,771.16,767.79,763.44,757.65,751.78,747.42,747.17,751.37,757.95,764.48,769.70,774.56,779.16,783.11,785.57
831.75,829.11,826.69,824.44,822.62,821.41,819.97,818.65,817.89,817.71,817.56,818.27,818.58,817.92,815.57,810.46,806.64,803.50,800.41,798.01,797.45,798.14,799.57,801.05,801.32,799.18,795.78,792.82,792.56,793.50,794.97,796.76,798.53,799.85,800.73,801.35,801.89,802.48,803.13,803.73,803.92,802.75,800.86,796.24,789.32,782.32,773.20,764.52,756.11,746.79,735.26,722.19,710.13,699.97,690.64,681.44,675.82,673.52,673.38,676.30,687.10,699.17,707.68,714.52,720.80,726.20,730.97,736.18,741.95,748.44,756.91,768.71,780.93,789.44,795.77,799.65,798.33,794.54,788.78,782.17,776.42,771.65,766.06,759.86,753.88,750.06,752.13,757.59,764.23,769.54,775.66,782.36,788.41,791.50,788.48,783.91,778.66,772.70,766.23,759.41,753.26,747.09,739.50,733.97,728.46,723.02,718.99,719.68,724.68,732.69,741.72,748.05,754.50,759.28,762.56,764.97,767.41,771.09,775.30,778.21,775.56,770.56,765.70,761.60,758.02,753.49,748.60,742.72,735.53,729.32,727.51,728.98,732.78,737.91,747.47,754.99,760.36,765.88,774.40,783.96,792.76,800.16,807.11,812.89,818.36,824.16,830.95,837.63,843.27,848.44,853.60,858.50,866.98,875.51,882.66,889.07,895.93,903.06,909.34,913.22,915.95,912.00,905.34,898.27,890.34,882.70,876.29,871.24,867.55,865.00,862.31,859.08,855.34,852.08,847.17,841.18,834.44,827.13,819.50,812.17,805.09,797.88,790.40,783.46,776.23,768.53,762.63,767.25,774.89,781.90,786.12,785.42,783.23,782.85,786.53,791.37,797.97,804.21,809.71,816.31,824.38,831.38,837.18,842.46,847.88,851.94,856.02,861.00,866.03,871.37,876.90,883.36,892.58,902.98,909.69,911.16,906.34,898.78,892.86,885.21,874.16,861.39,853.93,847.08,839.90,833.55,828.75,823.90,819.34,815.38,811.15,806.15,801.37,797.12,793.30,789.76,786.81,784.25,781.93,780.03,778.43,775.58,770.94,765.62,759.27,752.61,746.73,743.93,746.64,751.75,757.86,764.14,768.83,773.46,777.93,781.80
830.40,827.42,824.05,821.13,818.99,817.70,816.25,815.08,814.23,813.46,812.12,811.47,810.79,809.66,807.47,802.91,799.96,798.26,797.19,796.21,795.73,796.19,797.37,798.42,798.51,796.25,792.36,788.23,786.76,787.39,789.29,791.94,794.50,796.50,797.83,798.75,799.61,800.57,801.50,802.36,802.94,802.60,801.14,796.89,790.22,783.01,773.38,764.07,755.33,746.36,735.20,722.08,709.75,699.50,690.85,681.56,675.10,671.80,671.42,674.90,684.64,696.74,707.94,716.44,723.46,728.87,733.13,737.60,742.23,747.45,755.47,768.39,781.13,789.34,794.73,797.28,794.97,790.63,784.56,778.06,773.12,768.28,762.38,755.91,749.96,746.74,749.21,754.76,761.53,767.59,774.55,781.27,787.04,789.98,785.48,780.30,774.71,768.40,761.93,755.85,750.21,744.48,737.94,732.24,725.94,720.19,717.17,719.72,726.31,735.08,744.43,751.88,758.76,763.66,766.85,768.85,770.60,772.66,774.38,774.35,769.81,764.11,758.81,754.18,749.96,745.40,740.80,735.67,729.77,724.74,724.59,727.47,732.03,736.92,743.06,749.73,756.68,764.20,773.30,784.24,794.01,801.43,809.02,815.59,821.38,827.38,835.04,841.36,846.50,851.05,855.57,860.97,870.08,878.96,885.95,891.51,897.04,903.09,908.74,912.48,915.10,911.33,904.67,897.09,888.05,879.85,872.93,867.25,862.80,859.25,856.06,853.15,850.67,848.72,844.78,839.77,834.07,827.54,819.95,812.66,805.93,799.40,791.58,784.61,777.44,769.32,761.47,763.66,770.47,778.02,782.37,781.13,778.86,779.08,783.65,787.82,795.20,802.63,808.84,814.97,821.55,827.65,832.98,837.52,842.26,846.24,850.59,855.97,861.51,867.49,874.00,881.37,890.42,900.18,907.52,910.37,906.83,900.17,894.64,887.65,877.58,865.13,857.79,850.79,842.93,835.16,829.49,824.79,820.13,815.24,810.87,806.10,801.53,797.31,793.34,790.03,787.40,785.17,783.20,781.64,780.09,777.03,772.04,766.51,760.01,752.91,746.13,741.73,742.70,746.70,752.41,758.94,763.87,768.48,773.06,777.52
828.18,825.60,822.43,819.99,817.93,815.70,813.47,811.49,810.01,808.68,806.17,803.50,801.57,800.37,799.55,798.63,797.79,796.88,795.82,794.70,793.93,793.99,794.68,795.16,794.66,793.02,790.13,785.95,782.46,782.00,783.64,786.58,789.39,791.87,793.72,795.16,796.57,798.14,799.53,800.72,801.66,802.21,801.18,797.45,791.28,783.70,773.52,763.61,754.58,745.90,735.04,721.83,709.21,698.67,690.17,680.98,674.23,670.19,668.88,672.97,682.19,695.43,710.54,719.49,725.77,730.31,733.89,737.94,742.24,746.64,754.23,767.98,780.81,788.33,792.59,794.00,791.40,786.27,780.30,774.47,769.48,764.36,758.31,751.89,746.25,743.74,746.47,751.43,757.38,764.28,772.40,779.63,785.40,788.11,782.96,777.33,771.38,764.73,758.12,752.30,747.03,741.91,736.45,730.45,723.61,717.76,715.57,719.91,728.48,737.92,747.24,756.59,763.55,768.19,771.20,772.91,773.78,772.99,771.25,768.33,762.91,757.69,752.79,747.85,742.41,737.29,732.50,727.96,723.81,720.82,722.72,726.98,731.99,736.49,741.80,748.48,756.06,764.08,773.00,784.80,795.27,802.60,810.27,818.23,824.75,831.00,839.80,845.33,849.89,854.13,858.58,865.21,874.16,882.39,888.62,892.88,896.14,900.33,905.27,910.05,913.94,911.18,904.88,896.78,886.66,877.68,870.29,864.14,858.61,853.59,849.41,846.06,843.67,842.23,839.59,836.26,832.31,827.06,820.10,813.18,806.83,800.77,792.76,785.71,778.65,770.61,762.01,760.31,765.53,774.16,778.91,777.19,775.17,776.37,782.17,786.64,793.92,801.55,808.04,812.83,817.48,822.35,826.97,830.63,834.98,839.32,844.84,851.87,857.73,863.83,871.30,880.06,889.08,897.75,905.28,909.14,906.50,900.79,895.37,889.46,881.74,870.60,862.32,855.24,847.91,839.46,833.18,828.85,823.83,817.15,812.43,807.87,803.35,798.95,794.88,791.54,788.82,786.15,783.24,781.07,778.65,775.29,770.85,765.89,759.78,752.64,745.43,740.20,739.27,742.78,748.26,754.08,759.46,764.21,768.74,773.21
824.70,822.42,820.06,817.93,815.84,813.61,811.46,805.40,799.90,796.87,795.40,794.51,795.23,796.52,796.62,796.37,796.01,795.43,794.50,793.41,792.44,791.88,791.57,790.88,789.91,788.90,787.12,783.73,779.60,778.12,778.95,781.51,784.47,787.08,789.27,791.10,792.63,794.27,795.95,797.94,800.10,801.17,800.77,797.49,791.47,783.71,773.43,763.30,754.05,745.28,734.04,720.98,708.36,697.38,688.34,679.25,672.58,668.16,665.85,670.36,679.50,693.05,709.20,717.46,722.85,727.39,731.69,735.91,740.43,745.19,752.64,765.50,779.30,786.37,789.91,790.87,787.27,781.81,775.93,770.38,765.63,760.40,753.97,747.39,742.04,739.70,742.38,746.97,752.55,759.92,768.74,776.79,783.08,785.93,782.46,777.15,770.57,763.11,756.66,751.00,745.49,739.75,733.40,726.69,720.54,716.19,715.55,720.78,729.01,738.79,749.51,760.08,766.88,770.49,771.86,771.36,769.85,767.33,763.86,759.30,753.84,749.38,745.63,741.96,737.37,732.19,727.18,722.95,720.36,720.31,723.22,727.58,732.56,737.57,743.41,749.95,757.19,765.48,775.13,786.59,796.52,803.62,811.05,818.98,826.80,834.59,842.58,848.63,853.85,858.41,862.67,868.85,875.64,881.04,884.83,888.74,892.21,896.14,900.80,906.21,911.40,911.03,906.18,897.63,887.00,876.70,868.65,862.38,855.94,849.75,844.32,839.66,836.04,833.77,831.74,829.51,826.86,823.42,818.82,813.22,807.25,801.36,794.03,787.02,779.88,772.03,763.63,759.03,762.03,770.02,774.68,772.93,772.21,774.89,781.21,786.13,792.79,799.59,805.30,809.03,812.24,817.07,822.51,826.49,830.91,835.63,841.33,848.25,854.88,862.53,871.19,880.28,888.54,895.81,902.26,906.04,904.92,901.28,896.03,889.92,882.60,872.88,863.40,855.47,848.59,841.76,835.78,830.40,824.35,817.50,812.73,807.96,803.24,798.84,795.20,791.87,788.40,784.64,780.84,778.60,776.04,772.19,767.16,762.61,757.45,751.17,744.09,737.49,735.45,739.30,745.03,750.12,755.38,760.50,765.08,769.21
821.27,819.22,817.40,815.48,812.97,809.47,805.57,798.28,791.96,788.66,787.96,788.71,791.28,794.02,794.54,794.37,794.21,793.91,793.24,792.18,790.71,788.96,787.18,785.83,785.04,784.64,783.56,780.57,775.85,773.97,774.57,777.01,779.89,782.50,784.83,786.88,788.55,790.16,791.97,794.41,797.43,799.41,799.61,796.82,791.14,783.37,772.87,762.62,753.22,744.07,732.29,719.57,707.22,696.02,686.49,677.38,670.65,665.91,663.05,667.98,677.06,690.50,706.67,713.93,718.53,723.12,728.07,732.61,737.38,742.79,750.53,762.68,776.78,783.67,786.78,787.21,783.02,777.26,771.57,766.39,761.64,755.93,748.63,741.60,736.60,734.10,736.92,742.01,748.20,755.70,764.67,773.52,780.60,783.68,782.05,777.12,770.12,762.11,755.85,750.13,744.23,737.75,730.34,723.12,717.54,714.54,715.59,721.60,729.16,739.45,751.86,762.66,768.82,771.19,770.84,768.24,764.92,760.88,756.17,750.79,745.14,740.89,737.73,734.95,731.44,726.86,722.58,719.43,718.40,720.23,723.76,728.14,733.19,739.01,745.54,752.13,759.06,767.27,777.87,789.01,798.24,804.88,811.93,819.56,828.11,836.90,844.36,851.25,857.06,861.64,865.21,870.06,874.23,877.08,879.23,882.89,886.80,891.15,896.13,901.99,908.16,910.34,907.37,898.83,887.58,876.48,867.90,861.26,854.19,847.36,841.04,835.25,830.35,827.12,824.96,823.04,821.04,818.89,816.36,812.44,807.41,801.73,795.02,788.23,781.15,773.47,765.24,758.39,758.83,765.10,769.78,768.58,769.53,773.59,779.82,784.99,790.80,796.54,801.50,804.98,807.66,812.38,818.36,823.49,828.31,833.42,839.14,845.70,852.98,862.60,872.16,880.74,888.13,894.34,899.43,902.35,901.80,899.77,895.63,889.91,882.62,873.65,863.54,854.78,847.73,841.97,836.12,829.94,823.49,817.25,812.74,807.93,803.21,798.96,795.53,791.89,787.91,783.63,779.41,776.69,773.49,768.83,763.11,758.95,754.64,749.17,742.43,735.19,732.42,736.62,742.62,747.09,751.76,756.57,761.11,765.30
818.26,816.38,814.58,812.54,808.96,802.54,794.88,790.78,788.49,787.00,786.13,787.30,789.65,791.81,792.24,792.13,792.23,792.32,792.00,790.84,788.44,784.93,781.38,780.15,780.25,780.38,779.40,776.13,770.63,769.07,770.25,773.02,775.75,778.29,780.55,782.60,784.50,786.11,787.89,790.23,793.35,796.74,797.46,795.21,790.21,782.66,771.76,761.44,751.93,742.06,729.75,717.51,705.72,694.68,684.93,675.61,668.53,663.47,660.74,666.13,675.16,688.13,703.48,709.67,713.70,718.16,723.31,728.16,733.07,739.21,747.75,759.91,773.23,780.22,783.15,782.84,778.69,772.67,767.30,762.65,757.41,750.65,741.96,734.24,729.64,726.80,730.12,736.72,744.59,751.96,760.50,770.02,778.09,781.48,781.16,776.40,769.20,761.17,755.05,749.05,742.71,735.64,727.47,720.21,714.77,712.56,715.25,722.14,729.37,740.40,754.29,764.16,769.17,770.20,768.35,764.32,760.26,754.88,749.26,743.80,737.62,732.91,729.41,726.61,723.84,720.59,718.32,717.30,717.82,719.91,723.77,728.41,733.76,740.47,747.51,754.44,761.36,769.14,780.66,791.73,800.34,806.31,812.83,820.18,828.51,837.19,845.05,852.84,858.84,862.85,865.10,867.90,869.50,870.90,872.92,876.36,880.38,885.53,891.45,897.65,904.42,908.87,908.00,900.07,888.04,877.03,868.15,860.77,853.39,846.54,839.88,833.40,827.52,823.46,820.43,817.91,815.77,814.00,812.60,810.49,807.13,801.91,795.61,789.26,782.49,774.87,766.53,758.25,755.82,759.25,764.11,764.22,767.03,772.16,777.72,782.75,787.56,792.23,796.75,800.98,804.27,808.60,814.41,821.43,826.94,832.45,838.27,844.65,852.32,863.90,873.85,881.09,887.66,893.32,896.95,898.18,896.79,895.48,893.60,889.47,882.42,873.48,863.78,854.48,846.40,840.34,834.20,827.95,821.97,816.76,812.77,808.25,803.87,799.94,796.34,792.02,787.96,784.04,779.95,776.12,771.57,765.84,759.64,755.91,752.18,747.11,740.70,733.85,730.58,734.84,741.01,745.12,748.72,752.29,756.57,761.31
815.84,813.99,812.16,807.34,800.92,794.83,790.05,787.76,786.42,785.31,784.37,785.07,786.52,787.94,788.58,788.97,789.74,790.41,790.24,788.16,784.57,780.77,777.60,776.04,775.88,775.74,774.57,771.31,766.05,763.81,764.48,767.60,771.73,774.65,776.87,778.81,780.66,782.36,784.19,786.50,789.53,792.91,794.20,792.44,787.95,781.52,771.01,760.62,750.52,739.55,727.06,715.03,703.87,693.54,683.54,673.69,666.25,661.16,658.85,664.90,674.70,687.02,699.98,705.70,709.19,713.46,718.69,723.33,728.17,734.66,744.09,757.36,769.61,776.58,779.52,778.68,773.97,768.67,763.72,758.62,751.85,743.37,734.34,726.91,722.77,721.15,725.04,732.01,740.37,748.46,756.85,766.72,775.57,779.70,779.45,773.34,765.19,757.30,751.15,745.35,738.71,731.09,722.99,716.76,711.92,710.39,714.34,722.42,731.12,742.43,755.17,763.58,768.03,767.73,764.21,759.04,754.00,749.05,743.68,737.71,731.88,727.91,724.61,721.33,717.86,715.58,715.16,715.96,717.54,719.83,723.99,728.95,734.47,741.07,748.15,755.20,762.29,770.25,781.63,791.90,799.84,805.49,811.16,818.68,826.45,834.24,842.70,851.53,857.45,860.61,861.62,862.52,863.69,865.37,867.98,872.08,876.25,880.96,886.78,894.28,901.58,906.81,906.97,899.98,888.12,878.08,869.41,861.48,853.91,846.75,839.54,832.42,825.91,821.02,817.60,814.69,811.94,809.32,807.50,805.98,804.20,801.18,795.87,790.25,783.82,776.05,767.77,759.61,754.58,753.85,757.76,760.14,764.66,770.24,775.12,779.53,783.57,787.51,791.68,796.64,801.29,806.18,812.29,820.46,826.36,832.33,838.59,845.39,854.02,865.23,874.41,880.90,886.70,891.88,893.52,892.52,890.40,889.40,889.15,887.57,883.45,876.58,869.38,860.13,850.46,843.69,837.81,831.47,824.65,818.05,813.79,809.55,805.62,802.13,798.76,794.39,790.04,785.73,781.22,776.95,772.34,767.00,761.47,757.83,754.69,748.78,740.85,733.68,729.16,732.59,738.71,743.31,746.25,748.86,751.95,755.93
