420.81,421.00,421.25,421.61,422.00,422.38,422.72,422.92,423.08,423.23,423.39,423.54,423.70,423.85,424.01,424.24,424.48,424.78,425.16,425.62,426.15,426.69,427.21,427.69,428.22,428.75,429.25,429.68,430.06,430.37,430.67,430.90,430.86,430.67,430.42,430.17,429.97,429.76,429.23,428.66,428.38,428.78,429.49,430.27,431.09,432.06,433.13,434.22,435.12,435.65,436.16,436.64,437.13,437.44,437.07,436.61,436.17,435.81,435.65,435.85,436.15,436.64,437.48,438.84,439.75,440.21,440.41,440.68,440.80,440.82,440.82,440.83,440.90,440.99,441.08,441.14,441.13,440.96,440.77,440.60,440.49,440.65,440.83,441.04,441.36,441.68,441.98,442.31,442.67,442.95,443.02,442.88,442.65,442.39,442.01,441.56,441.11,440.65,440.15,439.43,438.69,438.11,437.91,438.39,438.97,439.49,439.91,440.23,440.54,440.88,441.25,441.58,442.06,442.72,443.48,444.22,444.95,445.27,445.43,445.62,445.91,446.27,446.52,446.68,446.86,446.97,447.13,447.31,447.50,447.80,448.06,448.34,448.64,448.93,449.19,449.44,449.68,449.97,450.54,451.13,451.89,452.80,453.27,452.52,451.75,451.29,451.09,451.26,451.35,451.33,451.26,451.20,451.13,451.15,451.33,451.64,452.00,452.33,452.63,452.94,453.39,453.90,454.27,454.42,454.44,454.51,454.58,454.66,454.72,454.80,454.86,454.90,454.91,454.97,455.06,455.25,455.53,455.71,455.91,456.09,456.22,456.31,456.38,456.46,456.56,456.69,456.78,456.88,457.07,457.38,458.00,458.62,459.11,459.46,459.66,459.74,459.99,460.79,462.17,463.63,464.76,465.41,465.59,465.32,464.94,464.56,464.27,464.23,464.61,465.07,465.52,465.98,466.48,466.87,467.21,467.53,467.81,467.92,468.06,468.20,468.37,468.61,468.80,469.00,469.14,469.18,469.31,469.66,470.10,470.51,470.94,471.50,472.01,472.44,472.82,473.12,473.36,473.56,473.80,474.09,474.28,474.46,474.60,474.54,474.41,474.30,474.31,474.52,474.73,475.07,475.51,476.02,476.50,476.96,477.41,477.82
420.38,420.67,421.02,421.44,421.87,422.23,422.43,422.60,422.75,422.91,423.06,423.22,423.37,423.53,423.69,423.91,424.19,424.50,424.85,425.30,425.83,426.37,426.90,427.43,427.91,428.43,428.90,429.23,429.55,430.00,430.41,430.61,430.44,430.21,429.91,429.54,429.19,428.79,428.26,427.99,428.29,429.19,430.05,430.86,431.64,432.48,433.57,434.52,435.25,435.76,436.13,436.43,436.74,436.97,436.77,436.31,435.78,435.30,434.94,434.99,435.28,436.03,437.35,438.67,439.52,439.98,440.20,440.43,440.54,440.56,440.56,440.57,440.64,440.77,440.88,440.95,440.94,440.81,440.61,440.41,440.29,440.41,440.57,440.79,441.10,441.47,441.75,442.03,442.34,442.63,442.74,442.62,442.39,442.13,441.70,441.24,440.80,440.32,439.49,438.45,437.76,437.61,438.12,438.71,439.33,439.85,440.24,440.56,440.87,441.21,441.58,441.90,442.29,442.74,443.25,443.85,444.22,444.42,444.61,444.83,445.08,445.38,445.61,445.80,446.07,446.29,446.55,446.81,447.04,447.35,447.64,447.95,448.24,448.50,448.78,449.07,449.37,449.70,450.22,451.09,452.08,452.88,452.81,451.94,451.05,450.50,450.48,450.73,450.83,450.82,450.81,450.80,450.74,450.74,450.88,451.18,451.50,451.81,452.16,452.60,453.11,453.61,453.97,454.16,454.24,454.31,454.39,454.45,454.47,454.54,454.57,454.58,454.58,454.60,454.71,454.93,455.22,455.43,455.61,455.74,455.84,455.97,456.06,456.13,456.22,456.31,456.39,456.62,457.00,457.51,458.13,458.75,459.30,459.81,460.21,460.27,460.69,461.58,462.84,464.10,464.91,465.20,465.11,464.75,464.36,463.98,463.81,464.03,464.52,465.05,465.48,465.83,466.23,466.56,466.92,467.27,467.56,467.71,467.87,467.99,468.12,468.41,468.70,469.02,469.28,469.39,469.75,470.14,470.59,471.06,471.34,471.40,471.44,471.60,471.99,472.46,472.87,473.17,473.41,473.65,473.83,473.96,474.02,473.95,473.87,473.78,473.84,474.26,474.67,475.07,475.49,475.97,476.49,476.92,477.32,477.62
420.15,420.53,420.91,421.35,421.75,421.99,422.09,422.23,422.38,422.53,422.69,422.84,423.00,423.16,423.36,423.59,423.87,424.21,424.61,425.07,425.60,426.12,426.63,427.17,427.67,428.05,428.29,428.42,428.77,429.47,430.05,430.25,430.03,429.74,429.37,428.92,428.41,427.85,427.66,427.91,428.63,429.64,430.50,431.31,432.12,432.94,433.75,434.44,435.01,435.44,435.66,435.91,436.22,436.50,436.48,436.04,435.45,434.86,434.41,434.57,435.03,435.90,437.27,438.53,439.18,439.53,439.76,439.98,440.15,440.26,440.31,440.36,440.43,440.54,440.64,440.71,440.74,440.62,440.45,440.25,440.09,440.17,440.34,440.56,440.84,441.18,441.47,441.76,442.07,442.37,442.51,442.39,442.12,441.82,441.42,440.96,440.52,439.89,438.52,437.54,437.26,437.58,438.28,438.97,439.58,440.08,440.43,440.77,441.12,441.45,441.74,441.98,442.28,442.59,442.94,443.34,443.60,443.80,444.01,444.23,444.43,444.69,444.94,445.20,445.54,445.82,446.11,446.41,446.69,447.03,447.38,447.72,448.05,448.33,448.66,449.01,449.35,449.69,450.24,451.23,452.23,452.73,452.15,451.13,450.34,449.98,450.06,450.25,450.31,450.31,450.31,450.31,450.31,450.35,450.46,450.73,451.03,451.41,451.85,452.31,452.81,453.31,453.72,453.95,454.04,454.08,454.14,454.20,454.21,454.24,454.25,454.25,454.25,454.26,454.31,454.49,454.76,455.02,455.23,455.35,455.45,455.60,455.68,455.79,455.89,455.97,456.10,456.45,456.98,457.60,458.26,458.91,459.52,460.10,460.64,461.04,461.60,462.37,463.31,464.20,464.63,464.67,464.47,464.15,463.78,463.44,463.41,463.82,464.31,464.78,465.19,465.54,465.88,466.23,466.63,467.02,467.34,467.52,467.73,467.95,468.20,468.51,468.81,469.15,469.44,469.63,470.01,470.34,470.61,470.84,470.86,470.68,470.55,470.63,471.09,471.62,472.15,472.62,472.90,473.11,473.27,473.41,473.49,473.42,473.34,473.44,473.75,474.28,474.75,475.16,475.57,476.00,476.45,476.80,477.09,477.27
420.00,420.45,420.85,421.27,421.60,421.72,421.73,421.84,421.99,422.15,422.31,422.47,422.62,422.80,423.03,423.26,423.56,423.94,424.41,424.88,425.39,425.89,426.38,426.89,427.34,427.52,427.51,427.46,427.90,428.76,429.43,429.63,429.45,429.14,428.76,428.30,427.73,427.08,427.24,427.99,429.05,430.08,430.87,431.61,432.35,433.05,433.53,433.99,434.45,434.82,435.00,435.32,435.71,436.06,436.16,435.74,435.07,434.38,434.00,434.41,435.08,436.02,437.25,438.33,438.77,439.03,439.25,439.49,439.72,439.91,440.05,440.13,440.22,440.31,440.39,440.47,440.54,440.44,440.29,440.08,439.78,439.79,440.01,440.30,440.56,440.88,441.19,441.50,441.81,442.11,442.29,442.15,441.84,441.52,441.15,440.70,440.15,439.24,437.46,436.79,437.01,437.70,438.40,439.16,439.78,440.23,440.54,440.89,441.24,441.51,441.71,441.88,442.09,442.32,442.57,442.81,443.05,443.28,443.50,443.71,443.88,444.13,444.44,444.78,445.17,445.50,445.81,446.13,446.47,446.85,447.24,447.62,447.99,448.32,448.69,449.08,449.44,449.80,450.45,451.48,452.27,452.33,451.36,450.32,449.72,449.58,449.72,449.81,449.84,449.83,449.82,449.82,449.89,449.97,450.08,450.31,450.63,451.08,451.58,452.05,452.51,453.02,453.46,453.74,453.83,453.84,453.88,453.93,453.93,453.93,453.94,453.94,453.93,453.93,453.93,454.02,454.24,454.55,454.79,454.95,455.07,455.22,455.31,455.44,455.57,455.68,455.88,456.34,456.95,457.63,458.34,459.04,459.68,460.29,460.94,461.69,462.34,462.96,463.57,464.08,464.16,464.01,463.78,463.53,463.18,462.95,463.07,463.58,464.03,464.43,464.82,465.19,465.53,465.92,466.36,466.78,467.11,467.28,467.54,467.86,468.21,468.52,468.82,469.12,469.39,469.61,470.00,470.24,470.33,470.27,470.03,469.74,469.63,469.80,470.35,470.91,471.52,472.07,472.39,472.55,472.70,472.85,472.96,472.90,472.90,473.21,473.77,474.36,474.84,475.23,475.60,475.96,476.32,476.57,476.77,476.84
419.93,420.39,420.79,421.14,421.38,421.40,421.41,421.48,421.60,421.77,421.98,422.14,422.30,422.48,422.71,422.94,423.27,423.70,424.21,424.68,425.16,425.66,426.16,426.54,426.60,426.53,426.41,426.39,427.00,427.63,428.07,428.26,428.27,428.16,427.97,427.72,427.38,426.84,427.04,427.94,429.31,430.44,431.10,431.51,431.79,431.98,432.25,432.68,433.20,433.70,434.14,434.81,435.41,435.77,435.79,435.31,434.44,433.68,433.77,434.60,435.50,436.45,437.41,437.90,438.28,438.57,438.80,439.03,439.26,439.49,439.67,439.81,439.95,440.09,440.20,440.28,440.34,440.29,440.15,439.81,439.07,438.97,439.38,439.89,440.25,440.61,440.93,441.24,441.55,441.85,442.03,441.90,441.59,441.26,440.89,440.44,439.53,438.00,436.47,436.49,437.07,437.76,438.47,439.23,439.84,440.29,440.59,440.79,440.96,441.08,441.20,441.37,441.58,441.81,442.06,442.35,442.59,442.82,443.02,443.20,443.43,443.80,444.22,444.66,445.10,445.48,445.81,446.16,446.58,446.97,447.36,447.75,448.13,448.50,448.88,449.27,449.63,450.04,451.00,451.87,452.05,451.32,450.39,449.76,449.41,449.31,449.40,449.48,449.51,449.49,449.43,449.43,449.54,449.64,449.75,450.00,450.39,450.85,451.33,451.79,452.25,452.73,453.16,453.48,453.57,453.58,453.59,453.61,453.61,453.61,453.65,453.66,453.62,453.61,453.61,453.60,453.67,454.02,454.27,454.49,454.69,454.89,454.98,455.12,455.26,455.45,455.83,456.29,456.86,457.52,458.27,458.97,459.62,460.24,460.89,461.70,462.33,462.91,463.44,463.62,463.51,463.30,463.07,462.82,462.51,462.55,462.83,463.25,463.66,464.04,464.43,464.83,465.26,465.70,466.16,466.56,466.80,466.90,467.12,467.37,467.64,467.95,468.21,468.46,468.65,468.76,469.26,469.54,469.59,469.42,469.09,468.77,468.96,469.59,470.20,470.86,471.38,471.75,471.94,472.05,472.14,472.26,472.38,472.40,472.72,473.20,473.75,474.30,474.78,475.10,475.37,475.63,475.89,476.09,476.25,476.35
419.83,420.35,420.70,420.92,421.04,421.04,421.04,421.13,421.25,421.42,421.61,421.78,421.95,422.14,422.35,422.64,423.02,423.46,423.91,424.26,424.80,425.33,425.73,425.85,425.68,425.44,425.21,425.14,425.67,426.19,426.58,426.82,426.96,427.03,426.97,426.81,426.59,426.23,426.45,427.32,428.72,429.93,430.46,430.68,430.76,430.76,430.94,431.48,432.21,432.99,433.76,434.60,435.21,435.46,435.36,434.66,433.70,433.17,433.96,434.94,435.78,436.51,437.10,437.37,437.72,438.06,438.34,438.58,438.81,439.04,439.25,439.40,439.55,439.74,439.89,439.99,440.06,440.02,439.80,439.31,438.46,438.12,438.50,439.14,439.75,440.27,440.66,440.98,441.29,441.59,441.77,441.61,441.28,440.97,440.62,439.96,438.60,436.74,435.88,436.26,436.95,437.65,438.35,439.08,439.71,440.16,440.38,440.51,440.57,440.63,440.72,440.85,441.06,441.31,441.58,441.85,442.09,442.34,442.62,442.91,443.25,443.69,444.15,444.63,445.11,445.51,445.87,446.25,446.67,447.10,447.49,447.88,448.26,448.65,449.06,449.47,449.92,450.59,451.63,451.88,451.41,450.47,449.80,449.36,449.10,449.01,449.11,449.17,449.16,449.12,449.10,449.16,449.32,449.50,449.69,449.93,450.33,450.77,451.24,451.70,452.16,452.63,453.00,453.22,453.27,453.28,453.28,453.29,453.32,453.32,453.35,453.37,453.33,453.32,453.28,453.23,453.30,453.59,453.84,454.08,454.31,454.53,454.68,454.86,455.06,455.34,455.81,456.28,456.81,457.42,458.12,458.79,459.41,460.04,460.77,461.61,462.27,462.76,463.03,462.97,462.77,462.56,462.35,462.13,461.95,462.13,462.51,462.92,463.31,463.70,464.09,464.51,465.07,465.54,465.99,466.35,466.55,466.58,466.63,466.77,467.01,467.28,467.52,467.75,467.90,467.89,468.18,468.37,468.39,468.26,468.09,468.15,468.63,469.40,470.02,470.65,471.06,471.31,471.44,471.53,471.61,471.72,471.89,472.14,472.62,473.17,473.69,474.15,474.52,474.80,475.02,475.22,475.45,475.62,475.79,475.93
419.59,420.21,420.53,420.63,420.64,420.65,420.66,420.77,420.92,421.08,421.24,421.39,421.59,421.80,422.00,422.36,422.77,423.17,423.48,423.72,424.27,424.74,424.96,424.78,424.53,424.20,423.88,423.78,424.12,424.61,425.03,425.33,425.59,425.84,425.86,425.72,425.56,425.44,425.69,426.43,427.65,428.85,429.32,429.53,429.67,429.72,429.95,430.62,431.57,432.63,433.67,434.47,434.92,434.97,434.76,433.85,432.97,432.87,434.28,435.25,435.87,436.29,436.54,436.78,437.13,437.52,437.87,438.12,438.36,438.58,438.79,438.95,439.10,439.31,439.50,439.63,439.68,439.59,439.25,438.64,437.86,437.26,437.50,438.22,439.10,439.85,440.34,440.71,441.02,441.32,441.51,441.35,441.00,440.69,440.36,439.31,437.52,435.61,435.50,436.01,436.69,437.38,438.08,438.78,439.41,439.84,440.01,440.13,440.15,440.19,440.26,440.35,440.56,440.83,441.12,441.37,441.63,441.93,442.31,442.76,443.22,443.69,444.15,444.63,445.13,445.51,445.88,446.25,446.64,447.08,447.50,447.93,448.35,448.78,449.23,449.66,450.25,451.21,452.10,451.64,450.67,449.83,449.46,449.09,448.81,448.71,448.82,448.85,448.80,448.77,448.82,448.99,449.21,449.48,449.76,450.01,450.36,450.78,451.24,451.70,452.18,452.62,452.90,452.96,452.97,452.97,452.97,452.99,453.05,453.06,453.06,453.06,453.06,453.05,452.95,452.93,453.08,453.35,453.58,453.80,454.02,454.25,454.47,454.68,454.92,455.25,455.77,456.28,456.81,457.38,458.00,458.62,459.19,459.83,460.65,461.49,462.19,462.51,462.43,462.21,462.00,461.81,461.64,461.47,461.47,461.74,462.15,462.58,462.97,463.37,463.78,464.28,464.94,465.42,465.83,466.16,466.34,466.29,466.17,466.19,466.38,466.59,466.81,467.04,467.16,467.00,466.94,466.98,467.05,467.08,467.21,467.76,468.48,469.20,469.81,470.34,470.63,470.80,470.94,471.03,471.12,471.25,471.50,472.01,472.54,473.08,473.57,473.93,474.19,474.41,474.61,474.78,475.00,475.16,475.36,475.55
418.78,419.64,420.07,420.19,420.21,420.26,420.32,420.41,420.53,420.70,420.90,421.07,421.24,421.44,421.73,422.15,422.45,422.63,422.79,423.19,423.27,423.31,423.30,422.95,422.77,422.51,422.27,422.28,422.62,423.04,423.44,423.81,424.21,424.61,424.73,424.61,424.50,424.64,425.04,425.61,426.34,427.18,427.93,428.58,429.16,429.70,430.17,430.85,431.76,432.83,433.80,434.13,434.11,433.91,433.61,432.85,432.48,432.90,434.34,435.05,435.45,435.71,435.90,436.19,436.55,436.94,437.31,437.65,437.90,438.13,438.34,438.49,438.64,438.86,439.03,439.10,439.06,438.76,438.33,437.81,437.17,436.42,436.51,437.21,438.19,439.16,439.90,440.39,440.70,441.00,441.28,441.18,440.85,440.54,440.18,438.40,436.37,435.04,435.18,435.56,436.13,436.82,437.52,438.21,438.78,439.19,439.46,439.70,439.76,439.77,439.81,439.89,440.10,440.38,440.68,440.98,441.37,441.79,442.23,442.69,443.16,443.66,444.15,444.60,444.95,445.24,445.52,445.81,446.15,446.55,447.08,447.66,448.27,448.88,449.37,449.88,450.56,451.42,451.76,451.18,450.36,449.71,449.38,449.00,448.68,448.48,448.46,448.46,448.45,448.50,448.69,449.00,449.30,449.60,449.89,450.13,450.44,450.82,451.24,451.71,452.23,452.54,452.69,452.70,452.70,452.70,452.70,452.71,452.73,452.73,452.73,452.73,452.73,452.73,452.66,452.78,453.16,453.59,453.82,453.99,454.17,454.35,454.52,454.66,454.81,455.08,455.65,456.28,456.92,457.55,458.12,458.73,459.30,459.90,460.65,461.44,461.94,462.00,461.66,461.33,461.22,461.07,460.92,460.94,461.14,461.44,461.80,462.20,462.59,463.02,463.58,464.26,464.92,465.33,465.66,465.96,466.13,466.04,465.94,465.88,465.89,465.91,466.09,466.33,466.40,466.07,465.68,465.65,465.93,466.42,466.90,467.59,468.32,469.00,469.55,469.90,470.15,470.34,470.49,470.63,470.76,470.98,471.35,471.88,472.42,472.93,473.36,473.63,473.86,474.05,474.22,474.38,474.55,474.71,474.90,475.10
417.75,418.56,419.00,419.16,419.24,419.39,419.61,419.77,420.01,420.34,420.54,420.68,420.84,421.06,421.38,421.71,421.88,421.94,421.99,422.20,422.01,421.74,421.48,421.19,421.10,420.96,420.86,420.95,421.23,421.55,421.90,422.31,422.83,423.28,423.52,423.60,423.69,424.28,425.10,426.00,426.86,427.55,428.30,429.05,429.75,430.42,430.96,431.58,432.31,433.06,433.44,433.23,432.83,432.44,432.17,431.73,431.79,432.49,433.74,434.39,434.76,435.02,435.27,435.65,436.07,436.50,436.91,437.20,437.44,437.66,437.86,438.03,438.19,438.40,438.52,438.47,438.25,437.80,437.33,436.85,436.32,435.64,435.65,436.25,437.27,438.37,439.31,439.99,440.41,440.72,441.03,440.95,440.66,440.28,439.35,437.05,435.18,434.65,434.94,435.25,435.69,436.27,436.97,437.64,438.11,438.47,438.80,439.11,439.30,439.37,439.39,439.51,439.75,440.05,440.40,440.78,441.24,441.70,442.18,442.66,443.13,443.63,444.09,444.46,444.73,444.91,445.11,445.33,445.61,446.07,446.65,447.31,448.00,448.69,449.29,449.95,450.71,451.45,451.53,450.93,450.21,449.67,449.32,448.96,448.62,448.31,448.14,448.11,448.19,448.37,448.68,449.05,449.38,449.69,449.98,450.25,450.55,450.89,451.28,451.74,452.19,452.39,452.45,452.45,452.45,452.45,452.43,452.41,452.41,452.41,452.43,452.45,452.44,452.42,452.51,452.80,453.27,453.76,454.08,454.30,454.48,454.63,454.75,454.83,454.97,455.29,455.83,456.48,457.16,457.81,458.36,458.94,459.52,460.13,460.77,461.32,461.52,461.37,460.92,460.59,460.52,460.45,460.40,460.53,460.81,461.13,461.46,461.85,462.24,462.76,463.47,464.29,464.95,465.30,465.58,465.81,465.91,465.81,465.73,465.63,465.54,465.47,465.55,465.64,465.61,465.28,464.92,464.97,465.40,466.08,466.74,467.44,468.16,468.82,469.25,469.47,469.66,469.86,470.05,470.26,470.47,470.79,471.25,471.79,472.28,472.70,473.03,473.27,473.50,473.66,473.79,473.94,474.07,474.24,474.44,474.58
416.56,417.16,417.51,417.72,417.90,418.15,418.55,418.82,419.22,419.75,419.98,420.13,420.34,420.62,420.91,421.09,421.14,421.13,421.07,420.89,420.61,420.19,419.77,419.69,419.67,419.66,419.70,419.86,420.04,420.25,420.55,420.96,421.54,422.00,422.42,422.82,423.30,424.40,425.75,427.20,428.52,429.15,429.69,430.25,430.82,431.34,431.83,432.37,432.89,433.16,432.73,432.06,431.39,430.88,430.71,430.65,431.02,431.77,432.74,433.46,433.95,434.32,434.69,435.21,435.69,436.16,436.58,436.76,436.98,437.17,437.36,437.57,437.74,437.95,437.99,437.77,437.34,436.84,436.34,435.88,435.41,434.92,434.83,435.28,436.31,437.46,438.55,439.44,440.07,440.46,440.77,440.70,440.39,439.81,437.97,435.51,434.13,434.36,434.73,435.06,435.38,435.80,436.46,437.06,437.42,437.73,438.09,438.41,438.75,438.95,439.02,439.20,439.49,439.85,440.25,440.71,441.18,441.64,442.14,442.65,443.12,443.58,443.95,444.24,444.45,444.56,444.69,444.86,445.10,445.65,446.26,446.93,447.64,448.36,449.11,449.92,450.73,451.39,451.40,450.82,450.15,449.65,449.25,448.92,448.57,448.19,447.87,447.82,448.02,448.35,448.72,449.11,449.43,449.75,450.06,450.37,450.67,450.98,451.34,451.77,452.09,452.18,452.18,452.18,452.18,452.17,452.14,452.10,452.10,452.10,452.14,452.17,452.17,452.15,452.48,452.92,453.39,453.86,454.31,454.64,454.86,455.01,455.11,455.14,455.33,455.77,456.27,456.86,457.50,458.12,458.66,459.21,459.78,460.37,460.89,461.09,460.98,460.68,460.29,460.01,459.96,459.98,460.06,460.22,460.50,460.80,461.15,461.53,461.93,462.57,463.43,464.35,465.00,465.29,465.51,465.67,465.67,465.60,465.52,465.42,465.28,465.20,465.13,465.01,464.85,464.64,464.57,464.82,465.33,466.01,466.70,467.33,468.00,468.62,468.91,469.04,469.17,469.35,469.59,469.90,470.23,470.65,471.18,471.69,472.11,472.40,472.64,472.88,473.09,473.23,473.33,473.47,473.57,473.76,473.94,474.00
415.25,415.69,415.98,416.24,416.49,416.73,417.03,417.28,417.57,417.99,418.50,418.96,419.47,419.94,420.22,420.30,420.24,420.11,419.93,419.66,419.40,419.12,418.91,418.97,418.98,419.02,419.13,419.34,419.54,419.73,419.93,420.22,420.73,421.39,422.10,422.91,424.05,425.45,426.95,428.34,429.37,429.69,429.93,430.21,430.57,430.92,431.45,432.06,432.57,432.67,432.09,431.38,430.71,430.19,430.02,430.13,430.56,431.23,431.96,432.67,433.25,433.81,434.39,434.98,435.47,435.83,436.09,436.25,436.47,436.69,436.88,437.06,437.27,437.46,437.39,437.01,436.55,436.11,435.66,435.20,434.73,434.22,433.84,434.03,435.06,436.26,437.41,438.46,439.38,440.18,440.53,440.47,439.98,438.75,436.11,434.41,433.83,434.16,434.53,434.86,435.17,435.52,436.00,436.42,436.75,437.06,437.44,437.76,438.08,438.38,438.65,438.98,439.37,439.77,440.18,440.65,441.16,441.63,442.11,442.60,443.05,443.44,443.74,443.97,444.14,444.23,444.33,444.49,444.79,445.28,445.88,446.58,447.39,448.24,449.07,449.91,450.72,451.32,451.19,450.61,450.01,449.57,449.14,448.76,448.41,448.07,447.73,447.71,447.97,448.34,448.72,449.12,449.44,449.77,450.13,450.44,450.74,451.05,451.39,451.76,451.90,451.93,451.93,451.92,451.87,451.86,451.85,451.82,451.82,451.82,451.85,451.86,451.90,452.11,452.56,453.06,453.52,453.99,454.49,454.90,455.20,455.40,455.54,455.61,455.79,456.20,456.80,457.38,457.87,458.33,458.88,459.41,459.90,460.33,460.61,460.54,460.34,460.15,460.00,459.86,459.83,459.85,459.89,460.01,460.20,460.51,460.86,461.21,461.67,462.47,463.43,464.34,464.94,465.15,465.28,465.37,465.41,465.34,465.27,465.18,465.07,464.94,464.77,464.57,464.37,464.26,464.53,464.98,465.53,466.17,466.81,467.43,467.92,468.24,468.43,468.53,468.65,468.83,469.10,469.54,470.05,470.58,471.10,471.53,471.84,472.06,472.26,472.48,472.62,472.75,472.86,472.97,473.10,473.27,473.35,473.31
414.38,414.67,414.92,415.17,415.41,415.62,415.85,416.06,416.28,416.57,417.08,417.57,418.05,418.51,418.94,419.13,419.12,418.99,418.79,418.58,418.56,418.58,418.64,418.80,418.86,418.95,419.10,419.30,419.46,419.59,419.76,420.04,420.61,421.38,422.22,423.23,424.64,426.16,427.71,428.93,429.56,429.66,429.73,429.88,430.10,430.44,431.01,431.66,432.14,432.13,431.56,430.88,430.25,429.81,429.70,429.89,430.34,430.95,431.59,432.26,432.91,433.56,434.21,434.76,435.16,435.41,435.57,435.74,435.97,436.20,436.40,436.62,436.84,436.98,436.86,436.46,436.00,435.58,435.16,434.68,434.11,433.50,432.95,432.87,433.57,434.73,435.88,437.00,438.17,439.45,440.06,439.95,439.07,437.19,434.56,433.64,433.64,433.96,434.34,434.67,434.99,435.34,435.72,436.06,436.39,436.74,437.13,437.46,437.78,438.11,438.47,438.87,439.30,439.72,440.15,440.65,441.16,441.63,442.09,442.52,442.90,443.23,443.48,443.67,443.80,443.90,444.00,444.19,444.54,444.97,445.57,446.34,447.25,448.17,449.05,449.90,450.68,451.21,451.02,450.47,449.92,449.51,449.07,448.66,448.29,447.93,447.57,447.57,447.86,448.24,448.63,449.04,449.39,449.75,450.13,450.43,450.74,451.07,451.39,451.63,451.64,451.63,451.63,451.63,451.58,451.56,451.56,451.56,451.56,451.56,451.56,451.61,451.75,452.14,452.63,453.12,453.59,454.05,454.56,454.97,455.27,455.50,455.73,455.89,456.08,456.40,456.82,457.22,457.58,458.01,458.72,459.30,459.75,460.02,460.05,459.94,459.86,459.82,459.79,459.75,459.74,459.74,459.75,459.81,459.95,460.22,460.54,460.91,461.45,462.33,463.32,464.22,464.73,464.90,464.98,465.05,465.09,465.05,464.96,464.83,464.67,464.49,464.29,464.12,464.02,464.13,464.60,465.16,465.75,466.37,466.87,467.32,467.60,467.74,467.89,468.00,468.13,468.36,468.75,469.29,469.89,470.44,470.88,471.22,471.45,471.67,471.88,472.05,472.14,472.26,472.38,472.49,472.61,472.72,472.81,472.88
414.06,414.24,414.46,414.64,414.81,414.98,415.20,415.38,415.58,415.80,416.01,416.26,416.42,416.67,417.32,417.79,417.97,417.96,417.86,417.86,418.22,418.61,418.92,419.15,419.25,419.41,419.62,419.79,419.89,419.88,420.00,420.38,421.10,421.86,422.68,423.64,424.91,426.43,427.94,428.96,429.20,429.23,429.31,429.44,429.68,430.13,430.72,431.32,431.72,431.66,431.16,430.50,429.95,429.62,429.63,429.88,430.33,430.91,431.58,432.21,432.88,433.54,434.12,434.52,434.75,434.91,435.06,435.23,435.50,435.72,435.93,436.21,436.44,436.50,436.40,436.12,435.67,435.21,434.76,434.26,433.51,432.76,432.20,431.87,431.95,432.94,434.00,435.11,436.45,438.19,439.21,438.99,437.60,435.24,433.46,433.18,433.44,433.77,434.15,434.48,434.83,435.20,435.59,435.97,436.35,436.73,437.13,437.50,437.83,438.15,438.48,438.87,439.26,439.69,440.18,440.69,441.18,441.63,442.05,442.42,442.68,442.97,443.19,443.33,443.42,443.56,443.71,443.95,444.33,444.73,445.36,446.19,447.18,448.12,449.05,449.88,450.61,451.10,450.89,450.40,449.89,449.43,449.03,448.59,448.16,447.76,447.37,447.38,447.68,448.06,448.46,448.90,449.30,449.68,450.04,450.36,450.67,451.01,451.30,451.38,451.33,451.31,451.31,451.31,451.30,451.30,451.30,451.30,451.30,451.31,451.31,451.43,451.74,452.18,452.65,453.12,453.58,454.04,454.50,454.83,455.06,455.31,455.65,455.90,456.13,456.33,456.33,456.39,456.64,457.19,458.18,458.88,459.32,459.45,459.25,459.32,459.55,459.66,459.61,459.60,459.59,459.59,459.59,459.63,459.76,459.93,460.18,460.61,461.29,462.16,463.13,463.98,464.35,464.54,464.65,464.71,464.71,464.70,464.58,464.37,464.09,463.86,463.72,463.67,463.80,464.23,464.74,465.32,465.94,466.51,466.79,466.94,467.05,467.15,467.31,467.46,467.62,467.92,468.49,469.09,469.70,470.20,470.53,470.78,470.97,471.25,471.53,471.62,471.69,471.78,471.89,472.02,472.12,472.18,472.38,472.77
414.44,414.59,414.78,414.94,415.10,415.26,415.49,415.66,415.83,416.01,416.22,416.40,416.54,416.70,417.07,417.69,418.01,418.21,418.43,418.59,419.01,419.42,419.76,420.12,420.29,420.42,420.64,421.08,421.68,421.05,420.66,421.06,421.64,422.34,423.13,424.05,425.20,426.73,428.02,428.75,428.82,428.88,429.06,429.33,429.67,430.14,430.69,431.11,431.34,431.30,430.82,430.24,429.73,429.47,429.65,429.97,430.43,430.98,431.54,432.19,432.85,433.46,433.97,434.23,434.37,434.50,434.66,434.82,435.06,435.29,435.51,435.76,435.95,435.96,435.89,435.73,435.29,434.78,434.21,433.52,432.71,431.93,431.40,431.04,430.89,431.31,431.92,433.00,434.56,436.26,437.25,436.93,435.48,433.42,432.81,432.94,433.27,433.63,434.01,434.34,434.69,435.08,435.46,435.85,436.23,436.64,437.07,437.46,437.86,438.21,438.53,438.88,439.30,439.75,440.22,440.71,441.23,441.59,441.92,442.24,442.48,442.69,442.87,443.01,443.09,443.23,443.42,443.69,444.09,444.52,445.15,446.03,447.08,448.15,449.14,449.96,450.63,451.03,450.77,450.28,449.73,449.20,448.75,448.29,447.85,447.42,447.07,447.24,447.59,447.98,448.37,448.78,449.18,449.54,449.87,450.18,450.49,450.78,451.02,451.12,451.02,450.99,450.99,450.99,450.99,450.99,450.99,450.99,450.99,451.03,451.11,451.32,451.73,452.14,452.59,453.08,453.57,453.98,454.32,454.58,454.80,455.00,455.28,455.53,455.77,455.96,455.77,455.56,455.74,456.41,457.46,458.31,458.56,458.46,458.35,458.75,459.21,459.43,459.41,459.41,459.37,459.34,459.38,459.48,459.58,459.72,459.93,460.32,461.12,461.99,462.88,463.63,463.88,464.09,464.24,464.33,464.32,464.27,464.14,463.90,463.55,463.25,463.38,463.64,464.00,464.50,464.95,465.45,465.90,466.21,466.27,466.34,466.44,466.57,466.73,466.92,467.13,467.44,467.97,468.53,469.10,469.61,470.03,470.32,470.58,470.88,471.14,471.22,471.30,471.38,471.47,471.59,471.76,472.06,472.47,472.97
414.91,415.08,415.24,415.41,415.58,415.74,415.94,416.11,416.26,416.44,416.64,416.82,416.99,417.17,417.51,418.24,418.66,418.98,419.33,419.56,419.93,420.30,420.66,421.09,421.38,421.58,421.86,422.42,423.20,422.18,421.49,421.89,422.34,422.92,423.63,424.47,425.50,427.02,427.99,428.43,428.51,428.68,428.95,429.29,429.67,430.09,430.54,430.79,430.92,430.95,430.51,430.00,429.54,429.31,429.63,430.05,430.54,431.06,431.56,432.20,432.81,433.34,433.73,433.90,434.00,434.13,434.30,434.48,434.72,434.94,435.13,435.32,435.45,435.42,435.40,435.32,434.82,434.23,433.52,432.71,431.90,431.14,430.66,430.36,430.18,430.21,430.45,431.27,432.65,434.14,435.07,434.70,433.48,432.26,432.44,432.77,433.12,433.50,433.88,434.21,434.56,434.95,435.33,435.70,436.09,436.51,436.95,437.36,437.79,438.19,438.54,438.88,439.30,439.76,440.23,440.71,441.17,441.46,441.70,441.97,442.24,442.40,442.54,442.66,442.76,442.91,443.16,443.49,443.91,444.38,445.00,445.88,447.00,448.18,449.28,450.08,450.61,450.87,450.59,450.10,449.52,448.93,448.39,447.90,447.43,447.02,446.84,447.14,447.53,447.90,448.27,448.64,449.00,449.34,449.64,449.93,450.24,450.50,450.71,450.84,450.74,450.68,450.66,450.66,450.66,450.66,450.67,450.69,450.72,450.79,450.96,451.26,451.71,452.11,452.56,453.05,453.52,453.84,454.08,454.29,454.48,454.64,454.87,455.07,455.31,455.51,455.28,454.97,455.16,455.91,456.95,457.52,457.55,457.43,457.61,458.24,458.87,459.18,459.18,459.18,459.14,459.12,459.16,459.31,459.42,459.57,459.76,460.12,460.98,461.87,462.67,463.24,463.43,463.65,463.83,463.93,463.92,463.83,463.69,463.43,463.06,462.83,463.19,463.69,464.22,464.75,465.13,465.48,465.72,465.76,465.67,465.71,465.84,466.02,466.20,466.40,466.64,466.95,467.38,467.84,468.37,468.91,469.43,469.85,470.21,470.53,470.76,470.83,470.91,471.00,471.14,471.37,471.68,472.15,472.69,473.23
415.28,415.49,415.66,415.85,416.05,416.20,416.37,416.53,416.69,416.84,417.01,417.22,417.41,417.73,418.44,419.26,419.77,420.08,420.28,420.46,420.76,421.11,421.49,421.90,422.38,422.78,423.17,423.61,423.96,423.01,422.46,422.85,423.25,423.67,424.21,424.91,425.84,427.27,427.86,428.06,428.30,428.63,428.94,429.26,429.58,429.90,430.16,430.31,430.44,430.56,430.23,429.77,429.35,429.14,429.56,430.07,430.60,431.13,431.67,432.23,432.76,433.17,433.35,433.51,433.61,433.76,433.99,434.22,434.50,434.67,434.80,434.93,434.96,434.91,434.94,434.92,434.27,433.53,432.72,431.90,431.13,430.43,430.05,429.88,429.84,429.79,429.87,430.20,430.88,432.02,432.96,432.63,431.90,431.97,432.31,432.64,432.98,433.37,433.75,434.08,434.43,434.82,435.19,435.52,435.93,436.37,436.77,437.22,437.63,438.05,438.48,438.86,439.25,439.69,440.17,440.65,440.95,441.19,441.40,441.62,441.95,442.10,442.18,442.29,442.43,442.60,442.94,443.39,443.85,444.31,444.89,445.79,446.97,448.21,449.46,450.21,450.53,450.58,450.31,449.82,449.24,448.62,447.97,447.41,446.92,446.60,446.73,447.07,447.44,447.81,448.12,448.44,448.76,449.07,449.37,449.61,449.91,450.17,450.40,450.58,450.48,450.38,450.34,450.34,450.34,450.34,450.38,450.45,450.52,450.60,450.87,451.26,451.71,452.11,452.56,453.01,453.41,453.60,453.77,453.93,454.09,454.25,454.48,454.61,454.79,455.00,454.87,454.73,455.02,455.80,456.71,456.47,456.29,456.49,457.10,457.79,458.52,458.92,458.93,458.93,458.92,458.92,458.97,459.12,459.27,459.48,459.71,460.06,460.88,461.82,462.47,462.80,463.02,463.26,463.44,463.54,463.52,463.38,463.23,462.97,462.66,462.66,463.14,463.75,464.34,464.90,465.19,465.34,465.36,465.23,465.08,465.10,465.27,465.50,465.72,465.90,466.15,466.47,466.81,467.16,467.66,468.19,468.74,469.35,469.84,470.17,470.37,470.45,470.54,470.68,470.96,471.46,471.96,472.44,472.94,473.48
415.29,415.47,415.67,415.87,416.04,416.20,416.39,416.56,416.72,416.88,417.07,417.27,417.51,417.94,418.73,419.61,420.17,420.58,420.94,421.24,421.55,421.89,422.29,422.73,423.25,423.69,424.05,424.24,423.94,423.44,423.33,423.72,424.15,424.54,424.98,425.51,426.19,427.19,427.69,427.95,428.24,428.58,428.89,429.18,429.44,429.70,429.86,429.96,430.06,430.14,429.88,429.50,429.15,429.07,429.58,430.13,430.64,431.15,431.69,432.24,432.62,432.86,432.97,433.12,433.25,433.43,433.68,433.95,434.25,434.41,434.49,434.53,434.46,434.48,434.66,434.74,433.88,432.98,432.08,431.20,430.44,429.99,429.74,429.61,429.58,429.63,429.74,429.93,430.27,430.93,431.56,431.60,431.49,431.81,432.18,432.51,432.86,433.24,433.62,433.95,434.30,434.69,435.06,435.38,435.80,436.23,436.63,437.09,437.49,437.91,438.36,438.75,439.18,439.60,440.01,440.39,440.60,440.86,441.12,441.36,441.61,441.76,441.86,441.95,442.13,442.43,442.85,443.32,443.79,444.29,444.82,445.78,447.20,448.54,449.65,450.26,450.47,450.33,449.96,449.34,448.68,448.10,447.50,446.94,446.52,446.33,446.58,446.87,447.19,447.52,447.83,448.10,448.39,448.70,449.00,449.24,449.53,449.82,450.08,450.28,450.25,450.14,450.03,449.97,450.01,450.08,450.17,450.25,450.34,450.53,450.86,451.25,451.67,452.10,452.52,452.88,453.13,453.25,453.39,453.55,453.70,453.87,454.09,454.18,454.29,454.46,454.42,454.71,455.25,455.80,455.81,455.49,455.53,455.94,456.64,457.38,458.11,458.58,458.71,458.68,458.67,458.72,458.82,458.94,459.17,459.44,459.73,460.15,461.00,461.67,462.09,462.35,462.58,462.81,463.03,463.14,463.08,462.89,462.72,462.49,462.27,462.58,463.13,463.73,464.28,464.72,464.91,464.91,464.82,464.61,464.19,464.18,464.45,464.84,465.15,465.41,465.69,466.06,466.56,467.13,467.71,468.13,468.43,468.93,469.44,469.79,470.00,470.17,470.38,470.70,471.14,471.68,472.22,472.74,473.19,473.57
415.20,415.37,415.58,415.75,415.91,416.09,416.30,416.49,416.65,416.82,417.03,417.21,417.52,418.04,418.79,419.65,420.26,420.77,421.29,421.70,422.06,422.42,422.83,423.30,423.80,424.21,424.51,424.57,424.04,423.95,424.17,424.56,424.97,425.33,425.70,426.08,426.53,427.12,427.57,427.92,428.21,428.52,428.80,429.05,429.28,429.46,429.57,429.67,429.74,429.73,429.50,429.17,428.94,429.01,429.61,430.15,430.64,431.13,431.66,432.14,432.38,432.50,432.61,432.74,432.92,433.14,433.40,433.70,434.00,434.15,434.18,434.14,434.00,434.13,434.48,434.67,433.75,432.84,431.84,430.79,429.96,429.67,429.50,429.41,429.43,429.59,429.75,429.89,430.06,430.38,430.75,431.08,431.38,431.69,432.06,432.38,432.73,433.11,433.49,433.82,434.17,434.56,434.94,435.25,435.67,436.10,436.50,436.95,437.36,437.78,438.23,438.63,439.06,439.46,439.80,440.06,440.26,440.55,440.86,441.12,441.27,441.42,441.53,441.63,441.82,442.27,442.77,443.28,443.76,444.27,444.74,445.76,447.34,448.80,449.76,450.25,450.33,450.04,449.55,448.79,448.06,447.49,446.94,446.44,446.16,446.15,446.44,446.69,446.98,447.28,447.57,447.82,448.12,448.42,448.70,448.94,449.23,449.52,449.76,449.90,449.94,449.86,449.71,449.56,449.58,449.72,449.87,450.00,450.17,450.46,450.83,451.22,451.63,452.04,452.39,452.64,452.78,452.86,453.00,453.16,453.31,453.47,453.66,453.73,453.79,453.90,454.00,454.63,455.27,455.53,454.98,454.86,455.11,455.58,456.20,456.96,457.67,458.21,458.48,458.44,458.43,458.52,458.67,458.83,459.11,459.41,459.74,460.18,460.97,461.39,461.66,461.89,462.13,462.38,462.61,462.73,462.62,462.40,462.22,462.04,461.98,462.49,463.10,463.66,464.14,464.40,464.42,464.28,464.09,463.84,463.26,463.39,463.85,464.39,464.82,465.15,465.55,466.07,466.77,467.57,468.20,468.50,468.55,468.81,469.21,469.54,469.79,470.07,470.42,470.90,471.45,471.98,472.50,472.96,473.31,473.52
415.08,415.29,415.47,415.63,415.80,416.01,416.19,416.40,416.58,416.74,416.91,417.12,417.52,418.07,418.73,419.44,420.08,420.64,421.17,421.63,422.08,422.48,422.89,423.35,423.76,424.11,424.40,424.60,424.68,424.77,424.99,425.35,425.62,425.88,426.17,426.49,426.83,427.19,427.57,427.89,428.15,428.45,428.65,428.86,429.06,429.16,429.30,429.44,429.50,429.35,429.07,428.75,428.66,428.94,429.60,430.11,430.58,431.06,431.57,431.87,432.02,432.13,432.26,432.37,432.61,432.90,433.20,433.51,433.76,433.85,433.84,433.76,433.61,433.89,434.39,434.72,434.05,433.40,432.26,430.85,429.84,429.44,429.25,429.23,429.43,429.65,429.81,429.94,430.07,430.38,430.75,431.05,431.32,431.62,431.94,432.25,432.60,432.98,433.36,433.69,434.04,434.43,434.81,435.12,435.54,435.97,436.37,436.83,437.23,437.66,438.10,438.49,438.88,439.23,439.50,439.70,439.98,440.33,440.64,440.85,440.95,441.09,441.20,441.30,441.51,442.04,442.68,443.29,443.80,444.23,444.68,445.67,447.24,448.78,449.76,450.12,450.05,449.69,449.01,448.19,447.43,446.77,446.24,445.87,445.84,446.07,446.32,446.61,446.92,447.20,447.45,447.74,448.05,448.33,448.57,448.80,449.10,449.33,449.43,449.41,449.47,449.47,449.34,449.09,448.97,449.12,449.38,449.67,450.01,450.38,450.77,451.18,451.59,451.87,452.08,452.25,452.39,452.47,452.61,452.77,452.92,453.07,453.17,453.25,453.30,453.38,453.65,454.30,454.72,454.76,454.64,454.87,455.14,455.42,455.79,456.51,457.22,457.83,458.23,458.24,458.24,458.33,458.52,458.80,459.10,459.41,459.69,460.01,460.57,460.94,461.21,461.44,461.68,461.97,462.23,462.32,462.17,461.95,461.77,461.70,461.84,462.36,462.96,463.53,463.93,463.93,463.66,463.37,463.10,462.84,462.42,463.01,463.79,464.44,465.01,465.37,466.01,466.84,467.68,468.63,469.18,469.38,469.31,469.25,469.35,469.58,469.90,470.28,470.77,471.30,471.83,472.35,472.82,473.04,473.16,473.27
414.99,415.18,415.34,415.52,415.72,415.91,416.10,416.29,416.47,416.63,416.83,417.12,417.57,418.13,418.76,419.40,420.01,420.55,421.05,421.51,421.97,422.42,422.84,423.21,423.53,423.84,424.12,424.35,424.63,424.87,425.14,425.43,425.67,425.93,426.23,426.54,426.89,427.17,427.49,427.79,428.02,428.25,428.45,428.64,428.81,428.89,429.07,429.21,429.21,428.96,428.66,428.38,428.42,428.87,429.50,430.07,430.54,430.96,431.35,431.54,431.64,431.73,431.87,432.10,432.39,432.70,433.00,433.26,433.47,433.52,433.45,433.32,433.17,433.60,434.22,434.63,434.24,433.47,431.97,430.33,429.65,429.25,429.09,429.18,429.52,429.80,429.95,430.04,430.15,430.39,430.72,431.02,431.29,431.56,431.87,432.18,432.50,432.86,433.23,433.56,433.91,434.30,434.68,435.00,435.38,435.80,436.23,436.65,437.08,437.50,437.93,438.35,438.68,438.93,439.18,439.45,439.76,440.13,440.41,440.55,440.63,440.74,440.85,441.00,441.28,441.88,442.53,443.16,443.73,444.24,444.69,445.65,447.19,448.64,449.61,449.82,449.51,448.94,448.22,447.47,446.73,446.09,445.67,445.56,445.70,445.96,446.23,446.50,446.80,447.08,447.33,447.63,447.91,448.17,448.44,448.67,448.90,449.01,449.01,448.95,448.97,448.98,448.87,448.61,448.44,448.74,449.15,449.54,449.93,450.35,450.75,451.11,451.39,451.59,451.76,451.89,452.00,452.08,452.22,452.38,452.52,452.63,452.71,452.85,453.02,453.25,453.59,453.99,454.44,454.80,454.83,455.02,455.23,455.45,455.75,456.22,456.81,457.44,457.97,458.00,458.03,458.18,458.44,458.74,459.01,459.28,459.52,459.76,460.19,460.54,460.81,461.05,461.32,461.63,461.86,461.92,461.73,461.53,461.37,461.39,461.70,462.23,462.80,463.21,463.37,463.15,462.79,462.43,462.11,461.93,462.18,463.18,464.19,464.96,465.56,466.06,466.79,467.67,468.50,469.27,469.75,469.93,469.85,469.74,469.75,469.94,470.27,470.68,471.20,471.74,472.18,472.48,472.74,472.85,472.93,473.02
414.91,415.07,415.23,415.43,415.62,415.80,416.01,416.18,416.34,416.52,416.75,417.14,417.63,418.20,418.81,419.42,419.97,420.47,420.94,421.40,421.85,422.29,422.69,422.99,423.23,423.50,423.79,424.05,424.36,424.72,425.05,425.31,425.56,425.87,426.18,426.50,426.85,427.10,427.37,427.63,427.84,428.02,428.23,428.41,428.55,428.67,428.87,428.97,428.88,428.59,428.29,428.10,428.26,428.81,429.40,429.98,430.44,430.79,431.05,431.15,431.24,431.32,431.49,431.87,432.20,432.50,432.80,433.02,433.15,433.14,433.03,432.90,432.78,433.27,433.89,434.28,434.13,433.12,431.39,429.76,429.42,429.04,428.98,429.23,429.67,429.96,430.08,430.15,430.25,430.40,430.67,430.98,431.26,431.52,431.82,432.12,432.42,432.74,433.11,433.43,433.78,434.17,434.55,434.87,435.23,435.64,436.09,436.49,436.93,437.36,437.75,438.16,438.42,438.63,438.88,439.23,439.54,439.89,440.13,440.21,440.29,440.37,440.50,440.70,441.09,441.72,442.36,442.98,443.61,444.23,444.71,445.66,447.12,448.44,449.36,449.41,448.88,448.13,447.44,446.70,446.01,445.45,445.21,445.35,445.59,445.84,446.13,446.38,446.66,446.94,447.19,447.48,447.74,448.01,448.29,448.50,448.63,448.63,448.56,448.49,448.48,448.47,448.37,448.16,448.00,448.44,448.99,449.46,449.88,450.31,450.69,450.96,451.11,451.28,451.42,451.54,451.61,451.71,451.84,452.00,452.15,452.28,452.41,452.63,452.95,453.33,453.72,453.92,454.41,455.03,455.13,455.21,455.32,455.52,455.82,456.06,456.50,457.10,457.66,457.75,457.84,458.06,458.34,458.61,458.83,459.04,459.24,459.46,459.81,460.13,460.41,460.67,460.98,461.29,461.50,461.52,461.30,461.13,461.01,461.13,461.56,462.10,462.62,462.85,462.73,462.32,461.90,461.50,461.17,461.13,462.03,463.35,464.53,465.42,466.07,466.69,467.41,468.21,468.99,469.59,470.04,470.26,470.25,470.24,470.26,470.43,470.74,471.12,471.57,472.02,472.33,472.40,472.47,472.54,472.63,472.75
414.79,415.00,415.17,415.33,415.51,415.72,415.90,416.06,416.24,416.44,416.64,417.14,417.70,418.26,418.87,419.43,419.94,420.41,420.87,421.33,421.75,422.08,422.36,422.66,422.91,423.15,423.43,423.78,424.10,424.46,424.84,425.18,425.49,425.84,426.18,426.48,426.73,426.96,427.20,427.42,427.60,427.81,427.99,428.15,428.32,428.52,428.69,428.64,428.44,428.20,427.95,428.00,428.33,428.86,429.35,429.79,430.16,430.44,430.61,430.70,430.78,430.93,431.23,431.66,432.00,432.31,432.60,432.81,432.82,432.72,432.60,432.52,432.54,432.89,433.19,433.29,433.24,432.01,430.61,429.54,429.11,428.71,428.89,429.39,429.90,430.06,430.15,430.22,430.30,430.40,430.62,430.91,431.21,431.51,431.82,432.08,432.36,432.67,432.99,433.30,433.65,434.04,434.42,434.73,435.10,435.51,435.96,436.36,436.80,437.23,437.59,437.86,438.10,438.40,438.72,438.98,439.23,439.53,439.74,439.82,439.90,440.03,440.17,440.42,440.93,441.54,442.17,442.81,443.48,444.11,444.74,445.69,446.96,448.13,448.94,448.84,448.18,447.48,446.84,445.97,445.28,444.97,444.97,445.20,445.46,445.70,445.95,446.23,446.50,446.76,447.05,447.30,447.58,447.86,448.08,448.24,448.24,448.18,448.11,448.04,448.03,447.98,447.87,447.73,447.71,448.19,448.79,449.36,449.86,450.22,450.46,450.62,450.74,450.94,451.06,451.14,451.24,451.37,451.47,451.64,451.89,452.22,452.55,452.90,453.27,453.67,454.11,454.52,454.86,455.12,455.25,455.33,455.42,455.59,455.89,456.13,456.45,456.85,457.26,457.52,457.73,457.96,458.17,458.30,458.46,458.58,458.78,459.11,459.38,459.68,459.98,460.28,460.59,460.90,461.11,461.13,460.91,460.75,460.73,460.96,461.43,461.96,462.45,462.48,462.12,461.60,461.09,460.62,460.35,460.56,461.61,463.03,464.34,465.38,466.12,466.75,467.32,467.92,468.63,469.31,469.85,470.24,470.49,470.72,470.87,471.02,471.24,471.55,471.73,471.85,471.94,472.00,472.03,472.09,472.23,472.41
414.66,414.88,415.05,415.23,415.42,415.61,415.77,415.95,416.15,416.35,416.64,417.19,417.76,418.33,418.93,419.49,419.95,420.38,420.79,421.15,421.50,421.79,422.03,422.30,422.57,422.86,423.18,423.54,423.91,424.36,424.78,425.14,425.42,425.76,426.06,426.34,426.60,426.80,426.99,427.19,427.38,427.58,427.74,427.91,428.12,428.37,428.45,428.32,428.10,427.90,427.71,427.92,428.35,428.86,429.25,429.61,429.85,430.00,430.12,430.24,430.40,430.65,431.01,431.46,431.84,432.15,432.39,432.53,432.43,432.30,432.18,432.08,432.04,432.07,432.09,432.07,432.03,430.97,429.94,429.24,428.81,428.64,429.01,429.57,429.98,430.09,430.16,430.24,430.31,430.36,430.53,430.80,431.11,431.42,431.76,432.05,432.32,432.60,432.91,433.22,433.55,433.91,434.29,434.61,434.97,435.37,435.80,436.22,436.65,437.02,437.32,437.59,437.85,438.15,438.44,438.67,438.90,439.16,439.37,439.47,439.52,439.62,439.82,440.18,440.84,441.55,442.23,442.90,443.59,444.25,444.93,445.77,446.79,447.89,448.49,448.28,447.60,446.92,446.26,445.48,444.89,444.68,444.72,444.97,445.24,445.48,445.75,446.06,446.34,446.60,446.88,447.15,447.42,447.65,447.81,447.86,447.81,447.72,447.64,447.58,447.57,447.51,447.40,447.30,447.41,447.90,448.45,449.00,449.51,449.83,450.05,450.23,450.38,450.57,450.68,450.77,450.91,451.13,451.36,451.63,451.96,452.34,452.73,453.14,453.55,453.94,454.36,454.76,455.03,455.17,455.25,455.39,455.52,455.68,455.92,456.19,456.48,456.79,457.07,457.25,457.44,457.61,457.75,457.83,457.98,458.13,458.36,458.69,458.93,459.22,459.53,459.85,460.20,460.54,460.72,460.70,460.52,460.40,460.53,460.87,461.34,461.82,462.09,461.96,461.54,461.03,460.50,460.13,459.99,460.23,461.19,462.54,463.85,464.95,465.75,466.36,466.92,467.49,468.16,468.88,469.53,470.00,470.30,470.53,470.67,470.83,471.04,471.25,471.36,471.40,471.44,471.49,471.56,471.72,471.97,472.19
414.53,414.76,414.93,415.13,415.33,415.50,415.65,415.86,416.05,416.27,416.69,417.26,417.84,418.40,418.99,419.51,419.93,420.30,420.65,420.90,421.19,421.46,421.69,421.95,422.25,422.62,422.98,423.33,423.77,424.27,424.72,425.08,425.35,425.64,425.91,426.16,426.43,426.60,426.76,426.95,427.16,427.32,427.48,427.69,427.94,428.20,428.17,428.00,427.80,427.65,427.53,427.85,428.33,428.80,429.13,429.42,429.55,429.58,429.65,429.81,430.08,430.42,430.82,431.27,431.68,431.98,432.17,432.20,432.02,431.87,431.76,431.61,431.46,431.22,431.02,430.93,430.82,430.03,429.35,428.89,428.55,428.68,429.22,429.76,430.00,430.10,430.18,430.25,430.30,430.31,430.43,430.66,430.97,431.30,431.66,431.99,432.27,432.53,432.84,433.15,433.46,433.79,434.16,434.48,434.84,435.22,435.63,436.08,436.46,436.77,437.03,437.32,437.62,437.88,438.11,438.35,438.58,438.81,439.00,439.12,439.14,439.22,439.47,439.93,440.66,441.50,442.27,443.00,443.74,444.50,445.20,445.88,446.67,447.69,448.02,447.73,447.09,446.41,445.74,445.12,444.68,444.47,444.46,444.70,444.97,445.23,445.54,445.85,446.15,446.44,446.69,446.99,447.24,447.41,447.49,447.42,447.35,447.28,447.21,447.14,447.12,447.07,446.96,446.87,447.09,447.56,448.06,448.55,449.06,449.32,449.56,449.80,450.03,450.23,450.36,450.50,450.70,451.01,451.38,451.77,452.15,452.54,452.92,453.35,453.76,454.15,454.52,454.84,455.05,455.17,455.19,455.38,455.57,455.74,455.93,456.21,456.51,456.76,456.92,456.92,457.03,457.14,457.23,457.32,457.47,457.69,457.95,458.24,458.48,458.76,459.07,459.40,459.78,460.14,460.28,460.24,460.11,460.07,460.37,460.78,461.25,461.64,461.64,461.37,460.97,460.52,460.04,459.84,459.85,460.08,460.86,462.00,463.22,464.35,465.19,465.80,466.39,467.02,467.69,468.46,469.16,469.66,469.91,470.07,470.15,470.31,470.50,470.66,470.75,470.85,470.92,470.98,471.16,471.44,471.76,471.96
414.40,414.63,414.85,415.04,415.22,415.43,415.59,415.75,415.95,416.23,416.79,417.35,417.93,418.50,418.99,419.42,419.74,420.03,420.33,420.58,420.82,421.09,421.38,421.68,422.04,422.42,422.82,423.25,423.65,424.07,424.47,424.85,425.19,425.46,425.74,426.00,426.19,426.34,426.54,426.74,426.91,427.06,427.27,427.52,427.79,427.95,427.87,427.70,427.54,427.42,427.48,427.85,428.26,428.63,428.98,429.16,429.25,429.30,429.34,429.53,429.85,430.22,430.62,431.08,431.48,431.79,431.94,431.84,431.63,431.45,431.31,431.15,431.00,430.82,430.60,430.34,430.02,429.39,428.82,428.44,428.36,428.83,429.48,429.96,430.08,430.16,430.24,430.28,430.30,430.30,430.33,430.50,430.79,431.15,431.48,431.80,432.12,432.47,432.78,433.09,433.39,433.71,434.03,434.35,434.71,435.09,435.49,435.94,436.26,436.54,436.82,437.07,437.32,437.56,437.79,438.02,438.25,438.49,438.66,438.74,438.81,438.93,439.20,439.62,440.13,440.98,441.87,442.77,443.72,444.75,445.48,446.12,446.79,447.52,447.56,447.17,446.59,445.96,445.38,444.90,444.50,444.22,444.21,444.40,444.68,444.97,445.28,445.59,445.90,446.20,446.50,446.80,447.01,447.08,447.05,446.97,446.89,446.85,446.81,446.74,446.68,446.65,446.55,446.43,446.70,447.14,447.61,448.09,448.60,448.83,449.08,449.37,449.67,449.99,450.26,450.53,450.82,451.19,451.57,451.96,452.34,452.73,453.12,453.48,453.84,454.21,454.54,454.75,454.93,455.05,455.06,455.21,455.45,455.70,455.92,456.16,456.41,456.57,456.59,456.49,456.49,456.59,456.71,456.80,457.00,457.27,457.54,457.79,458.02,458.26,458.58,458.95,459.32,459.56,459.67,459.68,459.63,459.81,460.20,460.66,461.09,461.34,461.14,460.79,460.41,460.08,459.82,459.78,459.90,460.22,460.81,461.60,462.58,463.65,464.54,465.24,465.88,466.55,467.36,468.18,468.83,469.23,469.40,469.49,469.58,469.68,469.80,469.95,470.09,470.27,470.46,470.66,470.98,471.34,471.57,471.60
414.27,414.50,414.73,414.94,415.13,415.32,415.48,415.66,415.89,416.26,416.87,417.42,417.97,418.47,418.87,419.20,419.43,419.68,419.97,420.21,420.47,420.77,421.12,421.50,421.91,422.31,422.72,423.17,423.56,423.95,424.34,424.71,425.03,425.31,425.56,425.79,425.97,426.13,426.31,426.51,426.70,426.88,427.11,427.38,427.63,427.70,427.59,427.44,427.28,427.19,427.40,427.78,428.17,428.50,428.78,428.90,428.96,429.02,429.14,429.41,429.74,430.11,430.50,430.90,431.28,431.54,431.61,431.42,431.22,431.03,430.87,430.74,430.56,430.39,430.14,429.75,429.26,428.70,428.32,428.23,428.46,429.06,429.65,430.03,430.11,430.19,430.26,430.29,430.26,430.25,430.25,430.38,430.63,430.98,431.29,431.63,431.97,432.33,432.67,432.98,433.29,433.61,433.94,434.26,434.60,434.96,435.35,435.71,435.98,436.23,436.50,436.77,437.00,437.23,437.47,437.70,437.93,438.16,438.31,438.36,438.45,438.66,438.99,439.38,439.80,440.57,441.64,442.83,443.99,445.00,445.66,446.23,446.81,447.31,447.17,446.72,446.17,445.60,445.11,444.69,444.31,444.00,443.98,444.14,444.40,444.71,445.02,445.33,445.63,445.94,446.25,446.56,446.78,446.84,446.76,446.68,446.64,446.52,446.38,446.31,446.23,446.18,446.10,446.03,446.33,446.75,447.18,447.63,448.11,448.38,448.69,449.07,449.45,449.90,450.24,450.54,450.87,451.22,451.57,451.96,452.38,452.80,453.18,453.54,453.86,454.14,454.38,454.56,454.66,454.72,454.81,455.03,455.32,455.60,455.84,456.10,456.26,456.29,456.18,456.00,455.97,456.06,456.20,456.32,456.54,456.80,457.06,457.30,457.56,457.80,458.11,458.47,458.75,458.96,459.03,459.08,459.25,459.65,460.08,460.50,460.85,460.96,460.70,460.34,460.02,459.80,459.72,459.84,460.14,460.60,461.13,461.74,462.51,463.38,464.19,464.86,465.54,466.29,467.11,467.96,468.46,468.72,468.84,468.91,468.99,469.07,469.16,469.30,469.56,469.90,470.22,470.50,470.85,471.18,471.30,471.22
414.14,414.37,414.61,414.84,415.04,415.20,415.36,415.57,415.88,416.32,416.92,417.47,417.95,418.35,418.65,418.89,419.07,419.30,419.59,419.84,420.15,420.51,420.91,421.37,421.83,422.24,422.65,423.11,423.50,423.89,424.26,424.61,424.86,425.14,425.37,425.55,425.76,425.92,426.08,426.27,426.50,426.73,426.97,427.24,427.46,427.45,427.32,427.17,427.03,426.98,427.30,427.68,428.06,428.39,428.55,428.63,428.68,428.77,429.02,429.37,429.71,430.06,430.43,430.74,431.09,431.26,431.21,431.00,430.82,430.62,430.42,430.28,430.04,429.84,429.54,429.07,428.50,428.05,427.96,428.22,428.74,429.34,429.78,430.03,430.11,430.19,430.25,430.25,430.20,430.20,430.20,430.29,430.49,430.80,431.11,431.46,431.82,432.15,432.51,432.84,433.15,433.48,433.85,434.17,434.48,434.82,435.16,435.42,435.65,435.88,436.13,436.42,436.67,436.90,437.13,437.36,437.59,437.82,437.96,438.00,438.13,438.46,438.85,439.22,439.65,440.35,441.61,443.10,444.43,445.23,445.77,446.25,446.72,447.02,446.78,446.32,445.79,445.29,444.89,444.51,444.13,443.81,443.78,443.90,444.14,444.45,444.76,445.07,445.38,445.69,446.00,446.30,446.53,446.60,446.55,446.48,446.47,446.26,446.02,445.98,445.88,445.76,445.65,445.65,446.01,446.40,446.80,447.21,447.65,447.99,448.39,448.85,449.32,449.83,450.19,450.50,450.82,451.14,451.47,451.88,452.34,452.79,453.18,453.54,453.82,453.98,454.14,454.28,454.31,454.31,454.50,454.87,455.20,455.48,455.72,456.00,456.06,455.95,455.73,455.51,455.45,455.54,455.69,455.86,456.08,456.32,456.55,456.80,457.08,457.33,457.63,457.96,458.14,458.34,458.41,458.53,458.93,459.49,459.94,460.29,460.54,460.54,460.29,460.00,459.75,459.62,459.67,459.94,460.38,460.98,461.56,462.13,462.75,463.41,464.10,464.67,465.38,466.19,466.96,467.73,468.05,468.17,468.25,468.33,468.40,468.49,468.59,468.76,469.18,469.69,470.13,470.42,470.72,470.96,470.98,470.83
414.01,414.24,414.48,414.71,414.91,415.07,415.28,415.50,415.86,416.38,416.99,417.50,417.84,418.09,418.33,418.52,418.72,418.97,419.27,419.57,419.95,420.39,420.84,421.30,421.76,422.18,422.59,423.04,423.44,423.82,424.16,424.42,424.66,424.91,425.13,425.33,425.51,425.66,425.86,426.08,426.31,426.54,426.82,427.06,427.20,427.14,427.00,426.88,426.82,426.88,427.23,427.58,427.91,428.19,428.30,428.33,428.44,428.65,428.99,429.32,429.68,430.05,430.41,430.68,430.86,430.91,430.83,430.65,430.45,430.23,429.95,429.59,429.20,428.87,428.50,428.09,427.67,427.77,428.12,428.57,429.12,429.68,429.93,430.03,430.11,430.19,430.22,430.22,430.20,430.20,430.20,430.23,430.36,430.67,430.98,431.30,431.65,432.00,432.34,432.65,432.99,433.35,433.67,433.98,434.33,434.64,434.86,435.09,435.32,435.56,435.79,436.05,436.28,436.51,436.75,436.98,437.21,437.44,437.60,437.72,438.11,438.54,438.93,439.27,439.72,440.61,441.96,443.48,444.78,445.36,445.83,446.20,446.43,446.51,446.26,445.87,445.44,445.02,444.68,444.35,443.99,443.66,443.54,443.64,443.88,444.19,444.50,444.81,445.12,445.43,445.74,446.04,446.16,446.22,446.24,446.22,446.22,446.11,446.06,446.19,445.96,445.62,445.36,445.33,445.74,446.14,446.55,446.98,447.39,447.76,448.19,448.65,449.12,449.60,449.95,450.26,450.60,451.01,451.43,451.88,452.34,452.79,453.18,453.42,453.57,453.72,453.82,453.92,453.93,453.95,454.29,454.81,455.17,455.41,455.64,455.83,455.76,455.59,455.39,455.12,454.97,455.02,455.19,455.40,455.63,455.86,456.09,456.33,456.58,456.82,457.07,457.33,457.54,457.67,457.91,458.25,458.65,459.15,459.60,459.96,460.15,460.10,459.92,459.73,459.56,459.49,459.59,459.82,460.23,460.87,461.57,462.31,463.04,463.70,464.33,464.89,465.52,466.23,466.94,467.34,467.50,467.59,467.67,467.75,467.83,467.93,468.14,468.57,469.12,469.68,470.10,470.36,470.60,470.71,470.63,470.44
413.88,414.11,414.35,414.58,414.79,414.98,415.18,415.47,415.89,416.43,416.95,417.36,417.61,417.79,418.02,418.25,418.53,418.85,419.21,419.55,419.94,420.38,420.84,421.27,421.71,422.11,422.52,422.97,423.34,423.68,423.96,424.19,424.43,424.65,424.87,425.07,425.25,425.44,425.65,425.89,426.16,426.42,426.71,426.90,426.93,426.82,426.67,426.58,426.60,426.77,427.13,427.48,427.76,427.95,428.01,428.09,428.29,428.59,428.91,429.12,429.35,429.69,430.12,430.42,430.52,430.50,430.40,430.21,429.87,429.51,429.13,428.66,428.20,427.86,427.67,427.62,427.60,428.00,428.52,429.03,429.52,429.89,430.02,430.06,430.14,430.19,430.18,430.16,430.16,430.16,430.16,430.16,430.25,430.51,430.81,431.14,431.48,431.83,432.15,432.48,432.83,433.17,433.48,433.79,434.11,434.39,434.58,434.81,435.04,435.25,435.47,435.70,435.93,436.16,436.39,436.62,436.86,437.11,437.36,437.66,438.15,438.63,439.04,439.41,439.92,441.05,442.40,443.78,444.94,445.36,445.75,445.99,446.03,445.96,445.72,445.39,445.04,444.72,444.46,444.17,443.84,443.51,443.31,443.38,443.62,443.93,444.24,444.55,444.86,445.15,445.44,445.72,445.78,445.80,445.85,445.88,445.88,445.85,445.88,446.02,445.86,445.64,445.37,445.17,445.55,445.95,446.36,446.79,447.21,447.62,448.05,448.49,448.95,449.39,449.77,450.15,450.57,451.05,451.52,451.99,452.40,452.69,452.96,453.14,453.28,453.43,453.53,453.57,453.54,453.59,454.05,454.74,455.13,455.34,455.52,455.63,455.48,455.29,455.10,454.80,454.57,454.57,454.75,454.98,455.18,455.41,455.63,455.83,456.06,456.30,456.52,456.73,456.96,457.23,457.62,458.07,458.49,458.95,459.37,459.66,459.76,459.69,459.59,459.47,459.34,459.32,459.50,459.73,460.12,460.80,461.58,462.42,463.19,463.87,464.49,465.09,465.68,466.24,466.67,466.81,466.91,467.00,467.09,467.16,467.29,467.51,467.88,468.42,469.00,469.54,469.95,470.21,470.41,470.45,470.35,470.14
413.75,413.98,414.22,414.45,414.68,414.90,415.07,415.45,415.94,416.43,416.81,417.10,417.31,417.50,417.77,418.12,418.50,418.90,419.34,419.72,420.07,420.46,420.90,421.29,421.68,422.06,422.45,422.88,423.19,423.46,423.69,423.93,424.16,424.38,424.58,424.77,425.00,425.23,425.47,425.73,426.03,426.33,426.63,426.73,426.65,426.51,426.36,426.31,426.39,426.64,427.00,427.37,427.61,427.69,427.73,427.89,428.17,428.48,428.67,428.72,428.75,428.99,429.51,429.87,429.94,429.90,429.78,429.54,429.02,428.50,428.03,427.61,427.23,427.06,427.21,427.68,428.16,428.63,429.08,429.51,429.90,430.00,430.05,430.12,430.18,430.19,430.14,430.10,430.09,430.09,430.10,430.11,430.16,430.34,430.63,430.98,431.33,431.65,431.96,432.33,432.67,432.98,433.28,433.58,433.84,434.08,434.31,434.54,434.77,434.97,435.15,435.38,435.63,435.87,436.12,436.36,436.61,436.90,437.29,437.78,438.25,438.71,439.17,439.62,440.19,441.50,442.78,443.94,444.91,445.22,445.51,445.63,445.56,445.41,445.20,444.92,444.64,444.41,444.24,443.97,443.66,443.35,443.07,443.13,443.36,443.67,443.97,444.28,444.59,444.88,445.12,445.34,445.39,445.39,445.41,445.47,445.49,445.49,445.49,445.52,445.55,445.68,445.53,445.13,445.47,445.87,446.26,446.68,447.14,447.60,448.02,448.44,448.88,449.29,449.72,450.19,450.71,451.24,451.69,452.11,452.42,452.46,452.57,452.75,452.94,453.10,453.24,453.21,453.14,453.22,453.80,454.63,455.07,455.24,455.38,455.40,455.24,455.03,454.83,454.53,454.24,454.19,454.35,454.57,454.74,454.95,455.15,455.33,455.55,455.78,455.98,456.17,456.47,456.99,457.50,457.97,458.43,458.89,459.21,459.38,459.38,459.31,459.28,459.19,459.09,459.15,459.43,459.68,460.09,460.81,461.64,462.49,463.26,463.93,464.55,465.19,465.76,466.12,466.17,466.19,466.31,466.43,466.50,466.60,466.81,467.21,467.72,468.27,468.82,469.30,469.69,469.95,470.13,470.17,470.09,469.88
413.62,413.85,414.09,414.35,414.60,414.78,414.99,415.47,415.93,416.25,416.54,416.82,417.12,417.45,417.83,418.22,418.60,419.00,419.42,419.85,420.27,420.65,421.02,421.40,421.75,422.05,422.34,422.64,422.91,423.14,423.38,423.61,423.83,424.03,424.25,424.51,424.80,425.08,425.33,425.59,425.90,426.20,426.39,426.43,426.34,426.24,426.14,426.13,426.26,426.55,426.88,427.18,427.35,427.40,427.54,427.63,427.74,427.86,427.93,427.94,427.94,428.06,428.35,428.54,428.54,428.44,428.30,428.10,427.68,427.27,426.96,426.85,427.01,427.33,427.77,428.31,428.85,429.37,429.68,429.85,430.04,430.06,430.09,430.11,430.13,430.13,430.11,430.07,430.03,430.04,430.08,430.10,430.13,430.26,430.50,430.81,431.14,431.46,431.82,432.15,432.48,432.77,433.02,433.28,433.52,433.76,433.99,434.22,434.45,434.67,434.88,435.12,435.44,435.77,436.11,436.44,436.77,437.13,437.53,437.97,438.43,438.89,439.36,439.83,440.41,441.46,442.60,443.76,444.73,444.94,445.09,445.16,445.10,444.95,444.77,444.55,444.31,444.15,444.03,443.78,443.47,443.16,442.87,442.89,443.11,443.40,443.66,443.97,444.27,444.57,444.83,444.98,445.01,445.01,445.01,445.04,445.08,445.10,445.10,445.11,445.13,445.19,445.20,445.22,445.62,446.06,446.50,446.96,447.47,447.94,448.38,448.81,449.23,449.66,450.04,450.44,450.90,451.42,451.73,451.89,451.97,451.99,452.15,452.33,452.52,452.71,452.81,452.77,452.69,452.82,453.56,454.28,454.80,455.10,455.19,455.20,455.06,454.83,454.52,454.26,453.96,453.87,453.96,454.13,454.29,454.46,454.65,454.85,455.04,455.26,455.50,455.81,456.31,456.87,457.43,457.96,458.42,458.83,458.98,459.01,458.99,458.91,458.86,458.81,458.84,459.11,459.45,459.73,460.14,460.87,461.70,462.56,463.32,463.99,464.55,465.00,465.35,465.54,465.54,465.59,465.72,465.84,465.94,466.12,466.47,466.94,467.48,468.02,468.57,469.02,469.31,469.44,469.68,469.74,469.66,469.46
413.46,413.72,413.96,414.24,414.50,414.69,414.96,415.41,415.81,416.09,416.37,416.71,417.09,417.49,417.92,418.32,418.70,419.08,419.45,419.84,420.28,420.68,421.01,421.32,421.61,421.88,422.13,422.36,422.59,422.82,423.05,423.28,423.52,423.70,423.95,424.27,424.57,424.88,425.19,425.49,425.80,426.08,426.16,426.13,426.06,425.99,425.93,425.99,426.17,426.46,426.76,426.96,427.06,427.09,427.17,427.13,427.10,427.10,427.10,427.10,427.10,427.09,427.06,427.00,426.93,426.89,426.88,426.88,426.74,426.60,426.58,426.80,427.30,427.89,428.46,429.00,429.45,429.84,430.00,430.01,430.06,430.07,430.07,430.07,430.07,430.07,430.07,430.04,430.00,430.00,430.05,430.07,430.09,430.17,430.38,430.67,430.97,431.29,431.65,431.97,432.27,432.54,432.77,432.98,433.20,433.44,433.70,433.98,434.26,434.55,434.85,435.14,435.50,435.89,436.28,436.67,437.05,437.45,437.85,438.23,438.69,439.13,439.58,440.07,440.70,441.51,442.47,443.54,444.52,444.69,444.73,444.72,444.65,444.50,444.35,444.16,443.96,443.79,443.70,443.55,443.31,442.99,442.68,442.63,442.81,443.11,443.37,443.67,443.98,444.27,444.50,444.57,444.60,444.62,444.62,444.62,444.66,444.69,444.69,444.71,444.72,444.76,444.90,445.19,445.66,446.14,446.63,447.14,447.73,448.25,448.74,449.20,449.62,450.03,450.34,450.67,451.03,451.38,451.52,451.50,451.46,451.53,451.72,451.93,452.15,452.37,452.40,452.33,452.24,452.35,453.04,453.65,454.22,454.63,454.78,454.86,454.71,454.41,454.05,453.82,453.56,453.46,453.53,453.68,453.84,454.01,454.22,454.46,454.67,454.90,455.19,455.61,456.19,456.76,457.36,457.94,458.38,458.65,458.65,458.62,458.60,458.53,458.49,458.56,458.77,459.15,459.52,459.84,460.30,461.02,461.83,462.64,463.34,463.92,464.39,464.73,464.89,464.95,464.96,465.00,465.15,465.31,465.46,465.72,466.17,466.68,467.22,467.76,468.31,468.66,468.83,468.89,469.11,469.14,469.07,468.92
413.29,413.58,413.83,414.10,414.38,414.64,414.99,415.30,415.62,415.99,416.37,416.80,417.20,417.60,417.99,418.37,418.74,419.09,419.39,419.65,420.06,420.48,420.82,421.01,421.24,421.52,421.79,422.03,422.26,422.50,422.73,422.96,423.19,423.42,423.69,424.01,424.32,424.64,425.04,425.42,425.72,425.94,425.95,425.88,425.80,425.73,425.72,425.86,426.08,426.33,426.62,426.71,426.76,426.78,426.60,426.40,426.30,426.28,426.27,426.26,426.25,426.13,425.80,425.50,425.40,425.52,425.81,426.14,426.40,426.66,426.99,427.48,428.00,428.55,429.12,429.63,429.88,429.98,430.00,430.00,430.00,429.99,429.99,429.98,429.98,429.98,429.98,429.99,429.98,429.98,429.99,430.00,430.01,430.05,430.25,430.53,430.84,431.15,431.46,431.76,432.04,432.28,432.51,432.70,432.92,433.19,433.50,433.87,434.24,434.65,435.07,435.45,435.83,436.22,436.60,436.99,437.38,437.81,438.21,438.55,439.00,439.41,439.84,440.37,441.05,441.75,442.49,443.37,444.33,444.47,444.44,444.33,444.19,444.04,443.89,443.74,443.56,443.36,443.26,443.27,443.16,442.85,442.49,442.36,442.50,442.80,443.10,443.41,443.72,443.97,444.11,444.13,444.18,444.22,444.23,444.23,444.23,444.24,444.26,444.33,444.35,444.50,444.72,445.00,445.50,446.03,446.56,447.13,447.81,448.42,448.99,449.51,449.96,450.28,450.54,450.79,451.03,451.08,451.05,450.99,450.98,451.13,451.30,451.56,451.85,452.07,452.02,451.90,451.78,451.82,452.25,452.78,453.31,453.77,454.10,454.32,454.12,453.75,453.40,453.17,453.01,452.99,453.09,453.26,453.43,453.65,453.91,454.21,454.50,454.75,455.08,455.55,456.11,456.70,457.32,457.89,458.31,458.33,458.27,458.23,458.21,458.16,458.21,458.49,458.89,459.27,459.61,460.02,460.56,461.27,462.01,462.72,463.27,463.69,464.09,464.40,464.49,464.45,464.45,464.45,464.62,464.83,465.07,465.39,465.88,466.43,466.97,467.52,468.03,468.21,468.26,468.33,468.42,468.39,468.35,468.27
413.14,413.40,413.68,413.95,414.23,414.57,414.95,415.29,415.64,416.03,416.41,416.83,417.22,417.62,417.99,418.29,418.58,418.84,419.05,419.25,419.61,420.04,420.42,420.63,420.89,421.16,421.43,421.70,421.94,422.17,422.40,422.63,422.87,423.14,423.44,423.77,424.17,424.53,424.90,425.26,425.58,425.73,425.70,425.62,425.55,425.52,425.56,425.73,425.96,426.18,426.35,426.43,426.50,426.50,426.29,426.06,425.88,425.73,425.60,425.50,425.47,425.32,425.00,424.96,425.16,425.51,425.96,426.39,426.80,427.20,427.63,428.12,428.57,429.16,429.64,429.89,429.98,430.00,429.97,429.92,429.88,429.83,429.78,429.74,429.70,429.70,429.74,429.78,429.82,429.82,429.86,429.94,430.00,430.02,430.14,430.37,430.65,430.95,431.22,431.48,431.75,432.05,432.37,432.67,432.98,433.32,433.68,434.06,434.49,434.94,435.38,435.77,436.15,436.54,436.93,437.32,437.75,438.17,438.54,438.87,439.28,439.71,440.16,440.67,441.33,442.01,442.71,443.45,444.13,444.10,443.98,443.84,443.68,443.53,443.41,443.34,443.22,443.01,442.92,442.95,442.90,442.66,442.34,442.13,442.22,442.54,442.84,443.15,443.46,443.68,443.73,443.74,443.76,443.79,443.83,443.83,443.83,443.83,443.89,444.05,444.15,444.34,444.58,444.83,445.18,445.69,446.25,446.87,447.55,448.23,448.90,449.54,450.05,450.34,450.50,450.59,450.61,450.55,450.48,450.46,450.53,450.75,451.03,451.34,451.58,451.70,451.60,451.44,451.31,451.28,451.59,452.06,452.46,452.80,453.13,453.37,453.31,453.05,452.70,452.53,452.52,452.63,452.84,453.14,453.44,453.75,454.07,454.38,454.68,454.94,455.24,455.66,456.24,456.81,457.39,457.83,458.01,458.00,457.94,457.87,457.85,457.92,458.15,458.53,458.97,459.36,459.76,460.27,460.86,461.49,461.99,462.52,463.02,463.44,463.82,464.10,464.15,464.08,464.04,464.04,464.13,464.36,464.69,465.06,465.60,466.19,466.79,467.38,467.64,467.68,467.66,467.69,467.67,467.64,467.63,467.60
412.98,413.24,413.54,413.82,414.13,414.52,414.91,415.29,415.68,416.07,416.45,416.84,417.19,417.52,417.83,418.08,418.30,418.48,418.63,418.80,419.12,419.50,419.90,420.25,420.56,420.82,421.07,421.35,421.59,421.83,422.09,422.34,422.60,422.91,423.23,423.58,424.01,424.41,424.75,425.09,425.39,425.48,425.43,425.37,425.32,425.33,425.43,425.61,425.81,425.99,426.07,426.15,426.22,426.22,426.00,425.77,425.54,425.31,425.08,424.90,424.82,424.72,424.62,424.88,425.31,425.80,426.30,426.77,427.21,427.67,428.13,428.56,428.95,429.48,429.84,429.91,429.92,429.91,429.85,429.78,429.70,429.60,429.52,429.45,429.40,429.39,429.44,429.50,429.55,429.57,429.62,429.74,429.85,429.91,430.00,430.19,430.47,430.81,431.08,431.36,431.66,432.00,432.39,432.76,433.14,433.53,433.92,434.32,434.77,435.23,435.68,436.07,436.47,436.87,437.25,437.65,438.10,438.51,438.87,439.19,439.57,440.02,440.50,441.01,441.61,442.28,442.97,443.54,443.82,443.64,443.47,443.32,443.16,443.02,442.94,442.91,442.83,442.66,442.56,442.60,442.61,442.47,442.18,441.93,441.98,442.27,442.58,442.89,443.16,443.33,443.34,443.35,443.35,443.37,443.42,443.45,443.48,443.52,443.62,443.84,444.02,444.24,444.46,444.68,444.92,445.35,445.91,446.54,447.25,447.93,448.65,449.34,449.90,450.21,450.33,450.29,450.12,449.99,449.90,449.94,450.10,450.41,450.78,451.12,451.31,451.29,451.14,450.99,450.84,450.76,450.94,451.25,451.53,451.82,452.12,452.34,452.42,452.30,452.07,452.04,452.21,452.46,452.76,453.15,453.56,453.95,454.31,454.63,454.94,455.19,455.45,455.82,456.41,456.96,457.41,457.66,457.64,457.64,457.60,457.56,457.57,457.78,458.15,458.58,459.01,459.40,459.84,460.36,460.91,461.41,461.76,462.21,462.68,463.13,463.52,463.77,463.80,463.72,463.65,463.63,463.75,464.04,464.46,464.86,465.43,466.05,466.64,467.10,467.16,467.13,467.08,467.03,466.96,466.94,466.95,466.99
412.81,413.11,413.42,413.76,414.14,414.52,414.91,415.30,415.68,416.06,416.44,416.82,417.08,417.27,417.46,417.68,417.87,418.03,418.18,418.35,418.63,418.91,419.25,419.86,420.22,420.49,420.73,420.97,421.21,421.49,421.79,422.09,422.40,422.75,423.10,423.43,423.83,424.22,424.59,424.92,425.13,425.21,425.17,425.13,425.12,425.14,425.32,425.50,425.65,425.74,425.81,425.89,425.94,425.90,425.68,425.45,425.22,424.99,424.75,424.53,424.38,424.42,424.73,425.15,425.61,426.08,426.55,427.01,427.41,427.85,428.28,428.67,429.06,429.38,429.60,429.72,429.72,429.67,429.59,429.52,429.43,429.30,429.20,429.14,429.13,429.13,429.14,429.15,429.17,429.24,429.26,429.36,429.50,429.65,429.80,430.01,430.34,430.76,431.14,431.51,431.88,432.26,432.64,432.97,433.33,433.72,434.12,434.57,435.03,435.49,435.94,436.33,436.77,437.19,437.58,437.98,438.43,438.83,439.19,439.51,439.90,440.34,440.85,441.38,441.94,442.56,443.21,443.55,443.36,443.13,442.95,442.80,442.64,442.50,442.46,442.42,442.35,442.25,442.17,442.21,442.28,442.26,441.98,441.73,441.76,442.02,442.32,442.63,442.80,442.89,442.95,442.96,442.96,442.97,442.99,443.06,443.19,443.32,443.49,443.72,443.94,444.17,444.38,444.55,444.78,445.10,445.58,446.23,446.97,447.62,448.25,448.88,449.45,449.84,450.00,449.93,449.70,449.44,449.32,449.41,449.69,450.12,450.52,450.85,450.98,450.85,450.70,450.54,450.39,450.28,450.30,450.30,450.53,450.87,451.16,451.34,451.49,451.55,451.57,451.82,452.15,452.52,452.89,453.29,453.73,454.13,454.52,454.89,455.20,455.45,455.69,456.00,456.54,457.06,457.30,457.32,457.27,457.26,457.25,457.28,457.41,457.76,458.19,458.61,459.00,459.39,459.77,460.18,460.56,460.92,461.30,461.80,462.29,462.75,463.19,463.39,463.40,463.33,463.25,463.19,463.49,463.95,464.45,464.86,465.42,466.03,466.49,466.57,466.59,466.58,466.51,466.39,466.31,466.30,466.35,466.48
412.73,413.08,413.43,413.81,414.19,414.57,414.92,415.33,415.68,415.94,416.24,416.50,416.70,416.86,417.02,417.24,417.42,417.57,417.74,417.93,418.15,418.33,418.60,419.23,419.74,420.11,420.42,420.69,420.92,421.21,421.54,421.88,422.20,422.57,422.94,423.31,423.73,424.13,424.49,424.75,424.87,424.87,424.84,424.80,424.80,424.93,425.11,425.30,425.45,425.49,425.56,425.63,425.68,425.63,425.41,425.18,424.94,424.71,424.48,424.25,424.22,424.43,424.86,425.27,425.73,426.17,426.61,427.06,427.45,427.84,428.19,428.49,428.83,429.09,429.29,429.41,429.42,429.39,429.33,429.25,429.13,429.01,428.93,428.86,428.82,428.82,428.82,428.82,428.84,428.91,428.96,429.07,429.24,429.44,429.68,429.98,430.36,430.82,431.30,431.69,432.08,432.47,432.85,433.21,433.58,433.97,434.37,434.82,435.29,435.73,436.16,436.58,437.04,437.49,437.92,438.34,438.77,439.16,439.51,439.84,440.22,440.67,441.17,441.72,442.26,442.83,443.17,443.19,442.89,442.62,442.43,442.28,442.13,441.98,441.95,441.94,441.90,441.86,441.79,441.79,441.86,441.93,441.81,441.52,441.50,441.75,442.06,442.33,442.45,442.48,442.51,442.56,442.56,442.61,442.70,442.82,443.01,443.21,443.40,443.60,443.82,444.05,444.25,444.42,444.65,444.91,445.32,445.89,446.57,447.19,447.78,448.34,448.85,449.25,449.47,449.47,449.25,448.96,448.80,448.91,449.25,449.71,450.14,450.48,450.62,450.49,450.30,450.17,450.04,449.91,449.87,449.83,449.99,450.25,450.51,450.75,451.02,451.28,451.50,451.78,452.18,452.58,452.98,453.40,453.79,454.20,454.65,455.09,455.41,455.66,455.91,456.23,456.66,456.89,456.97,456.96,456.92,456.92,456.96,457.09,457.36,457.70,458.11,458.51,458.90,459.27,459.55,459.83,460.13,460.46,460.89,461.41,461.91,462.39,462.90,463.04,463.02,462.94,462.88,462.92,463.31,463.84,464.35,464.79,465.27,465.68,465.95,465.99,466.00,466.00,465.92,465.75,465.71,465.77,465.94,466.21
412.71,413.08,413.47,413.85,414.23,414.59,414.89,415.27,415.55,415.72,415.94,416.11,416.27,416.42,416.58,416.81,416.99,417.14,417.31,417.51,417.74,417.92,418.18,418.77,419.29,419.74,420.11,420.42,420.68,420.97,421.32,421.69,422.04,422.43,422.83,423.24,423.69,424.09,424.38,424.56,424.60,424.54,424.50,424.48,424.51,424.71,424.88,425.06,425.21,425.25,425.32,425.38,425.41,425.35,425.13,424.93,424.70,424.45,424.22,424.02,424.14,424.49,424.93,425.33,425.76,426.19,426.59,427.00,427.37,427.69,427.97,428.22,428.52,428.78,428.98,429.09,429.10,429.08,429.04,428.96,428.83,428.75,428.66,428.57,428.51,428.48,428.48,428.49,428.51,428.59,428.68,428.82,429.02,429.30,429.63,430.03,430.47,430.94,431.44,431.86,432.27,432.67,433.07,433.46,433.84,434.23,434.63,435.08,435.54,435.96,436.38,436.84,437.30,437.77,438.23,438.67,439.07,439.48,439.84,440.16,440.55,440.98,441.48,442.02,442.54,442.94,442.94,442.73,442.43,442.11,441.91,441.76,441.61,441.48,441.44,441.44,441.44,441.44,441.38,441.38,441.45,441.57,441.58,441.31,441.27,441.49,441.78,442.00,442.08,442.08,442.09,442.18,442.22,442.32,442.49,442.67,442.87,443.10,443.31,443.49,443.70,443.92,444.13,444.31,444.52,444.75,445.08,445.52,446.12,446.71,447.26,447.76,448.21,448.59,448.85,448.93,448.80,448.52,448.32,448.45,448.81,449.26,449.71,450.06,450.23,450.18,450.00,449.88,449.76,449.62,449.55,449.52,449.64,449.85,450.12,450.44,450.83,451.23,451.60,451.88,452.25,452.62,452.99,453.44,453.80,454.22,454.69,455.18,455.48,455.72,455.99,456.32,456.63,456.63,456.60,456.60,456.60,456.60,456.69,456.93,457.29,457.62,458.00,458.38,458.75,459.07,459.25,459.45,459.69,460.02,460.49,461.03,461.55,462.07,462.60,462.68,462.63,462.55,462.52,462.70,463.13,463.62,464.10,464.55,464.92,465.17,465.32,465.39,465.41,465.41,465.33,465.14,465.15,465.31,465.62,465.99
412.76,413.09,413.47,413.85,414.21,414.52,414.77,414.98,415.16,415.33,415.55,415.72,415.88,416.03,416.20,416.42,416.59,416.76,416.91,417.09,417.45,417.87,418.30,418.82,419.04,419.39,419.81,420.17,420.47,420.78,421.13,421.52,421.96,422.41,422.83,423.24,423.69,424.08,424.28,424.35,424.34,424.28,424.21,424.24,424.37,424.53,424.69,424.81,424.92,425.04,425.12,425.15,425.13,425.03,424.81,424.69,424.47,424.19,423.97,423.86,424.08,424.49,424.93,425.33,425.72,426.14,426.55,426.82,427.08,427.37,427.65,427.89,428.19,428.49,428.70,428.77,428.77,428.72,428.68,428.65,428.56,428.49,428.36,428.27,428.24,428.12,428.08,428.12,428.19,428.28,428.41,428.60,428.87,429.24,429.67,430.16,430.66,431.11,431.53,431.97,432.42,432.87,433.32,433.72,434.10,434.49,434.88,435.34,435.76,436.18,436.64,437.10,437.56,438.02,438.47,438.87,439.32,439.77,440.16,440.49,440.87,441.27,441.74,442.28,442.73,442.66,442.45,442.23,441.96,441.60,441.39,441.24,441.10,441.01,440.94,440.92,440.94,440.98,440.92,441.00,441.11,441.19,441.25,441.12,441.08,441.22,441.45,441.63,441.68,441.68,441.71,441.84,441.98,442.15,442.37,442.59,442.76,442.97,443.19,443.41,443.58,443.79,444.02,444.23,444.40,444.62,444.83,445.12,445.67,446.16,446.64,447.11,447.55,447.88,448.14,448.31,448.34,448.12,447.89,448.02,448.40,448.80,449.20,449.53,449.79,449.93,449.84,449.71,449.56,449.43,449.35,449.28,449.44,449.76,450.12,450.50,450.93,451.38,451.81,452.17,452.40,452.60,452.87,453.32,453.76,454.18,454.61,455.04,455.29,455.48,455.75,456.10,456.32,456.30,456.27,456.27,456.27,456.28,456.48,456.78,457.11,457.48,457.87,458.25,458.58,458.76,458.92,459.09,459.29,459.58,460.09,460.68,461.28,461.85,462.29,462.31,462.24,462.16,462.15,462.52,462.88,463.23,463.58,463.97,464.25,464.49,464.67,464.74,464.81,464.83,464.74,464.57,464.68,464.99,465.36,465.74
412.73,413.08,413.43,413.75,414.03,414.25,414.45,414.65,414.82,414.99,415.17,415.33,415.51,415.69,415.86,416.08,416.34,416.62,416.93,417.21,417.63,418.11,418.64,419.17,419.33,419.50,419.73,419.98,420.32,420.69,421.10,421.52,421.95,422.40,422.85,423.27,423.68,423.97,424.07,424.08,424.04,424.00,423.97,424.05,424.23,424.38,424.51,424.60,424.69,424.79,424.84,424.91,424.95,424.92,424.82,424.70,424.38,423.96,423.71,423.76,424.07,424.47,424.88,425.27,425.60,425.94,426.29,426.53,426.80,427.07,427.34,427.61,427.88,428.18,428.38,428.44,428.45,428.38,428.35,428.33,428.25,428.17,428.07,427.99,427.93,427.82,427.77,427.79,427.88,428.04,428.26,428.52,428.82,429.18,429.63,430.18,430.70,431.16,431.63,432.09,432.58,433.06,433.49,433.91,434.34,434.75,435.14,435.56,435.99,436.43,436.89,437.36,437.79,438.24,438.69,439.12,439.58,439.98,440.35,440.72,441.13,441.53,441.98,442.38,442.44,442.20,441.92,441.66,441.41,441.07,440.85,440.69,440.57,440.47,440.45,440.44,440.47,440.54,440.51,440.58,440.68,440.76,440.87,440.87,440.85,440.90,441.13,441.26,441.30,441.34,441.47,441.66,441.82,442.01,442.24,442.47,442.64,442.84,443.07,443.29,443.46,443.67,443.88,444.07,444.22,444.41,444.58,444.78,445.14,445.59,446.05,446.50,446.90,447.18,447.42,447.64,447.76,447.65,447.41,447.50,447.86,448.24,448.59,448.94,449.26,449.49,449.58,449.50,449.39,449.27,449.16,449.08,449.30,449.71,450.17,450.60,451.06,451.52,451.96,452.35,452.67,452.87,453.03,453.31,453.69,454.07,454.45,454.81,455.05,455.22,455.44,455.70,455.91,455.95,455.95,455.96,456.00,456.08,456.33,456.66,457.01,457.36,457.73,458.06,458.29,458.45,458.60,458.75,458.99,459.38,459.94,460.48,461.07,461.63,461.98,461.94,461.85,461.77,461.75,462.02,462.33,462.64,462.96,463.30,463.58,463.81,463.97,464.04,464.12,464.15,464.10,464.07,464.38,464.79,465.19,465.59
412.67,413.01,413.31,413.56,413.77,413.93,414.09,414.29,414.49,414.65,414.81,414.97,415.20,415.44,415.65,415.90,416.26,416.68,417.12,417.52,417.96,418.46,419.01,419.57,419.75,419.77,419.79,419.90,420.24,420.68,421.14,421.58,421.97,422.41,422.87,423.30,423.65,423.80,423.83,423.81,423.76,423.75,423.76,423.88,424.09,424.24,424.32,424.39,424.46,424.52,424.52,424.62,424.74,424.81,424.80,424.65,424.25,423.75,423.46,423.69,424.04,424.41,424.78,425.14,425.41,425.68,425.97,426.22,426.51,426.77,427.02,427.32,427.56,427.85,428.06,428.12,428.12,428.06,428.02,428.00,427.93,427.85,427.77,427.70,427.63,427.56,427.49,427.50,427.63,427.87,428.17,428.48,428.80,429.13,429.55,430.12,430.66,431.13,431.67,432.15,432.65,433.16,433.57,434.04,434.52,434.96,435.37,435.77,436.22,436.68,437.14,437.60,438.01,438.44,438.89,439.35,439.81,440.16,440.52,440.91,441.34,441.75,442.13,442.31,441.99,441.69,441.38,441.09,440.84,440.55,440.33,440.19,440.10,439.98,440.02,440.04,440.06,440.13,440.14,440.19,440.26,440.35,440.48,440.57,440.58,440.59,440.79,440.90,440.97,441.07,441.29,441.52,441.69,441.88,442.11,442.32,442.49,442.69,442.93,443.16,443.29,443.48,443.67,443.81,443.97,444.12,444.28,444.43,444.62,445.02,445.46,445.88,446.25,446.50,446.74,446.98,447.17,447.17,446.93,446.96,447.26,447.64,447.96,448.33,448.69,448.99,449.23,449.25,449.20,449.10,448.97,448.88,449.19,449.72,450.25,450.73,451.20,451.66,452.11,452.50,452.94,453.20,453.31,453.42,453.68,453.98,454.27,454.56,454.78,454.95,455.10,455.27,455.47,455.59,455.63,455.67,455.77,455.93,456.20,456.55,456.92,457.23,457.57,457.81,457.97,458.12,458.29,458.50,458.84,459.33,459.90,460.38,460.90,461.41,461.65,461.56,461.46,461.39,461.35,461.46,461.70,461.99,462.30,462.61,462.90,463.13,463.27,463.35,463.43,463.44,463.47,463.62,464.13,464.62,465.06,465.49
412.56,412.77,413.01,413.21,413.39,413.60,413.76,413.93,414.12,414.32,414.49,414.69,415.02,415.42,415.77,416.18,416.62,417.05,417.46,417.90,418.31,418.78,419.33,419.84,420.05,420.06,420.03,420.09,420.38,420.81,421.25,421.64,422.03,422.43,422.87,423.29,423.57,423.59,423.57,423.57,423.56,423.56,423.61,423.73,423.89,424.04,424.13,424.17,424.18,424.20,424.20,424.22,424.33,424.48,424.41,424.18,423.88,423.57,423.33,423.60,423.94,424.24,424.51,424.83,425.08,425.36,425.65,425.88,426.19,426.44,426.70,427.00,427.24,427.53,427.73,427.80,427.80,427.73,427.70,427.68,427.60,427.52,427.45,427.39,427.37,427.30,427.26,427.36,427.57,427.81,428.10,428.45,428.80,429.11,429.45,429.95,430.46,430.94,431.48,431.95,432.46,432.98,433.44,434.01,434.56,435.05,435.50,435.95,436.40,436.87,437.33,437.80,438.25,438.67,439.09,439.55,439.95,440.33,440.71,441.08,441.43,441.86,442.01,441.84,441.49,441.22,440.89,440.55,440.27,440.08,439.95,439.86,439.80,439.76,439.77,439.77,439.81,439.87,439.88,439.89,439.93,440.01,440.10,440.18,440.24,440.31,440.42,440.61,440.80,440.98,441.16,441.39,441.56,441.75,441.97,442.14,442.30,442.50,442.75,443.00,443.01,443.12,443.25,443.36,443.51,443.66,443.82,443.98,444.15,444.52,444.88,445.24,445.61,445.91,446.15,446.42,446.66,446.71,446.52,446.45,446.61,446.99,447.31,447.72,448.11,448.41,448.70,448.90,448.93,448.86,448.77,448.69,449.16,449.85,450.39,450.91,451.39,451.86,452.31,452.70,453.09,453.45,453.70,453.80,453.97,453.99,454.06,454.29,454.47,454.63,454.78,454.92,455.04,455.23,455.34,455.43,455.58,455.78,456.07,456.42,456.79,457.09,457.31,457.49,457.64,457.81,458.01,458.49,459.05,459.56,460.00,460.40,460.82,461.18,461.28,461.17,461.07,461.01,461.01,461.03,461.13,461.34,461.65,461.95,462.21,462.44,462.62,462.69,462.77,462.80,462.92,463.28,463.86,464.40,464.92,465.42
412.27,412.47,412.66,412.85,413.04,413.24,413.43,413.62,413.86,414.15,414.42,414.74,415.15,415.60,416.03,416.49,416.95,417.38,417.78,418.24,418.67,419.12,419.59,420.03,420.24,420.26,420.23,420.28,420.56,420.99,421.41,421.80,422.18,422.57,422.94,423.25,423.39,423.38,423.37,423.37,423.37,423.37,423.46,423.57,423.69,423.80,423.86,423.88,423.88,423.88,423.88,423.88,423.95,424.06,423.99,423.77,423.50,423.24,423.12,423.38,423.69,423.97,424.21,424.52,424.76,425.03,425.32,425.56,425.86,426.12,426.38,426.68,426.95,427.22,427.41,427.47,427.47,427.41,427.38,427.35,427.28,427.24,427.16,427.11,427.07,427.03,427.07,427.25,427.50,427.74,428.04,428.39,428.75,429.07,429.41,429.85,430.33,430.84,431.41,431.93,432.45,432.98,433.48,434.02,434.54,435.03,435.49,435.96,436.42,436.88,437.35,437.81,438.31,438.76,439.19,439.65,440.07,440.44,440.81,441.19,441.49,441.73,441.70,441.44,441.10,440.82,440.49,440.19,439.96,439.80,439.68,439.62,439.61,439.61,439.61,439.61,439.62,439.67,439.70,439.71,439.73,439.78,439.85,439.93,439.99,440.04,440.13,440.34,440.55,440.73,440.89,441.08,441.28,441.47,441.67,441.89,442.12,442.37,442.59,442.70,442.62,442.70,442.81,442.91,443.06,443.21,443.37,443.53,443.74,444.06,444.41,444.76,445.10,445.37,445.62,445.87,446.10,446.17,446.05,445.94,446.00,446.36,446.76,447.16,447.52,447.84,448.18,448.46,448.60,448.60,448.54,448.61,449.24,450.01,450.53,451.06,451.55,452.01,452.45,452.84,453.23,453.63,454.00,454.20,454.30,454.22,454.16,454.24,454.27,454.39,454.55,454.68,454.77,454.95,455.09,455.23,455.43,455.65,455.97,456.28,456.56,456.83,456.98,457.12,457.30,457.59,458.00,458.61,459.27,459.80,460.13,460.45,460.73,460.92,460.91,460.78,460.68,460.63,460.63,460.63,460.68,460.81,461.00,461.30,461.55,461.78,461.96,462.01,462.08,462.17,462.43,462.94,463.55,464.14,464.71,465.25
411.92,412.13,412.31,412.51,412.73,412.92,413.16,413.41,413.72,414.10,414.50,414.93,415.38,415.84,416.30,416.75,417.20,417.63,418.04,418.50,418.96,419.39,419.79,420.15,420.36,420.43,420.43,420.47,420.75,421.18,421.61,421.99,422.37,422.73,423.00,423.15,423.15,423.15,423.15,423.15,423.16,423.19,423.30,423.40,423.47,423.54,423.55,423.55,423.55,423.55,423.55,423.55,423.58,423.63,423.57,423.42,423.14,422.88,422.90,423.10,423.37,423.64,423.90,424.19,424.44,424.71,425.00,425.25,425.54,425.80,426.06,426.37,426.67,426.92,427.08,427.14,427.14,427.08,427.05,427.03,426.96,426.95,426.89,426.82,426.76,426.77,426.91,427.15,427.44,427.68,427.97,428.33,428.69,429.01,429.38,429.78,430.25,430.82,431.43,431.98,432.51,433.04,433.56,434.02,434.47,434.93,435.39,435.86,436.33,436.79,437.26,437.73,438.25,438.75,439.22,439.70,440.16,440.51,440.85,441.21,441.50,441.50,441.33,441.08,440.77,440.47,440.17,439.93,439.77,439.62,439.47,439.42,439.47,439.47,439.47,439.47,439.47,439.49,439.55,439.57,439.58,439.60,439.67,439.74,439.78,439.81,439.89,440.09,440.26,440.41,440.56,440.73,440.95,441.16,441.37,441.68,441.98,442.26,442.41,442.32,442.17,442.24,442.36,442.45,442.61,442.76,442.92,443.09,443.32,443.62,443.98,444.33,444.60,444.82,445.06,445.29,445.49,445.57,445.54,445.43,445.42,445.75,446.25,446.63,446.94,447.26,447.64,447.96,448.19,448.31,448.31,448.62,449.39,450.20,450.67,451.19,451.67,452.13,452.58,452.99,453.37,453.80,454.23,454.54,454.61,454.50,454.37,454.27,454.13,454.21,454.35,454.49,454.57,454.72,454.88,455.06,455.28,455.51,455.84,456.11,456.29,456.50,456.61,456.74,456.97,457.42,458.08,458.78,459.44,459.98,460.23,460.44,460.58,460.61,460.54,460.40,460.29,460.23,460.24,460.24,460.29,460.34,460.41,460.67,460.90,461.13,461.29,461.33,461.41,461.60,461.97,462.56,463.18,463.79,464.41,464.96
411.64,411.82,412.02,412.25,412.50,412.78,413.12,413.47,413.83,414.23,414.67,415.08,415.49,415.91,416.37,416.78,417.19,417.61,418.06,418.51,418.98,419.43,419.85,420.17,420.45,420.59,420.63,420.67,420.95,421.38,421.81,422.18,422.50,422.74,422.86,422.90,422.90,422.90,422.90,422.90,422.92,423.03,423.13,423.19,423.20,423.22,423.23,423.23,423.23,423.23,423.23,423.23,423.24,423.26,423.28,423.12,422.87,422.69,422.76,422.86,423.07,423.34,423.62,423.88,424.16,424.43,424.69,424.98,425.23,425.51,425.78,426.04,426.34,426.60,426.76,426.82,426.82,426.76,426.73,426.70,426.64,426.63,426.57,426.50,426.45,426.56,426.79,427.08,427.38,427.61,427.91,428.26,428.63,428.94,429.32,429.75,430.29,430.94,431.55,432.06,432.55,433.03,433.50,433.92,434.29,434.68,435.15,435.66,436.14,436.61,437.07,437.54,438.07,438.60,439.13,439.69,440.11,440.45,440.76,441.09,441.38,441.29,441.04,440.76,440.50,440.20,439.97,439.79,439.64,439.48,439.37,439.31,439.27,439.27,439.27,439.27,439.30,439.34,439.37,439.42,439.45,439.47,439.54,439.57,439.61,439.67,439.75,439.86,439.96,440.08,440.25,440.45,440.72,441.00,441.30,441.65,441.97,442.11,442.06,441.88,441.72,441.78,441.90,442.00,442.15,442.30,442.49,442.69,442.88,443.17,443.53,443.82,443.96,444.07,444.32,444.59,444.80,444.93,444.99,444.94,444.95,445.23,445.68,446.05,446.35,446.68,447.05,447.38,447.67,447.90,448.06,448.78,449.65,450.38,450.86,451.33,451.80,452.27,452.73,453.17,453.56,453.96,454.34,454.64,454.73,454.60,454.42,454.27,454.07,454.06,454.16,454.29,454.38,454.52,454.71,454.91,455.09,455.32,455.58,455.80,455.95,456.13,456.27,456.41,456.70,457.33,458.07,458.82,459.50,459.98,460.13,460.24,460.25,460.17,460.14,460.01,459.87,459.80,459.85,459.85,459.87,459.90,459.98,460.11,460.28,460.45,460.61,460.73,460.91,461.17,461.52,462.00,462.60,463.22,463.84,464.38
411.38,411.58,411.86,412.15,412.46,412.81,413.19,413.57,413.96,414.36,414.82,415.22,415.61,416.02,416.47,416.87,417.25,417.67,418.13,418.56,419.00,419.44,419.87,420.18,420.49,420.71,420.82,420.87,421.14,421.55,421.93,422.25,422.51,422.64,422.68,422.68,422.68,422.68,422.68,422.69,422.73,422.82,422.88,422.90,422.90,422.90,422.90,422.90,422.90,422.90,422.90,422.90,422.90,422.91,422.94,422.79,422.60,422.50,422.58,422.69,422.86,423.07,423.32,423.56,423.85,424.12,424.37,424.67,424.91,425.19,425.48,425.72,426.02,426.27,426.43,426.50,426.50,426.43,426.40,426.38,426.31,426.30,426.25,426.21,426.25,426.43,426.68,426.98,427.27,427.54,427.84,428.20,428.57,428.92,429.33,429.76,430.29,430.92,431.42,431.84,432.26,432.69,433.09,433.50,433.91,434.34,434.81,435.35,435.83,436.31,436.81,437.34,437.90,438.47,439.07,439.68,440.07,440.38,440.68,440.96,441.21,441.08,440.81,440.52,440.29,440.04,439.85,439.71,439.55,439.43,439.32,439.23,439.15,439.12,439.12,439.12,439.14,439.18,439.21,439.25,439.29,439.33,439.37,439.41,439.46,439.53,439.58,439.65,439.75,439.88,440.05,440.30,440.63,440.95,441.27,441.61,441.83,441.82,441.66,441.46,441.31,441.33,441.42,441.54,441.70,441.87,442.07,442.26,442.43,442.71,443.01,443.23,443.31,443.39,443.69,444.02,444.30,444.51,444.69,444.78,444.86,445.03,445.37,445.70,446.01,446.33,446.68,447.00,447.31,447.71,448.43,449.32,450.07,450.65,451.09,451.55,452.01,452.45,452.85,453.25,453.62,453.97,454.30,454.55,454.63,454.55,454.38,454.20,454.00,453.91,453.96,454.10,454.22,454.37,454.55,454.73,454.89,455.09,455.31,455.50,455.63,455.78,455.94,456.11,456.44,457.17,457.91,458.61,459.21,459.63,459.79,459.88,459.82,459.67,459.60,459.49,459.37,459.30,459.34,459.37,459.40,459.47,459.58,459.68,459.81,459.95,460.10,460.23,460.45,460.73,461.07,461.49,462.00,462.59,463.18,463.75
411.18,411.44,411.79,412.17,412.55,412.93,413.32,413.71,414.10,414.50,414.95,415.35,415.74,416.15,416.60,417.00,417.39,417.81,418.25,418.65,419.03,419.45,419.86,420.17,420.48,420.78,420.98,421.05,421.32,421.68,421.99,422.23,422.43,422.47,422.48,422.48,422.48,422.48,422.48,422.50,422.56,422.57,422.57,422.57,422.57,422.57,422.57,422.57,422.57,422.57,422.57,422.57,422.57,422.57,422.57,422.45,422.35,422.32,422.40,422.54,422.70,422.85,423.02,423.24,423.53,423.80,424.04,424.34,424.59,424.87,425.15,425.40,425.70,425.95,426.12,426.17,426.18,426.11,426.07,426.06,425.99,425.98,425.95,425.98,426.16,426.38,426.61,426.87,427.17,427.47,427.78,428.14,428.53,428.91,429.35,429.76,430.23,430.77,431.08,431.39,431.75,432.14,432.50,432.94,433.44,433.95,434.44,435.00,435.49,436.01,436.56,437.17,437.78,438.39,439.03,439.67,440.02,440.33,440.60,440.83,441.02,440.89,440.62,440.34,440.11,439.95,439.79,439.64,439.50,439.41,439.28,439.16,439.08,439.01,438.99,438.98,438.99,439.00,439.06,439.09,439.13,439.18,439.19,439.25,439.34,439.40,439.43,439.49,439.62,439.77,439.94,440.23,440.59,440.94,441.25,441.52,441.57,441.43,441.23,441.07,440.90,440.87,440.94,441.09,441.25,441.46,441.65,441.81,441.99,442.28,442.52,442.69,442.80,442.92,443.29,443.71,444.07,444.36,444.63,444.85,444.99,445.03,445.25,445.54,445.84,446.14,446.46,446.77,447.13,447.79,449.17,450.02,450.54,450.93,451.32,451.75,452.18,452.57,452.90,453.23,453.55,453.86,454.15,454.36,454.39,454.38,454.29,454.09,453.91,453.76,453.77,453.92,454.07,454.22,454.38,454.54,454.69,454.85,455.05,455.20,455.31,455.46,455.61,455.81,456.19,456.94,457.62,458.19,458.66,459.01,459.25,459.37,459.31,459.11,458.97,458.88,458.81,458.76,458.79,458.86,458.94,459.06,459.21,459.36,459.45,459.58,459.70,459.81,460.02,460.29,460.63,461.01,461.42,462.02,462.63,463.28
411.18,411.52,411.90,412.29,412.68,413.06,413.45,413.88,414.29,414.68,415.09,415.48,415.89,416.33,416.74,417.13,417.55,417.98,418.38,418.77,419.15,419.50,419.80,420.11,420.42,420.73,420.99,421.16,421.41,421.68,421.94,422.14,422.21,422.23,422.23,422.23,422.23,422.23,422.23,422.23,422.25,422.25,422.25,422.25,422.25,422.25,422.25,422.25,422.25,422.25,422.25,422.25,422.25,422.25,422.25,422.17,422.14,422.18,422.27,422.41,422.53,422.65,422.81,422.99,423.23,423.47,423.72,424.02,424.27,424.54,424.83,425.07,425.37,425.67,425.83,425.85,425.84,425.79,425.75,425.73,425.66,425.65,425.75,425.95,426.25,426.49,426.68,426.87,427.10,427.41,427.76,428.14,428.51,428.85,429.25,429.64,430.02,430.32,430.49,430.77,431.15,431.59,432.07,432.53,433.04,433.60,434.18,434.82,435.41,435.99,436.60,437.21,437.83,438.45,439.07,439.67,440.01,440.29,440.53,440.73,440.80,440.67,440.45,440.20,439.99,439.86,439.73,439.59,439.49,439.36,439.25,439.13,439.01,438.93,438.83,438.82,438.86,438.86,438.88,438.93,438.97,439.00,439.05,439.13,439.23,439.35,439.40,439.47,439.60,439.76,439.93,440.18,440.53,440.90,441.22,441.35,441.25,441.04,440.83,440.68,440.47,440.41,440.48,440.64,440.84,441.03,441.22,441.42,441.59,441.93,442.29,442.65,442.99,443.29,443.72,444.17,444.56,444.76,444.87,444.95,445.00,445.04,445.28,445.55,445.81,446.07,446.38,446.69,447.37,448.48,449.81,450.42,450.79,451.11,451.39,451.69,451.95,452.27,452.68,453.04,453.36,453.67,453.96,454.16,454.19,454.19,454.14,454.00,453.80,453.63,453.61,453.73,453.88,454.04,454.19,454.34,454.50,454.65,454.75,454.84,454.98,455.13,455.29,455.52,455.93,456.61,457.07,457.51,457.88,458.14,458.38,458.57,458.60,458.47,458.33,458.28,458.26,458.26,458.32,458.45,458.58,458.72,458.88,459.03,459.16,459.28,459.39,459.52,459.70,459.93,460.21,460.56,461.00,461.79,462.74,463.74
411.26,411.65,412.03,412.42,412.82,413.22,413.61,414.04,414.45,414.84,415.22,415.61,416.04,416.48,416.87,417.25,417.69,418.13,418.51,418.87,419.21,419.49,419.73,420.01,420.35,420.65,420.92,421.18,421.41,421.64,421.83,421.96,421.97,421.97,421.98,422.00,422.00,422.00,422.00,422.00,422.00,422.00,422.00,422.00,422.00,422.00,422.00,422.00,422.00,422.00,422.00,422.00,422.00,421.99,421.97,421.94,421.98,422.05,422.14,422.26,422.37,422.49,422.64,422.77,422.96,423.18,423.42,423.70,423.97,424.24,424.51,424.77,425.06,425.36,425.53,425.53,425.53,425.46,425.43,425.41,425.35,425.43,425.66,425.98,426.36,426.64,426.83,427.00,427.19,427.45,427.75,428.07,428.41,428.75,429.13,429.50,429.79,429.97,430.06,430.28,430.68,431.21,431.77,432.30,432.87,433.47,434.10,434.76,435.38,436.01,436.63,437.25,437.86,438.48,439.10,439.67,440.01,440.25,440.44,440.58,440.59,440.47,440.28,440.09,439.91,439.80,439.66,439.53,439.45,439.33,439.22,439.10,438.98,438.87,438.75,438.70,438.70,438.70,438.73,438.77,438.81,438.85,438.95,439.05,439.19,439.32,439.40,439.50,439.62,439.76,439.93,440.18,440.51,440.82,441.03,441.07,440.91,440.69,440.47,440.30,440.14,440.09,440.15,440.30,440.52,440.73,440.97,441.21,441.44,441.75,442.13,442.57,443.05,443.47,443.92,444.40,444.82,444.97,445.00,445.00,445.01,445.06,445.32,445.56,445.81,446.07,446.36,446.81,447.72,448.96,449.95,450.36,450.64,450.92,451.17,451.40,451.66,452.00,452.43,452.81,453.18,453.51,453.78,453.94,453.97,453.97,453.94,453.87,453.70,453.54,453.48,453.53,453.69,453.84,453.99,454.15,454.30,454.40,454.47,454.57,454.71,454.85,455.00,455.19,455.51,456.02,456.36,456.70,457.01,457.24,457.50,457.74,457.84,457.79,457.68,457.68,457.74,457.83,457.94,458.09,458.24,458.40,458.55,458.71,458.86,458.97,459.07,459.23,459.40,459.62,459.87,460.20,460.74,461.66,462.78,463.94
411.39,411.78,412.17,412.56,412.97,413.41,413.80,414.19,414.58,414.97,415.35,415.74,416.17,416.61,417.00,417.39,417.83,418.25,418.61,418.92,419.19,419.42,419.66,419.91,420.26,420.54,420.81,421.10,421.34,421.56,421.69,421.71,421.71,421.71,421.75,421.80,421.80,421.80,421.80,421.80,421.81,421.80,421.80,421.80,421.80,421.80,421.80,421.80,421.80,421.80,421.80,421.80,421.80,421.79,421.73,421.77,421.84,421.92,422.00,422.08,422.21,422.36,422.50,422.59,422.74,422.93,423.15,423.39,423.68,423.94,424.20,424.50,424.74,425.03,425.20,425.20,425.20,425.14,425.10,425.09,425.08,425.32,425.67,426.05,426.44,426.81,427.02,427.22,427.43,427.60,427.78,427.99,428.26,428.62,429.00,429.33,429.57,429.72,429.82,429.98,430.40,431.01,431.62,432.23,432.88,433.53,434.15,434.77,435.39,436.02,436.63,437.25,437.86,438.48,439.09,439.66,440.00,440.20,440.33,440.39,440.39,440.28,440.12,439.98,439.88,439.75,439.60,439.48,439.39,439.31,439.17,439.06,438.97,438.82,438.73,438.61,438.52,438.52,438.57,438.60,438.63,438.72,438.86,439.01,439.16,439.30,439.39,439.53,439.65,439.76,439.93,440.22,440.52,440.69,440.70,440.69,440.56,440.36,440.14,439.96,439.91,439.91,439.96,440.07,440.30,440.59,440.89,441.19,441.48,441.73,442.02,442.42,442.91,443.38,443.84,444.34,444.79,444.96,444.99,445.00,445.02,445.11,445.33,445.56,445.83,446.12,446.39,447.05,448.06,449.11,449.62,449.91,450.15,450.41,450.72,450.97,451.36,451.78,452.17,452.56,453.00,453.37,453.62,453.70,453.71,453.71,453.70,453.68,453.60,453.46,453.35,453.34,453.49,453.65,453.80,453.95,454.09,454.11,454.23,454.37,454.51,454.60,454.75,454.86,455.01,455.27,455.56,455.85,456.12,456.37,456.66,456.91,457.06,457.09,457.03,457.08,457.25,457.44,457.60,457.76,457.92,458.07,458.23,458.38,458.54,458.65,458.75,458.91,459.13,459.36,459.59,459.91,460.55,461.54,462.66,463.81
411.52,411.91,412.34,412.75,413.14,413.55,413.94,414.32,414.71,415.10,415.49,415.91,416.34,416.74,417.13,417.56,417.98,418.35,418.63,418.89,419.13,419.36,419.59,419.83,420.15,420.42,420.68,420.97,421.21,421.37,421.47,421.50,421.51,421.51,421.52,421.55,421.55,421.59,421.61,421.63,421.66,421.62,421.61,421.61,421.61,421.61,421.61,421.61,421.61,421.61,421.61,421.61,421.61,421.60,421.58,421.64,421.72,421.79,421.87,421.95,422.08,422.21,422.32,422.45,422.60,422.74,422.88,423.07,423.36,423.62,423.88,424.18,424.42,424.71,424.88,424.88,424.88,424.81,424.78,424.82,425.02,425.35,425.73,426.13,426.56,426.95,427.23,427.45,427.64,427.84,428.05,428.18,428.29,428.50,428.87,429.16,429.37,429.54,429.72,430.00,430.48,431.09,431.71,432.33,432.97,433.60,434.22,434.84,435.45,436.07,436.68,437.25,437.86,438.48,439.08,439.61,439.90,440.05,440.14,440.20,440.20,440.12,439.99,439.85,439.77,439.67,439.56,439.45,439.33,439.25,439.12,439.00,438.90,438.76,438.66,438.57,438.47,438.38,438.40,438.44,438.48,438.54,438.68,438.84,438.99,439.15,439.33,439.49,439.65,439.80,439.94,440.23,440.42,440.46,440.37,440.31,440.17,440.04,439.90,439.79,439.77,439.81,439.89,440.05,440.32,440.62,440.93,441.24,441.54,441.78,442.07,442.39,442.74,443.20,443.67,444.17,444.63,444.84,444.92,444.96,445.02,445.12,445.33,445.56,445.83,446.14,446.48,446.98,447.79,448.68,449.09,449.43,449.67,449.93,450.32,450.66,451.10,451.52,451.92,452.35,452.77,453.15,453.43,453.50,453.51,453.51,453.49,453.44,453.41,453.32,453.21,453.14,453.30,453.45,453.61,453.76,453.89,453.91,454.02,454.15,454.27,454.39,454.54,454.65,454.75,454.88,455.04,455.19,455.38,455.62,455.88,456.15,456.36,456.44,456.38,456.52,456.76,457.02,457.22,457.43,457.59,457.75,457.90,458.06,458.21,458.35,458.49,458.65,458.87,459.10,459.33,459.63,460.21,461.22,462.39,463.57
411.65,412.05,412.50,412.91,413.30,413.68,414.07,414.45,414.84,415.23,415.62,416.07,416.49,416.87,417.26,417.70,418.07,418.37,418.60,418.83,419.06,419.29,419.52,419.76,420.04,420.30,420.57,420.85,421.08,421.18,421.24,421.28,421.29,421.29,421.30,421.31,421.32,421.39,421.41,421.44,421.49,421.43,421.41,421.41,421.41,421.41,421.41,421.41,421.41,421.41,421.41,421.41,421.41,421.41,421.41,421.48,421.56,421.63,421.71,421.81,421.93,422.05,422.16,422.31,422.45,422.56,422.68,422.83,423.06,423.30,423.56,423.86,424.12,424.39,424.55,424.55,424.55,424.49,424.52,424.69,425.03,425.41,425.81,426.23,426.66,427.05,427.39,427.66,427.86,428.07,428.30,428.42,428.46,428.56,428.85,429.08,429.28,429.47,429.70,430.08,430.61,431.22,431.84,432.46,433.07,433.69,434.31,434.93,435.55,436.16,436.77,437.34,437.95,438.53,439.03,439.44,439.67,439.78,439.86,439.92,439.95,439.89,439.77,439.64,439.58,439.53,439.48,439.40,439.29,439.19,439.07,438.95,438.84,438.72,438.63,438.54,438.43,438.31,438.25,438.28,438.32,438.36,438.49,438.64,438.81,438.99,439.20,439.36,439.56,439.75,439.90,440.15,440.24,440.19,440.07,439.99,439.86,439.77,439.70,439.68,439.71,439.78,439.90,440.08,440.38,440.69,441.00,441.33,441.61,441.85,442.13,442.41,442.67,443.08,443.49,443.96,444.41,444.62,444.74,444.85,444.99,445.14,445.38,445.64,445.91,446.24,446.62,446.99,447.55,448.21,448.57,448.96,449.25,449.58,450.03,450.44,450.89,451.32,451.72,452.18,452.58,452.95,453.23,453.28,453.29,453.29,453.26,453.22,453.21,453.17,453.06,452.98,453.10,453.26,453.41,453.55,453.65,453.70,453.83,453.95,454.05,454.22,454.38,454.49,454.56,454.64,454.72,454.80,454.90,455.07,455.26,455.49,455.69,455.79,455.79,456.00,456.29,456.57,456.81,457.03,457.23,457.40,457.58,457.73,457.89,458.04,458.20,458.38,458.61,458.87,459.16,459.50,460.01,461.01,462.19,463.32
411.79,412.18,412.63,413.04,413.43,413.81,414.20,414.58,414.97,415.36,415.75,416.20,416.62,417.00,417.38,417.77,418.06,418.30,418.53,418.76,419.00,419.23,419.46,419.69,419.93,420.21,420.49,420.72,420.95,421.01,421.02,421.03,421.03,421.03,421.07,421.12,421.13,421.19,421.22,421.25,421.30,421.24,421.22,421.22,421.22,421.22,421.22,421.22,421.22,421.22,421.22,421.22,421.22,421.22,421.23,421.29,421.36,421.45,421.53,421.67,421.77,421.88,422.03,422.18,422.28,422.40,422.55,422.69,422.81,422.99,423.24,423.54,423.84,424.09,424.23,424.23,424.23,424.18,424.36,424.71,425.09,425.47,425.90,426.34,426.73,427.12,427.50,427.84,428.11,428.28,428.50,428.67,428.77,428.81,428.97,429.13,429.32,429.54,429.78,430.19,430.74,431.35,431.97,432.58,433.20,433.82,434.44,435.06,435.67,436.30,436.91,437.52,438.13,438.60,438.93,439.13,439.29,439.39,439.47,439.55,439.61,439.56,439.44,439.32,439.31,439.31,439.30,439.29,439.25,439.12,439.02,438.92,438.79,438.71,438.63,438.51,438.38,438.29,438.16,438.12,438.15,438.23,438.31,438.45,438.64,438.85,439.01,439.17,439.38,439.60,439.80,439.97,439.97,439.90,439.82,439.74,439.65,439.58,439.55,439.63,439.75,439.85,439.96,440.15,440.44,440.75,441.10,441.44,441.68,441.92,442.19,442.48,442.73,443.04,443.37,443.75,444.15,444.33,444.48,444.67,444.91,445.19,445.50,445.81,446.11,446.43,446.81,447.14,447.49,447.85,448.18,448.55,448.96,449.40,449.86,450.31,450.77,451.20,451.60,452.06,452.46,452.80,453.02,453.03,453.03,453.02,453.02,453.01,453.01,453.01,452.92,452.83,452.92,453.06,453.21,453.32,453.36,453.48,453.63,453.75,453.87,454.08,454.24,454.35,454.43,454.50,454.58,454.66,454.72,454.76,454.84,454.94,455.07,455.19,455.28,455.53,455.83,456.12,456.35,456.58,456.81,457.03,457.24,457.40,457.56,457.72,457.89,458.13,458.37,458.70,459.10,459.54,460.04,460.99,462.09,463.06
