825.66,826.38,826.59,826.74,826.88,826.90,826.69,826.20,825.23,823.86,822.21,820.44,817.99,815.38,812.73,810.25,808.82,808.69,809.28,810.62,813.33,816.14,819.07,822.31,825.84,826.98,827.38,827.48,827.30,827.14,827.01,826.88,826.74,826.74,826.68,826.62,826.48,826.15,825.88,825.05,823.78,822.29,821.03,819.16,816.53,813.58,811.14,809.70,811.30,814.36,817.48,819.99,820.66,819.90,818.13,815.96,813.86,811.80,809.61,807.04,804.05,801.19,799.13,798.08,797.32,797.91,798.85,800.11,802.39,805.18,807.61,809.27,809.74,809.11,809.30,810.93,813.72,816.47,818.99,820.80,822.30,823.91,824.80,825.16,825.37,825.56,825.61,825.54,825.46,825.19,824.22,822.31,820.43,819.83,821.12,822.00,821.65,820.76,819.86,819.46,819.35,819.57,819.87,819.89,819.72,819.19,817.96,815.91,813.77,813.05,814.49,816.66,816.37,815.16,813.87,812.64,811.65,811.82,812.68,813.68,814.69,815.79,817.25,818.56,819.82,821.26,822.73,823.63,823.83,823.52,823.90,824.28,824.13,823.58,823.25,823.14,823.07,822.93,822.62,822.16,821.65,821.12,820.55,819.81,818.54,817.23,816.55,817.25,817.67,818.46,819.35,820.06,820.28,820.48,820.61,820.63,820.30,819.18,817.58,815.68,813.61,811.73,810.57,810.12,810.24,810.36,810.33,810.17,810.37,811.79,813.94,816.10,818.18,819.98,820.60,820.91,821.27,821.70,822.04,822.25,821.78,821.37,821.93,822.96,823.96,824.79,825.36,825.59,825.80,825.95,825.96,825.59,824.18,821.63,817.58,812.03,807.12,802.22,798.79,796.63,793.97,791.24,789.46,788.03,786.09,783.72,781.16,779.01,777.62,776.91,775.02,772.34,769.27,766.11,763.05,761.73,761.62,762.11,762.47,762.93,763.35,763.55,763.15,762.00,760.77,759.94,760.00,760.86,762.41,764.13,765.76,767.25,768.34,768.96,769.17,769.02,768.96,768.94,769.00,769.16,769.31,769.81,770.42,771.17,772.38,774.12,775.96,777.74,778.85,777.08,775.62,775.91,778.20,780.81,782.72,785.60
825.98,826.43,826.59,826.69,826.78,826.77,826.59,826.23,825.26,823.83,822.16,820.45,818.09,815.51,812.88,810.46,809.17,808.93,809.50,811.00,813.70,816.45,819.31,822.54,826.15,827.35,827.88,828.14,828.12,827.92,827.72,827.48,827.27,827.32,827.26,827.08,826.76,826.34,825.98,825.22,823.74,821.59,819.63,817.77,815.57,813.18,811.17,810.01,811.93,815.32,818.65,820.97,820.64,819.03,816.89,814.68,812.51,810.38,808.19,805.81,802.97,800.78,799.29,798.40,797.67,797.88,798.59,799.59,800.89,802.86,804.76,806.20,807.04,808.01,809.38,811.53,814.23,816.40,818.27,819.82,821.28,822.85,824.30,824.94,825.24,825.46,825.65,825.82,825.85,825.67,825.13,824.25,822.40,821.21,821.96,822.83,822.13,820.95,819.90,819.39,819.15,819.34,819.64,819.47,818.64,817.58,816.09,814.20,812.97,814.30,816.86,819.11,818.91,816.96,814.97,813.35,812.31,812.22,813.08,814.52,816.28,817.95,819.47,820.62,821.67,822.99,824.17,824.53,824.55,824.58,824.66,824.42,823.96,823.40,822.87,822.51,822.39,822.32,822.08,821.59,821.10,820.62,819.96,818.71,818.30,818.66,819.38,819.98,820.34,820.97,821.71,822.19,821.69,821.83,822.07,821.90,820.69,818.75,816.67,814.65,812.84,811.53,811.38,811.75,812.27,812.57,812.38,811.76,811.35,812.22,814.42,816.86,819.38,821.50,821.52,821.52,821.76,822.13,822.33,822.11,821.64,821.13,820.93,821.91,822.36,823.01,824.15,825.13,825.70,825.98,826.05,825.78,824.47,820.61,815.16,809.38,805.64,802.04,799.24,796.83,793.19,789.91,787.65,785.89,784.02,782.05,779.91,777.59,775.26,773.42,771.61,770.24,769.10,767.51,764.86,763.68,763.36,763.28,763.73,764.06,764.33,764.57,764.69,764.38,763.05,761.35,760.27,760.64,761.39,762.64,764.37,765.69,766.18,766.24,766.19,766.31,766.68,767.18,767.70,768.30,769.29,771.81,773.75,774.46,774.65,776.19,778.00,779.76,780.85,778.69,776.38,776.30,779.05,782.21,785.45,788.78
826.24,826.47,826.54,826.60,826.66,826.65,826.47,826.18,825.19,823.75,822.09,820.36,818.02,815.45,812.82,810.44,809.29,809.07,809.54,810.90,813.67,816.52,819.47,822.78,826.39,827.60,828.28,828.78,828.98,828.76,828.52,828.21,827.95,828.06,827.87,827.47,826.96,826.45,826.05,825.29,823.91,822.00,820.43,819.07,817.24,814.83,812.34,812.10,814.39,817.49,820.04,821.37,820.17,818.05,815.74,813.44,811.22,808.93,806.66,804.56,802.64,801.15,799.92,798.93,798.20,797.93,798.26,799.01,799.93,801.30,803.62,806.12,808.04,809.21,810.61,812.26,814.04,815.67,817.44,819.03,820.37,821.50,822.84,823.91,824.72,825.26,825.48,825.65,825.78,825.87,825.85,825.42,824.22,823.31,823.52,823.77,823.08,822.11,821.22,820.53,819.90,819.56,819.31,818.70,817.56,816.22,814.61,813.11,813.42,815.72,818.29,820.10,820.05,818.72,816.43,814.28,813.11,812.46,813.20,814.83,817.01,819.24,821.00,822.35,823.37,824.08,824.65,824.72,824.66,824.66,824.61,824.20,823.74,823.33,823.00,822.68,822.34,821.96,821.55,821.13,820.72,820.27,819.63,818.77,819.41,820.62,821.77,822.43,822.85,823.35,823.95,824.27,823.31,823.20,822.97,822.04,820.10,818.26,816.68,815.17,813.63,812.60,813.12,814.06,814.82,815.10,814.64,813.77,812.95,812.96,814.55,816.92,819.45,821.52,821.95,821.91,821.98,822.19,822.14,821.75,821.28,820.77,820.24,820.01,819.74,820.51,822.48,824.18,825.18,825.76,826.04,825.86,824.80,821.26,815.83,809.81,806.68,803.86,801.21,798.33,794.12,790.20,787.62,785.80,783.99,782.17,780.23,777.83,775.00,772.57,770.58,769.44,768.80,767.87,766.15,765.23,764.72,764.38,764.83,765.10,765.29,765.49,765.67,765.67,764.71,763.08,761.54,761.81,762.74,763.57,764.05,764.50,764.85,765.23,765.79,766.72,767.28,767.89,768.50,769.18,770.66,774.03,777.00,778.43,778.08,778.76,780.08,781.55,782.23,779.72,777.10,776.76,779.38,782.76,786.33,789.72
826.41,826.47,826.46,826.45,826.50,826.49,826.35,826.09,825.05,823.60,821.94,820.15,817.81,815.26,812.65,810.32,809.34,809.19,809.52,810.67,813.59,816.63,819.73,823.07,826.60,827.79,828.58,829.25,829.64,829.45,829.21,828.88,828.58,828.73,828.44,827.84,827.15,826.57,826.16,825.32,824.03,822.50,821.54,820.75,819.25,816.82,814.01,814.88,817.38,819.89,821.41,821.46,819.55,817.10,814.65,812.24,809.96,807.71,805.62,803.99,803.08,802.13,800.97,799.70,798.86,798.14,798.04,798.53,799.36,800.49,803.44,807.12,810.11,811.15,812.29,813.22,813.95,815.08,816.84,818.39,819.44,819.96,820.88,822.19,823.45,824.36,824.77,825.04,825.34,825.74,826.18,826.02,825.69,825.38,825.15,824.78,824.26,823.69,823.05,822.28,821.37,820.39,819.37,818.22,816.83,815.27,813.59,812.52,814.30,817.07,819.28,820.49,820.59,820.15,817.90,815.39,814.02,812.82,813.21,814.73,817.04,819.69,821.67,823.30,824.42,824.60,824.57,824.57,824.54,824.42,824.29,823.92,823.59,823.41,823.39,823.18,822.60,821.87,821.21,820.79,820.45,819.98,819.47,819.50,821.08,822.75,824.02,824.76,825.28,825.71,826.16,826.31,825.04,824.47,823.56,821.87,819.54,818.19,817.32,816.36,815.02,814.26,815.28,816.61,817.48,817.66,816.94,815.92,814.84,814.03,814.67,816.68,819.01,820.91,822.00,822.13,822.09,822.03,821.70,821.28,820.81,820.20,819.25,817.59,816.96,818.18,820.99,823.12,824.45,825.34,825.83,825.70,824.81,822.15,817.46,811.48,808.42,805.72,802.88,799.58,795.21,790.87,788.07,786.16,784.27,782.51,780.76,778.41,775.41,772.69,770.50,769.22,768.52,767.80,767.00,766.32,765.67,765.22,765.72,766.05,766.26,766.40,766.49,766.55,766.05,764.84,763.15,763.17,764.61,765.33,764.69,764.29,764.59,765.49,766.88,768.64,769.33,769.98,770.60,771.15,772.41,775.82,779.39,781.79,781.80,781.66,782.34,783.35,783.40,780.56,777.87,777.28,779.43,782.75,786.15,789.41
826.29,826.33,826.27,826.21,826.21,826.23,826.21,825.96,824.81,823.26,821.53,819.61,817.29,814.81,812.32,810.15,809.46,809.34,809.56,810.63,813.94,817.24,820.37,823.57,826.83,827.99,828.61,829.14,829.53,829.55,829.37,829.08,828.83,828.92,828.85,828.23,827.42,826.88,826.42,825.36,823.70,821.76,820.61,819.95,818.77,817.08,815.84,817.57,819.59,821.32,822.36,821.30,819.01,816.38,813.70,811.10,808.74,807.30,806.49,805.88,805.23,804.16,802.72,801.06,799.67,798.74,798.35,798.52,799.46,801.19,804.26,807.74,810.68,812.42,813.91,814.83,815.26,815.90,817.22,818.00,818.18,818.15,818.53,819.19,820.02,821.07,822.41,823.45,824.25,824.88,825.39,825.74,826.09,826.24,826.06,825.84,825.63,825.33,824.94,824.50,824.06,822.81,821.03,819.24,817.31,815.35,813.63,812.93,814.94,817.95,820.00,820.83,820.96,820.50,818.88,816.85,815.15,813.82,813.28,813.92,815.80,818.37,820.23,821.95,823.38,823.94,823.90,824.23,824.51,824.43,824.19,823.86,823.78,823.94,824.01,823.73,823.10,822.32,821.52,820.79,820.30,819.75,819.54,820.98,822.84,824.74,826.30,827.10,827.71,828.24,828.52,828.24,826.92,825.41,823.85,822.20,820.45,819.66,818.86,817.70,816.33,816.20,817.60,819.03,819.82,819.89,819.06,817.96,816.84,815.83,815.22,816.39,818.34,820.15,821.34,822.12,822.14,821.56,821.10,820.77,820.26,819.02,816.67,814.52,815.02,817.47,820.76,822.38,823.57,824.50,825.07,824.86,823.64,821.53,818.06,813.19,809.06,804.86,801.30,798.19,794.41,790.63,787.67,785.19,782.84,781.14,779.79,777.88,775.18,772.56,770.46,769.20,768.49,767.75,767.03,766.34,765.68,765.32,766.13,766.88,767.29,767.44,767.56,767.55,767.19,766.25,764.58,763.27,764.89,766.68,767.22,767.03,766.96,767.86,769.62,771.55,772.35,773.39,774.37,774.56,773.50,775.66,778.84,782.00,784.87,785.04,785.24,785.53,784.71,781.58,778.83,777.88,779.23,781.88,784.83,787.87
825.78,825.83,825.75,825.68,825.68,825.75,825.85,825.75,824.62,823.03,821.23,819.20,816.74,814.14,811.74,810.00,809.46,809.43,809.63,810.61,814.03,817.58,820.67,823.65,826.88,828.11,828.83,829.30,829.44,829.43,829.08,828.81,828.80,829.02,828.91,828.33,827.64,827.21,826.67,825.68,823.78,821.23,819.86,819.55,818.95,818.13,818.06,819.61,821.08,822.21,822.67,821.21,818.82,815.96,812.95,810.35,808.83,808.27,808.17,808.00,807.45,806.20,804.40,802.18,800.09,798.95,798.55,798.78,799.87,802.21,805.20,808.23,810.83,812.93,814.57,815.51,815.85,816.20,816.82,816.92,816.56,816.07,816.15,816.67,817.44,818.46,819.82,820.86,821.73,822.53,823.38,824.65,825.73,826.36,826.49,826.58,826.47,826.22,825.88,825.58,825.31,824.36,822.77,820.73,818.69,816.35,814.17,813.18,815.48,818.48,820.38,821.10,821.33,820.80,819.60,818.00,816.24,814.86,813.78,813.72,814.88,816.80,818.31,819.85,821.28,822.18,822.82,823.66,824.34,824.50,824.21,824.01,824.11,824.36,824.41,824.13,823.48,822.67,821.86,821.07,820.36,819.80,820.03,822.49,824.85,826.92,828.50,829.22,829.75,830.12,830.23,829.82,828.50,826.23,824.35,823.06,821.88,821.25,820.19,818.79,817.62,817.65,819.30,820.79,821.47,821.77,821.03,820.07,819.06,817.89,816.71,816.73,817.78,819.49,820.78,821.83,822.10,821.62,820.90,820.24,818.88,816.67,813.77,811.45,812.71,816.08,819.94,821.38,822.51,823.51,824.07,823.50,821.94,819.17,815.46,811.05,806.63,802.29,798.75,795.80,792.51,789.52,786.77,784.11,781.55,779.74,778.29,776.58,774.35,771.87,770.19,769.18,768.51,767.80,767.10,766.43,765.78,765.40,766.08,767.29,768.26,768.71,768.69,768.59,768.54,767.95,766.14,763.80,764.85,767.12,769.03,769.48,769.41,770.05,771.67,774.12,775.77,777.08,777.85,777.48,775.42,776.21,778.44,781.84,787.01,788.02,787.92,787.62,786.64,782.99,779.86,778.27,778.65,780.62,783.31,786.44
824.88,824.98,824.92,824.86,824.94,825.16,825.44,825.55,824.51,822.92,821.08,818.95,816.29,813.48,811.13,809.89,809.42,809.50,809.83,810.88,814.15,817.82,820.80,823.48,826.67,828.13,829.11,829.58,829.40,829.26,828.73,828.48,828.70,829.09,828.84,828.30,827.80,827.46,826.83,826.06,823.99,820.82,819.51,819.76,819.93,819.96,820.52,821.33,822.18,822.74,822.57,821.15,818.83,815.85,812.64,810.25,809.79,809.93,810.10,810.03,809.48,808.09,805.86,802.92,800.17,798.92,798.74,799.28,800.53,803.19,806.00,808.53,810.70,812.87,814.49,815.38,815.66,815.75,815.61,815.32,814.85,814.31,814.45,815.13,815.99,816.88,817.70,818.27,818.91,819.73,820.95,823.13,824.91,826.04,826.57,827.05,826.95,826.62,826.24,825.91,825.62,825.22,824.27,822.28,820.38,817.74,814.96,813.38,815.87,818.76,820.56,821.33,821.71,821.14,820.20,818.94,817.32,815.88,814.53,813.91,814.31,815.54,816.84,818.11,819.27,820.33,821.91,823.25,824.18,824.57,824.33,824.30,824.46,824.67,824.69,824.58,823.98,823.14,822.37,821.66,820.76,820.22,820.84,823.83,826.75,828.94,830.33,830.92,831.29,831.41,831.37,831.02,829.83,827.28,825.40,824.46,823.65,822.91,821.50,819.96,819.09,819.00,820.74,822.23,822.82,823.39,822.87,822.19,821.39,820.08,818.69,817.55,817.54,819.01,820.38,821.47,822.02,821.90,820.91,819.66,817.09,813.85,810.86,808.60,810.36,814.27,818.45,819.99,821.29,822.49,823.03,821.97,819.93,815.99,811.36,806.87,802.56,798.84,795.71,792.94,790.15,787.93,785.57,783.00,780.48,778.53,776.82,775.21,773.49,771.22,770.01,769.24,768.59,767.94,767.25,766.60,765.99,765.53,765.76,767.32,768.94,769.95,769.97,769.86,770.20,770.03,767.97,764.87,764.78,766.92,770.03,771.34,771.69,772.08,773.27,776.13,778.85,780.49,780.95,780.01,777.79,777.34,778.49,781.82,788.51,790.70,790.54,789.81,788.95,784.69,781.04,778.75,778.15,779.39,781.99,785.45
823.34,823.47,823.55,823.59,823.99,824.63,825.32,825.58,824.63,823.07,821.19,819.09,816.34,813.47,811.09,809.85,809.50,809.65,810.55,812.43,815.23,818.41,821.06,823.32,825.77,827.91,829.17,829.61,829.42,829.41,829.27,829.11,829.04,829.22,829.09,828.48,827.75,827.28,826.71,825.95,823.66,820.36,820.20,821.33,822.33,822.89,823.11,823.35,823.31,822.96,822.22,820.88,818.88,816.38,813.81,812.04,811.21,811.09,811.27,811.32,810.74,809.39,806.62,802.62,799.88,798.93,799.18,800.16,801.56,803.49,805.94,808.30,810.21,812.16,813.62,814.28,814.15,813.54,813.01,813.08,813.67,814.64,815.73,816.43,817.07,817.77,818.19,818.31,818.42,818.75,819.77,821.70,823.88,825.55,826.32,827.14,827.19,826.87,826.43,826.03,825.79,825.48,824.72,823.07,821.15,818.59,815.75,813.85,815.90,818.78,820.66,821.54,822.23,821.70,820.84,819.77,818.36,816.77,815.19,814.23,814.39,816.10,818.36,819.68,820.24,820.89,822.82,824.02,824.52,824.57,824.62,824.64,824.67,824.74,824.97,825.69,825.40,824.52,823.71,823.00,822.12,821.56,821.99,824.36,827.53,829.64,830.69,831.27,831.62,831.75,831.72,831.49,830.93,829.62,828.21,826.90,825.74,824.69,823.43,822.20,821.37,821.19,822.68,823.99,824.46,824.80,824.54,824.19,823.61,822.22,820.34,818.82,818.31,819.13,820.41,821.49,822.01,821.82,820.74,818.86,815.78,812.06,808.54,806.58,808.93,812.51,815.60,817.56,819.88,821.70,822.36,820.99,817.79,813.62,808.89,803.83,799.24,795.52,792.57,790.26,788.41,786.43,784.19,781.86,779.72,778.00,776.62,775.36,774.02,772.25,770.75,769.69,768.92,768.20,767.45,766.82,766.26,765.75,765.48,766.61,768.44,770.42,771.88,772.06,772.78,772.92,770.62,767.06,765.26,766.22,769.55,771.82,773.33,774.13,774.86,776.70,779.46,782.09,783.34,782.29,779.92,778.93,779.76,783.04,789.57,793.05,793.63,792.79,791.32,786.69,782.77,780.14,778.95,779.35,782.05,785.95
821.75,821.86,822.36,823.00,823.84,824.70,825.39,825.65,824.82,823.34,821.50,819.54,816.89,813.90,811.30,809.88,809.58,809.75,810.97,813.39,815.98,818.79,821.19,823.21,825.28,827.71,829.12,829.61,829.49,829.52,829.57,829.48,829.31,829.33,829.27,828.59,827.69,827.05,826.50,825.85,824.11,821.73,821.96,823.09,824.02,824.39,824.10,823.80,823.29,822.58,821.65,820.49,819.00,817.22,815.35,813.90,812.76,812.33,812.32,812.16,811.40,810.10,807.12,802.63,799.84,798.95,799.27,800.25,801.42,803.02,805.19,807.38,809.19,811.05,812.10,812.27,811.83,811.57,812.02,813.18,814.82,816.73,818.33,819.14,819.63,819.97,820.09,819.78,819.44,819.33,819.72,820.73,822.89,825.01,826.17,827.25,827.22,826.79,826.30,825.86,825.65,825.36,824.70,823.32,821.42,818.94,816.16,814.11,815.65,818.44,820.44,821.50,822.38,822.29,821.60,820.59,819.31,817.59,815.72,814.49,814.51,816.46,819.40,821.30,822.10,822.52,823.85,824.54,824.69,824.52,824.37,824.26,824.25,824.52,825.38,826.58,826.80,826.27,825.40,824.57,823.77,823.25,823.39,824.85,827.57,829.54,830.62,831.25,831.66,831.88,831.93,831.81,831.60,831.07,830.21,829.16,828.17,827.02,825.80,824.65,823.79,823.51,824.48,825.36,825.68,825.83,825.66,825.43,824.99,823.86,822.01,820.29,819.39,819.73,820.85,821.70,821.90,821.42,820.25,817.67,814.27,810.16,805.82,804.33,806.56,809.52,812.14,815.19,818.77,821.08,821.68,820.25,816.59,812.41,807.74,802.60,798.51,794.38,791.04,788.78,787.39,785.74,783.99,782.18,780.36,778.80,777.63,776.56,775.39,773.87,771.96,770.36,769.20,768.45,767.68,767.07,766.53,765.99,765.48,765.93,767.58,770.13,772.64,773.95,775.28,775.66,773.40,769.51,766.53,766.24,768.84,771.46,773.60,775.15,776.33,777.59,779.97,783.04,785.35,785.66,784.37,783.63,783.99,786.18,791.44,795.18,796.46,795.73,793.08,788.33,784.47,781.56,779.69,779.52,782.15,786.45
820.34,820.53,821.67,823.19,824.43,825.24,825.63,825.77,825.07,823.70,821.96,820.21,817.76,814.59,811.62,809.97,809.64,809.77,811.07,813.67,816.29,818.94,821.19,823.14,825.16,827.50,828.93,829.51,829.51,829.51,829.50,829.43,829.35,829.29,829.22,828.53,827.56,826.79,826.23,825.79,825.14,824.37,824.26,824.62,824.70,824.35,823.58,822.84,822.28,821.68,820.87,819.95,819.05,818.03,816.81,815.43,814.21,813.57,813.20,812.61,811.57,810.32,807.48,803.02,800.07,799.01,799.08,799.66,800.33,801.93,803.86,805.80,807.62,809.41,810.04,809.82,809.45,810.44,812.78,815.34,817.76,819.88,821.52,822.52,822.96,822.92,822.85,822.21,821.62,821.21,820.82,820.59,822.29,824.58,826.18,827.38,827.05,826.38,825.84,825.41,825.19,824.88,824.27,823.09,821.31,818.88,816.18,814.17,815.28,817.86,819.93,821.21,822.21,822.85,822.41,821.38,820.14,818.32,816.18,814.72,814.63,816.50,819.69,822.46,824.17,824.54,824.70,824.73,824.66,824.38,823.67,823.34,823.45,824.20,825.94,827.28,828.11,828.18,827.29,826.26,825.58,825.14,825.00,825.53,827.26,829.04,830.39,831.09,831.56,831.89,832.06,832.05,831.91,831.62,831.27,830.94,830.59,829.57,828.32,827.10,826.15,825.78,826.05,826.36,826.48,826.50,826.24,825.93,825.56,824.92,823.56,821.76,820.58,820.71,821.54,821.95,821.61,820.69,819.37,816.12,812.50,808.08,802.89,801.92,803.38,805.61,808.47,813.01,817.79,820.44,820.90,819.55,816.13,812.11,807.63,802.98,799.93,795.24,791.16,788.55,787.20,785.98,784.99,783.87,782.26,780.79,779.61,778.52,777.33,775.77,773.42,771.12,769.39,768.69,767.94,767.33,766.79,766.25,765.71,765.43,766.61,769.27,772.31,775.27,777.40,778.02,776.14,772.01,768.41,766.94,768.09,770.49,772.63,775.06,777.42,778.85,780.71,783.71,787.01,789.60,790.32,790.57,790.55,791.16,794.51,797.45,799.10,798.52,794.59,789.70,786.03,782.92,780.40,779.97,782.24,786.66
819.90,821.20,822.80,824.25,825.19,825.75,826.04,826.09,825.41,824.13,822.46,820.74,818.17,814.89,811.80,810.00,809.69,809.80,811.09,813.71,816.34,818.96,821.14,822.95,824.78,827.05,828.34,828.88,829.00,828.96,828.75,828.60,828.55,828.60,828.51,827.91,827.07,826.37,825.89,825.60,825.32,825.01,824.83,824.45,823.77,822.92,822.20,821.67,821.16,820.56,819.84,819.11,818.27,817.42,816.57,815.65,814.71,813.97,813.33,812.54,811.52,810.46,807.92,803.71,800.41,799.32,799.13,799.29,799.75,800.57,801.94,803.57,805.13,806.27,807.55,808.80,810.14,812.16,814.89,817.51,819.77,821.57,823.23,824.23,824.74,824.90,824.91,824.61,824.29,824.01,823.67,823.29,823.75,824.91,826.43,827.40,826.61,825.59,824.96,824.56,824.31,823.88,823.24,822.36,820.96,818.62,815.96,814.13,815.51,817.52,819.30,820.74,822.03,823.21,823.02,822.00,820.68,818.94,816.70,815.09,814.83,816.48,819.56,822.66,824.72,824.82,824.81,824.82,824.57,823.88,822.95,822.93,823.51,824.67,826.67,828.51,829.48,829.64,829.02,828.00,827.40,827.00,826.79,827.18,828.15,829.40,830.53,831.07,831.41,831.73,831.99,832.16,832.20,832.01,831.71,831.40,831.12,830.58,829.76,828.81,827.91,827.50,827.40,827.31,827.09,826.76,826.28,825.87,825.49,824.99,824.01,822.43,821.48,821.80,821.99,821.54,820.68,819.44,817.52,814.15,810.39,805.95,801.09,800.28,800.81,802.51,805.79,810.94,815.77,818.90,819.86,818.11,815.24,811.76,807.98,804.26,801.39,797.14,792.87,789.66,788.63,787.75,787.07,786.23,784.85,783.49,781.98,780.57,779.20,777.25,774.39,771.54,769.44,768.84,768.17,767.59,767.05,766.50,765.92,765.43,766.17,768.43,771.75,775.24,778.02,779.44,778.36,774.18,770.11,767.63,767.47,769.35,770.97,773.54,776.81,779.65,782.05,785.01,788.20,791.11,793.17,795.11,796.68,798.13,800.35,801.71,802.07,801.09,797.78,791.31,787.23,784.30,781.98,781.67,782.68,786.06
820.96,822.73,824.18,825.25,825.84,826.18,826.40,826.39,825.78,824.51,822.77,820.88,818.09,814.69,811.64,810.01,809.75,809.82,811.02,813.53,816.24,818.86,820.97,822.65,824.26,826.22,827.44,828.05,828.21,828.17,827.90,827.70,827.64,827.73,827.62,827.15,826.52,825.97,825.60,825.40,825.14,824.75,824.27,823.37,822.20,821.03,820.21,819.68,819.18,818.55,817.83,817.36,816.77,816.24,815.76,815.10,814.32,813.54,812.79,812.06,811.29,810.37,808.17,804.46,801.18,799.81,799.28,799.17,799.49,799.84,801.00,802.54,804.02,805.38,807.35,809.53,811.74,814.15,816.74,819.04,820.90,822.25,823.67,824.60,825.20,825.60,825.82,826.02,826.18,826.22,825.96,825.61,825.38,825.82,827.08,827.31,826.00,824.62,823.75,823.29,823.07,822.64,822.03,821.33,820.16,817.93,815.65,814.68,816.85,818.35,819.56,820.80,822.19,823.59,823.62,822.69,821.26,819.50,817.18,815.46,815.11,816.68,819.31,822.25,824.44,824.69,824.63,824.39,823.89,823.08,822.35,822.77,823.74,825.13,827.23,829.30,830.28,830.47,830.21,829.52,829.06,828.71,828.50,828.80,829.30,830.05,830.79,831.14,831.37,831.66,832.01,832.36,832.53,832.38,832.06,831.66,831.31,830.98,830.31,829.41,828.56,828.04,827.78,827.49,827.05,826.52,825.99,825.49,824.97,824.32,823.58,822.43,821.85,822.21,821.93,820.89,819.43,817.70,815.61,812.83,809.64,805.42,800.27,799.28,799.38,801.11,804.92,810.05,814.47,817.68,818.92,816.93,814.29,810.40,806.44,803.36,801.21,798.28,794.81,791.71,790.72,789.81,789.20,788.54,787.39,785.98,784.19,782.50,780.92,778.65,774.65,771.27,769.17,768.42,768.05,767.57,767.03,766.53,766.00,765.47,766.00,768.02,771.46,775.21,778.51,780.50,779.75,775.70,771.53,768.60,767.59,768.57,769.67,771.89,775.17,778.71,781.31,784.20,787.62,791.39,794.47,797.60,800.55,803.04,804.56,804.95,804.46,803.20,800.41,793.63,788.91,786.13,784.86,784.69,784.49,786.33
823.54,824.82,825.41,825.96,826.30,826.52,826.67,826.66,826.17,824.87,822.89,820.69,817.67,814.19,811.28,810.03,809.81,809.88,810.93,813.22,816.02,818.61,820.63,822.19,823.58,824.97,826.21,827.00,827.16,827.16,827.03,826.89,826.81,826.81,826.69,826.36,825.97,825.64,825.38,825.18,824.66,823.69,822.63,821.44,820.16,818.86,817.63,816.71,816.12,815.46,814.67,814.54,814.53,814.61,814.57,813.87,813.05,812.24,811.57,811.14,810.81,809.91,807.99,805.03,802.24,800.38,799.50,799.33,799.54,799.96,801.37,803.11,804.81,807.39,809.83,811.86,813.62,815.63,817.71,819.53,820.97,821.91,822.79,823.60,824.27,824.80,825.34,826.10,826.88,827.38,827.15,826.88,826.76,827.20,828.05,827.06,825.27,823.63,822.49,821.82,821.56,821.22,820.71,819.99,818.82,816.74,815.31,815.93,819.29,820.49,820.99,821.65,822.85,824.06,824.23,823.47,821.93,820.00,817.62,815.86,815.48,817.10,818.98,821.27,823.35,824.21,824.05,823.28,822.52,822.09,821.99,822.88,824.04,825.44,827.54,829.45,830.35,830.64,830.72,830.67,830.42,830.16,830.00,830.12,830.46,830.82,831.10,831.29,831.46,831.79,832.22,832.67,832.88,832.74,832.39,831.92,831.39,830.84,829.84,828.72,827.84,827.17,826.94,826.70,826.23,825.68,825.25,824.66,823.84,822.79,822.22,821.76,821.60,821.73,821.27,820.04,817.95,815.48,813.71,812.10,810.22,806.47,800.37,798.88,799.20,801.57,805.97,810.52,814.20,816.98,818.14,816.23,813.36,807.90,802.58,799.67,798.95,798.08,796.42,794.36,793.10,791.86,791.14,790.57,789.59,787.95,785.98,784.09,782.27,779.75,774.09,770.20,768.46,767.40,767.51,767.18,766.65,766.26,765.92,765.49,766.11,768.22,771.73,775.66,779.31,781.43,780.31,776.60,772.79,769.99,768.62,768.38,769.07,770.57,772.89,776.06,778.29,781.07,785.25,790.75,794.49,797.99,801.62,804.84,806.15,806.51,806.08,804.80,802.01,796.75,791.38,788.67,789.16,789.11,788.00,788.09
825.20,825.92,826.08,826.35,826.60,826.82,826.99,827.02,826.55,825.45,823.71,821.38,818.97,815.73,812.39,810.16,809.82,810.23,811.51,813.69,816.06,818.29,820.05,821.40,822.49,823.38,824.53,825.51,825.94,825.93,825.91,826.03,826.23,826.22,826.09,825.85,825.59,825.42,825.23,824.76,823.50,821.53,820.26,818.74,817.69,816.78,815.07,813.43,812.56,812.02,811.53,811.49,811.97,812.51,812.82,812.60,811.83,810.95,810.21,809.77,809.46,808.30,806.29,803.65,801.26,800.08,799.61,799.50,799.67,800.28,801.87,803.80,805.68,807.96,810.35,812.22,813.58,814.94,816.19,817.75,819.36,820.52,821.15,821.62,822.08,822.68,823.72,825.22,826.52,827.41,827.89,828.09,828.13,828.17,827.95,826.32,824.75,823.95,823.67,822.60,821.07,820.00,819.20,818.20,817.08,815.60,815.32,817.19,820.33,822.02,822.97,823.60,824.12,824.71,824.77,824.05,822.38,820.41,818.37,816.66,815.86,816.95,818.38,819.92,821.18,821.68,821.58,821.27,821.24,821.71,822.41,823.52,824.80,826.22,828.04,829.71,830.53,830.83,830.96,830.96,830.83,830.71,830.70,830.82,831.01,831.15,831.26,831.44,831.75,832.16,832.58,832.93,833.03,832.83,832.43,831.73,830.42,829.18,827.96,826.90,826.19,825.61,825.45,825.34,825.00,824.12,823.15,822.01,820.84,820.00,820.23,820.81,821.24,821.15,820.24,818.78,816.43,813.46,810.76,808.56,806.84,804.23,800.00,798.52,799.03,801.73,806.30,810.46,813.29,815.69,817.00,815.45,812.52,805.85,799.57,796.80,796.09,795.74,795.16,794.38,793.81,793.34,792.71,791.87,790.70,788.88,786.39,783.94,781.56,778.23,772.84,768.77,766.84,766.85,767.01,766.52,765.92,765.64,765.43,765.66,766.79,769.27,773.65,778.09,781.77,783.39,781.49,778.50,775.24,772.20,769.88,769.20,769.52,770.97,773.40,776.52,779.06,781.80,785.69,790.81,794.18,797.57,801.41,805.09,806.94,807.96,807.79,806.51,803.94,799.69,794.99,792.75,793.72,794.26,792.72,792.38
826.37,826.68,826.65,826.73,826.91,827.13,827.33,827.39,826.96,826.09,824.64,822.33,820.40,817.31,813.50,810.28,809.82,810.44,811.88,813.99,815.97,817.75,819.20,820.31,821.03,821.53,822.41,823.33,823.88,823.91,824.07,824.46,824.95,825.16,825.17,825.23,825.29,825.24,825.13,824.61,822.98,820.50,819.22,817.80,817.12,816.63,814.93,812.64,811.23,810.47,810.04,809.77,810.00,810.45,810.92,811.18,810.57,809.66,808.76,808.06,807.52,806.26,804.53,802.60,800.86,800.36,800.02,799.68,799.82,800.65,802.34,804.37,806.33,808.17,810.22,811.82,812.85,813.77,814.71,816.33,818.26,819.72,820.23,820.38,820.55,821.07,822.50,824.52,826.13,827.27,828.27,828.89,829.14,828.81,827.57,825.61,824.63,824.72,825.11,823.74,821.28,819.71,818.79,817.60,816.18,815.00,815.46,818.03,820.80,822.93,824.35,825.08,825.14,825.25,825.15,824.39,822.66,820.70,818.98,817.38,816.27,816.76,817.82,818.72,819.31,819.57,819.73,820.02,820.70,821.84,823.07,824.35,825.72,827.18,828.73,830.05,830.71,830.97,831.08,831.02,830.91,830.88,830.97,831.13,831.24,831.31,831.41,831.67,832.09,832.50,832.84,833.01,832.86,832.41,831.70,830.56,828.58,826.72,825.29,824.23,823.51,823.11,823.14,823.18,822.88,821.80,820.01,818.02,816.34,815.80,816.99,818.94,820.31,820.27,819.12,817.47,815.13,812.14,808.86,805.53,803.30,801.43,799.28,798.17,798.92,801.75,806.10,809.49,811.62,813.96,815.75,814.72,811.42,803.93,797.00,794.01,793.01,792.78,792.79,792.93,793.19,793.53,793.22,792.35,791.05,788.98,785.88,782.58,779.25,775.25,771.00,767.57,765.79,766.52,766.47,765.95,765.51,765.48,765.46,766.24,767.79,770.56,775.58,780.18,783.74,785.14,783.26,781.12,778.38,775.09,771.87,770.60,770.45,771.75,774.23,777.33,780.13,783.01,786.69,791.26,794.51,797.82,801.47,805.06,807.46,809.03,809.15,808.03,805.75,802.37,798.84,797.29,798.30,799.13,797.50,796.94
827.05,827.22,827.27,827.24,827.33,827.52,827.71,827.72,827.40,826.71,825.47,823.37,821.35,818.11,814.04,810.38,809.83,810.29,811.59,813.65,815.51,816.86,817.97,818.81,819.08,819.35,819.75,820.17,820.50,820.66,821.11,821.71,822.41,823.18,823.60,824.37,825.07,825.12,825.11,824.96,823.86,821.85,820.78,820.20,819.94,819.73,818.91,816.25,813.94,812.36,811.44,810.50,809.26,808.69,808.98,809.53,809.22,808.38,807.27,806.07,805.05,804.13,803.45,802.99,802.38,802.05,801.08,799.90,799.94,800.99,802.71,804.65,806.55,808.28,809.75,810.89,811.74,812.71,814.38,816.56,818.79,820.46,820.96,820.93,820.77,820.98,822.52,824.56,826.17,827.29,828.26,829.03,829.53,829.08,827.18,825.24,825.16,825.75,825.98,824.57,822.28,820.97,820.32,819.21,816.91,815.35,815.67,818.13,820.80,822.94,824.44,825.30,825.49,825.54,825.27,824.40,822.72,820.82,819.22,817.79,816.74,816.78,817.43,817.99,818.45,819.08,819.78,820.48,821.40,822.61,823.85,825.25,826.74,828.25,829.65,830.49,830.87,831.01,831.08,831.01,830.84,830.74,830.79,831.00,831.16,831.34,831.61,832.01,832.41,832.70,832.87,832.79,832.20,831.18,829.73,827.88,825.67,823.42,821.74,820.44,819.38,819.13,819.55,819.73,819.33,818.39,815.60,812.44,810.02,809.72,811.92,815.61,818.41,818.88,817.93,816.23,814.21,811.98,809.25,804.66,801.18,799.08,798.12,797.80,798.92,801.59,805.13,807.10,808.90,811.78,814.49,814.06,809.83,802.15,794.97,791.11,789.87,789.60,789.64,789.98,790.91,791.68,791.99,791.69,790.45,787.99,784.26,779.79,775.00,770.88,768.45,766.90,766.11,766.38,765.88,765.65,765.82,766.27,766.56,767.44,769.09,771.95,776.82,780.90,784.18,786.10,785.83,784.59,782.16,778.76,774.95,772.63,771.82,772.50,774.45,777.47,780.16,783.40,787.38,791.96,796.00,799.44,802.44,805.19,807.87,809.48,809.89,809.17,807.21,804.68,802.63,801.98,802.77,803.14,801.80,800.89
827.61,827.81,827.91,827.86,827.83,827.88,828.01,828.04,827.72,827.16,826.18,824.19,821.82,818.61,814.84,811.30,810.08,810.13,811.24,813.03,814.03,815.13,816.32,817.28,817.47,817.63,817.97,818.40,818.80,819.10,819.58,820.13,820.82,821.88,823.13,824.28,825.02,825.09,825.10,825.04,824.33,822.91,821.84,821.27,820.88,820.49,819.85,817.80,815.77,814.09,812.81,811.59,810.00,808.70,808.00,807.99,807.75,807.25,806.61,806.04,805.96,805.84,805.81,805.85,805.53,804.63,803.04,801.25,800.34,801.06,802.69,804.53,806.20,807.78,809.25,810.60,811.97,813.73,816.05,818.47,820.74,822.55,823.20,823.34,823.21,823.08,823.72,825.44,826.98,828.01,828.65,829.37,829.79,829.37,827.81,826.47,826.74,826.86,826.10,824.66,822.95,821.82,821.04,819.86,817.25,815.60,815.74,817.80,820.32,822.45,824.13,825.30,825.68,825.64,825.21,824.24,822.56,820.81,819.42,818.19,817.25,817.19,817.85,818.56,819.18,819.77,820.48,821.27,822.22,823.40,824.68,826.17,827.78,829.28,830.20,830.67,830.87,830.98,831.02,830.92,830.81,830.77,830.85,831.08,831.36,831.63,831.89,832.14,832.34,832.47,832.48,832.17,831.12,829.55,827.65,825.50,823.07,820.08,817.24,814.91,813.54,813.24,813.60,814.12,814.48,814.09,811.45,807.95,805.17,805.38,809.47,813.70,816.48,817.03,816.00,814.53,813.09,811.76,810.13,806.23,802.03,798.89,797.76,797.56,798.82,800.63,802.44,803.91,806.77,810.86,814.17,813.33,809.05,802.34,795.47,790.33,788.33,786.84,786.32,787.00,788.71,790.43,791.11,790.62,788.74,785.52,781.34,776.55,771.79,768.79,766.93,766.22,766.12,765.84,765.74,766.07,766.67,767.31,767.74,768.54,770.29,773.25,777.40,781.13,784.48,787.06,788.15,787.88,784.90,780.64,776.54,774.71,773.70,773.41,774.12,776.50,778.73,781.35,785.06,790.13,794.74,798.57,802.14,805.63,808.71,809.90,810.18,809.86,808.83,807.40,806.26,805.91,806.26,805.90,804.53,803.31
827.87,828.23,828.37,828.32,828.18,828.12,828.20,828.28,827.96,827.51,826.74,824.92,822.33,819.36,816.10,812.74,810.44,810.00,810.78,812.06,812.26,813.31,814.77,816.06,816.50,816.81,817.25,817.77,818.25,818.65,819.21,819.79,820.46,821.58,823.31,824.46,824.94,824.93,824.91,824.74,824.16,823.15,822.10,821.45,820.85,820.21,819.48,818.10,816.52,814.93,813.41,812.03,810.46,808.82,807.47,807.10,806.93,806.74,806.63,806.89,807.84,808.44,808.81,808.99,808.74,807.29,805.27,803.08,801.23,801.16,802.52,804.27,805.77,807.28,808.88,810.62,812.63,815.13,817.86,820.34,822.56,824.46,825.27,825.74,825.83,825.55,825.53,826.85,828.14,828.92,829.22,829.76,830.00,829.70,828.78,828.11,828.27,827.64,825.97,824.50,823.25,822.19,821.20,819.92,817.40,816.27,816.54,817.98,819.80,821.70,823.57,825.14,825.80,825.72,825.13,824.03,822.38,820.75,819.55,818.50,817.68,817.69,818.43,819.36,820.16,820.71,821.35,822.13,823.07,824.15,825.43,826.95,828.58,829.98,830.52,830.74,830.84,830.91,830.95,830.85,830.81,830.86,830.99,831.24,831.57,831.87,832.07,832.12,832.10,832.02,831.81,831.20,829.74,827.74,825.55,823.19,820.31,816.53,812.68,809.52,807.73,807.07,807.16,807.79,808.66,808.79,806.95,803.87,801.31,802.20,808.11,812.44,814.71,815.12,813.90,812.48,811.38,810.67,809.87,806.93,802.69,798.99,797.52,797.18,798.39,799.47,800.04,801.63,805.63,810.73,814.24,812.39,808.35,802.98,796.88,790.99,788.05,785.09,783.50,783.88,786.10,788.73,789.64,788.76,786.23,782.42,778.05,773.44,769.28,767.34,765.94,765.70,765.99,765.59,766.03,766.83,767.69,768.43,768.97,769.62,771.32,774.18,777.57,781.00,784.63,787.95,790.07,790.43,786.87,781.95,777.86,777.01,775.95,774.79,774.26,775.53,777.29,779.35,782.86,788.40,793.25,797.35,801.66,806.13,809.43,810.23,810.35,810.35,810.15,809.66,809.11,808.84,808.69,807.65,806.22,804.82
827.48,828.18,828.36,828.32,828.15,828.05,828.15,828.33,828.11,827.67,826.95,825.54,823.36,821.03,818.37,814.90,810.92,809.92,810.09,810.36,810.48,811.88,813.79,815.65,816.98,818.01,818.64,819.07,819.43,819.83,820.82,821.82,822.64,823.38,824.39,824.77,824.65,824.37,824.22,823.62,822.63,821.46,820.63,820.28,819.76,818.95,817.92,816.62,815.13,813.57,812.02,810.46,809.03,807.90,807.34,807.85,807.93,807.78,807.83,808.54,809.68,810.47,810.88,810.97,810.85,809.47,807.50,805.33,803.25,801.58,802.26,803.99,805.60,807.24,808.88,810.91,813.41,816.00,818.49,820.80,822.95,824.86,825.75,826.73,827.28,827.31,827.99,829.00,829.61,829.78,829.91,830.09,830.20,830.15,829.89,829.61,828.87,827.53,825.77,824.24,822.86,821.64,820.49,819.14,817.30,818.09,819.40,819.79,819.54,820.69,822.68,824.74,825.85,825.85,825.06,823.82,822.30,820.69,819.53,818.58,817.91,818.11,818.85,819.75,820.63,821.40,822.16,822.98,823.85,824.79,825.97,827.34,828.69,829.82,830.50,830.74,830.81,830.84,830.91,830.89,830.88,830.95,831.12,831.41,831.67,831.81,831.85,831.85,831.74,831.39,830.72,829.59,827.89,825.74,823.48,820.86,816.98,812.44,808.73,805.75,803.30,801.68,801.22,801.17,801.27,801.57,801.34,800.07,798.96,800.73,807.66,811.79,813.41,813.37,811.91,809.86,808.27,807.30,806.25,803.52,800.59,798.25,796.98,796.31,797.16,798.36,799.71,802.28,806.65,811.74,814.57,811.00,807.28,803.31,798.77,793.79,789.88,785.70,782.14,780.40,782.32,785.40,786.31,785.15,782.50,778.77,774.80,771.02,767.82,765.84,765.56,765.56,765.66,766.36,767.13,767.93,768.75,769.56,770.28,770.69,771.95,774.26,777.13,780.35,784.50,788.63,791.12,791.13,787.64,783.08,779.63,779.87,778.76,777.30,776.04,775.43,776.90,779.34,783.26,788.88,793.24,797.10,801.66,806.55,809.56,810.29,810.54,810.68,810.57,810.36,810.07,809.70,809.05,807.71,806.30,805.14
826.36,827.45,827.94,827.98,827.86,827.78,827.85,828.02,827.90,827.57,826.95,825.71,823.44,821.13,818.75,815.77,811.54,810.12,809.91,810.01,810.43,812.29,814.25,816.03,817.81,819.19,819.99,820.62,821.34,822.09,822.97,823.66,824.12,824.45,824.85,824.74,824.24,823.57,822.97,822.27,821.16,819.68,818.60,818.23,817.86,817.20,816.14,814.96,813.62,812.18,810.65,809.07,808.48,808.48,808.83,809.34,809.43,809.25,809.25,809.98,811.05,812.05,812.60,812.54,812.00,810.60,808.79,806.81,804.72,802.67,802.52,803.65,805.35,807.05,808.75,810.83,813.31,815.81,818.10,820.12,822.04,823.92,825.06,826.29,827.44,828.38,829.22,829.84,830.12,830.15,830.20,830.27,830.35,830.37,830.27,830.03,828.95,827.34,825.52,823.94,822.48,821.13,819.70,818.23,818.14,819.76,821.46,822.14,821.73,821.68,822.80,824.66,825.97,825.81,824.83,823.50,822.05,820.52,819.55,818.77,818.23,818.53,819.19,819.96,820.74,821.56,822.37,823.23,824.12,825.05,826.15,827.31,828.34,829.20,829.85,830.15,830.30,830.48,830.75,830.88,830.95,831.08,831.29,831.52,831.69,831.84,831.98,832.03,831.75,830.75,829.33,827.68,825.97,824.05,821.43,817.89,813.38,809.52,806.27,803.45,801.12,799.77,799.15,798.62,798.13,798.29,798.27,797.67,797.35,799.38,805.48,809.92,811.96,811.61,809.73,806.82,804.49,803.10,802.13,800.33,798.43,796.75,795.64,795.93,797.22,798.93,801.07,804.12,808.10,812.13,813.80,809.73,806.14,802.54,798.67,794.48,790.49,785.92,781.62,778.82,779.72,782.29,782.81,781.27,778.33,774.68,771.72,768.98,766.51,765.38,765.30,765.59,766.16,767.22,768.16,769.24,770.52,771.93,772.91,773.16,773.55,774.56,776.57,779.08,782.94,787.46,791.28,792.39,789.67,786.30,784.14,783.81,781.67,779.34,777.41,776.25,777.20,779.81,784.06,789.57,793.27,796.62,801.00,806.05,809.49,810.31,810.54,810.69,810.63,810.46,810.08,809.41,808.38,807.05,805.78,804.78
824.94,826.34,827.21,827.43,827.36,827.30,827.43,827.58,827.56,827.31,826.74,825.50,823.04,820.59,818.36,815.98,812.03,810.36,810.11,810.62,811.44,813.36,815.14,816.74,818.61,820.12,821.09,822.00,823.15,824.26,824.85,825.07,825.08,825.08,825.00,824.57,823.82,822.84,821.79,821.05,819.84,817.97,816.48,815.93,815.67,815.24,814.27,813.21,812.00,810.72,809.42,808.13,808.50,809.63,810.75,811.07,811.12,810.94,810.92,811.53,812.44,813.53,814.11,813.80,812.68,811.19,809.54,807.77,805.83,803.87,802.96,803.37,805.10,806.79,808.54,810.56,812.87,815.19,817.32,819.07,820.71,822.49,823.87,825.25,826.93,828.78,829.78,830.11,830.23,830.30,830.33,830.40,830.47,830.49,830.37,830.06,828.86,827.15,825.28,823.66,822.20,820.77,819.15,817.59,819.10,821.06,822.88,824.24,824.36,823.38,823.53,824.91,826.15,825.67,824.46,823.08,821.70,820.31,819.57,818.98,818.54,818.88,819.43,820.04,820.71,821.50,822.35,823.25,824.16,825.08,826.10,827.02,827.76,828.36,828.95,829.28,829.55,829.92,830.46,830.80,831.00,831.20,831.40,831.52,831.57,831.75,832.01,832.03,831.34,829.68,827.67,825.77,824.16,822.56,819.49,814.93,810.17,807.42,804.94,802.50,800.56,799.82,799.12,798.13,797.07,796.75,796.36,795.91,796.03,798.09,802.61,807.22,809.92,809.51,807.15,803.62,800.74,799.01,798.25,797.38,796.25,795.04,794.41,795.97,797.92,800.28,803.18,806.41,809.85,812.32,812.41,808.42,804.80,801.15,797.46,793.79,790.16,785.72,781.32,778.00,777.49,779.08,778.99,777.13,774.15,770.91,769.03,767.29,765.54,765.32,765.26,765.87,766.98,768.14,769.37,771.02,772.97,774.88,775.97,776.09,775.67,775.35,776.26,777.90,780.98,785.52,790.96,793.74,792.54,790.83,789.98,788.50,784.86,781.26,778.56,777.29,777.69,780.31,784.66,789.88,792.96,795.86,799.91,805.00,809.26,810.26,810.44,810.54,810.50,810.32,809.65,808.61,807.34,806.11,805.01,804.11
823.40,824.75,825.90,826.63,826.45,826.38,826.94,827.13,827.15,826.88,826.13,824.52,822.19,819.86,817.71,815.53,811.95,810.37,810.85,812.74,813.86,814.37,815.72,817.58,818.85,820.23,821.40,822.51,823.70,824.74,825.14,825.23,825.18,825.15,824.94,824.35,823.53,822.62,821.61,820.60,818.97,816.67,814.78,813.92,813.53,813.17,812.42,811.39,810.13,809.09,808.65,808.56,809.48,810.84,812.15,812.76,812.82,812.89,813.16,813.74,814.48,815.20,815.33,814.54,812.97,811.32,809.63,807.95,806.29,804.59,803.34,803.30,804.91,806.54,808.25,810.17,812.30,814.39,816.43,818.13,819.61,821.06,822.49,823.94,825.69,827.78,829.62,830.08,830.20,830.33,830.44,830.53,830.60,830.60,830.44,830.13,828.84,827.06,825.15,823.54,822.19,820.94,819.51,818.10,819.32,821.21,823.16,824.83,825.39,825.00,825.12,825.88,826.44,825.31,823.86,822.47,821.23,820.11,819.52,819.08,818.77,818.97,819.42,819.96,820.60,821.44,822.34,823.22,824.03,824.80,825.63,826.35,826.91,827.39,827.96,828.17,828.52,829.10,829.87,830.58,830.96,831.18,831.32,831.28,831.10,831.19,831.34,830.87,829.07,827.13,825.48,824.19,822.81,821.38,817.90,812.78,808.60,806.72,805.59,804.30,802.66,802.24,801.17,799.58,797.80,796.33,795.27,794.59,794.80,796.78,799.60,803.27,806.01,806.22,803.45,800.39,797.93,796.34,795.76,794.97,794.01,793.59,794.58,796.89,799.18,802.13,805.76,808.74,812.06,812.54,810.33,806.76,802.92,798.97,794.94,791.09,788.24,784.59,780.81,777.40,775.10,775.17,774.25,772.38,770.50,768.81,767.47,766.34,765.50,765.37,765.92,766.82,767.88,769.11,771.26,774.22,776.84,778.25,778.88,778.84,778.29,777.49,777.04,777.76,779.48,783.27,790.03,794.72,796.63,797.31,796.98,794.40,788.86,783.41,779.43,777.94,777.96,780.23,784.07,788.56,791.43,794.38,798.26,803.27,808.73,810.03,810.19,810.22,810.20,810.10,808.95,807.55,806.31,805.13,804.13,803.27
822.01,823.23,824.26,824.88,824.94,825.17,825.96,826.34,826.46,826.07,825.06,823.42,821.34,819.09,816.86,814.59,811.39,810.17,810.92,813.11,814.93,815.53,816.65,818.18,819.12,820.25,821.39,822.54,823.72,824.75,825.18,825.28,825.24,825.17,824.77,824.02,823.12,822.23,821.32,820.26,818.57,816.17,813.75,812.17,811.44,811.13,810.57,809.76,809.37,809.35,809.59,809.95,810.75,811.85,813.09,814.11,814.68,815.11,815.55,816.08,816.72,816.95,816.36,814.84,812.94,811.27,809.60,807.90,806.29,804.70,803.54,803.52,805.05,806.63,808.23,810.04,812.02,813.83,815.25,816.59,817.92,819.30,821.03,822.57,824.20,826.19,828.43,829.48,829.96,830.22,830.40,830.55,830.70,830.71,830.51,830.19,829.03,827.22,825.14,823.50,822.16,820.92,819.65,818.59,819.40,821.13,823.13,824.94,825.98,826.22,826.48,826.73,826.27,824.86,823.37,821.97,820.73,819.90,819.47,819.16,818.98,819.16,819.49,819.95,820.55,821.38,822.26,823.03,823.69,824.28,824.97,825.58,826.03,826.39,826.85,827.07,827.57,828.32,829.24,830.15,830.70,831.03,831.19,831.11,830.78,830.51,829.89,828.27,826.55,825.37,824.90,824.82,823.47,821.74,817.98,812.78,808.91,808.17,807.96,807.25,805.96,805.64,803.67,801.00,798.55,797.43,796.22,794.64,793.77,795.35,797.36,800.07,802.41,803.07,800.63,797.74,795.31,793.70,793.17,792.51,792.14,792.73,794.95,797.77,800.88,804.53,808.35,810.73,812.56,811.60,808.55,805.23,801.48,797.87,794.24,790.62,787.70,784.18,780.65,777.31,774.22,772.72,771.24,769.68,768.39,767.32,766.64,766.35,766.37,766.39,766.93,767.79,769.14,771.57,775.02,778.32,780.63,781.56,782.15,782.08,781.24,779.80,778.42,778.42,779.62,782.89,789.17,794.53,798.06,799.89,799.68,796.83,790.72,784.60,780.16,778.75,778.55,780.14,783.14,786.94,789.67,792.92,796.93,801.79,807.18,808.98,809.25,809.12,809.01,808.68,807.50,806.21,805.17,804.18,803.32,802.50
820.44,821.70,822.29,822.71,823.23,823.92,824.76,825.31,825.50,824.90,823.61,822.13,820.38,818.23,815.85,813.38,810.78,809.99,810.61,812.44,815.13,816.52,817.61,818.64,819.45,820.30,821.30,822.40,823.54,824.58,825.11,825.30,825.28,825.15,824.52,823.61,822.62,821.69,820.83,819.73,818.10,815.79,813.00,810.74,809.75,809.58,809.17,808.57,809.34,810.55,811.34,811.80,812.23,812.89,813.89,815.19,816.40,817.24,817.83,818.34,818.89,818.57,817.22,814.98,812.81,811.09,809.38,807.65,806.10,804.59,803.70,803.85,805.25,806.76,808.24,809.92,811.72,813.11,813.71,814.56,815.77,817.26,819.27,820.95,822.49,824.24,826.70,828.46,829.48,829.99,830.26,830.49,830.71,830.78,830.57,830.26,829.37,827.61,825.28,823.55,822.14,820.81,819.65,819.01,819.47,821.00,822.93,824.82,826.26,827.09,827.50,827.28,825.83,824.38,822.97,821.56,820.29,819.73,819.43,819.24,819.17,819.39,819.63,820.00,820.54,821.28,822.08,822.68,823.15,823.59,824.19,824.74,825.12,825.36,825.66,826.03,826.72,827.63,828.64,829.64,830.36,830.82,831.02,830.91,830.44,829.57,827.92,825.22,824.29,824.36,825.34,826.64,825.47,823.41,819.52,814.41,810.64,810.87,811.21,810.76,809.72,809.25,806.15,802.35,799.52,799.34,798.11,795.22,792.70,793.73,795.47,797.38,799.20,800.15,798.26,795.35,792.80,791.17,790.70,790.36,790.90,792.63,795.77,799.13,803.13,807.20,810.64,812.22,811.99,810.00,806.97,803.78,800.40,797.43,794.48,791.28,787.97,784.22,780.68,777.44,774.21,771.37,769.54,768.34,767.29,766.42,766.44,767.01,767.77,768.10,768.36,769.20,771.20,775.15,779.73,782.76,784.33,784.90,785.66,785.66,784.57,782.62,780.78,780.22,781.23,783.99,788.85,794.26,798.22,800.26,800.03,797.52,791.46,785.42,781.18,780.07,779.71,780.53,782.60,785.76,788.40,792.02,796.23,800.77,805.22,807.44,807.87,807.56,807.30,806.66,805.70,804.77,803.99,803.23,802.51,801.74
817.88,819.88,819.71,820.89,822.09,823.05,823.73,824.03,823.96,823.07,821.57,820.25,818.91,817.03,814.62,812.04,811.08,810.32,810.34,811.78,814.85,816.49,817.79,819.00,819.87,820.67,821.56,822.55,823.62,824.54,825.08,825.30,825.28,825.12,824.21,823.07,821.96,820.95,819.76,818.16,816.25,814.10,811.80,810.09,809.75,810.11,809.76,808.88,809.75,811.31,812.51,813.54,814.07,814.57,815.18,815.93,817.17,818.39,819.39,820.01,820.29,819.54,817.85,815.42,812.99,810.67,808.63,807.05,806.13,804.92,804.10,804.03,804.93,806.27,807.72,809.25,810.61,811.12,811.26,811.85,813.05,814.78,816.38,818.42,820.30,822.04,824.97,826.93,828.40,829.50,830.03,830.31,830.54,830.66,830.57,830.33,829.88,828.32,825.77,823.76,822.19,820.78,819.68,819.34,819.68,820.97,822.72,824.58,826.12,827.40,827.69,826.91,825.34,823.99,822.67,821.35,820.19,819.75,819.45,819.31,819.37,819.59,819.82,820.16,820.59,821.09,821.61,821.99,822.34,822.75,823.30,823.81,824.13,824.28,824.44,825.19,826.11,827.13,828.23,829.29,830.10,830.58,830.70,830.47,829.56,827.73,825.43,823.56,823.50,824.49,826.32,828.42,828.46,827.03,823.27,818.02,814.15,813.89,814.35,814.19,812.90,811.66,807.64,803.74,801.56,801.12,799.24,794.89,790.86,791.55,793.19,794.99,796.76,797.77,795.69,792.79,790.47,789.20,789.19,789.67,791.48,794.36,798.16,802.76,806.79,809.83,811.71,812.42,810.88,808.35,805.42,802.38,799.85,797.14,794.30,791.37,788.24,784.41,780.68,777.32,774.22,771.18,769.25,767.96,766.86,766.71,767.35,768.29,769.36,770.49,770.83,772.50,775.76,780.00,784.10,786.65,787.97,788.48,789.18,789.45,788.77,787.31,785.97,785.13,785.35,786.97,790.68,796.40,799.39,800.57,800.53,799.07,792.63,786.95,783.78,783.13,782.53,782.85,784.36,787.05,789.64,793.43,797.42,801.01,803.80,805.81,806.25,805.83,805.43,804.90,804.24,803.56,802.90,802.29,801.61,800.89
815.15,817.06,817.64,819.75,821.26,822.12,822.53,822.67,822.41,821.48,820.06,818.82,817.65,816.14,814.47,813.15,813.11,811.68,810.67,811.46,814.64,816.43,817.87,819.21,820.17,820.99,821.81,822.69,823.63,824.45,825.02,825.28,825.26,824.99,823.97,822.76,821.58,820.41,818.63,816.43,814.21,812.22,810.76,810.46,811.27,811.97,810.61,809.33,810.19,811.91,813.34,814.70,815.59,816.25,816.79,817.25,818.13,819.36,820.62,821.39,821.12,820.00,818.12,815.55,812.94,810.23,808.57,807.81,807.06,805.90,804.89,804.41,804.76,805.75,806.80,807.80,808.63,809.06,809.30,809.59,810.31,811.77,812.93,815.01,817.62,820.53,823.65,825.75,827.42,828.79,829.54,830.04,830.33,830.47,830.46,830.30,830.11,828.65,826.00,823.88,822.32,820.97,820.06,820.06,820.57,821.63,823.07,824.74,826.26,827.69,827.75,826.53,824.96,823.60,822.30,821.07,820.05,819.66,819.48,819.46,819.57,819.72,819.94,820.27,820.64,820.93,821.07,821.25,821.51,821.87,822.37,822.82,823.03,823.10,823.44,824.44,825.55,826.64,827.73,828.76,829.57,830.05,830.07,829.43,827.94,825.69,823.51,822.70,823.57,825.22,827.35,829.49,829.96,829.24,826.77,822.75,818.38,817.13,817.55,817.36,814.93,812.17,808.20,805.10,803.56,802.33,800.02,795.06,790.16,789.91,791.08,792.79,794.61,795.68,793.62,790.88,788.98,788.39,789.22,790.57,793.02,796.44,800.81,806.02,809.31,811.27,812.16,811.73,808.88,805.74,803.03,800.78,798.57,795.93,793.14,790.40,787.54,784.09,780.60,777.32,774.27,771.19,769.19,767.86,766.79,767.09,768.06,769.48,771.39,773.82,775.38,777.91,781.41,784.99,787.98,789.90,791.29,792.55,793.88,794.36,794.07,793.31,792.64,792.02,791.92,792.64,794.74,798.62,800.40,801.02,801.05,800.23,795.75,791.06,787.93,787.47,786.81,786.92,788.06,790.43,793.48,796.95,800.10,802.46,803.55,804.58,804.67,804.20,803.76,803.30,802.82,802.30,801.73,801.12,800.29,799.18
812.29,813.73,816.10,819.00,820.51,821.08,821.20,821.24,820.93,820.19,819.13,818.00,816.89,815.86,815.47,816.14,816.22,813.79,811.55,811.45,814.52,816.41,817.90,819.25,820.29,821.15,821.95,822.75,823.56,824.34,824.94,825.24,825.20,824.77,823.80,822.63,821.43,820.09,817.62,814.82,812.35,810.71,810.50,812.00,813.98,814.59,811.53,809.72,810.49,812.25,813.81,815.33,816.72,817.81,818.54,819.05,819.44,820.43,821.73,822.55,821.56,820.11,818.08,815.39,812.71,809.96,809.18,809.54,808.52,807.22,805.89,804.95,804.85,805.48,806.01,806.35,806.72,807.64,808.34,808.31,808.20,808.91,809.62,811.43,814.86,819.49,822.63,824.87,826.58,827.91,828.82,829.64,830.06,830.21,830.27,830.20,830.00,828.56,825.97,823.90,822.52,821.41,820.79,821.16,821.98,822.90,823.99,825.32,826.74,828.00,827.74,826.23,824.67,823.21,821.88,820.73,819.85,819.52,819.55,819.71,819.84,819.88,820.08,820.40,820.72,820.84,820.57,820.56,820.70,820.96,821.40,821.81,821.86,821.85,822.58,823.74,824.97,826.12,827.10,828.03,828.77,829.20,829.08,827.84,825.66,823.52,822.18,822.53,824.27,826.35,828.38,829.94,830.18,830.06,829.53,827.69,823.04,820.85,820.81,820.02,816.03,811.58,808.38,806.46,805.27,803.03,800.49,795.72,790.64,789.01,789.24,790.75,792.65,793.76,791.92,789.43,788.17,788.60,790.49,792.62,795.18,798.63,803.43,808.53,810.65,811.66,812.02,810.32,806.25,802.48,799.91,798.65,796.44,793.85,791.18,788.56,785.96,783.18,780.30,777.33,774.28,771.22,769.22,767.89,766.93,767.42,768.51,770.44,773.47,777.32,780.76,784.06,787.14,789.54,791.24,792.55,794.19,796.50,798.67,799.31,799.37,799.31,799.31,799.19,799.20,799.36,799.74,800.51,801.15,801.54,801.56,801.00,799.88,796.75,793.24,792.75,792.27,792.39,793.32,795.43,798.88,801.46,803.30,804.27,803.91,803.61,803.18,802.68,802.26,801.78,801.34,800.88,800.34,799.58,798.47,796.71
808.91,812.00,814.94,817.59,819.11,819.79,819.91,819.76,819.60,819.27,818.83,818.41,817.72,817.60,818.02,818.62,818.19,815.63,812.78,811.53,814.38,816.24,817.71,819.04,820.07,820.82,821.64,822.52,823.39,824.26,824.91,825.21,825.11,824.54,823.59,822.50,821.39,820.06,817.36,814.12,811.87,811.64,813.71,816.05,817.26,816.42,812.53,809.79,810.07,811.77,813.59,815.50,817.32,818.81,819.92,820.77,821.40,822.39,823.38,823.53,822.05,820.11,817.81,815.15,812.54,810.56,810.24,810.49,808.98,807.65,806.33,805.48,805.62,806.50,807.39,808.18,808.89,809.63,810.41,810.21,809.49,809.10,809.02,810.49,813.65,818.05,821.44,823.92,825.70,826.96,827.94,828.89,829.52,829.89,830.07,830.01,829.49,827.97,825.70,824.02,822.87,822.17,822.02,822.63,823.51,824.64,825.67,826.56,827.71,828.28,827.61,826.00,824.37,822.88,821.46,820.32,819.72,819.61,819.79,820.10,820.38,820.41,820.64,820.93,821.06,820.82,820.50,820.18,819.98,820.01,820.43,820.79,820.69,820.57,821.60,822.93,824.25,825.40,826.28,827.07,827.67,827.83,827.26,825.58,822.78,821.22,821.42,823.36,825.43,827.57,829.26,830.13,830.36,830.38,830.22,829.55,827.67,826.33,824.21,821.01,816.80,812.78,810.08,808.01,805.99,803.27,800.48,796.52,792.31,789.68,787.92,788.92,790.86,791.84,790.01,787.52,787.36,789.60,792.25,794.74,797.26,800.67,805.49,809.47,811.09,811.47,810.79,808.29,803.86,799.71,796.57,794.62,792.99,791.13,788.92,786.34,783.75,781.33,779.09,776.80,773.93,771.09,769.22,767.95,767.02,767.70,768.85,770.87,774.04,777.86,781.72,785.83,789.52,791.49,793.02,794.52,796.13,797.72,798.75,799.58,800.04,800.21,800.42,800.44,800.48,800.60,800.85,801.17,801.55,801.85,801.98,801.76,801.21,799.98,798.68,798.47,798.45,798.78,799.65,801.12,802.56,803.18,803.40,803.32,802.73,802.28,801.82,801.32,800.76,800.11,799.50,798.90,798.17,796.99,795.69,793.78
807.82,811.21,813.65,815.88,817.36,818.16,818.32,818.12,818.26,818.56,818.87,819.07,818.85,819.16,819.76,820.03,819.42,816.98,813.92,811.97,814.19,815.90,817.31,818.57,819.63,820.42,821.30,822.25,823.20,824.12,824.84,825.17,824.99,824.20,823.17,822.05,820.84,819.28,816.53,813.97,813.02,814.34,817.20,819.23,819.48,817.53,813.08,809.86,809.79,811.37,813.37,815.50,817.53,819.28,820.70,821.90,823.01,824.00,824.58,824.26,822.56,820.41,818.19,815.91,813.53,812.22,811.54,810.79,809.09,807.82,806.57,805.89,806.37,807.46,808.62,809.83,810.98,811.73,812.58,812.29,811.24,810.18,809.35,810.04,812.43,816.36,820.29,822.98,824.82,826.11,827.09,828.01,828.71,829.15,829.27,829.06,828.30,826.94,825.25,824.02,823.10,822.79,823.06,823.83,824.97,826.50,827.61,827.99,828.44,828.24,827.28,825.74,823.97,822.37,820.98,820.00,819.66,819.74,820.07,820.54,820.97,821.09,821.31,821.46,821.42,821.11,820.84,820.33,819.78,819.41,819.48,819.64,819.49,819.45,820.71,822.04,823.31,824.39,825.22,825.92,826.29,826.10,825.13,823.08,820.36,819.89,821.64,824.50,826.73,828.63,829.86,830.27,830.51,830.58,830.50,830.33,830.14,829.38,826.33,822.16,818.26,814.75,812.01,809.42,806.68,803.73,800.80,797.50,794.06,790.88,787.52,787.47,788.77,789.39,787.76,786.38,787.49,790.73,793.77,796.58,799.26,802.59,806.98,809.95,811.06,811.00,809.72,806.59,802.32,797.83,793.81,791.13,789.88,788.64,786.85,784.37,781.79,779.60,777.72,775.82,773.33,770.84,769.15,767.97,767.18,767.99,769.24,771.36,774.57,778.26,782.53,787.05,790.91,792.75,794.15,795.43,796.55,797.34,797.72,798.84,799.77,800.23,800.52,800.63,800.71,800.85,801.13,801.38,801.63,801.87,802.05,802.11,801.91,801.92,802.12,802.24,802.46,802.76,803.28,803.95,803.83,803.28,802.63,801.97,801.37,800.99,800.56,800.00,799.29,798.45,797.59,796.74,795.84,794.73,793.82,792.57
808.99,810.94,812.07,813.94,815.35,816.17,816.42,816.40,817.01,818.06,819.19,819.74,819.95,820.10,820.26,820.31,819.97,817.73,814.85,812.81,813.98,815.44,816.76,817.96,819.10,820.08,821.05,822.03,823.01,823.94,824.72,825.06,824.79,823.72,822.54,821.28,819.75,817.66,815.09,814.41,815.71,818.39,820.19,820.84,820.18,817.76,812.96,809.96,809.81,811.25,813.31,815.38,817.40,819.24,820.87,822.34,824.02,824.92,825.13,824.71,823.04,821.05,819.25,817.63,815.60,814.61,812.83,810.48,808.99,807.84,806.67,806.18,806.96,808.07,809.23,810.63,812.17,813.31,814.28,814.03,812.96,811.76,810.33,809.81,811.07,814.55,819.21,822.01,823.89,825.31,826.27,827.03,827.63,827.93,827.79,827.26,826.43,825.51,824.62,823.86,823.16,823.18,823.74,824.63,826.24,828.29,829.52,829.37,828.73,827.82,826.76,825.41,823.46,821.67,820.45,819.78,819.65,819.83,820.34,820.97,821.58,821.88,822.02,821.96,821.83,821.76,821.59,821.00,820.18,819.29,818.63,818.42,818.29,818.50,819.84,821.02,822.10,823.07,823.88,824.55,824.60,824.05,822.75,820.44,818.75,819.90,822.91,825.79,828.08,829.45,830.15,830.41,830.63,830.73,830.65,830.43,830.15,829.37,826.95,823.67,820.39,817.13,813.81,810.60,807.54,804.58,801.66,798.77,795.81,792.47,788.12,786.51,786.43,786.46,785.38,786.31,788.75,791.97,795.03,798.13,801.12,804.35,807.92,810.15,810.68,810.31,808.94,805.49,801.81,797.04,792.04,788.84,787.62,786.61,785.08,782.78,780.31,778.28,776.38,774.48,772.51,770.48,768.99,767.95,767.43,768.30,769.72,772.05,775.42,779.16,784.05,788.44,791.73,793.55,794.64,795.11,795.34,795.63,796.31,797.82,799.25,800.16,800.46,800.68,800.80,800.93,801.13,801.24,801.39,801.55,801.71,801.91,802.27,802.64,803.03,803.46,803.63,803.61,803.53,803.35,802.69,802.12,801.47,800.74,800.14,799.80,799.36,798.74,797.89,796.91,795.85,794.79,793.88,793.41,793.49,793.62
806.72,808.51,809.80,811.91,813.31,814.14,814.74,815.59,816.73,818.10,819.43,820.15,820.39,820.49,820.53,820.45,819.96,817.89,815.36,813.50,813.96,815.25,816.70,818.11,819.39,820.28,821.10,821.98,822.93,823.89,824.50,824.60,824.16,823.18,822.07,820.82,819.13,816.80,815.07,815.83,817.90,820.34,821.76,821.35,819.42,816.09,811.52,809.79,810.08,811.45,813.38,815.29,817.24,819.14,820.94,822.60,824.30,825.09,825.23,824.95,823.42,821.46,819.54,817.75,815.75,814.14,812.06,809.88,808.73,807.75,806.83,806.57,807.42,808.43,809.59,811.11,812.89,814.49,815.81,815.92,815.10,813.76,811.92,810.47,810.75,813.53,817.89,820.65,822.45,823.85,825.21,826.01,826.41,826.47,826.09,825.37,824.66,824.23,823.98,823.46,823.17,823.43,824.07,824.99,827.04,828.94,829.83,829.38,828.39,827.32,826.24,824.93,822.93,821.00,820.04,819.72,819.69,819.87,820.41,821.18,822.00,822.61,822.79,822.76,822.70,822.66,822.36,821.71,820.78,819.66,818.66,817.92,817.39,817.27,818.10,819.37,820.59,821.55,822.13,822.56,822.45,821.70,820.12,817.78,818.99,821.55,824.37,826.93,828.98,829.92,830.30,830.47,830.61,830.71,830.64,830.44,830.18,829.64,827.40,824.27,821.16,818.10,814.69,811.39,808.47,805.89,803.25,801.02,798.53,794.46,789.24,786.45,785.10,784.45,784.89,787.37,790.57,793.93,797.27,799.92,802.51,805.46,808.65,810.14,810.33,809.48,807.64,805.16,802.35,797.88,792.65,788.85,787.03,785.37,783.52,781.54,779.47,777.53,775.64,773.75,771.87,770.15,768.88,768.04,767.76,768.63,770.19,773.03,777.20,781.23,786.18,789.87,792.09,793.29,793.47,793.46,793.49,793.81,795.00,797.01,798.89,800.12,800.36,800.50,800.58,800.63,800.72,800.75,800.77,800.83,800.93,801.04,801.31,801.61,801.97,802.47,802.73,802.67,802.46,802.19,801.77,801.40,800.84,800.08,799.38,798.80,798.22,797.58,796.85,796.20,795.88,795.66,795.46,795.42,795.90,796.52
804.35,806.00,807.65,809.85,811.56,812.92,814.18,815.59,816.98,818.37,819.64,820.41,820.63,820.71,820.72,820.54,819.96,818.05,815.79,814.06,814.12,815.30,816.85,818.42,819.76,820.58,821.28,822.04,822.90,823.70,823.99,823.82,823.29,822.52,821.54,820.26,818.49,816.33,815.85,817.53,819.78,821.65,822.51,821.09,818.07,814.14,810.38,810.04,810.94,812.35,814.13,815.85,817.58,819.36,821.15,822.86,824.45,825.14,825.27,825.09,823.62,821.58,819.41,817.28,815.18,813.09,811.10,809.47,808.59,807.75,807.06,806.99,807.83,808.74,809.88,811.47,813.44,815.40,817.10,817.71,817.25,815.86,813.90,811.98,811.34,812.81,816.03,818.55,820.41,821.97,823.66,824.61,824.96,824.82,824.18,823.40,822.97,823.03,823.35,823.21,823.26,823.69,824.40,825.43,827.64,829.25,829.79,829.16,828.02,826.88,825.70,824.29,822.32,820.49,819.80,819.73,819.79,820.02,820.68,821.57,822.52,823.31,823.57,823.64,823.66,823.57,823.17,822.43,821.39,820.11,818.84,817.94,817.36,817.07,817.11,817.49,818.26,819.03,819.38,819.27,819.11,818.36,817.03,816.32,819.65,822.88,825.32,827.64,829.48,830.14,830.31,830.43,830.51,830.59,830.54,830.38,830.12,829.28,826.83,823.62,820.59,817.72,814.83,812.05,809.50,807.20,804.82,802.90,800.61,796.36,790.92,787.28,784.70,783.20,785.07,788.53,792.12,795.56,799.03,801.34,803.59,805.98,808.14,808.88,808.16,806.72,805.06,803.80,801.89,798.33,793.77,789.80,787.37,784.97,782.61,780.56,778.81,776.94,775.05,773.16,771.28,769.85,768.79,768.12,768.04,768.86,770.42,773.79,778.89,783.24,787.91,790.83,792.08,792.49,791.92,791.50,791.48,792.05,793.54,795.88,798.09,799.58,799.95,800.09,799.97,799.67,799.35,799.16,798.99,799.18,799.75,800.01,800.12,800.24,800.52,801.10,801.42,801.43,801.32,801.23,801.16,801.06,800.70,800.05,799.25,798.54,797.95,797.40,796.82,796.46,796.75,797.24,797.64,797.81,798.34,798.98
803.15,804.21,805.98,807.87,810.33,812.98,815.30,816.56,817.69,818.79,819.79,820.48,820.78,820.86,820.82,820.63,820.18,818.43,816.23,814.45,814.49,815.64,817.16,818.71,819.97,820.80,821.52,822.23,822.88,823.22,823.06,822.68,822.21,821.66,820.85,819.45,817.71,816.34,817.46,819.37,821.30,822.68,822.46,820.04,816.36,812.51,810.18,811.06,812.64,814.29,815.93,817.45,818.77,820.17,821.70,823.23,824.64,825.27,825.38,825.14,823.57,821.29,818.84,816.43,814.13,812.13,810.60,809.49,808.71,807.92,807.38,807.41,808.20,809.06,810.15,811.76,813.84,815.96,818.04,819.19,819.21,817.93,816.27,814.55,813.08,812.39,813.52,815.47,817.59,819.63,821.39,822.61,823.13,822.93,822.04,821.36,821.43,821.98,822.77,823.30,823.51,824.01,824.89,826.21,828.11,829.41,829.74,829.02,827.82,826.54,825.11,823.45,821.59,820.24,819.83,819.89,820.06,820.51,821.37,822.33,823.23,823.97,824.34,824.53,824.58,824.42,824.06,823.16,821.92,820.48,818.95,818.57,818.64,818.61,817.72,815.65,814.94,815.16,815.25,814.22,814.04,813.58,813.41,816.72,820.24,823.03,825.35,827.63,829.42,830.00,830.13,830.23,830.32,830.39,830.35,830.18,829.80,827.67,824.46,821.04,818.06,815.43,813.88,812.39,810.48,808.19,806.01,803.82,801.31,797.91,793.25,789.16,785.42,782.89,785.55,789.36,793.01,796.35,799.62,802.02,804.22,805.68,805.70,805.63,803.08,801.04,800.66,800.49,799.48,797.53,794.76,791.35,788.48,785.53,782.54,779.85,778.17,776.38,774.50,772.58,770.73,769.59,768.72,768.16,768.20,768.91,770.29,774.04,780.05,784.65,788.68,790.95,791.59,791.15,790.37,789.62,789.52,790.45,791.83,794.14,796.41,798.13,798.98,799.25,798.71,797.70,796.68,796.12,795.74,796.47,798.30,799.17,799.23,799.13,799.28,799.98,800.25,800.43,800.64,800.87,801.05,801.23,801.23,800.89,800.05,799.48,799.11,798.77,798.35,797.96,798.34,798.99,799.51,799.62,799.82,800.02
804.24,803.89,805.00,807.25,809.68,812.35,815.03,816.25,817.33,818.42,819.45,820.27,820.71,820.85,820.81,820.66,820.31,819.00,816.91,814.79,814.74,815.90,817.39,818.86,820.06,820.83,821.55,822.21,822.65,822.74,822.49,822.09,821.61,821.09,820.40,819.10,817.82,817.62,819.06,820.86,822.64,823.86,823.11,820.23,816.32,812.46,810.30,811.64,813.89,816.06,817.84,819.37,820.63,821.95,823.26,824.21,824.97,825.35,825.44,825.11,823.23,820.31,817.72,815.98,814.22,811.99,810.38,809.45,808.73,808.03,807.63,807.70,808.34,809.13,810.25,811.86,813.91,815.99,818.04,819.43,819.96,819.41,818.52,817.24,815.79,814.44,813.70,813.63,814.84,816.88,818.68,820.09,820.99,820.98,820.03,820.29,820.96,821.84,822.85,823.77,824.00,824.27,825.22,827.34,828.97,829.74,829.65,828.72,827.39,826.00,824.37,822.52,820.77,820.04,820.46,821.36,822.17,822.66,822.83,823.23,823.98,824.63,824.94,825.13,825.21,825.11,824.84,823.87,822.32,820.45,819.08,819.24,819.72,819.88,819.17,817.17,815.42,814.16,813.15,811.43,810.18,810.06,811.66,815.54,819.34,822.34,824.66,826.50,828.04,828.86,829.41,829.92,830.11,830.17,830.03,829.49,827.83,823.78,819.23,815.00,811.57,809.19,808.85,808.82,808.19,806.79,805.78,804.11,801.72,798.67,794.13,789.82,785.84,782.96,784.10,788.49,792.75,796.13,799.43,801.86,803.38,803.80,802.86,801.83,799.63,798.06,797.84,797.92,797.38,795.98,793.85,791.11,787.73,784.01,780.79,778.68,777.12,775.60,773.87,771.98,770.30,769.38,768.61,768.16,768.45,769.09,770.44,774.10,779.90,784.31,788.31,790.37,790.48,789.32,789.07,789.12,789.21,789.35,790.02,791.72,793.65,795.33,796.23,796.38,795.57,794.81,795.29,796.57,797.76,799.29,801.08,801.93,801.55,800.82,800.29,800.37,800.65,801.09,801.53,801.91,802.23,802.48,802.50,802.22,801.68,801.21,800.83,800.44,799.91,799.51,799.88,800.31,800.39,800.21,800.26,800.35
806.08,804.58,804.74,806.74,808.91,811.38,814.12,815.54,816.66,817.77,818.87,819.84,820.45,820.67,820.69,820.61,820.37,819.49,817.61,815.31,815.06,816.13,817.57,818.95,820.11,820.81,821.50,822.05,822.28,822.22,822.00,821.64,821.19,820.67,820.13,819.02,818.25,819.01,820.49,822.16,823.78,824.78,823.76,820.61,816.67,812.88,810.65,812.39,815.22,817.80,819.64,821.18,822.54,823.78,824.77,825.14,825.30,825.42,825.45,824.96,822.65,819.44,817.23,816.42,814.86,812.08,810.21,809.37,808.71,808.13,807.88,808.00,808.47,809.11,810.15,811.70,813.68,815.64,817.55,819.14,820.17,820.38,820.23,819.46,818.39,817.09,815.26,813.48,813.32,814.58,816.02,817.38,818.52,818.90,818.53,819.80,820.98,822.06,823.19,824.32,824.73,824.96,825.95,828.43,829.70,829.94,829.44,828.29,826.85,825.34,823.53,821.60,820.17,820.24,821.52,823.15,824.35,824.78,824.32,824.21,824.73,825.26,825.51,825.68,825.76,825.72,825.47,824.56,822.79,820.48,819.36,819.88,820.61,820.93,820.51,819.18,816.85,814.32,812.17,809.85,807.29,807.00,809.56,812.88,816.78,820.50,823.38,824.83,826.09,827.10,828.03,828.88,829.23,829.31,829.09,828.13,825.15,819.54,813.81,808.76,804.89,802.82,803.22,804.13,804.57,804.28,804.37,803.47,801.60,798.98,794.58,790.28,786.32,783.10,782.23,786.73,791.62,795.40,798.77,801.12,801.93,801.54,800.20,798.47,796.90,795.85,795.45,795.55,795.28,794.14,792.35,790.12,786.50,782.30,779.07,777.55,776.07,774.73,773.14,771.36,769.94,769.17,768.54,768.27,768.75,769.34,770.92,774.32,779.24,783.00,786.72,788.65,788.74,787.75,788.40,789.51,789.96,789.33,789.05,789.83,791.07,792.32,793.08,793.15,792.50,792.49,794.71,797.77,800.40,802.53,804.09,804.79,804.17,803.04,801.91,801.35,801.58,802.13,802.71,803.19,803.60,803.91,803.94,803.69,803.44,803.03,802.58,802.05,801.38,801.02,801.22,801.25,800.84,800.44,800.41,800.48
808.22,806.76,805.75,805.58,807.44,810.11,812.60,814.65,815.95,817.01,818.03,819.02,819.84,820.25,820.40,820.43,820.33,819.68,818.21,816.28,815.59,816.37,817.66,819.01,820.11,820.81,821.40,821.72,821.65,821.58,821.47,821.25,820.88,820.42,820.10,819.30,818.85,819.84,821.48,823.19,824.52,825.01,823.95,820.68,816.87,813.38,811.37,813.82,817.04,819.61,821.14,822.57,824.10,825.09,825.43,825.50,825.49,825.48,825.38,824.58,821.66,819.34,818.63,818.81,816.11,812.23,809.94,809.20,808.65,808.21,808.18,808.41,808.74,809.00,809.71,811.07,812.94,814.75,816.56,818.41,819.91,820.51,820.72,820.48,820.08,819.52,818.41,816.57,814.77,813.59,813.78,814.55,815.44,816.56,818.16,820.13,821.43,822.54,823.68,824.78,825.83,826.72,827.75,829.20,829.85,829.72,828.96,827.66,826.19,824.52,822.57,820.76,820.18,821.38,823.24,824.81,825.49,825.72,825.42,825.27,825.48,825.82,826.12,826.29,826.34,826.22,825.84,825.20,823.52,820.93,819.96,820.41,821.17,821.58,821.00,820.13,818.09,815.39,812.60,809.66,805.93,804.25,805.43,807.70,811.23,816.42,821.18,822.59,823.64,824.54,825.38,826.16,826.77,826.96,826.68,825.44,821.87,815.98,809.83,804.35,800.39,798.80,798.84,799.35,799.95,800.65,801.07,801.01,800.39,798.72,794.93,791.11,787.18,783.16,780.69,783.91,789.08,794.10,797.50,799.51,799.99,799.45,798.24,796.53,794.89,793.66,793.07,793.15,792.92,792.09,790.66,788.50,785.31,781.57,778.53,776.84,775.29,773.79,772.21,770.68,769.66,768.98,768.63,768.66,769.13,769.68,771.99,775.07,778.15,780.54,782.94,784.68,785.88,787.10,789.07,791.13,792.19,791.57,790.20,789.70,789.61,789.74,790.18,790.40,790.80,792.16,795.25,798.47,801.00,803.14,804.84,805.49,805.42,804.65,803.54,802.78,802.72,803.03,803.53,804.10,804.56,805.04,805.27,805.17,804.93,804.56,804.01,803.32,802.59,802.44,802.12,801.56,800.89,800.61,800.56,800.61
811.34,809.54,807.36,805.62,806.85,809.29,811.50,813.21,814.75,816.03,817.08,818.03,818.81,819.32,819.65,819.84,819.87,819.20,817.89,816.36,815.96,816.51,817.64,818.97,820.06,820.72,821.09,821.19,821.01,820.89,820.87,820.86,820.80,820.57,820.40,820.04,820.12,821.42,823.14,824.28,824.98,825.10,823.88,820.61,816.95,813.99,813.16,815.90,818.82,821.03,822.48,823.80,824.94,825.59,825.74,825.69,825.60,825.43,824.94,823.56,820.84,819.70,819.72,819.68,816.87,812.32,809.80,809.25,808.75,808.50,808.65,808.97,809.27,809.38,809.73,810.55,811.90,813.70,815.48,817.24,818.89,820.19,820.66,820.83,820.89,820.75,820.05,818.76,816.75,814.54,813.43,814.58,816.36,817.91,818.97,820.10,821.09,822.04,823.04,824.17,825.38,826.54,827.66,828.70,829.28,829.06,828.23,826.93,825.53,823.86,822.04,820.73,821.37,823.02,824.53,825.62,826.17,826.47,826.29,826.15,826.23,826.46,826.73,826.82,826.70,826.37,825.86,825.32,823.77,821.32,820.87,821.38,821.98,822.09,821.10,820.04,818.11,815.51,812.59,809.71,805.53,802.53,801.79,802.82,804.88,809.86,815.50,818.02,819.69,821.46,822.90,823.69,824.19,824.10,823.55,822.20,818.90,813.93,808.42,803.28,799.37,796.97,796.10,796.08,796.64,797.52,798.07,798.25,797.96,796.85,794.38,791.50,787.87,783.46,780.17,782.28,787.20,792.64,795.82,797.37,797.95,797.72,796.53,794.79,793.03,791.48,790.45,790.51,790.29,789.63,788.50,786.73,784.13,781.00,778.18,776.19,774.58,773.02,771.50,770.18,769.51,768.95,768.79,769.01,769.69,771.34,774.40,777.66,780.45,782.58,784.66,785.93,786.64,787.64,789.47,791.83,793.56,793.65,792.25,791.88,792.74,793.99,793.62,792.51,792.03,792.46,794.09,797.03,799.50,801.71,803.75,805.31,805.96,805.63,804.79,804.15,803.96,804.21,804.67,805.20,805.60,806.08,806.33,806.24,805.87,805.48,804.95,804.27,803.51,803.02,802.34,801.60,800.99,800.75,800.73,800.75
814.39,811.96,808.78,806.06,806.66,808.60,810.25,811.32,812.98,814.63,815.97,816.94,817.64,818.21,818.70,819.04,819.18,818.50,817.39,816.35,816.36,816.70,817.60,818.85,819.93,820.53,820.70,820.58,820.34,820.29,820.40,820.64,820.89,820.94,820.87,820.95,821.58,823.13,824.69,825.16,825.27,825.12,823.76,820.56,817.08,814.67,815.13,817.92,820.32,822.12,823.55,824.78,825.45,825.78,825.87,825.80,825.67,825.35,824.47,822.59,820.46,820.29,820.59,820.01,817.29,812.34,809.71,809.35,808.90,808.84,809.10,809.49,809.92,810.26,810.35,810.61,811.34,812.87,814.32,815.80,817.50,819.42,820.22,820.75,821.18,821.38,821.03,820.32,818.59,816.07,813.93,815.33,817.97,819.85,819.99,820.06,820.49,821.14,822.00,823.17,824.42,825.70,826.90,827.81,828.42,828.22,827.43,826.26,825.02,823.47,822.04,821.47,823.00,824.64,825.58,826.15,826.73,827.13,827.08,826.97,827.00,827.13,827.31,827.24,826.89,826.33,825.73,825.14,823.80,821.93,822.07,822.61,822.89,822.57,821.21,819.84,817.90,815.39,812.49,809.87,805.64,801.65,799.14,798.93,799.48,803.35,808.63,811.88,814.41,817.10,819.35,820.64,821.36,820.91,820.04,818.70,815.98,812.11,807.51,803.04,799.39,796.10,794.13,793.41,793.75,794.54,795.14,795.33,795.08,794.32,793.04,790.95,787.66,783.24,779.84,781.00,785.45,790.97,793.87,795.06,795.87,796.07,795.00,793.27,791.43,789.57,788.02,787.76,787.50,786.93,786.03,784.73,782.77,780.29,777.75,775.51,773.82,772.23,770.84,769.82,769.41,769.00,768.99,769.34,770.26,773.15,776.83,780.40,783.47,785.88,788.01,788.88,788.83,788.99,790.44,792.87,795.02,795.77,794.71,794.70,796.73,799.40,798.62,796.45,794.86,793.85,793.37,795.25,797.58,799.99,802.48,804.93,806.16,806.33,805.92,805.51,805.22,805.45,805.93,806.38,806.59,806.86,806.96,806.78,806.33,806.00,805.55,804.93,804.13,803.23,802.31,801.57,801.12,800.88,800.86,800.83
816.16,812.52,808.94,806.55,806.88,807.81,808.04,808.53,809.90,812.06,814.41,815.67,816.50,817.11,817.60,817.97,818.24,817.78,817.24,816.99,817.05,817.15,817.64,818.53,819.60,820.12,820.21,819.96,819.61,819.98,820.51,820.98,821.33,821.60,821.53,821.94,822.95,824.37,825.15,825.31,825.29,825.07,823.76,820.68,817.46,815.49,816.50,819.00,820.98,822.53,823.95,825.13,825.63,825.80,825.82,825.79,825.72,825.29,824.27,822.52,821.30,821.12,821.07,820.21,817.08,812.19,809.65,809.33,809.02,809.07,809.33,809.79,810.65,812.28,812.46,812.43,812.68,812.95,812.97,813.96,815.74,817.68,819.07,819.98,820.75,821.39,821.47,820.82,819.40,817.35,815.15,815.29,817.45,819.65,820.41,820.34,819.93,820.02,820.86,822.13,823.47,824.80,826.03,826.99,827.44,827.29,826.74,825.91,825.01,823.76,823.35,823.85,824.75,825.60,826.23,826.78,827.32,827.77,827.84,827.82,827.82,827.85,827.85,827.43,826.75,826.10,825.53,824.56,823.65,823.29,823.90,824.17,823.90,823.10,821.78,820.45,818.30,815.53,812.54,810.18,806.36,802.36,799.22,797.95,798.13,799.73,801.73,803.14,806.38,809.16,812.05,815.38,817.79,817.17,816.08,815.01,812.83,809.40,805.43,801.80,799.00,795.90,792.88,791.04,790.78,791.45,792.08,792.29,792.07,791.39,790.13,787.84,784.68,781.11,778.98,779.60,783.42,788.74,791.47,792.83,793.83,794.33,793.79,792.24,790.48,788.52,786.47,784.88,784.46,783.93,783.05,782.03,780.79,778.97,776.83,774.65,772.87,771.19,770.13,769.68,769.36,769.12,769.22,769.61,770.66,774.02,777.85,781.56,785.07,788.42,790.67,791.67,791.77,791.71,793.62,796.00,797.77,798.21,797.49,797.02,798.49,801.15,801.73,801.02,799.76,798.08,796.02,794.76,796.60,799.62,802.62,804.90,806.06,806.74,807.07,806.83,806.44,806.62,807.17,807.69,807.37,806.93,806.47,806.04,805.82,805.86,805.56,804.93,804.09,803.17,802.25,801.59,801.29,801.01,800.87,800.75
816.54,812.74,809.13,807.36,808.11,809.29,809.55,809.44,809.58,810.49,812.06,813.59,814.93,815.92,816.57,816.93,817.31,817.16,817.03,817.15,817.35,817.53,817.88,818.44,819.11,819.17,819.03,818.93,819.10,819.94,820.66,821.23,821.71,822.13,822.24,822.84,823.80,824.77,825.28,825.37,825.32,825.02,823.81,821.08,818.33,816.57,816.98,819.20,821.02,822.48,823.88,825.10,825.55,825.67,825.63,825.47,825.24,824.80,824.05,822.98,822.20,821.76,821.31,820.16,816.75,812.04,809.63,809.33,809.11,809.25,809.51,810.01,811.10,813.14,814.29,815.01,815.45,815.19,814.41,814.21,814.84,816.39,818.37,819.69,820.67,821.47,821.88,821.32,820.21,818.67,816.66,815.56,816.85,819.01,820.49,820.74,820.28,820.10,820.61,821.75,823.07,824.33,825.42,826.24,826.51,826.45,826.19,825.75,825.27,824.56,824.61,825.31,825.81,826.34,826.86,827.38,827.90,828.34,828.50,828.53,828.52,828.47,828.12,827.45,826.64,825.92,825.27,824.55,824.19,824.47,825.00,825.02,824.40,823.25,821.82,820.46,818.08,815.09,812.09,809.59,806.09,802.38,799.20,797.44,796.96,797.37,798.08,798.74,801.11,803.19,806.31,810.98,814.34,813.30,811.78,810.95,809.96,806.91,803.07,799.68,797.43,794.90,792.10,789.85,788.61,788.45,788.74,788.64,788.11,787.24,785.76,783.82,781.59,779.38,778.16,778.58,781.08,785.10,788.96,791.06,792.17,792.68,792.46,791.24,789.17,786.86,784.59,782.51,781.75,781.13,780.38,779.57,778.45,777.08,775.51,773.74,771.86,770.50,769.80,769.56,769.33,769.22,769.36,769.72,770.74,774.40,778.50,782.42,786.07,789.60,791.92,793.40,794.36,795.18,797.04,798.86,800.11,800.41,799.80,798.78,799.70,802.32,803.78,803.83,802.77,800.85,798.16,795.48,796.56,799.23,801.97,803.83,805.04,806.03,806.93,807.60,807.50,807.67,808.00,808.06,807.12,806.22,805.50,805.04,805.07,805.44,805.41,804.92,804.03,803.11,802.28,801.70,801.38,800.99,800.75,800.62
816.07,812.65,809.28,808.29,809.80,811.78,812.72,812.21,811.05,810.17,810.13,811.52,813.27,814.70,815.61,815.97,816.39,816.54,816.64,816.85,817.22,817.63,818.02,818.33,818.37,817.86,817.56,817.83,818.82,820.05,820.82,821.44,822.02,822.51,822.84,823.49,824.22,824.66,825.18,825.35,825.32,825.02,824.00,821.76,819.56,817.89,817.26,819.07,820.80,822.25,823.64,824.90,825.37,825.48,825.33,824.82,824.31,823.90,823.60,823.38,822.84,822.15,821.38,820.00,816.45,811.93,809.64,809.36,809.18,809.41,809.70,810.29,811.53,813.52,815.72,817.50,818.45,818.16,817.11,815.63,814.70,815.59,818.02,819.68,820.76,821.56,822.18,821.81,821.05,819.98,818.29,816.27,816.43,818.16,820.35,821.12,821.04,820.84,820.94,821.81,823.01,824.12,825.01,825.59,825.72,825.80,825.83,825.78,825.69,825.54,825.77,826.25,826.54,827.01,827.49,827.97,828.48,828.87,829.08,829.16,829.12,828.93,828.24,827.41,826.58,825.81,825.11,824.89,825.06,825.44,825.61,825.40,824.49,822.99,821.27,819.70,817.09,813.96,811.01,808.26,805.07,801.83,798.97,797.11,795.88,795.70,796.16,796.68,797.63,798.94,802.07,807.29,810.78,809.25,807.32,806.76,807.31,804.80,801.08,797.69,795.50,793.38,791.31,789.10,786.95,785.72,785.39,784.84,783.92,782.87,781.34,780.06,779.02,778.16,777.50,777.75,778.70,780.94,785.76,788.68,790.06,790.66,790.83,789.93,787.50,784.82,782.47,780.48,779.37,778.60,777.96,777.31,776.15,775.13,774.16,772.93,771.02,770.09,769.68,769.47,769.35,769.32,769.46,769.76,770.78,774.71,779.16,783.32,786.99,790.22,792.48,794.44,796.40,798.43,800.19,801.40,802.20,802.46,801.78,800.33,800.85,803.35,805.17,805.44,804.45,802.48,799.64,796.63,796.96,798.80,800.82,802.15,803.46,804.73,806.15,807.91,808.38,808.61,808.61,808.05,806.55,805.32,804.42,803.88,803.90,804.41,804.83,804.77,803.96,803.03,802.33,801.82,801.39,800.88,800.59,800.50
814.85,811.86,809.14,809.05,811.24,813.67,814.89,814.79,814.06,812.88,811.62,811.19,812.13,813.52,814.69,815.20,815.57,815.72,815.71,815.70,816.09,816.70,817.35,817.64,816.96,816.19,816.31,817.29,818.92,820.24,821.01,821.63,822.19,822.57,822.93,823.41,823.89,824.29,824.77,825.10,825.26,825.18,824.66,823.04,821.28,819.68,818.52,819.29,820.69,822.23,823.70,824.81,825.24,825.27,824.84,823.57,822.68,822.27,822.24,822.44,822.44,821.96,821.21,819.85,816.49,812.00,809.70,809.43,809.30,809.54,810.03,810.95,812.52,814.40,816.27,818.13,819.57,819.60,819.10,817.49,815.79,815.77,818.16,819.78,820.79,821.51,822.13,822.31,821.94,821.08,819.82,818.07,816.71,817.22,820.08,821.17,821.60,821.69,821.72,822.23,823.16,824.07,824.78,825.18,825.48,825.73,825.98,826.20,826.25,826.31,826.63,827.13,827.46,827.73,828.13,828.60,829.06,829.40,829.64,829.73,829.57,829.04,828.29,827.47,826.63,825.85,825.42,825.47,825.77,826.04,825.75,825.35,824.04,821.85,819.41,817.10,814.26,811.25,808.49,805.86,803.08,800.44,798.21,796.59,795.09,794.41,794.46,794.95,795.62,797.29,800.42,804.56,806.50,804.73,802.93,802.84,804.90,803.75,801.15,797.97,794.55,791.48,789.54,787.74,785.74,783.92,782.59,781.58,780.77,780.16,779.68,779.12,778.58,778.08,777.43,776.86,776.76,777.56,779.98,782.91,785.23,787.02,788.19,787.39,785.21,782.59,780.17,778.71,777.68,776.78,775.97,775.36,774.70,774.09,773.48,772.64,770.95,770.04,769.61,769.44,769.45,769.50,769.59,769.93,771.31,775.79,780.51,784.91,788.70,791.28,793.14,794.96,796.95,799.27,801.86,803.37,804.17,804.41,803.45,802.17,802.68,804.77,805.97,805.87,804.76,802.74,799.79,797.14,797.26,798.31,799.29,800.19,801.50,803.30,805.42,807.53,808.83,809.27,809.16,808.45,806.77,805.27,803.87,802.52,801.43,801.57,802.86,804.09,803.87,802.93,802.28,801.78,801.28,800.75,800.46,800.45
813.83,811.15,808.95,809.47,812.01,814.63,816.10,816.54,816.19,815.20,813.85,812.76,812.79,813.39,814.03,814.40,814.76,814.74,814.58,814.60,815.34,816.17,816.71,816.67,815.77,815.18,815.75,817.15,818.94,820.28,821.03,821.57,821.99,822.28,822.63,823.02,823.43,823.83,824.28,824.75,825.09,825.20,825.07,824.19,822.85,821.29,819.94,820.17,821.31,822.76,824.12,824.91,825.14,824.87,823.96,822.21,821.06,820.76,821.01,821.43,821.71,821.54,821.00,819.68,816.27,811.93,809.74,809.50,809.39,809.61,810.03,810.88,812.41,814.34,816.66,818.74,820.12,820.33,820.11,818.73,816.86,815.93,817.67,819.26,820.35,821.04,821.69,822.28,822.45,822.07,821.05,819.65,817.68,817.17,819.40,820.83,821.67,822.11,822.34,822.73,823.41,824.11,824.67,825.01,825.36,825.71,826.07,826.43,826.75,827.05,827.48,827.99,828.41,828.60,828.90,829.26,829.56,829.77,829.92,829.98,829.79,829.11,828.35,827.57,826.85,826.37,826.17,826.29,826.38,826.18,825.61,824.85,823.18,820.44,816.84,813.87,811.23,808.67,806.09,803.53,801.23,799.12,797.36,796.47,795.38,794.32,793.51,793.34,793.76,795.61,798.35,801.17,802.08,800.72,799.63,800.08,802.51,802.11,800.39,797.70,794.01,790.59,788.55,786.77,784.77,782.81,781.66,781.40,781.62,781.79,782.00,781.53,780.55,779.34,778.34,777.36,776.52,776.05,776.50,778.55,781.01,783.36,785.01,784.61,782.75,780.44,778.30,777.09,776.20,775.41,774.69,774.12,773.68,773.25,772.81,772.18,770.89,770.06,769.62,769.46,769.57,769.67,769.83,770.76,773.54,778.34,783.02,787.30,790.91,793.16,794.77,796.19,797.72,799.75,802.78,805.01,806.33,806.49,804.73,803.47,803.98,805.77,806.67,806.15,804.80,802.64,799.65,797.78,798.35,799.34,799.86,800.53,801.72,803.48,805.67,807.99,809.34,809.75,809.66,809.12,807.67,806.06,804.40,802.67,800.94,800.17,800.65,801.73,802.50,802.46,802.14,801.69,801.14,800.59,800.34,800.41
813.14,810.63,808.80,809.67,812.27,814.93,816.67,817.70,817.58,817.01,816.27,815.45,814.69,814.09,813.73,813.73,814.04,813.75,813.42,813.62,814.94,815.92,816.07,815.55,814.83,814.79,815.77,817.28,818.91,820.19,820.89,821.27,821.51,821.76,822.07,822.48,822.92,823.34,823.81,824.36,824.83,825.11,825.24,825.07,824.16,822.75,821.53,821.64,822.55,823.71,824.73,825.10,824.99,824.24,822.80,820.88,819.58,819.40,819.87,820.41,820.81,820.98,820.72,819.38,815.75,811.72,809.77,809.55,809.44,809.61,809.82,810.31,811.44,813.36,816.71,819.25,820.32,820.61,820.40,819.41,817.78,816.10,816.79,818.27,819.52,820.25,820.96,821.83,822.60,822.87,822.01,820.92,819.08,817.83,818.45,820.24,821.38,822.09,822.60,823.05,823.55,824.07,824.56,824.99,825.35,825.75,826.17,826.63,827.23,827.76,828.30,828.84,829.29,829.48,829.69,829.87,829.96,829.99,829.99,830.00,829.85,829.19,828.47,827.77,827.28,827.21,827.11,827.09,826.75,825.94,825.17,823.97,822.02,818.87,813.93,810.53,808.30,806.30,803.90,801.45,799.68,798.08,796.82,796.88,796.63,795.33,793.47,792.07,792.04,793.68,795.75,797.33,797.75,797.20,797.08,798.01,799.96,799.79,798.63,796.64,793.63,790.48,788.26,786.20,784.09,782.55,782.50,783.81,785.63,786.84,787.36,786.40,784.35,781.78,780.17,778.98,777.56,776.01,775.15,775.82,777.73,780.00,781.64,781.72,780.20,778.35,776.78,775.64,774.92,774.40,773.94,773.41,772.93,772.51,772.09,771.55,770.71,770.07,769.68,769.55,769.71,769.96,770.35,772.18,776.79,781.64,786.05,790.00,793.33,795.61,797.10,798.07,798.94,800.46,803.45,806.45,808.45,808.48,805.93,804.56,804.95,806.49,807.29,806.38,804.73,802.36,799.38,798.46,799.82,801.26,801.93,802.60,803.64,805.02,806.82,809.06,809.90,810.09,810.08,809.87,808.93,807.35,805.65,803.96,802.12,800.24,798.82,798.56,800.12,801.47,801.73,801.45,800.94,800.39,800.23,800.36
813.19,810.51,808.92,809.82,812.39,815.17,817.30,818.83,819.04,818.65,817.98,817.14,816.12,815.12,814.34,813.98,813.75,813.22,812.76,812.92,814.45,815.31,815.19,814.50,814.10,814.96,816.16,817.54,818.98,819.97,820.51,820.77,820.90,821.18,821.53,821.96,822.44,822.99,823.55,824.08,824.57,825.00,825.25,825.25,824.89,824.28,823.79,823.82,824.22,824.71,825.09,825.06,824.37,823.15,821.54,819.86,818.52,818.05,818.32,819.14,820.05,820.38,820.04,818.53,814.74,811.35,809.77,809.56,809.44,809.57,809.73,809.98,810.45,811.40,815.24,818.64,820.35,820.79,820.53,819.77,818.47,816.76,816.53,817.34,818.38,819.30,820.12,821.19,822.25,822.97,822.76,821.78,820.38,818.70,817.51,819.65,820.92,821.49,821.78,822.20,822.74,823.43,824.19,824.93,825.56,826.20,826.86,827.51,827.96,828.40,829.01,829.61,829.78,829.85,829.95,830.04,830.06,830.06,830.03,830.00,829.88,829.36,828.84,828.37,828.07,827.98,827.39,826.82,826.13,825.22,824.12,822.83,820.72,817.19,811.68,808.41,806.14,804.07,801.89,799.98,798.75,798.08,798.01,798.59,798.80,797.61,795.20,792.27,790.94,791.45,792.76,794.07,794.39,794.07,794.16,795.04,796.57,796.58,795.64,794.34,792.84,790.39,788.18,785.93,784.07,784.36,785.60,788.04,791.09,793.51,794.05,792.22,789.14,785.73,783.26,781.04,778.87,776.76,775.08,774.96,776.13,777.79,779.05,778.88,777.56,776.22,775.32,774.69,774.15,773.71,773.28,772.74,772.23,771.76,771.32,770.83,770.26,769.88,769.70,769.67,769.90,770.83,771.93,774.24,778.90,783.31,787.40,791.39,795.15,797.95,799.39,800.28,801.23,802.91,805.30,807.86,809.54,809.51,808.12,806.75,806.63,807.52,807.69,806.52,804.56,801.94,799.05,798.57,800.05,801.89,803.39,804.63,805.90,807.40,808.91,809.88,810.23,810.34,810.32,810.15,809.62,808.17,806.66,805.34,803.87,801.74,799.38,797.54,797.34,799.23,800.34,800.63,800.38,800.10,800.10,800.27
814.28,811.41,809.55,809.91,812.37,815.42,818.04,819.77,820.23,819.98,819.37,818.57,817.42,816.24,815.23,814.50,813.65,812.66,811.89,811.88,813.43,814.00,813.90,813.69,814.14,815.32,816.50,817.72,818.94,819.59,819.91,820.05,820.20,820.64,821.06,821.47,822.01,822.79,823.58,824.17,824.65,825.05,825.31,825.37,825.30,825.21,825.16,825.16,825.23,825.30,825.25,824.79,823.56,821.99,820.35,818.92,817.53,816.73,816.75,817.75,819.05,819.51,819.16,817.55,813.72,810.96,809.76,809.57,809.47,809.56,809.69,809.80,809.90,810.21,814.23,818.21,820.47,820.96,820.57,819.88,818.86,817.38,816.66,817.00,817.82,818.75,819.49,820.58,821.80,822.90,823.37,822.47,821.30,819.55,817.52,818.73,819.86,820.53,820.84,821.17,821.85,822.80,823.87,824.93,826.05,826.96,827.77,828.46,828.69,828.96,829.47,830.01,830.03,830.05,830.10,830.12,830.10,830.10,830.06,830.02,829.93,829.62,829.29,828.87,828.41,827.94,826.99,826.08,825.17,824.16,822.89,821.46,819.18,815.62,810.59,807.42,804.86,802.54,800.58,799.38,798.96,799.19,799.97,800.82,800.98,799.80,797.20,793.37,790.65,790.09,790.68,791.55,791.77,791.61,791.72,792.35,793.40,793.36,792.67,791.97,791.45,789.82,787.84,785.90,784.79,786.26,788.37,791.71,795.49,798.02,798.48,796.83,793.52,789.15,785.91,783.03,780.35,777.74,775.19,774.56,775.12,776.11,776.83,776.53,775.59,774.75,774.27,773.95,773.49,773.05,772.61,772.07,771.55,771.07,770.64,770.28,769.94,769.80,769.85,770.13,770.84,772.26,773.86,776.33,780.55,784.85,788.72,792.77,796.96,800.00,801.68,802.85,804.08,805.82,807.44,809.06,810.09,810.07,809.60,808.65,808.34,808.61,808.17,806.75,804.46,801.60,798.95,799.26,800.68,802.40,804.17,805.85,807.57,809.11,810.18,810.41,810.53,810.52,810.43,810.22,809.86,808.63,807.35,806.26,805.06,803.01,800.46,797.70,795.59,796.93,798.32,798.94,798.99,799.77,800.15,800.38
816.31,813.28,810.64,809.99,812.27,815.72,818.84,820.50,821.07,820.96,820.45,819.82,818.60,817.38,816.25,815.16,813.81,812.20,810.92,810.57,811.90,812.12,812.37,813.25,814.90,815.75,816.72,817.78,818.69,819.00,819.03,819.10,819.40,820.12,820.64,821.02,821.59,822.69,823.82,824.58,825.05,825.30,825.47,825.51,825.50,825.48,825.47,825.47,825.48,825.46,825.25,824.38,822.73,820.95,819.38,818.16,816.68,815.56,815.30,816.40,817.85,818.42,818.12,816.51,812.77,810.58,809.72,809.58,809.52,809.58,809.67,809.75,809.84,810.10,814.02,818.14,820.70,821.16,820.56,819.81,818.97,817.88,817.10,817.31,817.98,818.72,819.22,820.16,821.43,822.81,823.83,823.03,821.82,820.27,818.45,817.66,818.48,819.49,820.09,820.29,821.15,822.37,823.68,825.01,826.77,827.97,828.80,829.34,829.35,829.43,829.70,830.02,830.10,830.16,830.18,830.16,830.10,830.10,830.09,830.06,829.99,829.93,829.70,829.07,828.11,827.01,825.92,824.94,823.93,822.77,821.45,819.73,817.22,813.99,810.44,807.29,804.33,801.82,800.26,799.92,800.54,801.51,802.55,803.42,803.04,801.65,799.18,795.28,791.34,789.88,789.70,789.87,789.95,789.93,789.98,790.23,790.79,790.48,790.10,789.84,789.62,788.78,787.26,786.16,786.23,787.96,790.53,794.48,798.37,799.86,800.19,799.71,797.01,791.77,787.97,784.92,781.90,778.62,775.25,774.34,774.51,774.88,775.01,774.79,774.41,774.02,773.68,773.37,772.89,772.44,772.01,771.50,771.05,770.59,770.23,770.04,769.91,769.97,770.30,771.09,772.64,774.29,776.13,778.55,782.15,786.78,790.48,794.39,798.68,801.60,803.79,805.58,807.19,808.70,809.50,809.97,810.22,810.26,810.15,809.96,809.85,809.65,808.74,807.06,804.42,801.38,799.19,800.72,801.99,803.09,804.44,806.31,808.52,809.89,810.44,810.67,810.81,810.67,810.41,810.13,809.67,808.75,807.69,806.63,805.54,803.75,801.63,798.74,795.07,794.81,795.81,796.48,796.91,799.40,800.33,800.65
818.07,814.68,811.41,810.41,812.63,816.19,819.49,821.03,821.69,821.63,821.06,820.43,819.45,818.30,817.09,815.89,814.84,813.25,811.50,810.25,810.67,811.00,812.16,813.89,815.30,816.01,816.86,817.59,817.84,817.78,817.70,817.88,818.45,819.41,820.13,820.51,821.02,822.17,823.53,824.60,825.25,825.50,825.65,825.76,825.78,825.75,825.75,825.75,825.71,825.63,825.37,824.46,822.71,820.94,819.51,818.42,816.85,815.22,814.58,815.95,817.31,817.59,817.04,815.40,811.81,810.24,809.71,809.61,809.63,809.69,809.77,809.84,809.99,810.78,814.52,818.39,820.93,821.43,820.71,819.93,819.20,818.34,817.64,817.88,818.58,819.38,819.89,820.71,821.84,823.13,824.10,823.36,822.06,820.47,818.79,818.12,819.13,820.09,820.43,820.70,821.56,822.73,823.97,825.23,827.18,828.70,829.57,829.78,829.78,829.83,829.95,830.09,830.20,830.20,830.17,830.11,830.05,830.04,830.04,830.03,830.00,829.97,829.63,828.42,826.84,825.65,824.43,823.28,822.21,821.02,819.10,816.51,813.75,811.13,808.84,806.25,803.52,801.74,801.89,802.74,804.09,805.28,806.01,806.11,804.92,803.13,800.91,797.98,793.86,791.01,789.60,789.41,789.29,789.24,789.20,789.26,789.49,789.28,789.02,788.83,788.63,788.09,787.25,787.06,787.96,789.82,793.39,797.06,799.77,800.55,800.68,800.33,798.33,794.21,790.46,787.19,782.78,777.81,774.96,774.07,774.08,774.30,774.32,774.08,773.78,773.45,773.11,772.79,772.49,772.38,772.34,772.06,771.90,771.47,771.02,770.75,770.58,770.98,771.86,773.19,775.02,777.18,779.46,782.18,785.96,791.08,794.09,796.50,799.16,801.96,804.57,806.99,808.92,809.70,810.04,810.23,810.35,810.42,810.44,810.45,810.40,810.10,809.09,807.19,804.29,801.31,799.99,802.69,803.93,804.60,805.66,807.45,809.23,810.26,810.67,810.95,810.92,810.66,810.33,809.98,809.32,808.53,807.65,806.70,805.64,804.14,802.29,799.46,795.26,793.03,793.33,794.52,796.14,798.89,800.08,800.47
819.57,815.96,812.50,811.63,813.76,817.11,820.22,821.72,822.32,822.16,821.49,820.81,820.01,818.95,817.73,816.52,815.68,814.19,812.19,810.26,809.94,810.37,812.08,814.28,815.44,816.08,816.72,817.06,816.84,816.51,816.33,816.62,817.43,818.51,819.31,819.73,820.28,821.53,823.06,824.36,825.20,825.58,825.82,826.00,826.06,826.02,826.00,825.96,825.88,825.76,825.47,824.63,822.96,821.32,820.06,819.07,817.41,815.34,814.26,815.59,816.82,816.87,816.13,814.43,811.06,809.97,809.71,809.64,809.74,809.96,810.79,811.79,812.59,813.56,816.31,819.18,821.23,821.86,821.24,820.45,819.70,818.90,818.32,818.45,819.10,820.03,820.84,821.66,822.65,823.74,824.55,823.97,822.69,820.98,819.18,818.57,819.68,820.66,820.97,821.43,822.25,823.27,824.35,825.51,827.49,829.14,830.01,830.03,830.05,830.10,830.14,830.18,830.27,830.21,830.13,830.00,829.78,829.56,829.43,829.39,829.39,829.27,828.75,827.17,825.24,824.00,822.68,821.11,819.69,818.38,816.06,813.11,810.45,808.37,806.82,804.76,803.05,802.62,804.15,805.94,807.83,809.09,809.33,808.50,806.69,804.61,802.52,800.23,796.32,792.33,789.81,789.34,789.16,789.08,789.02,788.97,788.98,788.82,788.55,788.31,788.17,787.90,787.63,788.02,789.47,792.05,796.13,799.14,800.65,801.00,800.85,800.28,798.61,795.42,791.91,787.51,781.91,776.50,774.62,773.88,773.75,773.82,773.84,773.59,773.30,773.01,772.74,772.53,772.42,772.63,772.93,772.95,773.05,772.79,772.37,772.05,772.01,772.70,774.00,775.79,777.91,780.51,783.21,786.53,791.10,795.72,797.81,798.84,799.98,802.47,805.21,807.88,809.85,810.07,810.17,810.26,810.35,810.43,810.49,810.58,810.66,810.47,809.33,807.23,804.14,801.26,800.53,803.83,805.22,805.92,807.00,808.61,809.86,810.57,810.93,811.17,810.97,810.60,810.18,809.64,808.74,808.00,807.28,806.47,805.50,804.18,802.54,799.88,795.53,791.74,791.43,792.99,795.37,797.74,798.80,799.05
820.70,817.14,814.16,813.96,815.94,818.67,821.22,822.73,823.05,822.61,821.81,821.04,820.25,819.25,818.10,816.93,815.88,814.42,812.46,810.43,809.86,810.18,811.77,813.90,815.25,815.92,816.17,816.12,815.77,815.31,815.00,815.37,816.35,817.34,818.04,818.54,819.33,820.87,822.45,823.82,824.83,825.47,825.90,826.16,826.29,826.32,826.25,826.12,825.97,825.80,825.47,824.72,823.24,821.83,820.76,819.82,818.11,815.83,814.32,815.05,816.18,816.26,815.47,813.69,810.63,809.80,809.70,809.71,809.88,810.50,813.17,816.40,818.57,819.00,819.69,820.63,821.66,822.50,822.29,821.54,820.59,819.69,819.23,819.00,819.35,820.46,821.86,822.97,823.92,824.79,825.45,825.17,824.08,822.21,819.83,818.56,819.48,820.65,821.39,822.12,822.96,823.79,824.67,825.87,827.71,829.22,830.03,830.10,830.16,830.19,830.23,830.28,830.28,830.16,830.05,829.76,829.13,828.38,827.90,827.72,827.69,827.39,826.68,825.16,823.35,821.97,820.53,818.22,816.10,814.55,812.32,809.97,807.92,806.22,804.73,803.08,803.30,804.78,806.74,809.06,811.31,812.48,812.12,810.40,808.29,806.12,803.92,801.46,797.97,793.46,790.21,789.47,789.49,789.52,789.51,789.45,789.36,789.04,788.58,788.25,788.26,788.39,788.46,788.96,790.68,794.76,798.44,800.46,801.21,801.39,800.88,799.91,797.95,794.75,791.53,784.77,778.67,775.04,774.30,773.85,773.50,773.33,773.36,773.16,772.93,772.78,772.74,772.77,772.81,773.13,773.62,773.99,774.27,774.37,774.24,774.02,774.40,775.28,776.77,778.86,781.46,784.31,787.34,791.54,797.34,799.97,801.03,801.36,801.71,803.64,806.10,808.41,809.99,810.09,810.17,810.14,810.13,810.18,810.20,810.31,810.70,810.87,809.49,807.17,804.01,801.20,800.59,803.56,805.33,806.64,808.16,809.58,810.43,810.96,811.26,811.30,810.94,810.48,809.88,809.01,807.89,807.13,806.51,805.86,805.00,803.72,802.24,799.86,795.61,791.11,790.44,791.91,794.13,795.59,796.02,795.87
821.33,818.00,815.95,816.52,818.51,820.97,823.19,824.02,823.92,823.28,822.35,821.45,820.48,819.18,817.77,816.44,815.14,813.47,811.67,810.19,809.83,809.93,810.99,812.73,814.46,815.32,815.55,815.25,814.41,813.36,813.20,813.86,814.99,815.96,816.57,817.09,818.19,820.35,821.70,822.87,824.08,825.23,825.84,826.18,826.37,826.44,826.35,826.21,826.00,825.71,825.14,823.64,821.82,820.37,819.37,818.46,817.11,815.30,813.90,814.07,815.43,815.71,814.69,812.52,810.31,809.75,809.72,809.84,810.38,812.34,815.79,818.96,820.44,820.78,821.06,821.58,822.34,823.14,823.30,822.79,821.90,821.02,820.83,820.20,819.94,820.71,822.59,824.48,826.28,827.68,827.97,827.87,826.69,824.18,820.63,818.78,819.07,819.91,820.71,821.50,822.44,823.59,824.83,826.10,827.72,829.16,830.00,830.11,830.19,830.27,830.33,830.34,830.25,830.14,829.80,828.95,827.46,826.09,824.85,823.98,823.53,823.29,822.60,821.48,820.10,818.45,815.99,813.88,812.32,811.12,809.48,807.66,806.05,804.91,804.61,804.36,805.28,807.10,809.63,813.12,815.30,815.61,814.10,811.79,809.08,806.50,804.02,801.29,797.90,793.51,790.34,789.79,790.54,791.07,791.46,791.68,791.39,790.06,789.05,788.65,788.85,789.19,789.53,790.73,793.39,797.49,799.95,801.23,801.71,801.46,800.69,799.14,796.72,793.23,788.81,781.84,776.76,774.62,774.18,773.83,773.46,773.23,773.28,773.24,773.21,773.16,773.10,773.13,773.24,773.57,774.11,774.78,775.70,776.52,776.96,776.99,777.36,778.52,780.64,783.36,785.75,788.77,792.69,796.88,800.34,801.96,802.90,803.51,804.07,805.37,807.43,809.10,810.01,810.04,810.08,809.77,809.47,809.40,809.25,809.39,810.12,810.80,809.56,807.00,803.83,801.42,801.46,803.72,805.09,806.57,808.60,810.07,810.86,811.32,811.50,811.16,810.69,810.01,809.05,807.85,806.96,806.22,805.41,804.45,803.37,802.14,800.64,798.34,794.58,790.74,789.89,790.65,791.92,792.67,792.61,792.33
821.92,818.99,817.95,819.08,821.08,823.30,825.12,825.25,824.78,823.99,822.97,821.91,820.75,819.23,817.55,815.98,814.43,812.89,811.49,810.42,809.97,809.74,810.21,811.43,813.13,813.88,814.04,813.68,812.76,811.84,812.12,812.97,813.94,814.67,815.11,815.62,816.84,819.14,820.47,821.58,823.04,824.78,825.68,826.12,826.35,826.44,826.35,826.21,825.96,825.60,824.84,822.84,820.83,819.39,818.47,817.50,816.32,814.86,813.47,812.89,814.45,814.84,813.63,811.31,810.05,809.74,809.75,810.02,811.04,813.93,817.50,820.14,820.90,821.35,821.78,822.34,823.05,823.74,824.12,823.93,823.35,822.73,822.74,822.03,821.49,821.98,823.95,826.28,828.50,830.04,830.04,830.04,829.00,826.03,821.25,819.25,819.07,819.45,819.95,820.65,821.72,823.21,824.82,826.21,827.65,829.06,829.94,830.10,830.19,830.33,830.39,830.35,830.21,830.11,829.55,828.24,826.07,824.18,822.24,820.51,819.22,818.60,817.78,816.94,815.94,814.32,811.45,809.95,809.17,808.48,807.53,806.41,805.41,804.94,805.65,806.55,807.98,810.14,813.26,816.89,818.29,817.36,814.59,811.57,808.23,805.42,802.93,800.15,796.89,792.99,790.65,791.21,792.92,793.70,794.32,794.83,794.41,792.10,790.10,789.13,789.43,790.20,791.20,793.19,796.36,799.70,801.07,801.80,802.06,801.35,800.25,798.06,795.08,791.17,785.36,779.12,775.47,774.48,774.10,773.77,773.49,773.35,773.44,773.55,773.69,773.71,773.58,773.56,773.67,773.99,774.55,775.52,777.00,778.53,779.82,780.73,781.51,783.25,786.15,789.40,791.16,793.71,797.56,800.97,802.17,803.30,804.34,805.29,806.06,806.64,807.96,808.88,809.19,809.10,809.03,808.55,808.09,807.96,807.84,808.28,809.42,810.53,809.62,806.79,803.72,801.96,802.83,804.48,805.41,806.85,809.10,810.52,811.28,811.64,811.57,810.96,810.35,809.33,807.91,806.32,805.37,804.48,803.40,802.09,800.66,799.34,797.70,795.57,792.84,790.30,789.50,789.60,790.00,790.19,789.87,789.58
822.77,820.52,820.34,821.51,823.45,825.30,826.36,826.15,825.51,824.63,823.58,822.38,821.16,819.71,818.01,816.11,814.31,813.82,813.22,811.93,810.49,809.76,809.75,810.25,810.98,810.81,810.67,810.60,810.70,811.73,812.95,813.64,813.74,813.72,813.82,814.34,815.17,816.35,818.26,819.77,821.62,823.91,825.38,825.96,826.22,826.31,826.22,826.08,825.86,825.50,824.81,823.36,821.75,820.63,819.87,818.60,816.96,815.22,813.28,811.51,813.00,813.23,812.06,810.25,809.86,809.74,809.78,810.26,811.82,814.16,817.06,819.45,820.59,821.40,822.22,822.99,823.66,824.22,824.58,824.76,824.86,824.94,824.92,824.85,825.01,825.62,826.87,828.63,829.77,830.17,830.17,830.17,829.88,827.13,821.39,820.13,820.13,820.00,819.66,820.03,821.24,822.86,824.57,826.13,827.54,828.93,829.86,830.10,830.19,830.33,830.37,830.29,830.20,830.07,829.42,828.06,825.89,823.78,821.53,818.87,816.03,813.90,812.57,811.53,810.63,809.76,808.39,807.81,807.60,807.38,807.10,807.04,807.13,807.40,808.13,809.08,811.30,814.65,818.35,819.44,818.74,816.24,812.22,808.01,804.26,801.75,799.91,797.67,794.84,791.84,791.52,795.00,797.82,798.08,798.33,798.98,798.60,795.89,792.20,789.53,789.71,791.52,794.05,796.67,799.02,800.70,801.81,802.28,802.08,801.00,799.42,796.52,792.89,788.42,781.67,776.99,774.80,774.35,773.97,773.64,773.62,773.76,773.91,774.11,774.28,774.30,774.14,774.03,774.13,774.39,774.99,776.32,777.89,779.88,782.46,785.53,787.95,790.86,794.57,797.98,798.53,799.30,800.64,802.12,803.29,804.49,805.59,806.44,806.85,806.57,806.44,806.53,806.57,806.20,805.92,805.59,805.36,805.42,805.82,807.11,808.80,810.15,809.68,806.54,803.83,803.03,804.80,806.30,807.19,808.41,810.13,811.12,811.80,811.84,811.38,810.74,809.96,808.40,806.39,804.28,802.37,800.94,799.61,798.13,796.25,794.48,792.56,790.95,790.23,789.55,789.20,789.14,789.25,789.17,788.98,788.83
