803.60,804.03,804.43,805.03,805.71,806.62,807.96,809.57,811.43,813.07,814.30,814.88,814.51,814.46,814.54,814.21,813.83,813.42,812.74,811.78,811.02,810.38,809.86,809.66,810.21,811.14,812.17,813.16,814.08,815.00,815.51,815.44,814.89,814.18,813.28,812.33,811.37,810.36,809.16,807.55,806.00,804.93,804.68,804.52,804.43,804.44,804.60,804.75,804.75,804.46,803.71,802.56,801.41,799.97,797.71,793.91,791.28,789.20,787.19,784.89,782.00,779.26,776.27,772.94,769.92,764.94,760.88,758.61,758.38,759.81,761.04,761.31,760.33,758.82,757.04,755.63,754.57,753.15,751.74,750.45,748.86,746.49,744.26,742.01,741.18,742.64,745.73,748.33,750.97,753.85,756.92,759.94,762.83,765.70,768.24,768.82,762.82,754.87,747.43,741.74,737.86,736.22,736.83,739.85,743.07,746.43,750.65,756.16,762.42,767.47,771.11,773.86,776.57,778.71,779.71,779.45,777.38,772.72,767.85,763.76,760.87,759.17,756.93,753.60,749.19,743.83,738.94,734.98,734.65,739.13,744.43,749.89,754.95,759.06,761.39,763.88,766.47,768.81,770.67,772.70,774.36,774.07,772.00,771.04,772.03,774.70,779.18,785.51,788.83,790.26,790.90,791.22,791.60,792.00,792.24,792.17,791.60,791.02,789.96,787.95,784.70,781.29,776.53,773.46,773.28,774.77,777.45,780.64,783.13,782.84,779.13,771.95,764.50,759.13,756.52,756.41,757.85,760.16,762.27,761.87,758.40,752.99,746.95,742.44,738.98,738.10,740.64,745.53,749.42,752.05,753.47,753.38,751.83,748.96,745.57,742.09,738.64,735.07,731.88,729.41,728.34,730.00,733.82,738.69,743.74,748.51,752.35,755.88,759.26,762.22,765.16,768.13,770.55,771.29,771.37,771.28,771.21,771.13,770.63,768.70,764.66,759.67,757.05,754.79,752.68,751.06,750.48,750.74,751.47,751.95,751.79,750.74,748.01,743.44,737.25,730.37,728.28,731.97,737.26,741.18,744.38,747.53,751.61,756.87,762.87,767.14,769.90,771.39,771.56,771.06,769.49,765.65,759.74,755.44,751.06,745.52
803.47,803.93,804.55,805.46,806.55,807.74,809.13,811.07,813.17,814.83,815.87,816.24,815.89,815.19,814.50,814.03,813.62,813.21,812.61,811.85,811.38,810.86,810.43,810.39,811.20,812.18,813.21,814.28,815.29,815.95,816.43,816.34,815.70,814.84,813.90,812.92,811.94,810.97,809.86,808.09,806.27,804.95,804.72,804.58,804.48,804.45,804.58,804.73,804.84,804.64,803.88,802.69,801.47,799.58,796.52,792.01,789.45,787.57,785.73,783.63,781.42,779.69,778.16,776.46,773.69,767.06,762.05,760.20,761.56,764.25,766.45,767.21,766.01,763.97,761.68,759.59,757.79,756.24,755.12,754.18,752.89,750.60,747.79,744.32,741.57,740.56,741.68,742.69,744.59,747.64,751.75,755.78,759.13,762.12,764.86,766.61,762.17,755.23,748.01,742.18,737.90,736.15,736.98,740.39,743.79,747.26,751.42,756.68,762.61,767.38,770.79,773.38,775.99,778.07,779.05,778.27,774.95,769.71,764.48,760.28,757.41,755.50,752.59,748.83,744.39,739.48,735.60,733.79,735.30,740.38,745.61,751.39,756.73,760.75,762.30,764.30,766.30,768.06,769.62,771.73,774.85,776.08,775.05,774.84,775.84,778.14,782.38,788.79,790.26,790.71,791.02,791.26,791.56,791.83,791.82,791.49,790.92,790.10,788.56,786.36,783.51,780.15,774.87,771.25,770.92,773.12,776.19,779.31,781.65,781.71,778.07,772.13,765.33,758.88,754.95,753.95,754.44,755.59,756.62,756.55,754.58,750.89,745.85,741.38,737.45,737.01,741.23,747.59,750.79,752.50,753.11,751.92,749.83,745.82,741.22,737.03,733.23,730.03,728.03,727.40,728.29,732.10,736.72,741.42,746.04,750.32,753.82,757.24,760.70,763.66,766.62,769.13,770.82,771.10,770.48,770.13,770.04,769.97,769.58,766.60,762.14,757.53,754.66,752.00,749.96,748.53,747.89,748.73,749.96,750.59,750.14,748.72,745.26,740.02,733.63,727.79,728.48,734.08,740.09,743.75,746.93,750.94,756.39,762.42,766.32,769.60,771.43,772.07,771.77,770.73,768.65,765.14,760.26,755.53,750.56,744.50
803.84,804.15,804.65,805.63,807.09,808.63,810.23,812.84,814.79,815.95,816.44,816.52,816.45,815.65,814.67,814.15,813.70,813.20,812.81,812.54,812.15,811.69,811.33,811.37,812.23,813.21,814.18,815.09,815.90,816.59,817.19,817.11,816.35,815.48,814.46,813.44,812.44,811.44,810.41,808.53,806.49,804.96,804.73,804.62,804.54,804.49,804.53,804.67,804.81,804.68,804.00,802.82,801.64,799.77,796.48,791.06,788.69,787.27,786.18,785.49,784.67,783.90,782.81,780.88,777.21,769.75,764.60,763.63,766.95,770.00,771.78,772.22,771.34,769.90,767.54,764.48,761.30,759.33,758.55,758.09,757.15,755.04,752.60,749.93,747.12,744.28,741.93,739.38,739.63,742.75,747.28,751.79,755.34,758.35,761.22,763.99,761.46,755.74,748.78,743.19,738.60,736.16,736.66,740.85,744.62,748.20,752.35,757.44,762.95,767.51,770.56,772.64,774.98,777.40,777.57,775.80,772.18,766.21,760.87,756.84,754.11,751.88,747.82,742.89,737.98,734.05,731.94,733.75,737.57,742.21,747.06,752.91,758.01,761.53,763.03,764.61,766.26,767.85,769.37,771.47,774.43,777.00,778.57,779.26,780.40,782.64,785.85,789.26,790.12,790.31,790.42,790.62,790.91,791.27,791.25,790.84,790.16,788.32,786.07,783.80,781.37,777.32,772.40,769.40,769.49,771.82,775.20,778.47,780.70,780.52,777.65,772.94,766.41,758.48,752.59,750.80,750.61,750.81,750.92,750.88,749.74,747.20,743.14,738.84,735.56,736.32,741.89,748.69,751.41,752.05,751.64,750.16,746.83,741.97,736.63,731.80,728.73,726.49,725.99,727.20,729.63,735.19,740.48,745.14,749.59,753.33,756.31,759.15,762.08,764.95,767.79,769.92,770.94,770.23,768.74,767.95,767.69,767.57,767.14,764.42,760.74,756.94,753.68,750.69,748.41,746.68,745.71,747.11,748.72,748.89,747.01,743.95,740.28,734.51,728.14,725.38,729.72,736.64,742.63,746.10,749.57,755.42,761.24,765.92,769.26,771.26,772.38,772.49,771.18,769.52,767.04,763.83,759.88,755.22,749.54,742.91
804.27,804.53,805.00,806.17,807.75,809.56,811.67,814.25,815.82,816.61,816.89,816.93,816.93,816.17,815.11,814.35,813.82,813.38,813.10,813.02,812.92,812.62,812.27,812.27,813.21,814.24,815.25,816.19,817.00,817.67,818.13,817.91,817.06,816.06,814.96,813.91,812.89,811.86,810.85,809.12,807.03,805.20,804.85,804.73,804.65,804.58,804.52,804.62,804.75,804.74,804.31,803.18,802.02,800.51,797.98,793.37,790.64,789.12,788.40,788.38,788.26,787.80,786.38,783.54,779.26,771.60,767.00,767.00,770.96,773.99,775.51,775.69,774.66,773.30,771.18,768.38,765.45,763.81,763.28,762.96,762.09,759.95,757.04,754.28,751.45,748.34,745.02,741.43,739.39,739.55,742.52,747.28,751.57,755.09,758.05,761.06,760.47,756.21,749.59,744.22,739.43,736.27,736.25,740.96,745.06,749.00,753.27,757.97,762.56,766.21,768.98,771.35,774.10,776.56,775.96,773.14,768.74,762.40,757.40,753.23,749.43,745.65,741.21,736.80,733.19,731.41,731.53,735.15,739.76,744.00,748.55,754.49,759.21,762.05,763.40,764.63,766.32,768.08,769.61,771.77,774.59,777.38,779.47,780.08,780.91,782.67,785.08,787.46,788.48,788.72,788.84,789.26,790.18,790.74,790.80,790.24,788.74,786.01,783.21,780.90,778.84,774.51,770.40,768.18,768.52,771.01,774.32,777.58,779.60,778.73,776.31,772.39,766.63,758.97,751.70,748.78,747.36,746.17,745.01,744.41,743.28,741.13,737.72,734.39,732.64,734.77,741.27,748.78,751.05,750.98,749.82,747.45,743.52,737.87,732.32,728.23,725.62,725.39,726.81,729.70,734.32,739.43,743.56,747.29,751.48,755.69,758.94,761.77,764.49,767.22,769.23,770.10,769.52,767.06,764.64,763.41,762.73,762.22,762.34,761.20,759.10,756.32,753.03,749.67,746.78,744.60,743.76,745.50,746.62,745.66,742.26,737.92,733.51,728.47,724.74,726.77,733.75,740.05,744.79,748.53,753.60,759.22,764.44,768.69,771.42,772.56,772.68,771.96,770.18,767.54,764.65,761.69,758.49,754.45,748.98,742.25
804.85,805.17,805.69,807.03,808.62,810.63,813.16,815.38,816.54,817.09,817.31,817.41,817.40,816.72,815.62,814.57,813.99,813.64,813.42,813.39,813.57,813.48,813.19,813.17,814.16,815.25,816.35,817.40,818.27,818.85,819.06,818.67,817.73,816.58,815.42,814.36,813.32,812.25,811.22,809.77,807.81,805.79,805.25,804.97,804.80,804.67,804.55,804.58,804.70,804.79,804.62,803.62,802.49,801.37,799.80,796.65,793.69,791.99,791.38,791.54,791.63,791.03,789.01,785.24,780.38,772.91,769.14,770.11,774.36,777.24,778.50,778.44,777.23,775.82,774.02,771.88,769.76,768.63,768.30,767.98,767.10,764.96,761.45,758.07,755.01,752.10,748.77,745.10,741.11,737.97,738.41,742.77,747.68,751.90,755.09,758.06,759.21,756.41,750.30,745.15,740.21,736.33,735.71,740.82,745.19,749.44,753.67,757.78,761.45,764.35,767.20,770.27,773.46,775.47,774.00,770.09,764.68,758.30,753.56,749.08,744.20,739.13,734.87,731.71,730.07,730.77,733.09,737.48,742.08,745.98,750.09,755.88,760.05,762.06,763.11,764.22,766.26,768.42,770.04,772.31,775.00,777.38,778.86,778.93,779.31,780.60,782.61,784.84,786.14,786.47,786.67,787.40,789.01,789.94,790.19,789.51,787.14,783.81,780.67,778.22,776.27,772.03,768.69,767.15,767.80,770.47,773.61,776.68,778.34,776.70,774.55,771.23,766.42,759.74,751.66,747.80,745.40,743.20,741.27,740.11,738.72,736.60,733.49,730.58,729.87,732.72,739.45,747.46,749.67,749.27,747.56,744.31,739.72,733.69,728.42,725.43,723.78,725.62,729.14,733.83,739.95,744.07,746.84,749.55,753.37,757.98,761.58,764.53,767.11,769.40,770.39,769.75,767.40,763.27,759.88,758.18,757.07,756.04,756.37,756.88,756.61,755.19,752.47,748.81,745.08,742.34,741.93,743.92,744.29,741.92,736.90,731.57,726.65,723.38,723.57,730.21,738.34,743.37,746.94,751.29,757.77,762.50,766.78,770.75,772.93,773.24,772.31,770.73,768.61,765.11,761.96,759.22,756.60,753.30,747.94,740.99
805.89,806.47,807.27,808.50,810.02,812.03,814.40,815.95,816.90,817.47,817.80,818.02,817.91,817.24,816.09,814.76,814.28,813.96,813.72,813.65,813.81,813.99,814.01,814.17,815.04,816.24,817.46,818.60,819.51,819.82,819.82,819.25,818.19,817.04,815.88,814.78,813.71,812.63,811.57,810.43,808.97,807.34,806.48,805.59,805.01,804.75,804.66,804.61,804.67,804.77,804.74,804.06,803.04,802.01,800.93,799.36,797.23,795.68,794.80,794.38,793.90,792.40,789.77,785.75,780.10,773.42,770.62,772.38,777.38,780.04,780.88,780.64,779.70,778.44,776.84,775.20,773.78,772.99,772.72,772.32,771.50,769.80,766.16,761.48,757.41,754.47,751.36,747.81,743.88,739.85,736.86,738.89,743.43,748.33,752.32,755.26,757.31,755.75,750.65,745.70,740.67,736.10,734.86,740.28,744.75,748.81,752.36,755.43,758.82,762.28,766.37,770.63,773.50,773.75,771.02,765.97,759.31,753.51,748.24,743.32,738.75,734.72,731.65,730.18,730.61,733.48,737.41,741.19,744.89,748.56,751.80,756.64,759.77,760.72,761.01,762.67,765.63,768.58,770.60,773.04,775.54,776.73,776.30,775.47,775.40,776.87,779.44,782.14,783.22,783.42,783.67,784.61,786.50,788.11,788.88,788.34,785.67,782.65,779.58,776.70,774.00,770.56,767.36,766.08,767.35,770.28,773.38,775.84,776.65,774.57,772.41,769.63,765.82,760.33,752.79,749.06,747.04,745.74,745.08,744.10,742.54,740.17,736.47,731.22,728.84,730.06,735.12,742.68,746.07,746.20,744.31,740.85,734.66,729.55,725.62,723.27,724.57,727.43,733.11,740.31,744.70,748.64,751.54,754.13,757.26,760.74,764.01,766.94,769.22,770.16,770.29,768.40,764.75,760.17,755.75,753.52,752.15,750.58,749.28,750.12,751.51,752.43,751.73,748.11,743.25,739.78,740.27,742.52,742.23,738.33,731.43,725.67,721.63,722.19,727.42,736.03,741.47,745.33,749.52,755.05,760.67,764.77,768.23,771.28,773.24,772.23,770.40,768.26,765.54,762.10,759.20,756.65,754.20,751.37,744.75,736.58
807.29,807.99,808.85,810.00,811.40,813.23,815.33,816.48,817.24,817.80,818.23,818.51,818.32,817.63,816.43,814.92,814.50,814.22,814.00,813.91,814.05,814.31,814.49,814.84,815.90,817.21,818.46,819.51,820.22,820.41,820.23,819.60,818.60,817.45,816.32,815.20,814.10,813.02,811.97,811.03,809.97,808.82,807.92,806.79,805.74,804.99,804.77,804.66,804.67,804.75,804.79,804.49,803.63,802.66,801.73,800.77,799.45,798.41,797.60,796.74,795.26,792.98,789.98,786.02,780.65,774.79,772.81,774.92,779.28,781.73,782.70,782.67,781.88,780.94,779.72,778.52,777.51,776.93,776.59,776.10,775.12,773.04,769.31,764.51,760.08,756.62,753.49,750.10,746.27,741.95,737.48,736.14,739.43,744.50,748.95,752.45,754.99,754.61,751.04,746.11,740.92,735.89,734.12,739.21,743.30,746.71,749.87,753.14,757.27,761.83,766.66,771.11,773.48,772.54,768.75,762.75,755.31,749.95,745.23,740.44,735.70,732.02,730.17,730.45,732.63,736.59,740.52,743.99,747.32,750.47,752.72,755.45,757.08,757.72,758.90,761.51,765.09,768.54,771.03,773.38,775.13,775.26,773.82,772.44,771.93,772.91,775.27,778.48,779.82,780.52,781.13,782.00,783.81,785.71,786.82,786.61,784.46,781.92,778.96,775.80,772.59,769.10,765.79,764.79,766.73,769.97,773.21,774.99,774.78,772.27,770.06,767.55,764.60,760.80,755.49,752.72,751.20,750.34,750.03,748.98,746.97,744.09,739.96,733.69,729.19,728.21,731.43,737.54,741.43,741.93,739.77,735.78,729.91,725.57,723.14,723.04,725.95,730.80,737.35,744.16,748.13,752.17,755.41,758.06,760.54,763.27,766.09,768.48,769.96,770.03,768.82,765.99,761.99,757.46,752.69,749.90,747.72,745.19,743.70,745.12,747.54,749.64,749.78,746.65,741.73,737.88,738.01,740.45,739.31,734.00,725.96,721.03,720.27,724.47,731.99,739.65,743.82,747.48,752.15,758.01,762.34,765.82,768.83,771.36,772.90,771.33,768.87,766.22,763.32,760.00,757.11,754.51,751.63,746.93,738.34,729.80
808.82,809.51,810.32,811.41,812.71,814.30,816.04,816.93,817.54,818.08,818.58,818.88,818.60,817.84,816.60,815.04,814.63,814.40,814.20,814.11,814.26,814.49,814.75,815.32,816.70,818.10,819.31,820.17,820.60,820.80,820.50,819.88,819.00,817.86,816.76,815.62,814.48,813.41,812.41,811.58,810.82,810.09,809.33,808.25,806.81,805.43,804.88,804.73,804.71,804.73,804.81,804.83,804.17,803.28,802.37,801.48,800.82,800.32,799.75,798.62,796.11,793.19,789.91,786.05,781.39,776.46,775.31,777.60,780.74,782.97,784.30,784.66,783.99,783.39,782.54,781.63,780.82,780.35,779.90,779.30,777.96,775.03,771.11,766.73,762.35,758.32,755.13,751.91,748.21,743.88,738.96,734.41,735.92,740.50,745.08,749.34,752.31,753.18,751.41,746.72,741.19,735.75,733.47,737.73,741.16,743.86,747.09,751.55,756.76,762.38,767.48,771.47,773.27,771.73,767.38,760.79,752.82,747.80,743.95,739.45,734.29,730.52,729.68,731.40,734.84,739.10,742.27,745.49,748.57,751.06,752.44,753.01,753.35,754.29,757.26,760.88,764.82,768.48,771.32,773.45,774.18,773.46,771.63,769.92,769.03,769.32,771.09,774.48,776.26,777.78,778.92,779.67,781.20,783.10,784.36,784.52,783.19,781.16,778.32,775.03,771.50,767.50,764.03,763.32,765.89,769.45,772.87,774.14,773.15,770.31,768.10,765.81,763.60,761.47,758.85,757.31,756.31,755.62,755.10,753.77,751.12,747.53,743.04,736.59,730.15,726.92,728.23,732.55,736.36,736.96,734.52,730.04,725.47,722.17,721.44,723.98,727.62,734.59,741.25,746.42,750.71,754.96,758.46,761.14,763.09,765.37,767.66,769.30,769.87,769.14,766.56,763.12,759.31,755.32,750.92,747.98,745.03,741.40,739.69,741.23,744.03,746.57,746.84,744.49,740.16,736.10,735.06,737.59,735.61,729.27,721.00,717.96,721.32,728.51,736.55,741.87,745.61,749.53,754.39,759.88,762.89,766.04,768.95,771.22,772.29,770.66,767.83,764.72,761.72,758.38,755.33,752.34,748.32,740.60,730.43,722.65
810.15,810.69,811.45,812.45,813.84,815.32,816.56,817.14,817.68,818.22,818.71,818.96,818.51,817.56,816.31,815.01,814.60,814.36,814.16,814.08,814.27,814.55,814.96,815.74,817.24,818.74,819.78,820.45,820.85,821.21,820.98,820.36,819.46,818.36,817.23,816.01,814.80,813.75,812.84,812.07,811.39,810.76,810.20,809.50,808.13,806.37,805.07,804.79,804.74,804.73,804.81,804.87,804.47,803.77,802.92,802.17,801.55,801.08,800.58,799.51,796.86,793.54,789.72,785.43,780.94,777.37,777.41,780.14,782.75,784.77,786.19,786.82,786.50,785.92,784.91,783.84,782.96,782.53,782.08,781.25,779.31,775.35,770.74,766.35,762.27,758.59,755.59,752.54,749.11,744.92,739.46,734.52,733.88,736.29,740.36,744.98,749.13,751.57,751.57,748.51,741.92,735.75,732.91,735.73,738.33,741.00,745.62,752.50,758.05,763.53,768.05,771.24,772.52,771.33,768.05,762.01,753.43,748.65,744.61,739.79,734.35,730.33,729.64,731.46,734.71,738.43,741.34,743.68,745.79,747.68,748.99,749.67,750.60,752.75,757.41,761.53,765.41,768.83,771.40,773.27,773.16,771.97,770.23,768.41,767.31,767.63,769.06,771.07,773.04,775.25,777.02,778.08,779.31,780.77,781.89,782.20,781.16,779.28,776.61,773.44,769.85,765.40,761.94,761.60,764.65,768.37,771.71,773.35,772.89,770.21,768.26,766.52,764.86,763.24,761.54,760.59,760.05,759.62,758.83,756.90,753.29,748.77,743.82,737.54,730.72,726.10,725.33,728.61,731.51,731.63,729.16,725.15,721.55,720.80,722.32,725.53,729.40,736.72,743.30,748.10,752.62,757.00,760.11,762.28,764.13,766.24,767.83,769.02,769.29,767.01,763.96,760.54,757.26,754.76,752.27,750.84,748.64,744.23,738.89,737.80,739.59,742.24,742.50,741.14,737.58,733.25,730.61,732.92,730.48,724.50,718.21,718.58,724.38,732.49,739.94,743.37,746.70,750.59,754.94,759.14,761.53,765.46,768.91,771.05,771.94,770.62,767.89,764.46,760.68,756.65,753.36,749.12,742.29,731.95,723.27,718.95
811.25,811.73,812.53,813.48,814.83,816.07,816.85,817.26,817.77,818.32,818.75,818.77,818.13,817.11,815.96,814.94,814.54,814.25,814.04,814.03,814.30,814.60,815.14,816.08,817.68,819.21,820.10,820.64,821.05,821.47,821.33,820.77,819.89,818.83,817.67,816.40,815.17,814.15,813.34,812.63,811.98,811.37,810.89,810.34,809.20,807.46,805.52,804.95,804.79,804.76,804.81,804.88,804.70,804.20,803.45,802.75,802.05,801.46,800.87,799.80,796.86,793.10,788.98,784.69,780.64,778.80,779.86,782.60,784.75,786.67,787.99,788.67,788.66,788.14,787.06,785.84,784.72,783.81,782.85,781.72,779.43,774.89,770.60,766.53,762.54,758.86,756.25,752.82,749.14,745.09,739.98,735.31,732.83,732.77,735.39,739.60,744.28,748.09,750.02,748.54,742.10,735.87,732.66,734.32,736.70,740.35,746.25,754.05,759.64,764.86,768.70,771.02,771.87,771.05,768.49,763.16,754.97,750.00,745.00,739.48,733.95,730.18,729.50,731.01,733.69,736.69,739.30,741.09,742.64,744.31,745.96,747.57,749.67,752.88,758.04,762.12,765.71,768.80,771.13,772.66,772.19,770.85,769.13,767.24,765.99,766.33,767.69,769.14,771.05,773.37,775.23,776.13,776.55,777.50,778.67,779.48,778.85,777.17,774.64,771.52,767.75,763.14,760.40,760.76,764.02,767.49,770.22,771.98,772.38,770.80,769.14,767.70,766.37,765.05,763.76,762.97,762.40,761.76,760.57,758.11,753.98,749.07,744.01,737.75,730.82,725.38,723.12,725.14,727.13,726.80,724.38,721.20,719.63,721.19,724.27,727.79,731.90,738.60,744.71,749.51,754.15,758.34,761.04,762.81,764.42,766.20,767.49,768.57,768.96,766.85,763.61,760.37,757.65,755.90,754.44,753.17,750.89,746.33,739.17,735.95,735.40,735.88,735.20,734.37,731.65,728.05,725.73,727.39,725.05,720.28,716.35,719.54,727.21,735.38,741.73,744.23,746.84,750.11,753.58,756.70,759.14,763.75,768.11,770.89,771.52,770.35,767.50,763.70,759.54,755.02,750.29,744.10,735.55,725.12,718.19,716.52
812.19,812.68,813.59,814.51,815.66,816.56,816.93,817.32,817.82,818.33,818.64,818.34,817.56,816.59,815.62,814.84,814.47,814.11,813.91,813.99,814.33,814.66,815.28,816.38,818.04,819.52,820.30,820.77,821.21,821.60,821.60,821.16,820.33,819.28,818.08,816.80,815.60,814.63,813.89,813.24,812.60,811.95,811.44,810.85,809.99,808.54,806.19,805.15,804.84,804.80,804.82,804.88,804.88,804.56,803.92,803.21,802.40,801.62,800.85,799.67,796.32,792.22,788.15,784.41,781.26,781.18,782.87,785.14,786.83,788.63,789.70,790.26,790.41,789.91,788.80,787.46,785.99,784.32,782.59,781.13,778.81,774.46,771.41,768.01,764.02,759.98,757.54,753.13,748.82,744.97,740.85,736.76,732.96,730.58,730.95,733.95,738.29,742.92,746.57,746.51,741.42,735.83,732.48,733.52,736.23,741.57,748.47,755.77,761.28,766.26,769.43,770.86,771.31,770.69,768.20,763.41,756.42,751.00,744.71,738.38,732.99,729.87,729.28,730.48,732.59,734.90,737.00,738.45,739.86,741.64,743.91,746.76,750.21,754.26,758.93,762.55,765.66,768.42,770.60,771.70,771.21,769.88,768.08,766.14,764.88,765.26,766.74,768.35,770.05,772.06,773.57,773.91,773.25,773.60,774.95,776.47,776.39,774.96,772.52,769.31,765.30,760.80,759.34,760.62,763.85,766.72,768.58,770.22,771.49,771.52,770.26,768.95,767.75,766.60,765.39,764.43,763.47,762.32,760.67,757.82,753.56,748.74,743.80,737.44,730.51,724.74,721.50,722.04,723.18,722.52,720.34,718.38,719.47,722.87,726.86,730.71,735.13,740.75,746.08,750.77,755.36,759.10,761.40,762.85,764.09,765.45,766.82,768.08,768.84,768.19,765.04,762.13,760.01,758.26,756.84,754.63,751.66,747.43,740.34,735.91,732.63,729.81,727.75,726.79,724.63,722.11,721.00,721.63,719.78,716.78,715.27,720.43,729.30,736.98,742.02,744.17,745.86,748.08,750.55,753.07,756.20,761.38,766.76,770.70,771.01,769.72,766.49,762.29,758.03,753.13,746.31,738.13,729.13,720.40,714.92,714.83
813.09,813.64,814.51,815.39,816.11,816.63,816.93,817.28,817.73,818.06,818.13,817.79,817.14,816.24,815.35,814.75,814.36,814.02,813.86,813.98,814.34,814.66,815.43,816.69,818.35,819.67,820.38,820.83,821.25,821.67,822.01,821.79,820.96,819.76,818.53,817.31,816.16,815.20,814.42,813.77,813.14,812.49,811.83,811.16,810.42,809.18,806.88,805.35,804.88,804.85,804.82,804.88,804.90,804.66,804.14,803.39,802.61,801.73,800.83,799.58,796.02,792.27,789.15,786.99,785.78,786.25,787.34,788.55,789.63,790.70,791.41,791.72,791.49,790.49,789.05,787.43,785.72,783.94,782.14,780.50,778.78,776.80,775.53,773.31,769.80,765.25,760.97,754.75,749.88,746.58,743.22,739.63,736.05,732.66,730.20,730.68,732.84,736.21,739.82,741.00,738.62,734.36,731.42,733.31,736.68,743.65,751.01,757.00,762.62,767.48,770.10,770.78,770.69,769.50,765.53,760.19,754.78,749.18,742.55,736.32,731.49,729.00,729.20,731.25,733.97,736.05,736.91,737.69,739.00,741.17,744.13,747.42,751.49,756.02,759.98,762.72,765.37,767.93,769.91,770.60,769.88,768.34,766.32,764.37,763.70,764.57,766.28,767.89,769.45,771.11,772.16,772.04,771.07,770.52,771.63,773.64,774.04,772.69,770.11,766.68,762.63,758.54,758.33,760.39,763.37,765.43,767.04,768.59,770.00,770.82,770.51,769.54,768.31,766.99,765.49,764.18,762.91,761.52,759.70,756.77,752.63,747.96,743.04,736.62,729.98,724.23,720.33,719.39,719.73,719.05,717.84,718.15,720.72,724.78,729.48,734.44,739.34,744.85,749.02,752.07,756.08,759.30,761.07,762.00,762.85,764.11,765.92,767.56,768.64,768.93,766.50,764.50,763.04,760.71,758.25,755.57,752.58,748.81,743.06,739.30,736.24,733.54,731.75,729.00,725.51,721.73,718.45,717.55,716.16,714.88,715.35,720.78,729.05,736.12,740.52,741.53,742.52,743.80,745.78,749.01,753.89,759.79,765.72,770.22,770.46,768.29,764.42,759.87,755.19,749.28,741.96,734.22,726.49,718.70,713.08,713.23
813.88,814.50,815.28,815.94,816.33,816.60,816.87,817.13,817.45,817.63,817.56,817.25,816.70,815.89,815.11,814.63,814.24,813.89,813.78,813.97,814.35,814.69,815.53,816.89,818.51,819.74,820.41,820.86,821.27,821.72,822.22,822.15,821.38,820.13,818.93,817.79,816.72,815.74,814.87,814.16,813.50,812.81,812.04,811.31,810.61,809.52,807.38,805.50,804.90,804.88,804.85,804.89,804.90,804.72,804.27,803.55,802.77,801.86,800.92,799.79,796.98,794.06,791.76,790.47,790.28,790.74,791.25,791.72,792.30,792.78,792.98,792.86,792.26,790.99,789.52,787.92,786.24,784.55,782.81,781.19,779.97,779.42,779.07,777.88,775.11,770.39,764.61,757.84,753.21,750.36,747.01,743.62,740.23,736.33,732.06,730.07,729.89,731.33,733.80,735.47,735.08,732.38,730.49,733.35,737.31,744.98,752.42,757.73,763.24,768.03,770.35,770.59,770.14,767.82,762.72,756.97,752.09,746.13,739.86,734.25,730.10,728.50,729.99,733.35,736.99,739.02,738.99,738.99,739.70,741.56,744.79,748.07,752.47,757.43,760.86,763.13,765.42,767.57,768.91,768.77,767.62,766.00,764.15,762.40,762.44,763.81,765.75,767.47,768.93,770.03,770.44,769.87,768.75,768.17,769.31,771.37,771.72,770.19,767.44,763.92,759.89,756.20,757.16,759.88,762.58,764.21,765.80,767.30,768.66,769.68,769.92,769.38,768.35,766.93,765.24,763.64,762.08,760.38,758.14,755.18,751.15,746.49,741.39,734.99,728.88,723.49,719.29,717.15,716.74,716.56,716.86,718.97,722.53,726.96,732.10,737.82,743.12,748.11,751.42,753.47,756.41,758.81,760.11,760.78,761.45,762.68,764.74,766.75,768.27,769.25,768.07,767.16,766.23,763.39,759.96,756.75,753.68,750.37,746.15,743.24,741.24,739.90,738.89,734.98,729.75,724.09,718.79,715.66,713.67,713.17,715.11,720.64,728.15,734.06,737.41,738.17,739.10,740.16,742.17,746.10,752.17,758.57,764.50,768.80,769.08,766.38,762.24,757.52,752.40,745.74,738.73,731.87,724.98,717.17,711.67,712.03
814.56,815.21,815.84,816.13,816.36,816.56,816.71,816.87,816.99,817.04,816.98,816.74,816.25,815.54,814.88,814.49,814.10,813.73,813.65,813.96,814.35,814.73,815.60,816.94,818.50,819.73,820.41,820.87,821.31,821.72,822.16,822.13,821.48,820.35,819.25,818.21,817.19,816.20,815.22,814.40,813.64,812.88,812.11,811.34,810.61,809.60,807.67,805.60,804.91,804.90,804.89,804.90,804.90,804.74,804.35,803.72,802.92,802.03,801.16,800.33,799.16,797.44,795.69,794.38,794.00,794.00,794.12,794.26,794.44,794.58,794.21,793.58,792.79,791.63,790.50,789.27,787.88,786.40,784.76,783.37,782.37,781.87,781.33,780.83,778.91,774.53,767.99,762.27,758.69,756.14,752.11,748.54,744.99,740.89,736.13,732.15,729.95,729.17,729.58,730.81,731.22,730.17,729.96,733.65,738.11,745.46,752.63,758.03,763.12,767.70,769.86,769.96,769.28,765.60,760.16,754.39,748.88,742.43,736.99,732.32,728.89,728.48,731.58,736.47,741.17,743.44,743.13,742.34,741.93,742.65,745.55,748.44,752.94,758.24,761.47,763.76,765.85,767.37,767.56,766.21,764.46,762.93,761.69,760.49,761.26,763.02,765.12,767.04,768.35,768.67,768.28,767.31,766.11,766.39,767.88,769.55,769.37,767.43,764.51,760.95,756.99,753.90,755.89,759.09,761.56,763.22,764.87,766.37,767.57,768.28,768.50,768.43,767.85,766.57,764.85,763.10,761.25,759.06,756.10,753.05,749.05,744.25,738.79,732.55,727.16,722.40,718.28,715.36,714.45,715.29,717.43,720.68,724.84,729.53,734.76,740.53,746.02,749.97,752.76,754.74,756.28,757.63,758.62,759.37,760.12,761.38,763.46,765.74,767.82,769.28,769.70,769.95,769.39,766.32,762.21,758.37,755.01,752.13,749.38,747.21,746.53,747.11,747.00,742.89,735.96,728.31,721.78,715.96,712.27,711.47,714.19,719.93,726.89,731.26,733.23,734.79,736.30,737.88,740.37,744.67,750.95,757.61,763.08,766.48,766.82,764.14,760.11,755.41,749.92,743.07,736.94,730.88,723.93,715.27,710.49,711.22
815.22,815.69,816.04,816.26,816.42,816.49,816.46,816.47,816.50,816.49,816.43,816.32,815.92,815.27,814.64,814.30,813.91,813.57,813.54,813.91,814.34,814.74,815.63,816.97,818.42,819.66,820.36,820.80,821.22,821.65,822.00,821.85,821.17,820.25,819.32,818.34,817.35,816.39,815.43,814.58,813.76,812.94,812.17,811.40,810.64,809.62,807.78,805.75,804.99,804.90,804.90,804.90,804.90,804.72,804.33,803.79,803.07,802.30,801.56,800.93,800.28,799.47,798.57,797.66,796.81,796.17,795.61,795.02,794.39,794.23,794.01,793.62,793.05,792.34,791.59,790.63,789.47,788.30,786.93,785.67,784.64,783.89,783.08,782.21,780.63,777.19,770.34,766.08,763.54,761.20,757.08,752.90,748.66,744.34,739.94,735.83,732.78,730.53,729.07,728.65,728.54,728.72,730.26,734.70,740.00,747.01,753.55,758.48,762.84,765.90,767.09,766.66,765.17,762.09,757.59,752.39,746.83,740.54,734.87,730.27,727.57,728.41,732.26,737.89,743.70,747.58,747.72,746.62,745.36,744.71,746.11,748.54,752.75,757.84,761.38,763.90,766.09,767.13,766.03,763.94,761.79,760.13,759.37,759.96,761.25,762.98,764.94,766.73,767.03,766.51,765.72,764.83,763.66,763.93,765.25,766.67,766.45,764.55,761.14,756.95,753.18,752.61,755.24,758.42,760.95,762.61,764.14,765.39,766.26,766.63,766.77,766.85,766.73,766.09,764.41,762.59,760.38,757.49,753.69,750.19,746.22,741.41,735.61,730.06,725.18,720.87,717.12,714.14,714.47,716.41,719.46,723.93,728.38,733.22,737.89,742.22,747.20,750.42,752.55,754.08,755.25,756.33,757.39,758.46,759.61,761.11,763.29,765.71,768.00,769.82,771.16,772.07,771.91,769.31,765.02,760.44,756.66,754.23,752.43,751.02,750.63,750.96,750.28,746.10,739.04,730.91,723.36,716.64,712.04,710.29,712.29,718.34,725.17,729.73,732.16,734.01,735.87,737.82,740.49,744.50,749.54,756.55,762.02,764.71,764.93,762.50,758.19,753.06,747.84,742.19,736.58,729.91,721.65,713.02,709.24,710.29
815.70,815.97,816.13,816.35,816.45,816.42,816.26,816.15,816.11,816.08,816.04,815.97,815.59,814.95,814.32,813.93,813.54,813.22,813.23,813.65,814.12,814.63,815.61,816.93,818.24,819.45,820.18,820.65,821.04,821.48,821.74,821.51,820.85,820.12,819.24,818.29,817.33,816.42,815.49,814.64,813.81,812.99,812.23,811.46,810.69,809.67,807.94,805.97,804.92,804.55,804.57,804.67,804.71,804.53,804.13,803.67,803.08,802.47,801.88,801.37,800.90,800.55,799.97,798.91,797.38,796.21,795.21,794.21,793.16,792.88,792.84,792.72,792.39,792.11,791.71,791.09,790.27,789.48,788.50,787.42,786.35,785.38,784.38,783.11,781.60,778.96,772.92,769.92,768.05,765.73,761.46,756.68,752.00,747.74,744.02,740.36,737.06,733.98,731.11,728.72,727.40,727.98,730.67,735.96,742.76,749.12,754.32,758.17,761.41,763.07,763.38,762.58,760.71,758.59,755.36,750.97,745.32,738.83,732.98,728.49,726.36,728.27,732.55,738.54,745.06,750.23,751.22,750.17,748.46,746.99,747.13,749.06,752.83,757.51,761.20,763.85,766.07,766.75,764.77,762.35,759.95,758.26,757.99,759.96,761.57,763.20,764.84,765.97,765.43,764.39,763.39,762.49,761.33,761.42,762.49,763.75,763.66,761.25,757.24,752.88,749.91,751.54,754.55,757.65,760.30,761.99,763.30,764.21,764.76,765.00,765.25,765.50,765.66,765.41,764.03,762.27,759.82,756.51,752.23,748.39,744.41,739.34,732.74,727.75,723.26,719.24,715.80,713.10,714.91,718.11,722.05,727.41,732.19,736.71,740.47,743.43,747.53,750.16,751.85,753.06,754.26,755.49,756.79,758.17,759.70,761.55,763.86,766.31,768.72,770.95,772.84,774.10,774.10,771.61,767.49,762.71,758.80,756.70,755.52,754.58,753.77,752.92,751.38,747.57,741.28,733.55,725.45,717.99,712.50,709.65,710.58,716.27,723.06,728.34,731.74,733.70,735.77,737.90,740.54,744.09,748.13,754.95,760.47,763.14,763.17,760.78,756.27,750.97,746.06,741.38,736.05,728.74,719.44,711.36,708.09,709.12
815.91,816.04,816.19,816.41,816.44,816.34,816.18,815.98,815.88,815.86,815.87,815.69,815.18,814.53,813.87,813.31,812.90,812.57,812.61,813.06,813.56,814.35,815.50,816.81,817.93,819.02,819.83,820.39,820.79,821.17,821.38,821.18,820.62,820.01,819.03,818.06,817.13,816.27,815.35,814.53,813.75,812.98,812.27,811.52,810.75,809.77,808.18,806.24,804.57,803.63,803.69,804.06,804.22,804.07,803.69,803.29,802.87,802.44,802.00,801.53,801.07,800.56,799.34,797.15,794.78,793.31,792.32,791.51,790.80,790.59,790.55,790.50,790.38,790.36,790.25,790.08,789.82,789.42,788.95,788.16,787.16,786.15,785.15,783.78,782.10,779.85,776.19,774.02,772.21,769.65,764.95,759.72,755.11,751.41,748.58,745.64,742.65,739.52,735.95,731.53,728.36,728.12,730.96,737.27,746.26,751.48,754.47,756.55,758.19,759.09,759.06,758.23,756.83,755.53,753.59,750.11,744.22,736.89,731.27,727.20,725.42,728.11,732.60,738.61,745.16,750.63,752.83,752.27,750.74,749.34,749.08,750.46,753.63,757.79,761.17,763.67,765.71,766.15,763.96,761.69,759.23,757.74,757.99,760.26,761.96,763.55,764.67,764.48,763.66,762.62,761.51,760.37,759.13,759.07,759.92,761.08,761.12,757.25,752.69,749.08,747.88,750.52,753.62,756.70,759.47,761.23,762.25,762.76,763.08,763.53,764.17,764.70,764.85,764.47,763.76,762.18,759.77,756.53,752.38,748.46,744.40,738.67,730.59,725.80,721.56,717.63,714.30,712.19,715.28,719.91,724.97,730.63,735.85,739.43,741.99,744.22,747.12,749.31,750.89,752.17,753.70,755.48,757.13,758.73,760.47,762.75,765.15,767.57,770.07,772.83,774.94,776.22,775.96,772.89,769.28,765.15,761.63,759.63,758.68,757.66,755.67,752.93,750.63,747.76,743.10,736.68,728.67,720.19,713.64,709.75,709.49,713.75,720.47,726.74,731.29,733.31,735.38,737.46,739.83,742.84,746.82,752.58,758.05,761.64,761.46,758.69,754.28,749.29,744.56,740.01,734.70,727.20,717.82,710.77,707.16,707.66
816.06,816.13,816.20,816.30,816.28,816.17,816.02,815.87,815.71,815.52,815.32,815.14,814.74,814.13,813.45,812.81,812.32,811.98,812.00,812.48,813.20,814.19,815.37,816.58,817.64,818.62,819.48,820.15,820.57,820.95,821.09,820.89,820.41,819.78,818.79,817.75,816.76,815.84,814.99,814.23,813.50,812.79,812.13,811.41,810.66,809.56,807.59,805.62,803.69,802.50,802.56,803.10,803.55,803.59,803.24,802.85,802.46,802.11,801.72,801.26,800.79,799.93,798.05,795.09,792.32,790.59,789.42,788.49,787.62,787.03,786.93,787.22,787.81,788.47,788.63,788.55,788.31,787.82,787.59,787.30,786.94,786.56,785.82,784.48,782.88,781.13,779.11,777.80,775.94,772.85,767.92,762.31,757.69,754.30,752.04,749.97,747.76,744.81,740.80,735.71,730.31,728.38,730.83,738.05,746.03,750.08,751.99,753.14,754.22,755.47,755.76,754.96,753.46,752.21,750.25,746.87,741.60,735.86,730.48,726.46,725.19,728.86,733.74,739.66,745.83,750.91,753.47,754.31,753.82,752.57,752.86,754.05,756.44,759.53,762.04,764.25,765.32,764.90,762.81,760.63,758.16,756.82,757.44,760.07,761.84,763.26,763.97,763.16,762.11,760.87,759.58,758.28,757.00,757.02,757.86,758.34,756.22,752.05,748.38,746.43,747.22,750.28,753.19,755.94,758.53,760.47,761.44,762.00,762.51,763.13,763.70,763.92,763.83,763.45,762.90,761.76,759.59,756.34,752.22,748.03,743.69,737.67,729.27,724.52,720.24,716.15,712.79,711.63,715.71,721.13,726.62,732.19,737.42,740.69,742.92,744.89,747.01,748.79,750.59,752.53,754.55,756.67,758.41,759.86,761.35,763.51,765.97,768.57,771.35,774.44,777.09,778.43,777.93,774.88,771.43,768.03,765.07,762.84,760.98,758.58,755.39,751.82,748.95,746.19,742.65,737.51,729.85,721.34,714.97,710.54,708.66,711.35,717.91,725.13,730.79,732.81,734.88,736.91,738.95,741.46,745.73,750.97,755.97,759.42,759.05,755.99,751.63,746.76,741.81,737.24,732.09,725.30,717.09,710.53,706.71,706.69
816.06,816.13,816.12,816.10,816.04,815.90,815.71,815.57,815.36,815.04,814.69,814.52,814.26,813.74,813.06,812.38,811.79,811.39,811.40,811.95,812.88,814.03,815.19,816.30,817.32,818.21,819.11,819.87,820.36,820.72,820.80,820.61,820.17,819.45,818.42,817.33,816.27,815.30,814.52,813.83,813.15,812.47,811.83,811.16,810.22,808.82,806.68,804.69,802.64,801.34,801.42,802.10,802.86,803.09,802.77,802.39,802.01,801.67,801.32,800.86,800.36,798.96,796.47,793.10,790.12,788.05,786.57,785.42,784.39,783.24,783.14,783.87,785.06,786.29,786.83,786.83,786.42,785.79,785.66,785.75,785.95,786.16,785.85,784.91,783.73,782.55,781.58,780.81,779.05,775.93,771.24,765.62,760.82,757.28,755.16,753.62,751.85,748.95,744.66,739.23,732.14,728.38,729.77,737.10,743.39,746.31,747.47,748.12,749.48,751.70,752.79,752.20,750.00,747.89,745.31,741.98,737.88,734.38,729.54,725.90,725.54,730.21,735.51,741.14,746.65,751.25,753.99,756.11,756.80,756.05,756.81,757.82,759.41,761.41,763.16,764.66,764.64,763.44,761.52,759.33,756.87,755.75,756.79,759.72,761.50,762.75,763.23,762.20,761.05,759.54,757.85,756.15,754.78,755.04,755.74,755.26,751.16,746.91,744.50,744.47,747.14,750.47,753.26,755.86,758.34,760.35,761.31,761.95,762.53,763.07,763.25,763.06,762.74,762.39,761.80,760.81,758.77,755.62,751.62,747.06,742.04,735.66,727.64,722.88,718.63,714.54,711.31,711.00,715.74,721.58,727.24,732.61,737.62,740.88,743.21,745.23,747.14,748.86,750.94,753.38,755.75,758.04,759.84,761.21,762.41,764.34,766.70,769.36,772.36,775.67,778.70,780.08,779.50,776.78,773.49,770.67,768.16,765.64,762.64,758.85,754.74,750.60,746.85,743.99,741.12,736.82,729.73,721.78,715.99,711.35,708.22,709.40,715.50,723.33,730.01,732.29,734.31,736.24,738.08,740.27,744.64,749.43,753.88,756.84,756.03,753.07,749.06,744.54,739.71,734.96,729.83,723.70,716.65,710.37,706.40,705.86
815.80,815.86,815.85,815.79,815.67,815.45,815.11,814.77,814.51,814.30,814.11,813.95,813.78,813.35,812.72,811.98,811.30,810.80,810.85,811.57,812.56,813.79,814.97,816.00,816.89,817.80,818.68,819.49,820.13,820.42,820.48,820.31,819.85,818.90,817.79,816.68,815.63,814.66,813.92,813.32,812.70,812.01,811.33,810.68,809.09,807.01,805.58,803.56,801.51,800.26,800.40,801.22,802.21,802.57,802.26,801.93,801.56,801.22,800.88,800.44,799.81,797.57,794.60,791.47,788.47,785.84,783.83,782.44,781.54,779.69,779.79,780.99,782.28,783.58,784.74,785.00,784.36,783.72,783.54,783.61,783.81,784.13,784.48,784.68,784.58,784.07,783.21,782.24,781.02,779.15,775.66,770.87,765.57,761.01,758.17,756.32,753.88,750.58,746.22,740.38,733.10,727.72,726.79,732.48,737.50,739.43,739.89,740.50,743.42,747.34,749.94,749.94,745.97,741.40,737.67,734.75,732.57,731.30,727.66,725.41,726.79,732.38,738.06,742.99,747.45,751.79,754.85,757.40,759.04,759.55,760.05,760.65,761.50,762.71,764.27,764.20,763.27,761.89,760.11,757.75,755.29,754.58,756.28,759.36,760.96,762.13,762.72,761.93,760.99,759.11,756.58,753.89,752.36,753.02,753.16,751.48,747.20,742.69,741.48,743.41,747.57,751.11,754.22,757.21,759.95,761.70,762.66,763.08,763.22,763.18,762.50,762.00,761.65,761.25,760.51,758.81,756.54,753.78,750.17,745.15,738.69,731.57,724.79,719.96,716.10,712.60,709.90,710.05,714.75,720.59,726.26,731.39,735.95,739.51,742.37,744.85,747.66,750.09,752.36,754.59,756.85,759.05,761.06,762.67,763.81,765.55,767.49,769.84,772.77,776.16,779.04,780.39,780.09,778.07,775.09,772.52,770.13,767.34,763.37,758.96,754.52,749.82,744.31,741.50,738.45,734.06,727.90,721.29,716.16,711.81,708.52,708.45,713.44,721.17,728.60,731.77,733.59,735.36,737.28,739.62,743.41,747.63,751.58,753.90,752.03,750.00,747.09,743.62,739.87,734.74,729.19,723.03,716.32,710.15,706.13,705.04
814.81,814.86,814.82,814.81,814.68,814.47,814.24,814.00,813.77,813.58,813.42,813.27,813.08,812.86,812.43,811.63,810.89,810.36,810.32,810.92,812.06,813.38,814.64,815.74,816.59,817.48,818.31,819.09,819.74,820.04,820.04,819.78,819.18,818.14,817.03,815.96,814.96,814.06,813.34,812.73,812.12,811.47,810.78,809.22,806.51,803.87,803.28,801.95,799.77,798.25,798.57,800.18,801.48,801.98,801.78,801.43,801.05,800.71,800.22,799.30,798.11,796.18,793.71,790.81,787.77,784.72,781.98,779.88,778.80,776.87,776.83,778.25,780.30,781.92,783.03,783.10,782.26,781.46,781.12,781.26,781.68,782.21,782.88,783.30,783.41,783.18,782.69,782.15,781.64,780.77,778.57,775.38,770.70,765.70,761.50,758.29,754.72,750.22,744.75,738.70,732.49,727.44,725.02,726.92,729.81,731.13,731.96,733.44,736.61,740.96,743.96,744.39,741.03,736.21,731.88,728.59,726.66,725.79,724.67,725.13,728.24,733.99,739.53,744.28,748.46,752.25,755.30,758.07,760.03,760.88,761.45,762.05,762.67,763.26,763.59,762.78,761.50,759.96,758.14,755.91,753.57,753.39,755.89,759.07,760.73,761.80,762.22,761.37,760.29,758.07,755.06,751.83,749.55,750.16,749.93,747.55,743.23,739.68,740.29,743.99,749.04,752.77,756.17,759.15,761.56,763.35,764.47,764.98,765.01,764.54,763.52,762.60,761.52,760.06,758.32,755.81,753.20,750.41,746.58,741.16,734.37,727.44,721.70,717.67,714.57,711.91,709.73,708.74,712.19,717.47,723.12,728.33,733.05,737.41,741.11,744.13,747.63,750.47,752.82,754.92,757.09,759.32,761.43,763.31,764.88,766.63,768.32,770.40,773.14,776.36,779.14,780.47,780.27,778.54,775.89,773.38,770.91,767.74,762.39,757.94,753.84,749.21,743.14,739.71,736.09,731.70,726.64,721.23,716.58,712.31,708.67,707.23,711.12,718.62,726.58,730.53,731.68,733.29,735.62,738.49,741.99,745.96,749.50,751.30,749.18,747.28,745.55,743.51,740.40,735.52,729.41,722.76,716.04,710.01,705.98,704.12
813.52,813.56,813.52,813.58,813.47,813.32,813.26,813.19,813.03,812.85,812.68,812.51,812.31,812.29,812.10,811.33,810.58,810.04,809.88,810.31,811.55,812.92,814.27,815.46,816.31,817.14,817.92,818.66,819.29,819.58,819.47,819.06,818.35,817.28,816.20,815.20,814.28,813.46,812.75,812.12,811.50,810.79,809.62,806.75,803.09,800.25,800.32,799.66,797.47,795.66,796.02,798.37,800.30,801.26,801.31,800.92,800.37,799.75,798.84,797.31,795.69,794.40,792.73,790.25,787.25,783.98,780.66,777.77,776.02,774.18,773.96,775.41,778.19,780.24,781.11,780.73,779.45,778.39,778.06,778.46,779.25,780.09,780.97,781.25,781.25,781.16,781.07,781.18,781.40,781.38,780.40,778.86,774.95,769.73,764.40,759.88,754.81,748.94,742.55,736.62,731.69,727.51,724.23,722.51,722.92,723.58,724.84,727.14,730.13,734.24,737.20,738.08,736.02,731.67,726.95,723.30,721.68,721.18,722.47,725.25,729.45,734.89,740.11,744.87,749.06,752.48,755.54,758.44,760.47,761.33,762.03,762.71,763.16,763.15,762.29,761.09,759.55,757.79,755.88,753.86,751.88,752.35,755.60,758.92,760.62,761.55,761.75,760.70,758.94,756.11,752.69,749.13,746.20,746.49,745.86,743.14,739.36,737.82,740.60,745.73,750.96,754.73,758.25,761.11,763.15,765.05,766.43,767.13,767.10,766.22,764.95,763.52,761.67,759.14,756.20,752.92,749.86,746.81,742.60,736.72,730.06,723.87,719.42,716.73,714.40,712.38,710.43,707.99,709.50,713.78,719.29,724.56,729.54,734.88,739.69,743.49,747.54,750.58,752.94,754.95,757.04,759.24,761.33,763.38,765.48,767.47,769.14,771.09,773.60,776.52,779.16,780.44,780.22,778.53,776.10,773.62,770.80,766.87,760.49,756.26,752.64,748.37,742.55,738.47,734.30,729.94,725.73,721.23,716.90,712.65,708.66,706.00,708.93,715.85,723.73,728.25,729.23,731.01,733.85,737.29,740.72,744.59,747.64,748.71,746.43,744.48,743.77,743.12,740.65,736.07,729.50,722.36,715.52,709.68,705.64,703.09
812.03,812.10,812.15,812.22,812.21,812.18,812.17,812.21,812.18,812.04,811.83,811.62,811.50,811.58,811.57,811.12,810.49,809.98,809.75,810.03,811.18,812.53,813.91,815.14,815.98,816.72,817.44,818.16,818.80,818.91,818.57,818.06,817.38,816.32,815.28,814.42,813.65,812.88,812.17,811.53,810.92,809.75,806.48,802.08,798.51,796.51,796.41,795.75,793.95,792.22,791.95,794.22,797.76,800.17,800.84,800.40,799.16,797.37,795.35,793.41,792.20,791.36,790.45,789.02,786.37,783.35,780.13,776.65,773.00,771.21,770.95,772.14,774.78,777.38,778.10,776.86,774.43,772.91,773.21,774.38,775.84,777.21,778.29,778.33,778.08,778.00,778.17,778.92,779.79,780.41,780.35,779.81,775.99,770.66,765.62,760.98,753.72,746.76,741.18,736.24,731.92,728.28,725.23,722.71,720.52,719.91,720.69,722.75,725.53,728.55,731.20,732.77,731.78,727.86,722.88,719.69,720.33,722.07,724.02,726.46,729.71,734.10,738.98,743.74,748.18,752.13,755.52,758.51,760.49,761.22,761.92,762.52,762.45,761.77,760.85,759.47,757.48,755.28,753.28,751.43,750.43,751.80,755.52,759.15,760.59,761.26,761.36,760.01,756.14,751.89,747.81,744.16,741.55,741.09,739.79,737.32,735.82,738.31,743.79,749.49,753.23,756.60,759.74,762.47,764.70,766.63,768.38,769.21,768.95,767.54,765.81,763.80,761.69,759.20,755.20,751.41,747.77,744.06,739.66,733.01,726.78,722.17,720.01,719.47,717.62,715.25,712.64,709.46,708.06,710.51,715.48,720.41,725.35,731.75,738.20,743.49,747.81,750.74,752.98,754.94,756.95,758.81,760.57,762.49,764.89,767.65,769.88,772.03,774.39,776.86,779.16,780.28,779.90,777.77,775.28,772.83,769.10,763.26,757.41,753.61,750.24,746.54,742.34,738.30,734.04,729.65,725.31,720.93,716.65,712.40,708.28,705.06,707.50,712.81,718.80,723.40,726.29,729.26,732.64,736.36,740.16,744.08,746.27,745.85,742.86,741.01,740.77,740.95,739.62,734.81,728.25,721.14,714.24,708.60,704.58,701.86
810.41,810.50,810.61,810.75,810.91,811.04,811.12,811.26,811.32,811.21,810.98,810.76,810.66,810.72,810.74,810.54,810.22,809.83,809.63,809.88,810.94,812.21,813.55,814.78,815.64,816.33,817.02,817.71,818.26,818.09,817.62,817.07,816.42,815.43,814.54,813.80,813.08,812.25,811.48,809.67,807.46,804.99,801.69,797.91,794.79,792.82,792.39,792.29,791.49,790.32,789.45,789.92,793.16,796.96,799.66,799.46,796.95,794.06,791.40,789.25,788.11,787.26,786.66,786.14,784.98,783.36,781.00,777.45,772.20,768.99,767.99,768.45,770.03,772.36,773.08,772.09,769.98,768.45,769.22,770.59,771.95,773.14,773.83,773.42,772.97,773.13,773.86,775.36,776.77,777.80,778.40,778.92,776.04,771.34,766.48,761.90,754.84,748.11,742.86,738.56,734.63,730.89,727.53,724.76,721.59,719.63,718.56,718.62,720.95,723.47,725.84,727.42,726.61,722.98,720.30,720.07,722.80,725.82,727.95,729.95,732.33,735.39,738.97,742.94,747.13,751.32,755.41,758.60,760.50,761.13,761.75,762.10,761.78,760.97,760.10,758.25,755.86,753.34,750.98,748.96,749.53,752.07,755.84,759.36,760.64,761.10,761.05,759.56,753.89,748.20,743.12,738.86,736.10,735.02,734.09,733.68,736.02,740.94,746.74,751.68,754.70,757.95,760.86,763.52,765.94,768.05,769.60,770.20,769.77,768.06,765.59,763.00,760.62,758.26,754.72,750.99,747.06,742.68,737.25,730.47,725.86,723.62,723.32,723.59,721.25,717.93,714.43,710.57,707.23,708.25,712.64,717.74,723.53,730.71,737.79,743.55,747.99,750.88,753.08,754.90,756.41,757.85,759.30,761.06,763.55,766.78,769.59,772.05,774.30,776.54,778.61,779.56,779.02,776.65,774.04,770.78,766.07,759.66,754.05,749.72,746.02,742.67,739.55,735.94,731.91,727.67,723.39,719.43,715.48,711.53,707.61,704.32,706.47,710.99,716.23,721.23,724.89,728.42,732.33,736.70,740.47,744.20,745.46,743.67,740.07,736.94,735.71,735.45,734.31,730.24,724.71,718.20,711.35,706.29,702.76,700.63
808.66,808.72,808.86,809.07,809.43,809.75,809.95,810.22,810.37,810.31,810.08,809.87,809.80,809.81,809.82,809.82,809.82,809.60,809.49,809.76,810.73,811.92,813.19,814.39,815.30,815.98,816.64,817.28,817.67,817.25,816.70,816.15,815.53,814.67,813.95,813.28,812.53,811.57,810.48,807.19,803.23,799.68,797.19,794.56,792.05,790.26,790.21,790.98,791.22,790.66,789.21,787.19,788.58,792.60,797.03,797.22,793.84,790.32,787.39,785.05,783.70,782.63,781.99,782.03,782.65,782.84,781.63,778.35,772.25,767.36,765.23,764.60,764.71,766.22,767.00,766.74,765.60,764.36,765.32,766.46,767.36,768.08,768.24,767.58,767.19,767.71,769.10,771.22,772.99,774.25,775.37,776.82,775.57,772.19,767.64,763.22,757.46,751.64,746.57,742.66,738.97,734.95,731.13,728.27,725.03,721.99,718.76,716.11,717.23,718.73,720.36,721.57,720.92,718.17,718.90,722.31,726.70,730.38,732.69,734.55,736.38,738.19,740.21,743.10,746.73,750.95,755.70,758.88,760.57,761.11,761.55,761.58,761.18,760.49,759.53,757.17,754.50,751.73,748.96,746.84,749.02,752.65,756.30,759.52,760.69,760.95,760.63,758.79,751.82,744.76,738.61,733.74,730.82,729.69,729.99,732.33,738.34,744.48,749.40,753.08,755.78,758.86,761.65,764.33,766.94,769.24,770.37,770.63,770.05,768.19,764.85,761.61,758.86,756.55,754.03,750.42,746.28,741.41,734.96,729.12,726.91,727.19,728.23,728.35,724.93,720.39,715.87,711.34,706.78,706.69,710.53,716.09,722.94,730.66,737.89,743.63,748.08,750.99,753.06,754.52,755.36,756.34,757.55,759.25,761.88,765.38,768.73,771.48,773.62,775.72,777.64,778.47,777.82,775.32,772.63,768.40,762.90,756.60,750.86,745.55,741.28,738.13,735.58,732.38,728.58,724.50,720.54,717.14,713.72,710.27,706.81,703.74,705.64,709.83,715.00,720.53,724.38,728.08,732.56,737.81,741.30,744.39,744.68,741.71,737.15,732.32,729.62,728.37,727.00,724.04,719.85,714.20,707.70,703.47,700.76,699.57
806.66,806.51,806.53,806.72,807.26,807.79,808.17,808.76,809.09,809.12,808.93,808.74,808.87,809.02,809.10,809.12,809.27,809.21,809.22,809.55,810.43,811.60,812.82,813.97,814.97,815.69,816.31,816.81,817.05,816.63,816.02,815.42,814.86,814.22,813.63,812.91,812.03,810.75,808.51,804.69,801.42,799.40,796.92,793.36,791.41,792.07,795.53,797.14,797.55,796.90,794.80,790.88,787.93,787.85,789.93,790.67,789.08,786.58,783.82,781.14,779.22,777.79,776.66,776.20,777.55,779.01,778.57,775.94,771.39,766.59,763.16,760.89,759.69,759.84,760.53,760.74,760.27,759.71,759.97,760.42,760.88,761.34,761.55,761.89,762.46,763.45,765.19,767.24,768.80,770.03,771.62,773.41,774.78,774.19,770.54,766.41,761.71,756.95,752.47,748.65,744.99,741.17,737.44,734.27,731.35,728.43,724.44,719.56,716.95,714.18,713.18,713.89,714.97,715.82,719.36,724.28,728.97,732.86,736.16,739.10,741.48,742.81,744.19,746.27,749.21,753.20,757.77,759.93,760.82,761.26,761.32,761.08,760.69,759.98,758.40,755.94,753.25,750.35,747.44,746.20,748.99,752.89,756.53,759.55,760.61,760.65,759.61,756.25,749.32,741.22,734.27,729.88,727.81,728.56,731.37,735.85,741.80,747.52,751.52,754.39,756.81,759.09,761.79,764.69,767.56,769.90,770.78,770.87,770.24,768.22,764.09,759.93,756.42,753.75,751.49,747.20,742.65,737.91,732.11,730.35,731.22,733.08,734.43,733.17,728.21,722.35,716.82,711.53,706.58,705.96,709.45,715.58,722.55,730.52,737.95,743.69,748.10,751.04,752.45,752.78,753.10,753.63,754.86,757.02,760.31,763.95,767.51,770.35,772.33,774.21,776.07,776.97,776.39,773.81,771.30,767.08,761.65,755.45,748.84,742.55,737.92,734.87,731.92,728.40,724.12,719.95,716.89,714.13,711.38,708.73,706.12,703.41,704.89,708.94,714.43,720.41,724.35,728.06,733.13,739.54,742.58,743.75,742.91,739.34,732.10,726.69,723.35,721.38,719.96,717.64,714.07,709.33,704.14,701.01,699.57,699.14
805.32,805.22,805.27,805.52,806.43,807.22,807.43,807.63,807.90,808.13,808.23,808.25,808.39,808.49,808.56,808.64,808.85,808.90,809.03,809.43,810.17,811.26,812.41,813.54,814.60,815.32,815.90,816.32,816.43,816.04,815.45,814.90,814.43,813.89,813.35,812.65,811.83,810.76,808.74,805.58,802.74,800.46,797.15,793.36,792.94,795.70,799.36,800.93,801.11,800.30,798.22,794.06,789.63,787.05,786.43,786.03,785.16,783.48,781.13,778.34,776.06,774.11,772.47,771.51,772.19,773.13,772.71,770.77,767.66,763.82,760.10,757.07,755.22,754.64,754.84,754.92,754.66,754.34,754.21,754.23,754.39,754.73,755.10,756.06,757.38,759.01,761.00,762.86,764.05,764.77,765.83,767.76,771.00,773.16,772.20,769.71,766.51,762.97,759.17,755.18,751.41,747.70,744.12,740.87,737.97,735.30,731.61,726.46,721.37,714.93,710.98,710.13,711.57,714.45,719.05,724.17,728.78,732.88,737.18,741.95,746.20,747.20,748.16,749.78,752.36,756.11,759.26,760.52,760.91,761.05,760.85,760.58,759.96,758.81,756.80,754.47,751.85,748.80,745.68,745.08,748.49,752.75,756.46,759.50,760.41,759.58,757.28,753.08,746.19,737.63,730.55,727.13,727.11,729.66,733.97,739.38,745.04,749.58,752.62,754.89,757.00,758.89,761.50,764.52,767.63,770.13,770.96,771.00,770.47,768.70,763.91,758.95,754.59,751.01,747.86,743.69,739.89,736.58,733.32,733.86,735.75,737.66,738.29,735.43,729.31,722.72,716.77,711.23,706.19,705.31,708.56,714.74,721.15,729.08,737.03,743.51,747.71,750.30,751.17,750.86,750.72,750.96,752.11,754.69,759.09,763.01,766.37,769.08,771.11,772.88,774.69,775.68,775.26,772.76,770.15,766.15,761.24,755.77,749.71,743.18,738.42,735.39,731.89,727.94,723.44,719.19,716.02,712.88,709.92,707.37,705.13,702.78,704.10,708.13,713.94,720.45,724.52,728.54,734.02,740.54,742.62,742.24,739.18,733.37,725.69,720.66,717.60,715.73,714.46,712.50,709.07,705.07,701.42,699.50,699.03,699.14
804.92,805.05,805.28,805.66,806.91,807.85,807.64,806.95,807.11,807.61,808.13,808.41,808.39,808.31,808.30,808.44,808.65,808.76,808.97,809.39,809.96,810.95,812.03,813.12,814.17,814.86,815.42,815.78,815.80,815.45,814.96,814.54,814.16,813.63,813.08,812.43,811.78,811.19,810.22,808.14,805.25,801.58,797.17,794.18,795.82,799.91,801.55,802.47,802.16,801.13,799.38,795.98,792.28,789.06,786.41,784.12,783.14,781.99,780.05,777.17,774.74,772.23,770.08,768.63,767.83,767.21,766.28,764.80,762.45,759.78,756.45,753.38,751.47,750.67,750.20,749.80,749.39,749.00,748.72,748.55,748.54,748.83,749.36,750.44,752.15,754.41,756.54,758.22,758.99,758.95,758.73,760.72,765.14,769.73,772.30,772.26,770.86,768.67,765.64,761.51,757.62,753.96,750.53,747.38,744.32,741.78,738.89,734.73,728.44,719.28,712.45,709.37,710.12,713.37,717.72,722.26,726.60,730.99,736.30,743.24,749.98,750.95,751.81,753.29,755.69,758.95,760.15,760.68,760.82,760.52,760.06,759.71,758.69,756.92,754.73,752.64,750.09,746.89,743.67,743.62,747.69,752.31,756.12,759.31,759.82,757.64,753.89,749.36,742.38,734.06,727.55,725.38,728.02,732.05,736.94,742.43,747.79,750.86,753.01,754.88,756.69,758.51,760.87,763.79,767.06,769.94,770.93,771.04,770.72,769.43,764.43,758.90,753.76,749.16,744.70,741.25,738.85,737.51,737.41,738.55,739.92,740.83,740.08,735.57,728.62,721.73,715.82,710.41,705.45,704.56,707.72,713.61,719.13,726.92,735.56,743.04,746.84,748.77,749.25,748.76,748.33,748.50,749.51,752.30,757.70,762.23,765.24,767.70,769.94,771.73,773.47,774.54,774.34,772.03,769.19,765.53,761.39,757.00,752.37,746.26,741.50,738.25,734.18,729.79,725.30,720.99,717.03,712.85,709.18,706.24,703.95,701.93,703.25,707.36,713.46,720.56,724.82,729.35,735.03,740.85,741.53,739.47,733.58,725.05,718.64,714.61,712.36,711.08,710.04,708.16,704.81,701.59,699.50,698.76,699.00,699.76
806.89,807.12,807.70,808.34,809.03,809.30,808.71,807.37,807.89,808.79,809.37,809.47,809.25,809.00,808.86,808.93,809.10,809.20,809.26,809.39,809.84,810.80,811.82,812.76,813.59,814.28,814.79,815.11,815.16,814.91,814.55,814.21,813.85,813.36,812.74,812.06,811.41,810.77,809.71,806.84,803.28,799.51,795.51,795.49,798.26,801.69,803.05,803.32,802.36,800.71,798.49,795.15,792.47,790.92,789.95,788.02,787.34,786.44,784.30,780.51,778.03,775.34,772.63,770.27,768.75,767.44,766.02,763.79,759.80,756.84,753.50,750.77,749.61,748.73,748.02,747.36,746.73,746.20,745.69,745.44,745.44,745.69,746.08,746.47,747.66,749.93,752.07,753.62,754.23,753.69,752.17,754.28,759.52,765.30,769.39,771.11,771.28,770.51,768.71,765.43,761.84,758.31,754.99,751.98,748.94,745.90,742.88,739.27,732.98,722.84,714.13,709.14,709.29,710.93,714.39,718.59,722.80,727.75,734.35,742.66,750.62,752.75,754.64,756.51,758.32,759.85,760.41,760.57,760.45,759.85,758.34,757.09,755.57,753.73,751.89,749.79,747.05,743.91,741.34,742.56,747.09,751.74,755.49,758.73,757.69,754.13,749.56,744.64,737.30,730.60,725.97,724.99,729.45,734.10,739.03,744.28,749.12,751.58,753.39,755.15,756.91,758.51,759.96,761.99,765.04,768.99,770.50,770.94,770.87,769.91,766.50,761.15,755.74,751.31,747.37,744.53,742.63,741.53,741.29,741.75,742.32,742.20,740.04,734.21,726.53,719.45,713.78,708.53,703.63,703.19,706.84,712.53,717.58,725.78,734.79,741.87,744.97,746.11,746.29,746.03,745.96,746.52,747.65,749.89,754.20,760.42,763.85,766.22,768.55,770.60,772.22,773.34,773.37,771.26,768.60,765.41,761.88,758.08,754.07,749.14,744.22,739.62,735.27,730.61,726.09,721.72,717.28,712.42,708.58,705.48,702.95,701.10,702.28,706.46,712.98,720.69,725.20,730.02,735.60,740.39,739.28,733.12,725.22,717.62,712.52,709.55,707.78,706.64,705.58,703.35,701.26,699.57,698.56,698.71,699.58,702.18
809.00,809.18,809.68,810.22,810.37,810.10,809.30,808.04,808.81,809.88,810.50,810.57,810.24,809.89,809.67,809.64,809.78,809.86,809.74,809.53,809.80,810.65,811.57,812.37,812.97,813.56,814.01,814.34,814.51,814.42,814.16,813.85,813.52,813.09,812.48,811.82,811.17,810.52,809.58,805.90,801.54,797.66,794.83,797.07,800.37,803.12,804.57,803.90,802.18,799.78,796.92,794.40,793.77,794.16,794.56,793.50,793.00,791.79,789.16,784.88,781.99,779.34,776.86,774.73,773.26,771.99,770.40,767.59,762.25,758.34,754.44,751.31,749.77,748.70,747.89,747.15,746.47,745.93,745.27,744.68,744.18,743.75,743.36,743.05,743.53,745.03,746.52,747.70,748.43,748.60,748.36,751.34,756.40,761.82,766.20,768.79,769.92,770.02,769.02,766.61,763.53,760.33,757.24,754.32,751.36,748.10,744.90,741.36,735.24,724.96,715.31,709.05,708.61,709.23,711.68,715.54,720.47,725.74,732.59,741.45,750.25,753.15,755.80,758.12,759.74,760.20,760.47,760.42,760.09,759.17,756.94,754.91,752.75,750.52,748.55,746.37,743.72,741.15,739.95,742.42,747.02,751.50,755.17,758.08,755.99,751.70,746.49,740.48,733.13,727.70,724.71,725.13,730.54,735.27,740.23,745.52,750.02,752.34,754.07,755.59,756.80,757.84,758.55,759.79,762.24,766.17,768.59,770.01,770.64,770.12,767.87,762.79,757.54,753.80,750.61,748.36,746.71,745.49,744.65,743.92,743.56,742.76,739.93,733.33,725.26,718.09,712.42,706.94,702.15,702.21,706.39,712.09,717.03,725.19,733.84,740.06,742.51,743.13,743.20,743.29,743.79,744.83,746.28,748.28,751.76,759.22,762.88,765.10,767.35,769.47,770.99,772.10,772.28,770.41,767.82,764.86,761.53,757.72,753.63,749.15,744.20,739.10,734.65,729.96,725.51,721.00,716.04,711.20,707.57,704.54,701.91,700.15,701.58,705.98,712.60,720.25,724.99,730.17,735.58,738.99,734.97,726.55,718.36,712.13,708.10,705.51,703.85,702.76,701.87,700.07,698.99,698.40,698.29,699.05,701.00,705.00
810.78,810.80,810.79,810.87,810.66,810.09,809.26,808.79,809.65,810.64,811.31,811.57,811.25,810.90,810.65,810.55,810.65,810.66,810.35,809.84,809.85,810.47,811.22,811.88,812.29,812.71,813.11,813.49,813.81,813.95,813.75,813.46,813.14,812.79,812.29,811.71,811.12,810.58,810.01,805.82,800.63,796.55,795.58,798.93,802.25,804.58,806.09,804.28,801.72,798.55,795.07,794.30,796.42,798.43,799.27,799.16,798.68,796.87,793.73,789.52,785.84,783.36,781.82,780.96,780.14,779.41,778.04,775.13,769.46,764.41,759.65,755.41,752.28,750.86,749.97,749.22,748.56,748.13,747.33,746.14,744.68,743.01,741.31,740.37,740.02,740.10,740.34,740.88,741.98,743.88,747.14,751.57,755.57,759.35,763.08,765.74,767.13,767.47,766.80,765.12,762.75,760.10,757.32,754.44,751.56,748.39,745.07,741.21,735.29,725.53,715.86,709.02,708.05,708.50,709.97,713.53,719.91,725.23,731.33,739.91,749.16,752.46,755.47,758.19,760.03,760.27,760.38,760.30,759.79,758.49,756.01,753.48,750.59,747.50,744.89,742.65,740.39,738.93,739.63,743.14,747.48,751.66,755.23,757.36,754.89,750.43,744.61,737.06,730.15,725.38,723.48,725.44,731.13,735.59,740.60,746.20,750.61,753.17,754.85,755.86,756.12,756.34,756.62,757.40,759.06,761.88,765.36,768.18,769.91,769.99,768.12,763.31,758.62,755.80,753.28,751.51,749.97,748.46,746.94,744.80,743.57,742.54,739.95,733.32,725.28,718.01,711.98,705.93,701.24,701.74,706.39,712.27,717.37,724.86,732.36,737.41,739.42,739.94,740.16,740.67,741.94,743.52,745.46,747.65,750.91,758.79,762.38,764.29,766.22,768.10,769.55,770.67,770.97,769.39,766.68,763.69,760.16,755.79,751.13,746.31,741.46,736.71,732.33,727.83,723.51,718.82,713.38,709.22,706.08,703.29,700.75,699.12,701.17,705.90,712.27,719.10,723.97,729.66,734.93,736.52,728.84,720.41,713.54,708.61,705.30,702.47,700.62,699.57,699.05,698.44,697.98,697.97,698.57,699.68,703.03,707.64
811.63,811.70,811.34,810.98,810.54,809.81,808.99,809.46,810.37,811.25,812.01,812.61,812.46,812.17,811.95,811.81,811.76,811.47,810.94,810.31,809.96,810.24,810.68,811.09,811.43,811.81,812.20,812.59,812.96,813.25,813.26,813.05,812.69,812.33,811.90,811.46,811.05,810.59,809.79,805.24,799.69,796.00,797.94,801.35,804.39,806.40,806.68,804.35,801.17,797.46,794.21,795.58,798.17,799.91,800.42,800.43,800.13,799.20,797.09,793.10,788.59,786.10,784.80,784.02,783.14,782.39,781.42,779.74,776.56,772.32,768.01,763.46,758.98,757.11,755.71,754.19,752.76,752.06,750.66,748.98,747.18,745.20,742.79,740.79,739.30,738.28,737.34,737.24,738.65,741.46,745.38,749.76,753.18,756.30,759.62,762.00,762.98,763.14,762.74,761.90,760.60,758.59,756.01,753.05,750.05,746.38,742.75,739.06,733.45,724.55,715.60,709.06,707.93,708.03,709.11,712.80,719.95,725.18,731.03,738.72,747.13,751.96,755.68,758.46,760.12,760.27,760.28,760.17,759.42,757.65,755.14,752.68,748.96,744.65,742.00,739.76,738.03,737.78,740.13,743.96,748.09,752.16,755.46,756.16,753.39,748.02,741.16,733.94,727.90,723.30,721.72,724.63,731.16,735.75,740.61,746.11,750.76,753.33,754.17,754.15,753.94,754.07,754.39,755.42,757.36,759.89,762.78,765.71,768.20,769.09,766.91,762.70,758.67,755.93,753.28,751.51,749.88,747.81,744.77,742.25,741.18,740.86,739.67,734.56,727.03,719.26,712.17,705.91,700.88,701.48,706.45,712.37,717.23,723.30,728.99,732.83,735.18,736.26,737.13,738.47,740.93,743.41,745.78,748.27,751.76,758.53,761.76,763.17,764.04,764.98,766.33,767.96,768.91,767.52,764.86,761.76,757.90,753.03,748.28,743.67,738.47,733.06,728.97,724.56,720.10,715.42,710.59,707.20,704.28,701.53,699.19,698.27,700.81,705.75,711.67,716.87,721.57,728.17,733.28,732.52,723.50,715.58,709.89,706.05,702.92,700.37,698.63,697.58,697.18,697.09,697.45,698.08,698.98,700.38,703.79,707.92
812.21,812.26,811.55,810.84,810.24,809.62,809.20,810.15,811.05,811.89,812.75,813.56,813.64,813.46,813.24,813.04,812.81,812.27,811.61,810.93,810.36,810.27,810.40,810.64,810.95,811.29,811.64,811.98,812.33,812.67,812.79,812.61,812.21,811.82,811.44,811.09,810.58,809.43,807.27,802.88,798.69,797.11,800.81,804.04,806.62,808.07,807.17,804.30,800.67,796.74,793.94,796.88,799.31,800.55,800.85,800.81,800.59,800.32,799.27,796.20,791.35,788.63,787.21,786.30,785.32,784.50,783.72,782.86,781.52,778.53,775.17,771.01,766.19,764.10,762.54,760.76,758.83,757.22,754.89,752.61,750.47,748.28,745.44,742.75,740.51,738.70,736.96,736.13,736.54,738.37,742.05,745.81,748.89,751.84,754.97,757.26,758.20,758.47,758.48,758.48,758.10,756.83,754.66,751.65,748.45,744.46,740.61,737.04,731.96,723.46,715.04,709.02,707.78,707.64,708.60,712.11,719.10,724.91,731.12,738.26,745.79,751.63,755.91,758.70,760.13,760.21,760.04,759.26,757.73,755.48,753.17,751.00,746.95,741.99,739.41,737.19,736.44,737.59,740.95,744.91,748.94,752.89,755.71,754.66,751.09,745.06,737.94,731.45,725.86,721.40,720.15,723.77,730.85,735.96,740.84,746.01,750.64,753.11,753.24,752.30,751.52,751.51,752.27,753.85,756.15,758.61,760.90,763.48,766.19,768.01,765.86,761.96,758.11,755.01,751.87,749.28,746.97,744.27,740.17,737.60,736.68,736.77,736.76,733.72,727.79,720.47,712.78,706.25,700.78,701.04,705.94,711.99,716.51,721.04,725.02,727.97,730.73,732.75,734.79,737.31,740.66,743.65,746.30,749.03,752.57,757.80,760.37,761.08,760.77,760.69,762.05,764.20,765.79,764.79,762.63,759.56,755.46,750.31,745.53,740.56,735.04,729.70,726.33,722.40,718.05,713.51,709.16,706.18,703.14,700.14,697.85,697.70,700.52,705.59,711.27,715.39,719.98,727.14,731.64,728.39,718.63,711.60,707.00,703.84,700.88,698.63,696.97,696.05,696.18,696.74,697.68,698.66,699.71,701.42,704.13,707.33
812.66,812.54,811.48,810.50,809.85,809.70,810.14,810.88,811.70,812.61,813.56,814.37,814.72,814.67,814.42,814.11,813.69,813.07,812.38,811.72,811.17,810.70,810.59,810.77,811.07,811.32,811.57,811.82,812.06,812.30,812.36,812.13,811.70,811.31,810.91,810.45,809.31,806.52,801.90,798.52,797.96,800.49,803.94,806.88,808.80,809.35,807.75,804.21,800.29,796.52,794.30,797.81,799.81,800.79,801.21,801.11,800.79,800.46,800.00,798.66,794.25,791.14,789.32,788.30,787.29,786.47,785.61,784.63,783.43,781.68,779.54,776.55,772.79,770.85,769.75,768.57,766.72,763.58,760.04,756.98,754.37,751.87,748.87,746.21,743.79,741.57,739.55,737.90,735.59,734.06,736.76,739.38,742.36,745.56,748.72,751.34,752.92,753.84,754.48,755.27,755.48,755.04,753.64,750.73,747.26,743.35,739.47,735.73,731.37,722.54,714.29,708.85,707.47,707.31,708.29,711.17,716.89,724.25,731.55,738.85,745.86,751.56,756.07,758.85,760.10,760.03,759.51,757.20,754.22,751.48,749.60,747.85,744.22,739.59,737.06,734.95,735.74,738.45,741.95,745.99,750.09,753.82,755.78,752.83,747.73,741.70,735.53,729.81,723.96,719.71,719.03,723.21,730.27,736.29,741.45,746.09,750.25,752.51,752.33,750.83,749.21,748.81,750.40,752.71,755.18,757.61,759.78,761.72,764.00,766.81,765.45,761.45,757.01,753.16,749.26,745.00,741.34,737.98,733.67,731.18,730.00,729.78,730.15,729.39,726.35,720.96,713.70,706.80,700.87,700.31,704.53,710.87,714.98,718.12,720.83,723.40,726.52,729.85,733.59,737.61,741.25,744.03,746.70,749.52,752.69,756.30,757.85,757.62,756.17,755.19,756.67,759.20,761.22,760.99,759.92,757.20,753.09,747.97,743.06,736.91,731.41,727.50,725.36,722.42,718.62,714.28,709.94,706.80,703.16,699.55,697.01,697.42,700.30,705.45,711.25,715.29,719.94,727.00,730.28,724.58,714.36,708.56,704.87,701.86,699.23,697.15,695.49,694.90,696.23,697.73,698.99,700.04,701.20,703.26,704.50,706.46
813.05,812.88,811.80,810.71,810.31,810.44,810.96,811.64,812.36,813.23,814.20,815.06,815.57,815.61,815.36,814.95,814.49,813.86,813.16,812.49,811.95,811.41,811.07,810.99,811.21,811.40,811.55,811.68,811.79,811.93,811.89,811.68,811.33,810.88,810.35,808.21,805.04,801.90,799.93,799.66,801.08,803.97,806.96,808.78,809.71,809.69,807.99,804.19,800.12,796.60,795.06,798.60,800.26,801.06,801.47,801.07,800.60,800.20,799.60,798.16,795.07,792.57,790.71,789.29,788.00,787.13,786.51,785.95,785.11,783.67,781.88,779.75,777.42,775.87,774.84,773.54,771.60,768.79,765.33,761.94,758.92,756.47,754.11,751.46,748.58,745.76,743.70,741.59,738.39,734.80,733.03,733.61,736.23,739.65,743.01,746.08,748.03,749.55,750.97,752.22,752.83,753.00,752.42,750.35,747.04,743.26,738.95,734.01,728.70,720.45,713.23,708.57,707.06,706.84,707.87,710.55,715.86,724.15,732.37,740.39,747.68,752.56,756.65,759.10,760.06,759.66,757.73,754.59,751.22,748.31,746.28,744.38,741.44,737.88,735.39,734.03,735.58,738.84,742.67,746.93,751.28,754.08,754.09,750.26,744.30,738.65,733.61,728.51,722.53,718.39,718.22,723.13,730.34,736.83,742.03,746.23,749.95,751.87,751.50,749.69,747.48,746.89,748.93,751.39,753.45,755.64,757.64,759.31,761.31,764.40,765.49,761.75,756.48,751.92,747.72,744.02,740.66,736.86,731.35,728.11,725.67,724.04,723.63,723.13,721.44,718.18,713.15,706.89,701.02,699.54,702.52,708.51,712.38,714.93,717.61,721.24,725.29,729.60,734.47,739.28,742.19,744.05,746.04,748.42,751.17,754.19,754.68,753.31,750.93,749.45,750.56,752.69,754.82,756.04,756.38,754.96,751.69,746.55,740.81,735.97,732.45,730.18,728.57,725.92,722.32,718.10,713.64,709.72,705.07,700.50,697.10,696.55,699.71,705.29,711.30,715.31,719.79,726.28,728.56,721.80,711.96,706.46,702.92,700.08,697.81,695.78,694.47,694.63,696.99,698.96,701.77,704.63,707.03,708.91,708.97,709.04
813.41,813.28,812.40,811.35,811.14,811.40,811.80,812.45,813.08,813.85,814.77,815.67,816.36,816.49,816.22,815.77,815.29,814.64,813.94,813.27,812.73,812.18,811.66,811.28,811.27,811.34,811.42,811.48,811.48,811.52,811.42,811.25,810.97,810.42,808.88,805.16,801.00,798.93,800.02,802.31,804.77,807.09,809.21,809.95,810.11,809.73,808.02,804.21,800.10,796.83,795.85,799.19,800.64,801.33,801.66,800.95,800.25,799.56,798.51,796.68,794.61,792.61,790.66,788.82,787.34,786.42,786.06,785.97,785.63,784.67,783.43,782.12,780.85,779.68,778.63,777.22,775.31,773.03,770.03,766.87,764.05,762.03,760.37,757.72,754.33,750.84,748.59,746.01,742.40,737.69,732.38,730.37,731.55,734.35,737.67,740.85,743.00,744.85,746.65,748.15,749.26,750.18,750.48,749.25,746.25,742.50,737.68,731.62,725.36,717.88,711.79,707.86,706.30,706.52,707.85,710.73,716.33,725.26,733.99,742.39,749.68,753.61,757.23,759.32,759.82,758.69,755.50,751.90,748.43,745.39,743.19,741.12,738.75,736.11,733.70,733.35,735.47,739.00,743.16,747.74,752.32,754.04,751.95,747.45,741.18,735.95,731.64,726.96,721.25,717.36,717.66,723.25,730.56,736.87,741.81,745.79,749.46,751.15,750.47,748.18,745.35,744.55,746.25,748.37,750.27,752.75,754.93,756.71,758.69,761.81,765.24,762.45,757.07,751.98,747.49,744.55,741.76,737.85,731.48,727.24,723.75,721.01,719.42,717.83,716.13,714.15,711.26,706.27,701.14,698.87,700.28,705.47,709.11,712.00,715.54,720.41,725.34,730.32,735.58,740.27,742.25,743.15,744.48,746.46,748.99,751.81,751.52,749.17,745.93,744.07,744.79,746.41,748.42,750.91,752.67,752.92,750.82,745.80,739.81,736.78,735.23,734.01,731.96,729.05,725.33,721.08,716.58,712.13,706.90,701.65,697.31,695.57,698.93,705.01,711.36,715.35,719.64,725.26,726.59,719.53,710.47,704.92,701.23,698.49,696.41,694.41,693.70,694.79,697.94,700.83,705.17,709.72,713.39,715.26,714.41,712.89
813.80,813.80,813.34,812.57,812.34,812.46,812.77,813.31,813.91,814.57,815.30,816.23,817.16,817.36,817.08,816.67,816.15,815.45,814.71,814.05,813.50,812.95,812.35,811.71,811.20,811.02,811.04,811.09,811.08,811.02,810.94,810.81,810.57,809.75,805.52,801.30,799.09,800.30,802.63,805.15,807.53,809.37,809.92,810.13,810.15,809.66,807.76,804.27,800.31,797.21,796.47,799.48,800.92,801.58,801.76,800.88,799.79,798.35,796.64,794.74,792.62,790.35,788.00,785.83,784.45,783.57,783.30,783.49,783.87,784.23,784.39,783.96,782.79,781.86,780.84,779.69,778.21,775.83,773.42,771.42,769.95,768.99,767.73,765.05,761.26,757.04,754.15,750.89,746.93,742.35,737.34,732.09,729.76,730.22,732.85,735.39,737.48,739.09,740.38,741.89,743.81,745.83,747.11,746.36,743.73,739.75,734.46,728.00,721.72,714.94,709.66,706.30,704.89,706.57,708.75,712.41,719.31,728.59,737.12,744.84,751.13,754.22,757.54,759.38,759.17,756.56,753.03,749.38,745.80,742.57,740.45,738.48,736.26,733.80,731.63,732.47,735.20,738.91,743.27,748.33,753.02,753.75,749.83,744.51,738.77,733.80,729.36,724.74,720.01,716.69,717.47,723.56,730.72,735.80,739.99,744.13,748.52,750.23,748.89,745.67,742.02,740.91,740.89,741.98,744.50,748.50,751.59,754.09,756.48,759.51,764.13,763.57,759.68,754.43,749.46,746.50,743.95,740.43,734.48,729.19,725.64,722.99,720.03,715.67,711.95,709.34,707.47,704.48,701.18,698.48,697.93,701.67,705.03,709.77,715.32,721.05,726.45,731.63,736.01,739.10,740.24,740.54,741.59,743.56,746.32,749.15,748.77,745.90,741.81,739.57,740.15,741.38,743.05,746.06,749.12,751.23,750.54,746.04,741.31,739.79,739.13,737.55,733.41,729.55,725.21,720.65,716.32,712.19,707.54,702.34,697.27,694.67,697.92,704.50,711.44,715.40,719.57,723.91,724.29,717.77,709.88,704.06,699.97,697.16,694.96,692.97,693.20,695.34,698.90,703.88,709.11,714.16,718.52,721.03,719.74,717.60
814.16,814.28,814.16,813.75,813.64,813.70,813.87,814.25,814.87,815.57,816.31,817.19,818.04,818.26,818.01,817.57,816.96,816.26,815.52,814.80,814.10,813.44,812.74,812.00,811.30,810.83,810.70,810.69,810.67,810.57,810.45,809.96,808.70,806.00,802.23,799.85,799.78,802.43,805.20,807.49,809.18,810.11,810.23,810.18,810.11,809.42,806.91,803.46,799.80,797.25,797.13,799.79,801.19,801.84,801.92,800.97,799.81,797.94,795.62,793.24,790.94,788.24,785.41,782.89,781.44,780.78,780.71,781.01,781.53,782.20,782.79,783.00,782.67,782.36,781.85,781.02,779.86,778.38,776.60,774.75,773.24,772.43,771.18,769.23,766.32,762.33,757.85,754.11,750.39,746.31,741.58,736.12,731.79,729.19,728.87,730.46,732.09,733.48,734.74,736.26,738.39,740.63,742.17,741.97,740.07,735.75,730.19,724.18,718.32,712.12,707.39,704.72,704.58,707.11,710.65,715.99,724.20,733.17,741.69,748.15,752.18,754.85,757.31,758.56,757.97,754.85,751.28,747.21,743.22,739.84,737.53,735.65,733.62,731.49,730.17,731.46,734.45,738.32,742.86,748.60,752.84,752.70,747.96,742.26,737.00,732.28,727.88,723.52,718.99,715.93,717.02,723.33,730.06,734.75,738.85,743.03,746.98,746.75,744.27,741.01,738.15,737.31,737.23,738.50,741.46,745.56,749.17,752.18,754.90,757.97,762.34,763.88,762.20,757.65,752.96,749.17,745.76,741.93,736.50,731.86,728.66,725.86,722.14,717.04,712.82,709.77,707.69,705.63,702.94,699.77,697.50,698.66,702.72,708.53,714.84,720.86,726.15,730.68,734.20,736.35,736.49,736.48,737.97,740.70,743.95,746.62,746.63,744.14,739.93,736.73,735.47,736.41,739.00,742.62,746.05,748.86,749.56,747.07,743.65,741.85,740.17,737.52,732.98,728.34,723.46,718.68,714.41,710.26,706.05,701.31,696.51,694.21,697.60,704.50,711.78,715.66,719.73,722.82,722.12,715.82,708.49,702.70,698.67,696.02,693.69,691.65,692.70,695.91,700.10,706.47,712.31,717.73,722.62,725.72,725.17,723.16
814.51,814.74,814.90,814.85,814.88,814.93,814.99,815.25,815.88,816.64,817.45,818.29,818.96,819.15,818.94,818.44,817.76,817.05,816.28,815.44,814.57,813.77,812.98,812.20,811.45,810.75,810.42,810.20,809.85,809.42,808.98,808.07,806.05,802.09,799.89,799.83,801.58,804.82,807.54,809.32,810.20,810.33,810.35,810.11,809.67,808.47,805.43,802.12,798.92,797.10,797.75,800.07,801.42,802.12,802.19,801.20,800.09,798.02,795.26,792.30,789.71,786.64,783.45,780.64,778.97,778.26,778.19,778.48,778.87,779.51,780.24,780.94,781.54,781.97,782.10,781.66,780.82,780.24,778.96,777.05,775.24,774.30,773.00,771.81,770.02,766.69,760.91,756.72,753.22,749.63,745.21,740.36,734.96,729.97,726.79,727.04,727.73,728.45,729.34,730.76,732.87,735.06,736.70,736.98,735.79,731.21,725.55,720.10,714.59,708.82,704.73,703.08,704.49,707.55,712.43,719.60,729.26,738.10,746.11,751.05,753.00,755.23,756.77,757.47,756.72,753.61,750.31,745.73,741.14,737.48,734.76,732.88,731.00,729.35,729.16,730.74,733.82,737.71,742.32,748.73,752.52,751.75,746.63,740.66,735.70,731.13,726.79,722.72,718.18,714.95,716.16,722.83,728.99,733.69,737.99,742.08,744.87,742.49,738.93,735.83,734.00,733.71,734.42,736.47,739.86,743.57,747.41,750.76,753.76,756.95,760.74,763.90,764.13,760.34,756.12,751.64,747.39,743.17,738.46,735.05,732.31,729.20,724.86,719.86,715.93,712.77,710.28,708.46,705.88,702.24,698.36,696.49,701.04,707.41,713.93,719.97,725.00,728.76,731.48,732.84,732.05,731.83,733.92,737.48,741.25,744.00,744.82,743.14,739.10,734.89,731.58,732.05,735.53,739.71,743.26,746.35,748.19,747.86,745.37,742.83,739.77,735.91,731.27,726.16,721.07,716.33,712.20,707.92,703.83,699.36,695.07,693.95,697.87,704.94,712.22,715.94,719.77,721.74,719.98,713.57,706.83,701.33,697.52,695.00,692.58,690.77,692.56,696.72,701.71,709.08,715.45,721.20,726.40,729.90,730.44,728.91
814.83,815.18,815.51,815.73,815.86,815.93,816.05,816.45,816.95,817.66,818.56,819.43,819.90,819.99,819.79,819.28,818.55,817.75,816.84,815.82,814.79,813.92,813.09,812.29,811.57,810.88,810.31,809.35,807.69,806.10,804.48,803.36,802.42,800.62,800.38,801.82,804.34,807.25,809.19,810.05,810.38,810.42,810.24,809.73,808.09,805.51,802.55,799.92,797.56,796.68,798.18,800.28,801.56,802.40,802.70,801.73,800.70,798.79,796.04,792.70,789.54,786.45,783.37,780.47,778.33,776.50,775.75,775.77,775.76,776.34,777.21,778.18,779.25,780.44,781.15,781.25,780.86,780.22,779.00,777.37,775.79,774.74,773.56,772.51,771.31,769.04,763.84,759.03,755.11,751.65,747.68,742.95,737.96,733.32,729.72,727.75,726.41,725.05,724.07,725.05,726.92,729.15,731.02,731.60,730.67,726.26,720.77,715.42,709.62,703.90,700.99,701.24,703.94,707.23,712.80,721.40,733.00,742.88,748.67,751.84,753.45,754.79,755.79,756.33,755.83,753.44,751.01,746.05,740.61,736.13,732.65,730.40,728.67,727.77,728.96,731.06,734.04,737.58,741.97,748.69,752.62,751.89,746.74,740.44,735.22,730.55,726.24,722.26,717.77,713.40,714.26,721.98,727.41,732.58,737.38,741.03,741.57,738.25,734.29,731.08,729.53,730.07,732.58,736.14,740.07,743.26,746.79,750.13,753.32,756.75,760.40,763.76,764.26,760.66,756.75,752.87,748.79,744.63,741.11,739.16,736.81,733.14,727.97,723.75,721.03,718.74,716.31,713.63,710.86,706.75,701.28,696.16,699.58,705.66,712.01,717.77,722.58,726.11,728.11,728.46,727.16,726.80,729.21,733.19,737.21,741.04,743.50,743.03,739.28,734.52,730.10,729.55,732.54,737.14,740.88,743.98,746.33,747.06,744.36,741.43,737.66,732.83,727.46,722.62,718.23,714.25,710.61,706.22,701.38,696.24,692.28,693.91,699.27,706.25,712.71,716.04,719.27,720.48,717.75,710.56,705.13,700.45,696.83,694.15,691.79,691.13,693.55,698.21,704.33,712.21,719.12,725.14,730.19,733.57,735.11,734.44
815.01,815.48,816.01,816.49,816.79,816.99,817.22,817.63,818.09,818.71,819.48,820.12,820.40,820.45,820.29,819.83,819.04,818.06,817.00,815.88,814.82,813.92,813.07,812.24,811.48,810.72,809.27,807.96,807.37,806.75,806.02,805.37,804.42,802.48,802.63,804.31,806.66,808.88,810.02,810.37,810.40,810.18,809.45,808.02,805.67,802.84,800.37,798.29,797.09,797.24,798.95,800.55,801.69,802.61,803.07,802.23,801.28,799.81,797.48,793.98,790.48,787.39,784.49,781.74,779.41,777.16,775.25,773.74,772.85,773.17,773.94,774.95,776.36,778.43,780.02,780.64,780.19,778.95,777.41,775.78,774.33,773.35,772.33,771.33,770.28,768.76,765.68,761.41,757.62,754.33,750.52,746.03,741.37,737.08,733.69,731.21,729.37,727.58,725.74,724.25,723.13,723.48,724.89,726.21,725.36,721.45,716.46,711.20,705.00,700.91,699.55,700.67,703.81,707.05,712.74,722.05,734.77,743.96,748.85,751.39,752.64,753.69,754.62,755.24,754.94,752.99,751.10,746.03,740.12,735.09,731.19,728.84,727.43,727.12,728.80,731.10,734.04,737.41,741.66,748.57,752.29,752.02,748.03,742.19,736.40,731.14,726.51,722.55,717.99,713.05,712.52,718.67,725.30,731.20,735.43,737.37,736.07,732.46,728.67,725.76,724.87,727.23,731.16,735.33,739.25,742.86,746.84,750.45,753.79,757.30,760.82,763.75,764.12,761.00,757.48,753.62,749.67,746.20,744.31,743.00,741.14,738.02,733.31,729.29,726.37,723.77,721.01,717.75,714.45,709.83,703.53,696.75,698.11,703.27,709.27,714.80,719.71,722.80,723.77,723.04,721.88,721.63,723.41,727.03,732.19,737.64,741.46,742.03,738.69,733.03,728.22,727.30,729.93,734.59,738.56,741.89,744.77,746.33,743.69,740.32,736.18,731.03,724.80,719.03,714.33,710.76,708.13,704.61,699.65,694.25,690.77,694.47,701.50,708.24,713.42,716.38,717.86,717.79,714.63,707.88,702.92,699.13,696.02,693.33,691.02,691.68,694.74,700.00,707.65,715.17,722.30,728.24,732.56,735.84,737.78,737.92
815.10,815.68,816.37,817.06,817.56,817.95,818.31,818.74,819.17,819.68,820.20,820.56,820.70,820.72,820.61,820.22,819.34,818.15,816.93,815.77,814.71,813.83,812.99,812.15,811.31,810.48,808.22,806.92,808.08,808.90,809.54,809.48,808.26,805.67,805.58,806.87,808.58,809.97,810.44,810.50,810.32,809.73,808.23,805.79,803.05,800.51,798.73,797.36,797.35,798.34,799.87,800.95,801.94,802.86,803.36,802.65,801.75,800.77,799.00,795.61,792.01,788.96,786.25,783.72,781.30,779.00,776.00,772.71,770.50,770.13,770.60,771.55,773.15,775.81,778.22,779.28,778.72,776.89,775.02,773.25,771.76,770.73,769.67,768.58,767.57,766.74,765.98,763.06,760.00,757.10,753.46,749.35,745.14,741.32,738.33,736.03,734.20,732.41,730.01,725.75,721.21,718.97,719.11,720.68,719.74,716.52,712.35,707.50,701.35,699.15,699.15,700.62,703.73,706.81,712.22,721.45,734.32,742.53,747.20,749.70,750.89,752.17,753.29,754.07,754.02,752.45,750.90,745.69,739.49,734.26,730.20,727.83,726.68,726.79,728.64,731.02,733.98,737.37,741.60,748.48,751.83,752.09,749.58,744.48,738.09,732.20,727.27,723.29,718.68,713.39,711.07,714.60,722.93,729.51,732.72,732.65,729.91,726.32,723.01,720.75,720.89,725.47,730.40,734.66,738.43,742.88,747.50,751.36,754.69,758.10,761.39,763.71,763.90,761.44,758.51,754.72,750.99,748.28,747.77,746.71,745.36,743.12,739.30,735.23,731.56,728.17,724.85,721.09,717.10,712.04,705.44,697.82,696.54,700.52,706.19,711.52,716.46,719.15,719.14,717.41,716.49,716.43,717.86,721.40,727.67,734.33,739.20,740.53,737.37,730.95,726.08,724.92,727.21,731.94,736.29,740.07,743.47,745.58,743.20,739.51,735.20,729.93,722.86,716.21,711.00,707.46,705.54,702.99,698.06,692.80,690.17,695.44,703.96,710.34,714.06,716.30,715.81,714.34,711.01,705.28,700.63,697.64,695.07,692.50,690.48,692.42,696.05,701.83,710.77,717.65,724.70,730.34,733.86,737.02,739.15,739.98
815.07,815.69,816.40,817.14,817.80,818.41,819.01,819.62,819.98,820.26,820.53,820.79,820.89,820.89,820.79,820.46,819.45,818.08,816.70,815.48,814.46,813.62,812.83,812.03,811.24,810.45,808.70,808.07,809.63,810.12,810.40,810.30,809.65,808.38,808.25,808.90,809.76,810.36,810.66,810.55,810.11,809.04,806.58,803.73,801.06,798.93,797.88,798.09,798.89,799.86,800.83,801.77,802.67,803.38,803.60,802.81,801.90,801.03,799.70,797.17,793.91,791.04,788.44,785.95,783.46,781.24,778.26,774.34,769.96,767.60,767.42,768.33,769.72,771.65,774.02,775.47,775.43,773.98,772.31,770.38,768.37,766.52,764.54,763.09,762.40,762.46,762.40,761.89,760.85,759.08,756.11,752.68,749.59,746.70,743.85,741.41,738.96,736.10,732.48,727.66,722.76,718.38,715.39,714.67,713.29,710.96,708.21,705.05,700.76,698.78,698.77,700.31,703.20,706.16,710.71,718.13,728.80,737.77,742.54,745.41,747.71,750.25,751.63,752.59,752.94,751.98,750.61,744.73,738.29,733.76,729.91,727.31,725.96,726.11,728.44,730.94,734.07,737.80,742.41,748.70,751.53,751.94,750.17,745.55,738.90,733.09,728.45,724.42,720.09,714.38,710.43,711.72,720.52,727.00,729.49,728.38,724.97,721.44,718.85,717.85,719.75,726.39,731.45,735.39,739.30,744.64,749.36,752.90,755.74,758.57,761.25,763.35,763.81,762.17,760.42,757.88,754.78,752.04,751.34,750.44,749.38,747.51,744.05,739.93,735.80,731.79,727.76,723.23,718.52,713.44,707.20,699.11,694.62,697.50,703.17,708.26,712.49,715.24,715.07,712.74,711.35,711.40,715.05,720.76,726.62,732.10,737.36,738.67,734.66,728.62,723.60,721.70,723.40,728.87,734.15,738.80,742.61,744.62,742.74,739.35,735.02,729.36,721.59,716.34,711.60,707.28,704.01,701.17,695.81,691.36,690.86,696.91,705.87,711.74,714.01,714.22,712.82,710.45,707.00,702.52,698.92,696.25,693.79,691.57,690.72,693.53,697.56,703.35,712.01,718.60,725.00,730.13,733.48,736.49,738.97,740.15
815.08,815.73,816.44,817.20,817.92,818.60,819.26,819.89,820.33,820.61,820.80,820.99,821.09,821.05,820.87,820.39,819.24,817.77,816.32,815.08,814.24,813.51,812.80,812.07,811.30,810.52,809.12,808.77,810.28,810.69,810.89,810.82,810.46,809.98,809.89,810.12,810.44,810.62,810.77,810.57,810.00,808.61,805.47,802.38,799.92,798.43,798.53,799.47,800.51,801.43,802.19,802.96,803.65,803.96,803.71,802.91,802.02,801.20,800.10,798.14,795.27,792.45,789.83,787.37,784.95,782.72,779.97,776.18,770.85,766.48,764.99,765.39,766.81,768.36,770.10,771.25,771.37,770.13,768.27,766.06,763.84,761.90,759.88,758.37,757.65,757.74,757.91,758.37,758.37,757.55,755.63,753.59,751.95,750.22,747.93,745.30,742.16,737.97,732.79,727.50,722.49,717.54,714.25,714.49,713.53,710.76,707.87,705.36,701.70,699.25,698.46,699.35,701.96,704.89,708.97,714.99,723.35,731.41,736.60,740.46,743.91,747.39,749.89,751.36,751.89,751.40,750.12,744.11,737.69,733.40,729.51,726.61,725.09,725.34,727.99,730.86,734.25,738.22,743.00,748.79,751.23,751.65,750.32,746.11,739.82,734.16,729.52,725.42,721.32,715.25,709.87,708.93,717.07,723.43,725.69,724.31,720.88,717.34,716.08,717.09,720.73,728.04,733.09,737.10,741.29,746.65,750.77,753.81,756.31,758.73,760.90,762.78,763.58,762.87,761.75,760.12,757.95,755.68,754.28,752.84,751.50,749.57,746.22,741.92,737.36,732.81,728.21,723.32,718.51,713.65,708.06,700.92,695.11,695.14,699.00,704.53,708.64,711.48,711.50,709.40,708.38,709.41,714.47,720.99,726.14,730.96,736.17,737.00,732.09,726.48,721.62,719.49,720.88,726.51,732.25,737.60,741.76,743.66,742.58,739.87,735.63,729.84,722.85,717.86,712.73,707.64,703.46,699.66,693.88,690.07,691.22,698.16,706.86,712.08,713.43,712.36,710.06,706.74,703.17,699.94,697.22,694.78,692.40,690.68,691.50,694.85,699.21,704.62,711.52,717.34,722.88,727.76,731.65,734.85,737.63,739.39
815.13,815.81,816.47,817.19,817.88,818.54,819.17,819.76,820.37,820.79,821.01,821.17,821.25,821.15,820.80,820.08,818.77,817.26,815.82,814.65,814.04,813.42,812.79,812.13,811.38,810.64,809.46,809.12,810.31,810.89,811.27,811.28,811.02,810.84,810.80,810.82,810.83,810.80,810.79,810.56,809.94,808.37,804.80,801.57,799.42,798.76,800.09,801.15,802.13,803.05,803.81,804.29,804.58,804.33,803.58,802.82,802.00,801.22,800.21,798.54,796.04,793.21,790.51,788.11,785.82,783.47,780.93,777.59,772.19,766.11,763.04,762.68,764.23,765.65,766.48,766.90,766.80,765.61,763.48,761.09,758.93,757.35,755.80,754.37,753.33,752.89,752.94,753.33,753.57,753.40,752.62,752.17,751.96,751.47,750.10,747.42,743.61,738.15,731.50,725.73,720.76,716.75,715.39,718.28,718.17,714.53,710.71,707.98,704.03,700.60,698.52,698.20,700.24,703.17,707.08,712.10,718.34,724.67,730.37,735.38,739.79,743.97,747.87,749.90,750.45,750.25,749.03,743.51,737.45,733.05,729.00,725.78,724.18,724.57,727.42,730.76,734.40,738.49,743.32,748.77,750.93,751.31,750.21,746.51,740.85,735.28,730.38,726.19,722.27,715.90,709.26,706.19,712.94,719.06,721.29,719.93,716.99,713.81,714.37,717.77,722.93,729.94,734.96,739.25,743.69,748.45,751.66,754.23,756.58,758.82,760.56,762.14,763.23,763.36,762.49,761.43,760.22,758.63,756.25,753.86,751.86,749.60,746.17,741.52,736.40,731.24,726.14,721.14,716.77,712.39,707.70,702.44,696.90,693.54,694.46,700.14,704.75,707.77,708.17,706.84,706.99,709.54,715.22,721.49,725.94,730.58,735.38,735.47,729.82,724.53,719.93,717.91,719.23,724.61,730.56,736.38,740.80,742.69,742.55,740.69,736.66,730.99,725.44,719.92,713.93,708.20,703.57,698.64,692.33,688.93,691.29,699.20,707.22,711.64,712.42,710.64,707.25,703.17,699.70,697.54,695.46,693.23,691.09,690.14,692.77,696.41,700.79,705.38,709.74,714.43,719.13,723.98,728.78,732.50,735.34,737.66
815.35,815.93,816.36,816.81,817.36,818.00,818.73,819.48,820.25,820.78,821.04,821.24,821.29,820.93,820.29,819.41,818.04,816.48,815.19,814.34,813.74,813.12,812.50,811.89,811.28,810.71,810.01,809.79,810.42,811.02,811.60,811.81,811.65,811.51,811.44,811.35,811.19,810.94,810.72,810.47,809.81,808.12,804.44,801.07,799.53,799.85,801.55,802.71,803.79,804.76,805.38,805.20,804.58,803.66,802.67,802.00,801.36,800.67,799.67,797.99,795.72,793.01,790.44,788.17,785.85,783.11,780.28,776.89,771.67,764.98,761.08,760.15,761.59,762.65,762.92,762.67,761.94,760.55,759.13,757.44,755.66,754.08,752.54,750.75,749.19,748.20,747.80,747.73,747.70,747.54,747.14,747.11,747.42,747.86,747.83,745.73,741.53,735.70,728.91,722.84,718.50,717.81,719.88,722.89,722.97,720.45,717.05,713.36,708.82,703.94,700.18,698.12,698.39,701.15,704.96,709.26,714.15,720.40,726.19,731.21,735.77,740.71,744.63,746.57,747.02,746.65,745.79,741.78,736.84,732.45,728.41,725.10,723.49,724.02,727.10,730.56,734.22,738.28,743.11,748.71,750.72,751.00,750.16,747.36,741.86,735.93,730.59,726.40,722.53,715.88,708.40,703.77,708.73,714.04,715.53,713.62,711.57,710.79,713.88,719.16,724.91,731.35,736.40,740.77,744.87,748.76,751.74,754.40,756.99,759.42,760.73,761.79,762.66,763.05,762.45,761.56,760.54,758.90,755.54,752.44,749.71,746.92,743.30,737.92,731.51,725.19,719.40,714.28,710.97,707.72,704.31,701.08,697.35,693.50,691.75,694.16,700.16,703.79,704.54,704.10,706.37,710.48,716.01,721.54,725.93,730.63,734.54,733.96,728.27,722.93,718.02,716.04,717.51,722.63,729.12,734.94,739.30,741.63,742.24,740.96,737.50,732.28,726.71,720.89,714.53,708.60,704.07,698.95,691.64,687.95,691.25,700.01,707.27,710.76,710.88,708.47,703.41,699.77,697.36,695.43,693.47,691.44,690.39,691.20,694.78,698.52,701.70,704.33,706.75,710.10,714.52,719.66,725.12,729.73,731.86,733.74
815.10,815.61,815.89,816.15,816.62,817.24,817.97,818.85,819.72,820.33,820.66,820.82,820.74,820.22,819.42,818.46,817.17,815.81,814.80,814.21,813.64,813.08,812.51,811.96,811.45,810.98,810.52,810.36,810.71,811.28,811.92,812.26,812.23,811.94,811.69,811.45,811.17,810.80,810.53,810.22,809.22,807.05,803.54,800.63,799.99,801.29,803.36,804.55,805.59,806.30,806.22,805.14,803.89,802.69,801.68,801.07,800.30,799.26,797.98,796.47,794.65,792.48,790.30,788.16,785.70,782.61,779.52,776.13,771.26,764.80,760.34,758.21,758.21,758.81,758.67,758.06,757.10,755.82,754.92,753.80,752.39,750.76,748.85,746.71,744.82,743.50,742.63,742.15,741.83,741.59,741.45,741.56,742.05,742.74,743.03,741.32,737.48,732.00,725.60,720.28,718.79,721.16,725.06,727.62,728.01,726.35,723.37,719.40,714.83,709.23,704.02,699.94,697.95,698.89,702.00,705.88,709.94,715.42,721.06,726.22,730.95,735.89,739.90,741.71,742.03,741.95,741.57,739.18,735.57,731.32,727.02,723.62,722.20,723.15,726.77,730.47,734.05,737.80,742.28,748.34,750.40,750.63,749.75,746.56,741.07,735.10,729.74,725.87,722.18,715.09,706.94,701.51,704.97,708.93,710.03,708.94,709.08,711.16,715.54,720.91,726.30,732.27,737.45,741.73,745.25,748.52,751.47,754.39,757.27,759.75,760.76,761.50,762.21,762.70,762.30,761.50,760.60,758.80,754.22,750.13,746.46,742.75,738.40,732.65,726.34,720.54,715.57,711.15,708.99,707.21,705.33,703.30,699.57,695.01,691.27,690.46,695.19,699.16,700.78,701.39,704.97,710.54,716.24,721.42,725.95,730.66,733.96,732.90,727.19,721.69,716.21,713.82,715.12,720.17,726.94,732.84,737.48,740.54,741.60,740.87,737.50,731.99,726.37,720.46,714.16,708.42,704.03,698.72,690.97,687.22,691.02,700.15,706.45,709.13,708.76,705.67,700.33,697.12,695.19,693.36,691.52,689.80,689.47,691.14,694.90,698.42,700.34,701.48,703.31,706.74,711.33,716.34,721.20,725.01,726.36,728.42
814.38,814.83,815.07,815.26,815.74,816.32,816.93,817.86,818.72,819.37,819.75,819.81,819.54,818.98,818.20,817.24,816.21,815.30,814.64,814.22,813.77,813.31,812.84,812.36,811.89,811.43,810.97,810.83,811.17,811.69,812.24,812.63,812.67,812.10,811.58,811.15,810.76,810.37,810.14,809.63,808.08,805.24,802.14,800.30,800.80,803.00,805.45,806.64,807.44,807.49,806.24,804.15,802.63,801.49,800.61,799.92,798.76,797.03,795.30,794.12,792.92,791.50,789.82,787.80,785.25,782.08,778.94,775.61,771.12,765.36,760.58,756.88,754.52,754.49,754.01,753.30,752.51,751.57,750.91,750.07,748.93,747.31,744.92,742.63,740.74,739.26,737.92,736.94,736.26,735.89,735.94,736.04,736.44,736.72,736.29,734.66,731.91,727.44,721.96,718.75,721.70,726.28,730.22,732.22,733.17,732.00,729.38,725.70,721.47,715.92,709.74,703.74,699.32,697.07,698.55,701.90,705.61,709.69,714.95,720.27,725.13,729.42,733.70,735.51,735.86,736.56,736.76,735.86,733.54,729.57,724.76,721.32,720.31,721.98,726.45,730.49,733.94,737.15,740.99,747.49,749.63,749.70,748.28,743.83,738.33,732.70,727.81,724.50,720.84,713.17,704.67,699.32,701.83,704.44,705.83,706.95,710.33,715.07,719.31,723.18,727.42,732.91,738.17,742.22,745.08,748.06,751.13,754.39,757.51,759.77,760.63,761.25,761.90,762.39,762.12,761.41,760.65,758.73,752.98,747.70,743.05,738.39,733.08,727.41,722.49,718.63,715.67,712.64,711.54,711.16,710.65,708.82,703.51,697.93,692.93,689.56,690.48,694.14,696.87,698.69,702.89,709.70,715.89,721.15,725.92,730.59,733.58,732.30,726.52,720.78,714.60,711.44,712.18,717.25,724.03,730.07,735.17,739.06,740.47,740.27,736.63,730.25,724.69,718.77,712.85,707.58,703.32,697.76,690.11,686.60,690.60,699.70,704.86,706.83,706.12,702.40,698.09,695.14,693.07,691.28,689.57,688.42,688.53,690.16,693.17,695.98,696.82,697.21,699.64,704.21,709.26,713.78,717.10,718.75,719.57,722.40
813.32,813.68,813.97,814.31,814.77,815.25,815.70,816.38,817.09,817.53,817.69,817.69,817.46,816.97,816.37,815.78,815.32,814.90,814.55,814.25,813.93,813.62,813.21,812.75,812.29,811.82,811.46,811.39,811.73,812.16,812.68,812.90,812.66,811.92,811.26,810.72,810.19,809.57,809.01,807.89,806.01,803.43,801.06,800.73,802.26,804.86,807.37,808.63,808.71,807.60,805.25,802.74,801.02,799.81,798.77,797.53,796.03,794.25,792.65,791.69,790.50,788.82,786.90,784.98,783.36,781.41,778.94,775.60,770.63,764.42,759.72,756.15,753.38,752.00,750.92,750.00,749.18,748.27,747.54,746.65,745.49,744.04,742.66,741.24,739.88,738.45,736.29,733.69,731.87,731.05,731.06,730.91,730.83,730.30,728.81,727.00,725.59,722.79,719.66,721.14,725.86,730.24,733.57,735.99,737.75,737.91,736.03,731.87,726.57,721.41,715.79,709.76,704.00,699.41,696.94,697.41,701.36,705.33,709.64,713.81,717.72,721.74,725.71,728.39,730.03,731.30,732.38,732.19,730.39,726.67,721.63,718.50,718.33,721.13,726.47,730.46,733.67,736.61,740.00,745.37,746.83,745.42,742.25,738.74,733.65,728.69,724.69,721.75,716.29,708.06,700.36,696.60,700.13,704.13,707.60,711.39,717.25,721.89,724.86,727.22,730.19,734.36,738.87,742.59,745.37,748.32,751.98,755.50,758.35,759.95,760.60,761.13,761.65,761.98,761.76,761.31,760.80,759.17,753.87,747.99,743.61,739.75,735.09,730.28,726.16,722.84,720.27,718.11,717.38,716.60,715.07,712.09,707.05,701.74,696.54,691.94,689.47,690.37,692.52,695.73,701.49,708.83,715.18,720.58,725.58,730.38,733.14,731.87,726.32,719.95,713.53,709.85,709.73,714.02,721.13,726.61,731.03,735.07,737.92,738.32,734.93,728.71,723.09,716.43,710.60,705.87,701.81,696.19,688.42,685.25,690.04,699.30,703.29,704.27,703.18,699.60,696.05,693.18,690.90,689.05,687.35,687.71,689.35,691.13,691.24,691.97,692.39,693.37,696.32,700.17,705.19,709.71,712.68,714.03,715.91,718.87
812.18,812.56,812.95,813.41,813.88,814.29,814.65,815.09,815.54,815.75,815.75,815.74,815.60,815.29,814.93,814.68,814.68,814.59,814.43,814.23,814.00,813.75,813.42,813.02,812.62,812.20,811.95,811.97,812.30,812.67,813.15,813.17,812.64,811.83,811.08,810.39,809.65,808.71,807.76,806.40,804.76,802.98,801.55,802.18,804.19,806.76,808.89,809.92,809.39,807.44,804.29,801.39,799.47,798.02,796.67,794.99,793.29,791.46,789.84,788.71,787.06,785.16,783.27,781.65,780.63,779.29,777.34,774.32,769.31,763.09,759.30,757.10,755.34,753.35,751.56,749.95,748.53,747.41,746.57,745.71,744.76,743.80,743.37,742.59,741.44,739.74,736.84,733.04,729.97,728.03,727.20,726.96,726.82,726.07,724.21,721.97,721.16,720.14,719.88,724.72,729.60,733.26,736.24,739.32,742.13,743.49,742.03,737.14,730.83,725.68,720.62,715.08,708.92,703.54,698.56,696.01,697.83,700.99,704.56,707.68,710.34,713.46,716.88,719.90,722.35,724.20,726.10,726.85,726.00,723.17,718.89,716.12,716.68,720.53,726.45,730.48,733.45,736.12,739.06,742.82,743.60,741.36,737.18,733.91,728.61,723.94,720.37,717.00,710.24,702.51,696.21,694.08,699.53,704.95,710.59,716.96,723.98,728.13,730.25,731.93,734.34,737.39,740.78,743.91,746.69,749.80,753.98,757.28,759.33,760.28,760.73,761.14,761.46,761.56,761.37,761.06,760.74,759.48,755.15,749.57,745.87,743.00,739.32,735.42,731.97,728.94,726.46,724.81,724.06,722.56,719.78,715.52,710.75,706.26,701.51,696.20,691.47,689.21,689.54,692.74,699.47,707.17,713.95,719.87,725.31,730.23,732.72,731.31,725.69,718.59,712.44,708.62,707.68,710.74,716.76,722.02,726.61,730.99,735.01,735.73,732.79,727.34,722.13,715.47,709.63,704.75,700.16,694.29,686.48,683.67,688.86,697.30,701.15,701.95,700.43,696.52,693.43,690.76,688.45,686.65,685.58,687.05,689.20,690.66,690.14,690.08,690.56,691.76,694.00,696.53,700.75,704.88,707.79,709.64,712.40,715.32
811.12,811.62,812.13,812.65,813.13,813.54,813.88,814.14,814.26,814.30,814.30,814.30,814.29,814.25,814.17,814.12,814.34,814.36,814.27,814.15,813.94,813.66,813.38,813.13,812.87,812.55,812.44,812.55,812.87,813.25,813.64,813.49,812.77,811.99,811.16,810.30,809.30,808.00,806.70,805.73,804.97,804.40,804.05,804.77,806.55,808.65,809.89,810.29,809.45,807.22,803.67,800.42,798.29,796.50,794.70,792.87,791.10,789.06,787.03,785.25,782.71,780.84,779.43,778.28,777.18,775.35,773.52,771.28,767.18,761.96,760.10,760.41,760.92,759.39,756.88,754.01,751.33,749.66,748.71,748.08,747.65,747.50,747.51,746.76,745.21,742.72,739.21,735.03,730.87,727.22,725.00,725.03,725.42,725.30,724.00,721.04,719.73,720.30,723.14,728.80,732.42,735.36,738.49,742.32,746.29,748.35,746.79,741.06,734.24,728.57,723.66,718.80,713.21,708.87,703.93,699.00,695.74,696.78,699.68,702.06,703.40,704.83,707.48,709.95,712.20,714.67,717.23,719.34,720.13,719.04,716.68,714.36,715.47,720.13,726.25,730.49,733.28,735.58,737.97,739.97,740.22,738.30,734.43,730.01,723.69,718.77,714.91,710.09,703.20,697.25,692.91,692.19,700.08,706.29,713.67,722.23,728.85,732.63,734.86,736.99,739.88,742.31,744.36,746.57,749.26,752.67,757.07,759.54,760.31,760.73,761.04,761.25,761.29,761.13,760.96,760.62,760.26,759.32,756.31,752.17,749.39,747.26,744.53,741.41,738.59,735.91,733.50,732.04,730.98,728.74,724.94,719.62,714.66,711.27,707.43,701.89,696.35,691.13,688.51,689.91,696.58,704.63,712.21,719.09,725.20,730.17,732.36,730.59,724.55,716.73,711.27,707.68,706.08,707.58,710.79,716.34,722.35,727.48,731.98,732.51,730.02,725.80,721.70,716.27,710.47,704.63,698.68,692.21,684.53,682.04,687.00,693.43,698.38,699.92,697.92,692.97,690.01,687.74,685.75,684.37,684.72,686.48,687.65,688.36,690.53,691.74,692.74,693.38,693.37,694.22,696.70,699.65,702.49,705.35,708.40,711.18
810.89,811.31,811.76,812.22,812.55,812.80,812.99,813.10,813.16,813.20,813.23,813.25,813.44,813.55,813.55,813.54,813.85,814.01,814.04,813.96,813.90,813.71,813.48,813.27,813.08,812.90,812.88,813.04,813.40,813.78,814.07,813.93,813.37,812.59,811.75,810.91,810.02,809.01,807.86,807.21,806.85,806.66,806.76,807.40,808.56,809.83,810.45,810.52,809.51,807.21,803.77,801.11,799.40,797.93,796.32,794.26,791.80,789.28,786.83,784.36,781.07,778.76,776.99,775.40,773.76,771.85,770.28,768.85,766.85,764.69,765.17,766.86,767.88,766.67,763.95,760.30,756.39,753.57,752.35,751.67,751.26,751.09,750.78,749.55,746.93,742.83,738.25,733.73,729.55,726.88,727.86,728.85,729.43,729.36,728.08,724.67,721.77,722.59,727.13,731.59,734.66,737.60,741.21,745.77,749.24,750.62,748.68,743.02,736.44,730.55,725.49,720.80,715.86,712.35,708.64,704.19,699.34,696.84,695.50,695.66,696.94,697.58,699.28,701.05,702.84,705.14,708.41,710.96,712.68,713.33,712.28,711.69,713.99,719.13,725.44,730.02,732.67,734.19,735.25,736.58,736.14,734.31,731.13,726.27,720.19,715.43,710.98,704.64,698.48,693.46,691.00,693.04,701.21,708.03,716.12,724.92,730.70,734.62,737.81,741.19,744.96,747.22,748.57,750.00,752.03,754.97,758.40,760.17,760.62,760.93,761.01,760.98,760.87,760.68,760.51,760.00,758.66,756.97,756.25,754.54,752.50,750.31,747.93,745.59,743.31,741.08,739.10,737.82,736.85,733.84,728.82,722.75,717.44,713.59,709.69,704.69,699.17,692.52,688.18,688.31,694.93,703.50,711.50,718.63,724.93,729.98,732.01,730.34,724.77,717.25,711.09,706.82,704.75,705.69,708.24,713.16,719.13,724.90,729.14,728.17,724.71,720.74,718.14,715.01,710.39,704.82,698.78,691.58,683.85,681.40,686.13,692.10,696.46,697.11,694.28,689.31,686.61,684.82,684.19,685.13,686.37,687.81,689.34,691.34,694.70,697.38,698.96,699.19,697.85,696.70,696.57,697.20,698.69,701.53,704.73,707.16
810.85,811.06,811.34,811.66,811.91,812.05,812.09,812.06,812.10,812.20,812.30,812.36,812.69,812.91,812.98,812.96,813.32,813.65,813.83,813.87,813.96,813.87,813.69,813.49,813.35,813.27,813.32,813.53,813.91,814.26,814.44,814.38,814.02,813.30,812.48,811.70,810.97,810.24,809.39,809.01,808.85,808.81,809.05,809.48,810.06,810.62,810.87,810.68,809.62,807.50,804.51,802.63,801.38,800.26,798.91,796.87,793.95,790.96,787.97,784.67,780.66,777.98,775.93,774.01,772.03,770.32,769.20,768.63,768.46,768.75,770.60,772.81,774.03,773.43,770.94,767.00,762.27,758.27,756.49,755.41,754.47,753.51,752.45,750.22,746.36,740.95,735.64,731.41,728.59,728.19,731.95,733.76,734.38,734.08,732.42,728.45,724.66,725.52,730.65,734.03,736.98,740.35,744.41,748.98,751.64,751.97,749.47,744.02,737.87,732.13,727.11,722.60,718.23,715.25,712.56,709.13,704.29,699.32,694.45,691.98,692.03,691.99,692.71,693.73,694.98,696.97,700.98,704.12,706.57,708.31,708.22,709.30,712.55,717.73,723.83,728.53,731.08,731.98,731.90,732.54,731.44,729.56,726.92,722.18,716.84,712.14,707.10,700.18,694.73,690.57,690.27,695.50,702.98,709.98,717.98,726.19,731.45,735.63,739.66,743.93,748.24,750.75,752.11,753.28,754.80,757.07,759.26,760.40,760.76,760.96,760.82,760.58,760.16,759.54,759.06,757.64,755.36,753.54,754.83,755.31,754.26,752.23,749.84,747.72,745.32,743.33,741.94,740.68,739.48,736.15,730.73,724.19,718.64,714.19,709.93,705.17,699.63,692.47,687.76,687.74,694.27,703.07,711.23,718.40,724.71,729.77,731.63,730.13,725.21,718.17,711.38,706.34,703.60,703.94,706.38,710.62,716.31,722.66,726.30,723.88,719.35,715.25,713.78,712.77,709.74,705.08,699.37,691.62,683.74,680.91,684.96,691.16,694.64,694.16,690.50,685.55,683.63,683.05,684.11,687.10,689.68,691.20,693.14,696.13,700.09,703.66,705.65,705.85,703.99,701.13,698.92,697.46,697.12,698.86,701.57,703.40
