795.43,794.13,790.98,790.55,791.16,792.81,795.48,797.30,798.21,798.28,797.76,797.01,795.80,793.60,790.31,785.84,781.08,777.86,776.04,775.32,774.85,774.32,774.12,773.79,772.14,768.85,765.62,762.50,759.30,756.24,753.62,751.00,748.72,747.75,745.58,742.00,734.50,720.14,704.45,695.19,689.44,685.60,683.44,681.61,680.40,679.79,679.57,679.47,679.18,678.75,678.22,677.52,676.65,675.88,675.11,673.87,672.13,669.16,664.12,656.36,649.39,643.06,639.81,640.79,643.79,646.55,649.81,653.73,658.43,664.88,671.08,676.88,682.47,688.00,693.66,697.37,698.61,698.28,696.84,694.30,691.37,689.04,687.98,687.78,688.04,688.69,689.74,691.59,694.26,697.32,700.05,702.87,705.60,707.84,709.31,710.56,711.71,712.59,713.12,713.27,712.07,709.00,703.82,696.15,688.19,681.28,674.44,667.62,662.78,659.55,656.17,651.94,646.72,643.01,639.66,636.25,632.60,628.76,624.05,619.00,613.85,608.74,603.93,598.93,593.69,588.31,582.79,576.86,571.00,565.46,560.08,555.22,551.05,547.73,545.56,543.58,541.63,539.48,536.88,534.01,530.79,527.70,524.83,521.80,519.57,517.88,516.46,515.07,513.70,512.38,511.06,509.83,508.98,509.50,509.96,510.04,510.20,510.25,510.44,510.72,511.01,511.31,511.58,511.85,512.13,512.35,512.50,512.60,512.69,512.86,513.08,513.31,513.52,513.70,513.84,513.58,513.12,512.55,511.94,511.37,510.88,510.42,510.02,509.77,509.59,509.44,509.39,509.71,510.42,511.09,511.70,512.47,513.53,514.62,515.68,516.71,517.77,518.83,520.57,523.10,525.98,527.83,529.07,530.13,531.25,532.08,532.88,533.66,534.46,535.45,536.58,537.76,539.08,540.69,542.36,543.64,544.76,546.07,547.89,550.26,553.46,557.44,561.83,566.84,572.44,578.52,584.93,591.04,596.21,603.02,612.29,621.38,628.63,635.07,640.78,645.18,649.47,653.41,656.41,657.75,657.32,655.04,652.21,649.53,647.66,647.24,648.34,650.87,654.90,659.20,662.62,664.77,665.36,664.45,661.51,658.08
793.96,795.07,790.31,788.51,788.14,788.56,789.66,791.20,792.94,794.11,794.54,794.38,793.43,792.11,789.62,784.80,779.03,774.38,771.33,769.90,769.07,768.28,767.58,766.47,764.03,760.90,757.89,754.91,751.68,747.99,745.25,743.27,741.82,740.61,739.35,736.87,730.32,716.54,700.68,691.82,686.20,681.66,678.06,675.40,674.00,673.51,673.28,673.16,673.14,673.12,673.02,672.77,672.23,671.73,671.21,670.14,668.15,664.65,659.69,653.30,646.84,640.62,637.13,637.68,640.59,643.59,647.20,651.51,656.50,662.44,668.94,675.32,681.09,686.31,691.06,694.06,694.97,694.34,692.03,688.17,683.70,679.99,679.00,679.22,680.02,681.26,682.77,684.93,687.84,691.41,695.44,698.91,701.80,704.15,705.91,707.36,708.98,710.26,710.99,711.23,710.69,707.85,702.79,695.72,687.63,680.12,672.71,665.32,659.01,654.82,650.55,645.66,640.67,637.23,634.20,630.97,627.32,623.76,619.71,615.26,610.60,606.02,601.27,596.21,591.09,586.24,581.37,575.89,570.13,564.37,558.87,554.00,549.99,546.82,544.38,542.31,540.24,537.99,535.37,532.40,529.40,526.47,523.62,520.86,519.03,517.63,516.33,514.95,513.62,512.31,511.00,509.75,508.75,509.26,509.82,510.02,510.11,510.18,510.26,510.40,510.63,510.92,511.23,511.50,511.74,511.97,512.08,512.14,512.24,512.40,512.63,512.85,513.08,513.30,513.46,513.31,512.92,512.38,511.80,511.32,510.94,510.59,510.22,509.96,509.68,509.35,509.11,509.34,509.69,510.12,510.71,511.63,512.75,513.85,514.92,515.99,517.02,518.13,519.45,521.23,523.83,525.38,526.82,528.34,529.83,530.81,531.68,532.53,533.49,534.80,536.01,537.19,538.35,539.46,540.43,541.25,542.26,543.98,547.13,550.39,554.00,558.08,562.57,567.46,572.86,578.63,584.70,591.00,597.01,604.85,614.57,622.11,628.98,635.41,641.01,644.93,648.51,651.50,653.43,653.80,652.94,650.44,647.32,644.39,642.71,642.35,643.52,645.80,648.93,652.72,656.77,659.66,660.43,659.03,656.13,652.70
791.08,793.15,790.23,788.19,786.63,785.99,786.61,787.65,789.14,790.62,791.70,791.74,791.13,789.47,786.57,781.91,775.45,769.85,766.41,765.23,764.42,763.74,762.62,760.76,757.85,754.87,751.94,748.54,744.67,741.99,740.06,738.60,737.37,736.08,735.14,733.35,727.55,714.40,699.49,690.86,685.04,679.63,673.60,670.10,668.23,667.31,666.94,666.69,666.31,666.03,666.11,666.50,666.32,666.07,665.83,665.10,663.05,659.80,655.42,649.73,643.33,637.31,634.00,634.57,637.75,640.95,645.41,650.70,655.44,660.54,667.06,673.72,679.34,684.19,688.33,690.91,691.57,690.34,686.81,682.22,677.39,673.29,671.94,672.30,673.59,675.50,677.63,680.19,683.58,687.48,691.17,694.78,697.55,699.96,702.23,703.56,705.09,706.49,707.54,708.15,707.84,705.56,701.25,694.88,687.93,680.71,673.53,666.23,658.07,652.14,646.58,640.96,636.03,632.24,628.81,625.36,621.84,618.73,615.13,611.18,606.95,602.46,597.68,592.88,588.27,583.99,579.32,573.76,567.94,562.38,557.45,552.78,548.97,545.96,543.25,541.09,538.85,536.47,533.98,531.31,528.36,525.41,522.62,520.13,518.52,517.16,515.82,514.48,513.17,511.86,510.61,509.46,508.43,508.67,509.38,510.01,510.09,510.13,510.15,510.19,510.31,510.55,510.84,511.12,511.36,511.62,511.70,511.73,511.79,511.95,512.17,512.37,512.59,512.86,513.06,513.05,512.78,512.34,511.93,511.56,511.23,510.89,510.51,510.18,509.82,509.41,508.99,508.86,509.13,509.52,510.04,510.91,512.02,513.09,514.16,515.28,516.35,517.44,518.59,519.92,521.69,523.27,524.91,526.62,528.30,529.78,530.78,531.72,532.84,534.22,535.58,536.83,537.82,538.36,538.76,539.42,540.89,543.71,547.67,551.33,554.95,558.85,563.40,568.32,573.59,579.07,584.74,590.92,598.03,606.39,615.40,622.25,629.01,635.48,640.93,644.17,647.27,649.22,650.14,649.98,648.68,645.79,642.46,639.42,637.47,636.74,638.14,640.98,644.38,647.59,650.55,652.68,653.43,652.40,650.02,646.70
788.51,791.45,791.26,788.84,786.40,784.69,784.10,784.48,785.59,787.04,788.32,788.55,788.20,786.44,783.26,778.30,771.01,764.88,761.46,760.73,760.02,758.96,757.32,755.21,752.89,750.71,748.61,745.97,742.75,740.85,739.36,738.13,737.01,735.72,734.88,732.90,726.90,713.96,699.95,691.64,685.62,679.38,671.49,666.51,663.51,661.79,661.07,660.21,659.57,659.31,659.53,660.11,660.06,659.91,659.79,659.30,657.56,654.45,650.26,645.02,638.79,633.14,630.49,631.90,635.34,638.72,643.65,649.55,654.40,658.96,665.18,671.68,677.07,681.74,685.42,687.48,687.70,686.10,681.88,676.86,671.98,668.12,666.56,666.99,668.58,670.95,673.70,676.81,680.62,684.68,687.98,690.98,693.10,695.00,697.11,698.51,700.14,701.74,703.13,704.23,704.36,702.82,699.42,693.97,688.26,681.83,675.21,668.13,658.91,651.38,644.80,638.81,633.65,629.38,625.26,621.15,617.18,613.85,610.21,606.46,602.62,598.42,593.87,589.56,585.56,581.60,576.63,570.98,565.30,560.07,555.64,551.34,547.75,544.79,541.99,539.86,537.63,535.28,532.91,530.44,527.49,524.45,521.66,519.50,518.03,516.69,515.33,513.99,512.65,511.32,510.12,509.10,508.14,508.13,508.97,510.00,510.06,510.07,510.07,510.07,510.09,510.24,510.48,510.73,510.98,511.26,511.30,511.29,511.34,511.52,511.73,511.90,512.11,512.38,512.59,512.63,512.45,512.11,511.78,511.45,511.15,510.84,510.51,510.19,509.82,509.39,508.94,508.57,508.70,509.07,509.57,510.30,511.33,512.38,513.45,514.58,515.66,516.76,517.83,518.89,520.06,521.50,523.17,524.94,526.71,528.45,529.82,531.06,532.34,533.73,535.18,536.31,536.98,537.17,537.36,538.33,540.42,543.84,547.94,551.80,555.52,559.40,564.02,568.91,574.03,579.21,584.46,590.22,598.05,606.89,615.53,622.00,628.68,635.07,640.32,643.23,645.75,646.76,646.85,646.29,644.51,641.41,638.06,634.96,632.54,631.38,632.69,635.79,639.62,642.77,645.14,646.82,647.59,646.83,644.71,641.18
786.50,790.43,793.13,790.33,787.52,784.79,782.03,781.45,782.09,783.17,784.23,784.67,784.47,783.10,780.00,774.16,765.99,760.16,757.43,757.25,756.62,754.60,752.33,750.58,750.01,749.28,748.73,748.04,746.89,745.24,743.65,742.34,741.23,739.93,738.87,735.76,728.53,715.37,701.94,694.00,687.79,680.79,672.00,664.99,660.23,657.41,656.03,653.96,653.17,653.25,653.62,653.84,653.66,653.44,653.23,652.81,651.63,648.43,643.94,638.96,633.06,628.05,626.75,629.86,633.50,636.98,641.81,647.70,653.23,657.63,663.21,669.08,674.20,678.88,682.25,683.71,683.31,681.58,677.27,672.06,667.26,664.14,662.65,663.19,664.95,667.59,670.90,674.71,678.84,682.88,685.96,687.61,688.59,689.47,690.64,692.31,694.27,696.15,697.83,699.40,700.24,699.64,697.33,693.01,688.39,683.10,677.29,670.49,661.31,652.55,645.34,639.38,633.71,628.88,623.88,618.62,613.43,609.09,604.91,601.07,597.57,594.03,590.02,586.38,582.96,579.01,573.40,567.82,562.53,557.63,553.42,549.62,546.25,543.24,540.55,538.61,536.61,534.46,532.18,529.72,526.74,523.60,520.75,518.98,517.57,516.24,514.89,513.53,512.16,510.79,509.62,508.75,507.91,507.72,508.62,509.92,509.96,509.98,509.99,510.00,510.00,510.02,510.15,510.34,510.59,510.86,510.87,510.84,510.90,511.12,511.28,511.44,511.62,511.84,512.00,512.03,511.90,511.62,511.25,510.88,510.60,510.37,510.13,509.96,509.62,509.25,508.89,508.48,508.42,508.74,509.26,509.81,510.69,511.71,512.79,513.88,514.95,516.09,517.13,518.08,519.05,520.11,521.62,523.38,525.16,526.88,528.82,530.56,531.97,533.36,534.76,535.51,535.72,535.86,536.32,538.04,540.74,544.08,547.62,551.53,555.52,559.64,564.34,569.13,574.02,578.91,583.73,588.83,596.85,606.16,615.11,621.38,627.96,634.09,639.10,642.13,643.91,644.13,643.63,642.69,640.42,637.34,634.11,630.93,627.94,626.42,627.34,630.20,634.32,638.06,640.71,642.55,643.41,642.59,640.36,636.20
783.88,788.32,792.08,792.01,790.06,786.84,782.81,780.04,778.86,779.04,780.00,780.56,780.36,778.97,775.67,769.54,762.23,760.49,761.35,762.45,761.45,758.90,756.39,755.10,756.04,755.99,755.37,754.44,753.38,752.40,751.19,749.78,748.15,746.08,743.43,738.93,731.00,718.11,704.92,696.66,689.58,681.65,673.21,665.53,659.92,656.20,653.46,649.63,647.60,647.07,647.33,647.33,647.22,646.92,646.42,645.73,644.07,640.83,636.57,631.71,625.70,622.56,623.78,628.87,632.72,636.00,640.16,645.59,652.00,656.26,660.89,665.87,670.68,675.09,678.59,680.13,679.40,676.63,671.85,666.51,661.74,658.68,657.69,658.92,661.49,664.98,668.80,673.10,677.69,681.74,683.69,684.47,685.01,685.66,686.59,687.89,689.37,690.84,692.21,693.48,694.64,695.38,694.76,691.58,687.81,683.44,678.38,672.12,663.71,654.46,646.70,640.49,634.62,628.83,622.61,615.90,609.07,603.74,599.38,595.68,592.58,589.90,586.64,583.29,579.85,575.88,570.75,565.97,561.08,555.87,551.36,547.76,544.52,541.51,539.01,537.22,535.44,533.52,531.39,528.91,526.00,522.91,520.11,518.57,517.04,515.55,514.17,512.97,511.81,510.51,509.37,508.53,507.74,507.20,507.92,509.29,509.42,509.62,509.79,509.86,509.82,509.82,509.90,510.03,510.20,510.43,510.46,510.42,510.45,510.67,510.79,510.93,511.06,511.16,511.26,511.28,511.17,510.90,510.52,510.25,510.08,509.94,509.80,509.69,509.37,509.00,508.63,508.24,508.12,508.42,508.96,509.53,510.21,511.17,512.23,513.27,514.31,515.40,516.42,517.35,518.28,519.27,520.64,522.36,524.38,526.74,528.90,530.60,531.85,533.16,534.01,534.37,534.42,534.61,535.89,538.08,540.84,543.97,547.14,550.81,554.97,559.54,564.33,569.08,573.66,578.18,582.81,587.78,595.44,604.83,614.35,620.62,626.98,632.75,637.46,640.47,641.61,641.37,640.40,638.83,636.27,633.09,629.53,625.84,622.67,621.57,622.60,625.14,628.82,633.20,635.90,637.66,638.58,637.50,634.90,630.18
781.29,785.97,790.02,792.20,791.73,789.26,785.25,780.99,777.89,776.53,776.40,776.03,775.58,774.01,770.75,765.57,761.20,763.37,767.12,769.25,767.92,764.81,762.32,761.66,763.60,763.99,763.22,762.07,761.05,760.40,758.88,756.53,753.53,750.13,746.10,740.88,733.02,720.95,708.28,699.40,691.36,682.80,674.70,666.77,660.60,656.13,652.42,647.20,643.48,641.71,641.64,641.23,640.95,640.42,639.55,638.41,636.10,632.69,628.68,624.24,618.65,617.94,621.52,627.71,631.85,634.99,638.49,643.29,650.11,654.52,658.40,662.44,666.74,670.77,674.10,675.62,674.76,671.31,666.13,660.68,655.96,653.14,652.69,654.50,657.75,661.93,666.12,670.62,675.33,679.28,680.57,681.00,681.37,681.98,682.93,684.10,685.23,686.37,687.48,688.46,689.74,691.24,691.75,689.69,686.72,683.14,678.72,672.95,665.36,655.93,647.69,641.11,635.12,628.57,621.51,613.93,606.11,599.88,594.99,591.20,588.40,586.14,583.33,580.06,576.50,572.67,568.45,564.47,559.82,554.27,549.60,546.13,542.97,539.97,537.55,535.72,534.07,532.35,530.37,527.86,525.03,522.09,519.43,517.93,516.27,514.63,513.17,512.03,511.12,510.09,509.10,508.30,507.54,506.77,507.17,508.35,508.68,509.08,509.41,509.59,509.60,509.61,509.64,509.72,509.84,510.00,510.03,509.99,509.99,510.17,510.29,510.41,510.48,510.49,510.54,510.55,510.45,510.23,509.94,509.76,509.66,509.57,509.50,509.43,509.11,508.72,508.34,507.99,507.83,508.08,508.65,509.24,509.78,510.62,511.61,512.59,513.50,514.61,515.70,516.71,517.64,518.63,519.88,521.51,523.73,526.58,528.94,530.60,531.65,532.68,533.00,533.07,533.15,533.71,535.69,538.14,540.87,543.87,546.81,550.25,554.43,559.21,563.97,568.69,573.08,577.31,581.72,586.66,593.87,603.23,613.32,619.69,625.75,631.04,635.26,637.94,638.58,637.95,636.56,634.42,631.44,628.04,624.23,620.25,617.02,616.33,617.43,619.66,622.80,626.99,629.54,631.41,632.63,631.36,628.44,623.70
778.97,783.60,787.39,789.86,791.38,791.43,789.27,785.17,780.67,777.03,774.17,771.25,770.16,768.34,765.64,763.25,764.42,768.64,772.99,775.43,774.00,770.27,768.09,768.29,770.42,771.07,770.60,769.94,769.48,768.34,765.23,760.62,755.13,749.90,745.39,740.62,733.88,723.45,711.88,702.19,693.28,684.60,676.42,668.42,661.84,656.85,653.02,647.27,641.57,637.91,637.15,635.96,635.05,634.06,632.77,630.99,628.18,624.41,620.48,617.00,612.80,614.93,620.09,625.84,630.38,633.61,636.70,640.80,647.10,652.11,655.72,658.90,662.35,665.91,668.45,669.53,668.78,665.56,660.26,654.67,650.12,648.03,648.02,650.04,653.46,657.87,662.22,666.48,670.72,674.37,676.06,676.81,677.21,677.79,678.95,680.57,681.91,683.13,684.27,685.33,686.54,687.70,688.20,687.16,684.97,682.10,678.14,672.67,665.64,656.32,647.74,640.64,634.51,627.77,620.66,613.26,605.70,598.74,592.68,588.36,585.65,582.98,579.98,576.56,572.95,569.53,566.49,563.01,558.36,552.65,548.30,544.96,541.83,538.81,536.29,534.07,532.38,530.83,528.96,526.44,523.64,520.96,518.64,516.90,515.14,513.42,511.82,510.53,509.88,509.31,508.67,507.96,507.26,506.51,506.48,507.12,507.79,508.33,508.75,509.08,509.31,509.34,509.35,509.42,509.54,509.57,509.57,509.53,509.50,509.62,509.81,509.90,509.91,509.91,509.92,509.93,509.88,509.77,509.65,509.50,509.39,509.31,509.24,509.16,508.85,508.46,508.09,507.78,507.55,507.77,508.31,508.86,509.40,510.03,510.83,511.75,512.40,513.64,514.99,516.18,517.12,518.11,519.24,520.75,523.00,525.85,528.48,530.30,531.16,531.66,531.68,531.63,531.98,533.36,535.64,538.16,540.88,543.87,546.76,550.11,554.12,558.63,563.18,567.85,572.26,576.38,580.41,585.30,592.08,601.33,611.85,618.45,624.13,628.78,632.26,634.14,634.52,633.45,631.61,629.15,625.53,621.82,618.05,614.32,611.12,610.49,611.38,613.27,616.01,618.64,620.82,623.15,625.09,623.80,620.74,616.91
776.31,781.13,784.79,787.21,789.34,790.69,790.46,788.43,784.88,780.88,776.79,772.86,771.01,769.49,768.19,768.01,770.75,774.56,777.68,779.09,778.22,776.11,775.00,775.24,776.34,776.65,775.87,774.12,771.52,768.63,764.09,758.44,752.50,747.69,743.39,738.85,733.11,724.97,714.98,705.11,695.51,686.37,678.31,670.22,663.23,657.79,653.91,648.38,641.71,636.38,633.96,632.03,630.72,629.45,627.76,625.13,622.37,619.19,615.83,612.57,609.27,612.42,617.76,622.82,627.61,631.40,634.83,638.61,643.65,648.75,652.35,655.13,657.85,660.82,663.12,664.21,663.51,660.13,654.67,649.40,645.46,643.87,644.17,646.11,649.35,653.63,657.93,661.89,665.64,668.77,670.33,671.34,671.61,672.01,673.33,675.12,676.92,678.60,680.26,682.15,683.38,684.23,684.57,683.94,682.45,679.89,676.21,671.09,664.13,655.24,646.80,639.33,632.49,626.11,619.51,612.43,604.89,597.90,592.11,587.67,584.32,580.85,576.67,572.80,569.48,566.72,564.22,560.78,556.12,550.73,547.07,544.02,541.01,537.99,535.21,532.57,530.67,529.04,527.11,524.67,522.13,519.84,517.89,516.07,514.25,512.48,510.90,509.80,509.17,508.63,508.05,507.45,506.83,506.19,506.04,506.43,507.10,507.63,508.06,508.44,508.80,508.99,509.06,509.12,509.17,509.13,509.09,509.02,509.00,509.14,509.39,509.54,509.58,509.59,509.63,509.61,509.55,509.47,509.38,509.24,509.13,509.06,508.98,508.86,508.54,508.17,507.84,507.57,507.34,507.50,507.98,508.52,509.02,509.54,510.10,510.67,511.21,512.56,514.16,515.60,516.55,517.58,518.70,520.09,522.09,524.72,527.28,529.09,529.93,530.28,530.15,530.19,530.97,533.21,535.86,538.49,541.18,544.03,546.94,550.19,553.92,558.08,562.41,566.95,571.23,575.21,579.13,583.80,589.85,598.58,609.19,616.20,621.53,625.61,628.51,629.80,629.86,628.17,625.73,623.12,619.95,616.71,613.47,610.26,607.39,606.35,606.37,607.20,608.97,611.15,613.59,615.81,617.13,616.35,614.03,611.09
773.50,778.35,782.29,784.72,787.04,789.11,790.42,790.46,788.54,785.05,780.67,776.71,774.49,773.40,773.25,774.31,776.88,779.48,781.12,781.46,781.09,780.59,780.37,780.40,780.46,780.33,778.69,775.24,770.17,765.81,760.60,754.84,749.31,745.31,741.31,736.96,731.92,725.51,716.92,707.29,697.34,687.77,679.93,671.74,664.51,658.79,654.71,649.48,642.31,635.78,631.89,629.27,627.41,625.77,623.73,620.42,617.84,615.31,612.43,609.05,606.34,609.91,615.08,619.47,624.07,628.45,632.45,636.15,639.88,644.56,648.11,650.75,653.04,655.54,657.72,658.87,658.28,654.87,649.53,644.67,641.21,639.85,640.28,642.03,644.98,649.04,653.26,657.04,660.45,663.21,664.63,665.80,665.71,665.52,666.37,667.98,670.29,672.70,675.06,677.44,678.74,679.59,679.98,679.60,678.69,676.58,673.24,668.34,661.48,653.13,644.94,637.26,630.01,624.13,617.94,610.96,603.39,597.04,591.98,587.63,583.60,579.29,573.76,569.25,566.06,563.87,561.78,558.50,554.04,549.10,545.98,543.15,540.22,537.14,534.06,531.14,529.03,527.26,525.31,522.97,520.72,518.79,517.13,515.29,513.46,511.70,510.21,509.38,508.74,508.13,507.53,506.96,506.39,505.83,505.63,505.87,506.45,506.93,507.35,507.77,508.22,508.57,508.72,508.76,508.73,508.66,508.57,508.50,508.52,508.70,508.99,509.21,509.33,509.35,509.41,509.37,509.29,509.21,509.12,509.00,508.88,508.79,508.69,508.56,508.23,507.89,507.61,507.38,507.14,507.25,507.65,508.16,508.61,509.06,509.43,509.74,510.23,511.59,513.30,514.91,515.98,517.05,518.19,519.49,521.19,523.58,525.83,527.44,528.22,528.48,528.72,529.41,530.99,534.02,536.90,539.43,541.90,544.55,547.36,550.39,553.78,557.53,561.53,565.94,570.13,574.05,577.89,582.25,587.59,595.57,605.80,613.38,618.38,621.89,624.26,625.12,624.85,622.80,620.08,617.48,614.89,612.17,609.43,606.74,604.18,602.39,601.39,601.17,602.00,603.99,606.70,608.76,609.50,609.21,607.67,605.35
770.55,774.84,780.01,782.88,785.26,787.48,789.29,790.09,789.81,787.71,784.35,781.72,780.19,779.43,779.23,779.60,780.41,781.52,782.27,782.37,781.95,781.47,781.13,780.92,780.78,780.37,776.98,771.36,764.85,760.61,756.45,752.05,747.65,743.85,739.93,735.76,730.82,724.34,716.40,707.56,697.94,688.25,680.75,672.47,665.38,659.77,655.08,649.89,642.66,635.94,631.74,628.49,625.56,623.16,620.86,617.48,615.04,612.65,609.64,605.79,603.28,607.04,612.16,616.05,619.51,624.23,628.92,632.86,635.59,638.98,642.17,645.02,647.50,649.97,651.91,652.99,652.63,649.79,645.29,640.72,637.13,635.56,635.75,637.21,639.87,643.69,647.94,651.81,655.32,658.21,659.85,660.92,660.05,658.38,657.29,657.96,660.75,664.29,667.48,669.03,670.48,671.99,673.07,672.99,672.44,671.36,668.64,663.61,657.24,649.48,641.51,633.95,627.41,621.94,615.50,608.05,600.50,595.92,591.80,587.69,583.40,578.42,571.83,566.41,562.72,560.69,559.15,556.60,552.87,548.39,545.17,542.32,539.27,535.97,532.63,529.79,527.57,525.72,523.93,521.61,519.67,517.95,516.29,514.51,512.78,511.13,509.82,509.17,508.60,508.00,507.36,506.69,506.02,505.40,505.13,505.26,505.75,506.22,506.67,507.13,507.58,508.02,508.24,508.29,508.22,508.13,508.01,507.98,508.08,508.31,508.60,508.89,509.09,509.15,509.16,509.10,509.03,508.95,508.87,508.78,508.66,508.52,508.38,508.29,507.97,507.65,507.41,507.18,506.95,507.00,507.30,507.71,508.11,508.51,508.89,509.28,509.82,510.96,512.41,513.97,515.39,516.53,517.70,518.97,520.47,522.66,524.26,525.32,525.84,525.93,527.63,530.25,533.44,537.07,539.78,541.64,543.47,545.80,548.22,550.73,553.67,556.98,560.36,564.69,569.02,573.04,576.74,580.68,585.57,592.48,601.45,609.89,614.54,617.44,619.35,619.99,619.38,617.73,615.61,613.33,610.90,608.25,605.66,603.22,600.78,597.69,595.77,595.03,595.35,597.06,599.62,601.83,602.95,602.79,601.47,599.12
768.69,772.00,777.22,780.89,783.42,785.41,787.06,788.06,788.35,787.68,786.35,785.27,784.04,783.16,782.67,782.53,782.59,783.07,783.35,783.12,782.57,782.02,781.55,781.15,780.77,780.13,774.52,766.84,760.12,756.26,752.76,748.92,744.88,741.28,737.77,734.02,729.04,721.82,714.25,706.27,697.31,687.64,679.43,671.24,664.39,658.84,653.98,649.10,642.48,636.06,631.45,627.57,623.90,620.92,618.32,614.94,612.21,609.82,606.88,602.88,600.60,603.41,607.77,611.62,614.63,618.77,623.02,626.81,629.81,632.82,635.99,639.17,642.29,645.37,647.39,648.41,648.15,645.87,642.17,637.36,633.05,631.25,631.06,632.14,634.52,638.23,642.52,646.49,650.15,653.29,655.17,655.94,654.30,651.81,650.17,650.51,653.72,656.95,659.02,660.08,661.59,663.28,664.75,665.52,665.77,664.88,662.39,657.91,651.95,644.47,636.85,629.86,624.07,617.92,611.26,604.46,598.28,594.36,590.47,586.37,582.03,577.23,570.65,564.84,560.63,558.38,556.72,554.47,551.43,547.75,544.48,541.40,538.19,534.81,531.45,528.73,526.45,524.41,522.49,520.42,518.74,517.14,515.46,513.73,511.99,510.56,509.55,509.00,508.46,507.87,507.22,506.53,505.87,505.24,504.93,505.01,505.47,505.94,506.43,506.91,507.37,507.76,507.83,507.78,507.70,507.62,507.48,507.48,507.64,507.91,508.22,508.53,508.77,508.89,508.90,508.84,508.77,508.69,508.62,508.54,508.41,508.25,508.11,508.03,507.74,507.45,507.22,506.99,506.75,506.72,506.92,507.30,507.65,508.03,508.47,509.05,509.81,510.97,512.31,513.70,515.08,516.28,517.46,518.64,519.88,521.47,522.47,523.22,524.04,525.43,527.96,531.23,534.93,538.63,541.01,542.68,544.35,546.33,548.31,550.41,552.92,555.83,558.98,563.03,567.31,571.36,574.96,578.79,583.39,589.11,596.25,604.46,609.24,612.15,613.90,614.41,614.12,612.98,611.16,608.80,606.33,603.71,600.44,596.87,594.36,591.73,590.15,589.56,589.91,591.80,594.15,596.08,597.01,596.68,595.05,592.55
767.23,769.28,774.12,778.46,781.21,783.02,784.36,785.30,785.76,786.20,786.73,787.01,786.17,785.30,784.68,784.31,783.98,784.06,783.95,783.40,782.72,782.14,781.60,781.10,780.51,779.29,771.77,762.60,755.98,752.28,749.04,745.48,741.70,738.38,735.34,731.75,726.50,718.68,711.46,704.30,695.95,686.21,676.87,668.78,662.23,656.81,651.99,647.46,641.75,635.91,630.89,626.29,622.19,618.87,616.04,612.74,609.62,607.10,604.27,600.45,598.35,599.96,603.25,606.87,609.74,613.17,616.83,620.45,623.84,626.68,629.86,633.35,637.02,640.71,643.04,644.17,644.02,642.16,638.88,633.77,628.93,626.94,626.34,626.99,629.00,632.52,636.81,640.86,644.70,648.07,650.18,650.59,648.40,645.41,643.44,643.58,646.82,649.48,650.52,651.47,653.09,654.91,656.68,658.24,659.29,658.38,655.91,651.89,646.05,638.76,631.70,625.50,620.23,613.28,606.59,600.81,596.23,592.49,588.42,584.25,580.11,575.84,569.85,564.07,559.48,556.79,554.63,552.45,549.86,546.73,543.44,540.20,536.91,533.59,530.39,527.84,525.54,523.32,521.19,519.38,517.88,516.33,514.63,512.94,511.19,509.97,509.25,508.77,508.26,507.72,507.11,506.44,505.82,505.20,504.84,504.88,505.34,505.82,506.33,506.84,507.27,507.53,507.42,507.25,507.17,507.09,506.97,507.00,507.21,507.52,507.83,508.14,508.42,508.62,508.64,508.58,508.50,508.43,508.35,508.28,508.16,508.01,507.86,507.77,507.52,507.25,507.02,506.79,506.56,506.45,506.54,506.92,507.24,507.62,508.16,508.96,509.97,511.22,512.48,513.70,514.92,516.14,517.30,518.36,519.26,520.19,520.74,521.43,522.83,525.61,528.59,532.04,535.85,539.47,541.53,543.19,544.79,546.36,547.90,549.60,551.68,554.23,557.36,561.13,565.29,569.32,572.85,576.73,581.15,585.83,591.14,598.30,603.25,606.40,608.15,608.57,608.70,608.00,606.35,603.74,601.08,598.41,594.61,590.22,587.71,585.88,584.85,584.47,584.88,586.75,588.68,590.16,590.86,590.37,588.53,586.10
765.90,766.24,770.62,774.74,777.84,780.04,781.38,782.03,782.45,782.98,783.67,784.36,784.63,784.72,784.83,784.93,784.31,783.70,783.04,782.29,781.61,781.22,780.85,780.46,779.80,776.78,768.95,760.03,753.12,748.53,744.78,741.44,738.41,735.69,732.88,728.36,722.24,715.02,708.39,701.81,693.61,683.27,672.67,664.47,658.28,653.31,648.75,644.36,639.80,634.93,629.63,624.00,620.01,616.94,614.21,611.15,607.84,604.92,602.17,599.27,597.03,597.97,600.00,602.23,605.25,608.53,612.35,616.19,618.92,621.25,624.24,627.64,631.19,634.77,637.79,639.59,639.75,637.87,633.68,628.79,624.67,622.67,621.67,621.79,623.18,626.07,630.20,634.34,638.30,641.79,644.00,644.08,642.11,638.91,635.71,635.43,637.53,640.32,642.89,644.57,646.64,648.98,651.12,652.61,653.92,653.19,650.52,645.82,639.27,632.37,626.37,621.14,615.59,608.64,602.57,597.74,594.01,590.05,585.31,581.08,577.66,574.14,569.40,564.45,560.00,556.57,553.41,551.04,548.17,544.32,541.08,538.12,535.14,532.16,529.42,527.16,524.94,522.66,520.42,518.65,517.08,515.49,513.80,512.16,510.45,509.35,508.72,508.22,507.84,507.51,507.07,506.43,505.82,505.20,504.76,504.69,505.21,505.74,506.23,506.72,507.15,507.10,506.90,506.71,506.59,506.51,506.47,506.58,506.82,507.13,507.44,507.75,508.05,508.30,508.37,508.32,508.25,508.18,508.09,508.02,507.93,507.81,507.66,507.52,507.30,507.06,506.83,506.60,506.37,506.20,506.22,506.60,506.92,507.36,508.06,509.09,510.26,511.50,512.68,513.81,514.98,516.11,517.18,518.00,518.42,518.93,519.44,520.66,522.90,525.70,528.67,532.15,536.00,539.62,541.58,543.20,544.58,545.59,546.72,547.89,549.52,551.86,555.18,558.87,562.90,566.85,570.38,574.52,578.87,583.12,587.30,591.85,596.59,600.05,601.94,602.37,602.55,601.95,600.27,597.37,594.24,591.31,588.46,585.80,583.71,581.86,580.62,579.92,579.82,580.53,581.39,582.40,583.28,583.01,581.90,580.41
764.62,762.65,766.30,770.61,773.90,776.20,777.57,778.03,778.46,778.94,779.61,780.87,782.04,782.80,783.38,783.85,783.27,782.53,781.78,780.96,779.93,779.04,778.24,777.50,776.47,773.26,766.37,758.55,751.95,746.63,741.94,738.17,735.31,732.77,728.58,723.32,717.48,711.39,705.77,699.46,690.95,680.07,669.61,661.11,654.83,650.12,646.02,641.87,637.78,633.32,628.16,622.71,618.98,616.08,613.40,610.46,606.55,603.14,600.34,597.85,595.64,596.24,597.73,599.23,601.46,604.27,608.35,612.72,615.25,617.43,620.07,623.09,626.28,629.41,632.18,634.07,634.68,633.35,628.57,623.59,619.79,617.87,616.77,616.66,617.66,620.10,623.99,628.03,631.79,634.98,636.87,636.59,634.33,630.93,627.58,627.28,629.03,631.95,635.38,638.22,641.43,644.59,647.13,648.37,648.91,647.56,644.37,639.29,632.78,626.51,621.44,617.18,612.26,604.90,599.00,594.64,591.02,586.62,581.73,577.58,574.56,572.06,568.20,563.82,559.44,555.42,551.76,548.75,545.46,541.63,538.60,535.77,532.98,530.27,527.88,525.86,523.89,521.72,519.27,517.23,515.48,514.05,512.87,511.49,509.83,508.60,507.83,507.35,507.11,507.02,506.81,506.33,505.73,505.14,504.68,504.57,505.19,505.69,506.15,506.60,506.90,506.68,506.43,506.21,506.05,505.98,506.02,506.20,506.48,506.79,507.09,507.42,507.77,508.05,508.12,508.06,507.99,507.91,507.83,507.75,507.68,507.57,507.43,507.27,507.08,506.87,506.63,506.40,506.17,505.97,505.93,506.28,506.62,507.24,508.12,509.25,510.45,511.63,512.75,513.84,514.95,515.90,516.66,517.19,517.45,517.82,518.57,519.98,521.98,523.87,527.69,531.74,535.54,539.05,541.04,542.38,543.25,543.71,544.44,545.43,546.92,549.04,551.98,555.71,560.09,564.31,567.69,571.46,575.73,580.04,584.03,587.47,591.38,594.42,596.26,596.94,597.28,596.91,595.36,592.35,588.98,586.32,584.01,581.84,579.73,577.88,576.64,575.92,575.69,575.93,576.46,577.25,578.01,577.81,577.01,575.99
763.79,759.52,761.84,766.11,769.31,771.50,772.88,773.29,773.77,774.24,775.04,776.99,778.88,780.16,781.10,781.84,781.45,780.79,780.05,779.05,777.39,775.70,774.30,773.11,771.70,769.16,763.83,757.54,751.62,745.87,740.15,735.48,732.06,729.09,723.21,717.62,712.66,707.89,703.33,697.05,688.18,677.21,667.63,658.82,652.23,647.60,643.92,640.01,636.06,631.81,627.07,622.29,618.76,615.86,613.17,610.26,605.46,601.50,598.58,596.25,594.16,594.51,595.72,596.88,598.01,600.18,604.28,609.07,611.96,614.43,616.79,619.32,622.09,624.62,626.76,628.40,629.25,628.37,623.36,618.29,614.58,612.70,611.72,611.55,612.30,614.33,617.99,621.88,625.41,628.18,629.46,628.85,626.24,622.80,619.91,619.65,621.46,624.50,628.29,632.23,636.66,640.72,643.69,644.62,644.03,641.75,638.02,632.84,626.78,621.38,617.15,613.63,609.38,601.68,595.79,591.50,587.52,582.65,577.84,573.88,571.14,569.47,566.25,562.16,557.72,553.33,549.46,545.78,542.16,538.76,535.99,533.25,530.58,528.09,525.96,524.12,522.41,520.39,517.76,515.30,513.39,512.29,511.75,510.74,509.14,507.70,506.71,506.33,506.22,506.35,506.40,506.14,505.58,505.03,504.58,504.50,505.22,505.66,506.05,506.40,506.55,506.27,506.01,505.77,505.56,505.48,505.60,505.84,506.16,506.48,506.79,507.15,507.53,507.85,507.87,507.81,507.73,507.65,507.56,507.49,507.41,507.31,507.16,507.02,506.86,506.67,506.44,506.21,505.98,505.75,505.66,505.97,506.38,507.19,508.24,509.38,510.54,511.64,512.72,513.79,514.78,515.49,515.89,516.14,516.41,516.84,517.89,519.23,520.47,521.23,525.88,530.68,534.60,537.78,539.76,540.75,541.11,541.15,541.58,542.61,544.15,546.12,548.49,552.16,556.93,561.57,564.91,568.12,572.17,576.58,580.80,584.03,586.98,589.31,590.97,591.93,592.44,592.21,590.77,587.77,584.44,582.20,580.11,577.81,575.55,573.80,572.69,572.10,571.95,572.20,572.80,573.49,574.00,573.78,573.07,572.26
764.76,759.36,758.36,760.94,763.19,764.92,766.37,767.06,767.58,768.51,770.21,773.00,775.39,777.20,778.61,779.57,779.26,778.38,777.05,775.11,772.48,770.31,768.79,767.68,766.50,764.75,760.98,756.24,751.30,745.98,739.64,733.41,727.81,722.85,717.49,712.68,708.52,704.83,700.64,694.01,685.58,676.18,667.58,658.81,652.01,647.15,643.25,639.37,635.66,631.95,627.95,623.36,619.40,616.08,613.22,610.19,604.17,599.58,596.62,594.41,592.55,592.27,592.81,593.69,594.52,596.05,599.03,603.18,607.66,611.36,614.05,616.39,618.79,620.86,622.75,624.02,624.09,621.98,617.46,612.94,609.30,607.09,606.43,606.37,606.86,608.38,611.88,615.96,619.77,622.50,622.87,622.09,619.97,617.28,614.89,614.08,615.91,619.02,622.75,626.70,631.25,635.88,639.35,640.00,638.92,636.33,632.54,627.65,622.24,618.09,614.64,610.94,605.47,598.73,593.09,588.27,583.56,578.52,573.64,570.00,567.70,565.51,562.83,558.59,553.65,549.38,545.48,541.92,538.67,535.76,533.04,530.46,527.98,525.68,523.70,521.89,520.18,518.17,515.55,512.74,511.11,510.38,510.10,509.33,507.89,506.47,505.50,505.33,505.29,505.49,505.73,505.77,505.36,504.84,504.47,504.49,505.21,505.61,505.81,505.96,506.09,506.01,505.76,505.45,505.15,505.04,505.23,505.52,505.86,506.27,506.59,506.95,507.34,507.65,507.62,507.55,507.47,507.38,507.25,507.17,507.09,507.01,506.91,506.81,506.67,506.48,506.25,506.01,505.78,505.55,505.44,505.69,506.29,507.19,508.22,509.28,510.43,511.53,512.58,513.54,514.25,514.58,514.81,515.05,515.36,516.08,517.17,518.13,518.72,519.31,522.86,528.04,532.94,535.15,536.58,537.56,538.00,538.00,538.57,539.82,541.55,543.63,545.97,548.89,553.25,558.15,562.30,565.44,568.73,572.51,576.63,580.10,582.81,584.79,586.15,586.95,587.37,586.70,584.90,582.09,579.38,577.09,574.87,572.68,570.77,569.31,568.38,567.88,567.88,568.47,569.20,569.85,570.22,569.96,569.36,568.65
764.12,759.27,756.46,756.70,757.55,758.55,759.61,760.39,761.27,762.75,765.12,768.63,771.85,774.12,775.70,776.74,776.60,775.62,773.72,770.85,767.55,765.20,763.53,762.26,761.14,759.66,756.74,752.91,748.63,744.18,737.23,730.04,723.44,717.33,712.17,707.79,703.95,700.37,696.14,690.35,683.51,676.03,668.50,659.97,653.22,648.33,644.24,640.36,636.69,633.11,629.33,624.58,620.13,616.42,613.41,610.19,603.62,598.56,595.16,592.46,590.86,590.36,590.42,590.74,591.00,591.87,594.00,597.57,602.67,607.36,610.96,613.69,615.77,617.55,619.18,620.04,619.56,616.94,612.91,608.67,604.92,602.37,601.68,601.63,601.90,602.94,606.08,610.32,614.36,617.16,617.33,616.65,615.05,612.83,610.48,609.34,611.02,614.02,617.58,621.37,625.19,629.12,632.23,633.05,632.22,630.08,626.89,622.81,618.57,615.28,611.93,607.71,601.82,596.44,591.25,585.76,579.81,574.33,569.91,566.82,564.68,562.05,558.69,554.32,549.72,545.87,542.04,538.61,535.57,532.86,530.27,527.79,525.43,523.19,521.14,519.22,517.36,515.28,512.85,510.67,509.48,508.86,508.47,507.71,506.58,505.51,504.82,504.76,504.75,504.89,505.08,505.19,504.94,504.53,504.32,504.48,505.04,505.32,505.42,505.50,505.63,505.70,505.55,505.26,504.92,504.69,504.94,505.29,505.64,506.04,506.39,506.76,507.13,507.41,507.37,507.29,507.19,507.08,506.93,506.84,506.78,506.73,506.64,506.57,506.46,506.28,506.06,505.85,505.60,505.36,505.23,505.47,506.24,507.19,508.19,509.18,510.28,511.36,512.31,513.04,513.41,513.54,513.72,513.97,514.36,515.29,516.29,516.90,517.18,518.00,520.45,524.98,529.76,531.62,532.57,533.48,534.21,534.73,535.81,537.35,539.23,541.38,543.78,546.49,550.27,554.79,559.28,562.52,565.39,568.58,572.12,575.30,577.87,579.77,581.04,581.65,581.82,580.91,579.10,576.62,574.32,572.03,569.79,567.68,565.83,564.48,563.84,563.71,563.98,564.75,565.57,566.17,566.40,566.18,565.77,565.41
761.70,758.52,755.47,753.49,752.88,752.95,753.28,753.81,755.09,756.99,759.64,763.58,767.74,770.50,772.21,773.33,773.46,772.36,769.91,766.27,762.76,760.45,758.61,756.97,755.56,753.73,750.96,747.47,743.60,740.08,732.85,725.49,719.04,712.58,707.21,702.87,698.96,694.95,690.67,686.50,681.82,676.23,669.83,661.66,655.12,650.36,646.11,642.23,638.43,634.67,630.69,625.60,620.71,616.73,613.56,610.10,603.57,598.26,594.23,590.73,589.26,588.75,588.47,588.09,587.59,587.81,589.35,592.39,597.21,602.51,607.32,610.87,612.78,614.44,615.83,616.33,615.55,613.10,609.51,605.40,601.45,598.57,597.58,597.39,597.44,598.09,600.78,605.02,609.14,612.05,612.48,612.07,610.78,608.70,606.19,605.05,606.53,609.26,612.59,616.13,618.76,621.17,623.27,624.40,624.25,623.03,620.93,618.08,615.25,612.40,608.71,604.00,598.52,594.54,589.85,583.72,576.30,570.37,566.70,564.14,561.93,559.09,554.44,550.00,546.21,542.86,539.16,535.80,532.80,530.11,527.67,525.27,522.98,520.77,518.50,516.31,514.24,512.14,510.10,509.10,508.34,507.69,507.05,506.21,505.45,504.91,504.61,504.51,504.49,504.50,504.52,504.51,504.40,504.14,504.13,504.42,504.73,504.87,504.95,505.04,505.18,505.32,505.30,505.12,504.78,504.41,504.69,505.11,505.48,505.81,506.18,506.57,506.92,507.16,507.10,507.02,506.90,506.75,506.60,506.52,506.49,506.47,506.38,506.31,506.23,506.08,505.87,505.70,505.43,505.16,505.03,505.29,506.17,507.16,508.14,509.08,510.08,511.13,511.91,512.31,512.36,512.43,512.61,512.89,513.42,514.48,515.26,515.62,515.88,517.09,518.68,521.83,525.50,527.44,528.19,529.09,530.24,531.61,533.36,535.21,537.20,539.39,541.88,544.80,548.04,551.82,556.18,559.42,562.11,564.79,567.56,570.12,572.55,574.46,575.73,576.17,575.95,575.01,573.43,571.31,569.22,567.02,564.87,562.80,560.79,559.50,559.25,559.68,560.39,561.22,562.04,562.59,562.71,562.58,562.46,562.64
756.86,755.11,753.42,751.91,750.84,750.10,749.55,748.91,749.48,750.84,752.99,756.43,760.64,764.31,767.20,769.09,769.46,767.67,764.46,760.63,757.91,755.85,754.02,751.99,749.21,746.00,742.37,738.69,735.19,731.64,725.91,720.11,714.57,708.10,702.45,697.78,693.75,690.17,687.13,683.95,680.14,675.49,670.07,662.32,655.85,651.01,646.73,642.74,638.80,634.85,630.65,625.41,620.51,616.47,613.10,609.31,603.25,598.19,594.14,590.51,588.45,587.25,586.46,585.85,584.97,584.54,585.37,587.63,591.57,596.94,602.40,606.69,609.10,611.17,612.42,612.79,612.06,609.75,606.66,603.12,599.36,595.91,594.62,594.01,593.81,594.45,596.98,600.54,604.32,607.20,607.43,607.06,605.31,603.00,601.12,600.62,602.12,604.65,607.67,610.70,612.70,614.15,615.18,615.63,615.69,615.21,614.38,613.10,610.89,607.94,604.23,600.00,595.76,592.11,587.55,581.15,573.10,567.97,564.32,561.39,558.91,556.40,551.91,547.48,543.59,540.11,536.58,533.20,530.21,527.71,525.31,522.91,520.80,518.84,516.56,513.75,511.58,509.99,508.80,508.01,507.26,506.78,506.53,506.02,505.40,504.92,504.58,504.32,504.20,504.17,504.14,504.08,503.95,503.76,503.80,504.06,504.31,504.45,504.52,504.57,504.67,504.77,504.86,504.78,504.49,504.14,504.40,504.85,505.30,505.66,506.00,506.37,506.70,506.90,506.84,506.69,506.52,506.37,506.22,506.17,506.20,506.21,506.13,506.06,505.98,505.85,505.68,505.51,505.28,504.97,504.79,505.09,505.99,506.99,507.97,508.89,509.80,510.71,511.21,511.25,511.22,511.32,511.45,511.78,512.58,513.65,514.07,514.29,514.80,516.11,517.54,519.37,521.36,522.92,524.48,525.97,527.60,529.50,531.50,533.58,535.76,538.06,540.58,543.58,546.84,550.46,554.34,556.67,558.71,561.05,563.76,566.27,568.34,569.78,570.66,570.91,570.21,569.20,567.74,565.69,563.84,561.73,559.69,557.73,555.64,554.92,555.20,556.19,557.63,558.52,559.20,559.68,559.88,559.86,560.23,561.05
757.17,755.89,754.65,753.42,752.10,750.89,749.79,748.16,747.24,746.94,747.60,750.20,753.83,757.58,760.97,763.39,764.00,762.13,758.98,755.43,752.75,750.20,747.74,744.97,741.21,736.98,732.93,729.44,726.57,723.40,719.32,715.03,710.36,704.37,698.81,693.95,689.62,685.97,683.75,681.06,677.71,673.47,667.85,661.04,655.19,650.45,646.13,642.00,637.98,633.94,629.56,624.06,619.42,615.58,612.08,607.88,602.37,597.79,594.03,590.55,588.09,586.11,584.71,583.82,582.79,581.90,581.89,583.13,586.28,591.34,596.93,601.59,604.47,606.70,607.96,608.39,607.85,605.88,603.24,599.97,596.42,593.24,591.95,591.13,590.69,591.10,593.30,596.40,599.74,602.26,602.29,601.95,600.17,597.98,596.54,596.33,597.43,599.46,602.09,604.72,606.53,607.58,608.06,608.12,608.26,608.09,607.81,607.29,605.52,602.72,599.48,596.08,592.70,589.34,585.11,578.88,570.74,566.36,562.71,559.41,556.53,553.97,549.78,545.32,541.20,537.66,534.22,531.00,528.20,525.84,523.46,521.14,519.11,517.23,515.06,512.39,510.29,508.86,507.99,507.07,506.25,505.87,505.88,505.66,505.28,504.89,504.53,504.19,503.99,503.87,503.78,503.69,503.56,503.44,503.48,503.69,503.92,504.04,504.08,504.10,504.15,504.25,504.38,504.34,504.09,503.83,504.19,504.72,505.20,505.56,505.85,506.21,506.50,506.61,506.52,506.34,506.16,506.01,505.87,505.87,505.90,505.93,505.87,505.80,505.72,505.61,505.48,505.32,505.06,504.73,504.57,504.98,505.89,506.91,507.85,508.64,509.32,509.98,510.23,510.13,510.13,510.25,510.40,510.83,511.74,512.57,512.74,512.98,513.75,515.10,516.43,517.58,518.67,520.02,521.96,523.87,525.85,528.06,530.25,532.57,534.96,537.40,539.99,542.97,546.19,549.46,552.38,553.76,554.90,556.80,559.72,562.81,564.86,566.04,566.50,566.16,564.88,563.37,561.59,559.49,557.62,555.83,554.32,553.00,551.53,551.33,551.89,553.15,555.09,556.17,556.80,557.24,557.58,557.98,558.96,560.29
763.52,761.79,759.91,758.32,756.77,755.36,753.93,751.62,748.69,745.89,744.25,745.57,747.88,750.76,753.78,756.36,757.32,755.98,753.54,750.50,746.93,743.10,739.34,735.59,731.52,727.03,723.25,720.40,718.34,716.07,713.47,710.32,706.39,701.39,696.38,691.48,686.65,682.30,680.14,677.43,674.15,669.87,663.08,657.65,652.96,648.56,644.24,640.06,636.05,631.98,627.42,621.65,617.48,614.03,610.49,605.83,600.88,596.95,593.70,590.51,587.88,585.23,583.20,582.03,580.97,579.87,578.96,579.01,581.53,585.98,591.15,595.77,598.94,601.05,602.46,603.13,602.88,601.43,599.06,595.75,592.46,590.41,589.38,588.63,588.00,587.92,589.62,592.52,595.32,597.15,597.09,596.82,595.58,593.93,592.59,592.22,592.48,593.71,595.84,598.13,600.02,601.13,601.63,601.77,601.91,601.66,601.22,600.56,599.16,596.94,594.62,592.20,589.23,586.27,582.56,576.89,569.27,565.36,561.82,558.26,554.84,551.78,547.81,543.32,539.01,535.58,532.13,529.24,526.75,524.45,522.08,519.89,517.84,515.84,513.86,512.09,510.21,508.53,507.34,506.18,505.31,504.93,504.98,504.96,504.91,504.71,504.41,504.10,503.87,503.61,503.41,503.32,503.24,503.16,503.20,503.38,503.57,503.62,503.63,503.63,503.66,503.79,503.88,503.82,503.61,503.52,504.08,504.70,505.18,505.48,505.72,506.06,506.29,506.30,506.17,506.00,505.84,505.68,505.55,505.58,505.62,505.62,505.61,505.54,505.46,505.37,505.26,505.09,504.76,504.44,504.38,504.95,505.91,506.92,507.75,508.27,508.63,508.93,509.04,509.03,509.17,509.28,509.54,510.08,510.88,511.24,511.32,511.72,512.70,514.05,515.27,516.41,517.56,518.93,520.67,522.71,524.93,527.27,529.66,532.26,534.90,537.54,540.20,543.03,546.00,548.60,550.09,550.62,550.81,552.14,555.26,559.26,561.78,563.01,563.09,561.81,559.90,557.54,555.16,553.02,550.99,549.73,549.11,548.87,548.63,548.86,549.47,550.69,552.78,554.12,554.79,555.23,555.78,556.87,558.53,560.17
771.37,769.97,768.20,766.30,764.07,761.62,758.91,755.69,751.81,748.08,745.02,743.22,742.82,744.47,747.19,749.88,752.04,750.21,746.81,742.92,738.37,733.56,728.85,724.66,721.51,718.21,715.32,712.88,710.87,708.99,707.46,705.28,702.17,698.49,694.36,689.17,683.58,678.74,675.78,672.27,668.14,663.29,657.50,652.74,648.56,644.64,640.80,637.21,633.43,629.04,623.90,619.13,615.45,611.99,608.11,603.19,599.11,595.78,592.76,589.62,586.24,583.43,581.58,580.58,579.36,578.07,576.82,576.29,578.01,581.68,586.06,590.16,593.33,595.76,597.54,598.58,598.65,597.30,594.56,591.64,589.21,587.77,586.80,586.09,585.47,585.30,586.72,588.65,590.56,591.92,592.00,591.87,590.96,589.68,588.56,588.13,588.00,588.52,589.72,591.13,592.16,593.10,593.82,594.00,594.08,593.97,593.68,593.13,592.19,590.96,589.49,587.74,585.55,583.09,579.24,574.01,568.12,564.61,561.03,557.07,553.00,549.60,545.85,541.69,537.60,534.17,530.78,527.89,525.28,522.84,520.53,518.29,516.08,513.99,512.22,510.56,508.77,507.08,505.78,504.83,504.44,504.33,504.36,504.41,504.50,504.43,504.23,503.93,503.69,503.40,503.17,503.05,502.97,502.93,502.97,503.08,503.16,503.18,503.18,503.18,503.19,503.28,503.37,503.30,503.17,503.40,503.99,504.62,505.10,505.31,505.50,505.73,505.93,506.03,505.93,505.75,505.55,505.36,505.23,505.27,505.30,505.31,505.34,505.28,505.20,505.08,504.89,504.64,504.32,504.15,504.30,504.96,506.07,506.77,507.17,507.45,507.63,507.77,507.94,508.17,508.47,508.74,509.08,509.53,510.05,510.15,510.23,510.70,511.70,512.98,514.20,515.47,516.80,518.19,519.79,522.01,524.54,527.14,529.79,532.97,536.14,538.99,541.35,543.92,546.34,547.86,547.77,547.66,547.71,548.52,550.42,553.19,556.92,558.81,558.55,556.78,554.47,552.02,550.07,548.93,547.56,546.74,546.48,546.57,546.66,547.42,548.50,549.84,551.44,552.46,553.01,553.61,554.56,556.07,557.88,559.37
778.35,777.22,775.73,773.86,771.00,767.72,764.38,760.68,756.03,751.74,747.97,744.13,741.48,740.90,741.56,742.79,745.03,743.18,739.30,734.49,728.96,723.80,718.95,714.83,712.27,709.90,707.73,705.74,703.96,702.42,701.63,700.15,697.72,695.01,691.66,686.40,680.45,675.52,671.78,667.40,662.30,656.83,652.02,647.44,643.54,640.18,636.94,633.87,630.03,625.40,620.36,616.51,613.14,609.59,605.50,600.76,597.33,594.34,591.26,587.75,583.90,581.36,579.88,579.02,577.70,576.25,574.79,573.82,574.50,577.41,581.43,585.37,588.50,591.10,593.15,594.51,594.91,593.79,590.99,588.36,586.41,585.23,584.25,583.51,582.92,582.67,583.54,584.46,585.57,586.63,587.04,587.09,586.44,585.44,584.51,584.06,583.71,583.74,584.19,584.78,585.12,585.77,586.46,586.66,586.73,586.76,586.69,586.38,585.82,585.28,584.38,583.09,581.38,579.02,575.29,570.91,566.74,563.52,559.58,555.09,550.60,547.14,543.67,540.05,536.40,532.97,529.70,526.78,524.07,521.48,519.04,516.61,514.22,512.03,510.35,508.59,506.93,505.44,504.28,503.74,503.71,503.77,503.81,503.93,504.08,504.12,504.01,503.73,503.49,503.20,502.95,502.79,502.71,502.68,502.69,502.72,502.72,502.72,502.72,502.73,502.75,502.81,502.86,502.84,502.86,503.34,503.92,504.48,504.90,505.03,505.19,505.38,505.58,505.74,505.68,505.47,505.22,505.01,504.90,504.94,504.98,505.03,505.07,504.98,504.84,504.66,504.42,504.13,503.86,503.91,504.28,504.96,506.06,506.35,506.39,506.64,506.77,506.88,507.12,507.48,507.87,508.25,508.63,509.01,509.32,509.28,509.38,509.85,510.77,511.97,513.24,514.63,516.10,517.53,519.07,521.48,524.34,527.29,530.33,533.97,537.50,540.47,542.63,544.75,546.11,546.32,545.20,544.67,544.86,545.55,546.73,548.49,552.27,554.11,553.59,551.77,549.30,547.03,545.67,545.45,544.84,544.42,544.46,544.89,545.40,546.58,547.95,549.24,550.27,550.96,551.44,552.17,553.41,555.12,556.87,558.15
783.43,782.21,780.98,779.54,776.31,772.87,770.14,766.72,761.45,756.72,753.00,749.28,745.58,741.50,737.65,735.14,735.26,734.14,730.90,725.48,719.14,714.50,710.59,707.10,704.30,702.02,700.13,698.66,697.63,696.56,696.10,694.99,693.00,690.67,687.83,682.93,677.31,672.78,668.61,663.51,657.64,651.64,647.13,642.19,638.35,635.53,632.85,629.97,625.65,621.06,617.20,613.77,610.44,606.79,602.79,598.79,595.58,592.53,589.02,584.67,581.01,579.14,578.07,577.17,575.92,574.35,572.73,571.29,570.73,572.96,577.26,581.66,584.80,587.25,589.37,590.92,591.63,591.07,588.81,586.23,584.07,582.75,581.72,580.90,580.26,579.83,579.70,579.80,580.42,581.40,582.27,582.52,582.09,581.32,580.52,580.03,579.65,579.50,579.59,579.70,579.86,580.10,580.37,580.59,580.74,580.84,580.91,580.87,580.56,580.05,579.29,578.19,576.45,573.70,570.71,567.75,564.87,561.75,557.02,551.92,547.37,544.23,541.15,538.19,535.16,531.83,528.75,525.91,523.20,520.53,517.70,514.96,512.37,510.06,508.26,506.36,504.93,503.89,503.19,503.15,503.18,503.22,503.32,503.52,503.69,503.79,503.76,503.53,503.29,503.01,502.74,502.54,502.46,502.38,502.32,502.27,502.27,502.27,502.27,502.29,502.35,502.36,502.38,502.47,502.73,503.31,503.87,504.29,504.55,504.60,504.80,505.06,505.30,505.42,505.35,505.10,504.84,504.64,504.57,504.62,504.69,504.77,504.80,504.62,504.35,504.09,503.86,503.62,503.44,503.69,504.26,504.90,505.70,505.61,505.52,506.00,506.24,506.45,506.68,506.96,507.35,507.73,508.12,508.48,508.74,508.71,508.81,509.20,509.95,511.09,512.40,513.86,515.38,516.88,518.49,521.11,524.29,527.69,531.25,535.06,538.59,541.55,543.76,545.13,544.84,543.59,542.33,541.66,542.13,543.28,544.84,546.60,548.55,549.14,548.44,547.02,544.75,542.87,541.98,542.21,542.21,542.19,542.64,543.65,544.93,546.29,547.55,548.53,549.09,549.59,550.11,550.93,552.21,553.81,555.36,556.51
786.93,785.11,783.07,780.91,778.10,775.41,773.21,770.48,767.13,763.38,759.40,755.35,751.00,745.87,740.26,734.60,729.22,725.21,720.47,714.57,709.67,705.69,702.32,699.30,696.53,694.32,692.57,691.34,690.71,690.49,690.40,689.71,688.34,686.62,684.14,679.80,674.66,670.10,666.00,661.19,655.41,649.16,644.38,639.00,634.63,631.25,628.00,624.76,621.11,617.47,614.17,610.92,607.55,603.97,600.25,596.68,593.46,589.82,585.72,581.56,578.74,577.07,576.01,575.27,574.23,572.70,571.02,569.45,568.57,569.91,572.89,576.71,580.67,583.41,585.45,586.98,587.83,587.47,585.32,583.17,581.41,580.00,578.97,578.19,577.35,576.42,575.74,575.57,576.15,577.16,577.84,578.12,578.06,577.70,577.05,576.57,576.40,576.42,576.52,576.54,576.66,576.87,577.11,577.33,577.49,577.19,576.57,575.81,575.17,574.24,573.17,571.99,570.56,568.93,566.98,564.87,562.47,558.97,553.70,548.42,544.07,541.02,538.22,535.50,532.76,529.96,527.12,524.50,521.92,519.21,516.34,513.53,510.71,508.02,505.94,504.57,503.54,502.81,502.46,502.57,502.63,502.74,502.90,503.09,503.29,503.43,503.47,503.28,503.05,502.79,502.54,502.33,502.20,502.08,501.98,501.91,501.87,501.87,501.87,501.88,501.91,501.91,501.98,502.19,502.59,503.11,503.62,503.96,504.14,504.25,504.54,504.79,504.97,505.04,504.93,504.73,504.50,504.32,504.29,504.35,504.42,504.50,504.54,504.33,504.04,503.75,503.49,503.27,503.24,503.55,504.09,504.67,505.27,505.27,505.24,505.58,505.82,506.02,506.23,506.49,506.83,507.22,507.60,507.94,508.17,508.17,508.40,508.86,509.50,510.25,511.41,512.81,514.40,516.27,518.22,521.27,525.07,529.08,532.40,535.81,539.04,541.87,543.92,544.27,543.14,541.47,540.15,539.49,540.12,541.40,543.01,544.71,546.02,545.84,544.49,542.95,541.38,540.14,539.53,539.72,540.20,540.84,541.82,543.13,544.57,545.90,546.89,547.56,548.03,548.53,549.13,549.87,550.87,552.29,553.79,554.91
788.97,786.67,784.22,781.66,779.44,777.49,775.63,773.45,771.82,769.11,765.13,760.80,756.27,750.69,744.20,736.63,726.79,718.86,711.53,704.80,700.94,697.49,694.41,691.56,688.77,686.61,685.01,683.96,683.63,684.12,684.45,684.33,683.71,682.49,680.21,676.43,671.98,667.79,664.03,659.62,654.09,647.81,642.63,636.63,631.28,626.84,623.04,619.63,616.75,613.97,610.97,607.86,604.58,601.25,597.96,594.72,591.36,587.11,582.58,578.86,576.70,575.06,573.93,573.29,572.47,571.11,569.48,567.89,566.91,567.57,569.23,572.05,576.01,578.85,580.85,582.39,583.37,583.12,581.36,579.78,578.44,577.03,576.13,575.43,574.46,573.17,572.16,571.79,572.33,573.30,573.69,573.91,574.13,574.12,573.72,573.36,573.42,573.64,573.83,573.89,574.04,574.32,574.63,574.82,574.90,574.15,572.82,571.25,569.95,568.48,567.08,565.81,564.65,564.09,562.98,561.38,559.17,555.44,549.87,544.61,540.51,537.39,534.68,532.03,529.49,527.16,524.68,522.33,519.92,517.30,514.57,511.68,508.58,505.58,503.48,502.81,502.28,501.89,501.88,502.01,502.12,502.28,502.49,502.66,502.87,503.06,503.14,503.01,502.79,502.56,502.32,502.11,501.94,501.80,501.67,501.58,501.49,501.48,501.48,501.48,501.48,501.50,501.63,501.93,502.38,502.84,503.31,503.59,503.75,503.94,504.27,504.50,504.63,504.67,504.54,504.39,504.20,504.02,504.03,504.09,504.16,504.25,504.28,504.06,503.78,503.48,503.19,502.99,503.06,503.38,503.87,504.40,504.86,505.00,505.06,505.23,505.43,505.60,505.80,506.04,506.34,506.71,507.10,507.42,507.61,507.67,508.05,508.58,509.10,509.52,510.40,511.73,513.50,515.82,518.20,522.04,526.54,530.75,533.67,536.64,539.46,541.92,543.66,543.10,541.54,539.78,538.40,537.58,538.28,539.69,541.35,542.93,543.87,543.24,541.51,539.94,538.96,538.17,537.75,537.97,538.85,540.06,541.43,542.88,544.25,545.38,546.08,546.55,547.04,547.60,548.26,548.93,549.67,550.85,552.24,553.37
788.71,786.55,785.17,783.54,781.79,780.02,778.15,775.96,774.17,771.82,768.53,764.32,760.38,754.32,747.25,740.17,730.11,718.11,707.07,698.72,693.73,690.41,687.25,683.96,680.93,678.81,677.41,676.63,676.57,677.24,678.02,678.78,679.12,678.04,675.66,672.34,668.97,666.26,663.17,658.78,653.38,647.41,641.92,634.89,627.89,622.00,618.27,615.45,612.87,610.20,607.36,604.40,601.50,598.77,596.14,593.20,589.48,584.92,580.42,577.09,574.81,573.11,571.89,571.13,570.50,569.46,568.10,566.61,565.44,565.98,567.23,568.74,570.48,572.74,574.84,576.60,577.74,577.64,577.09,576.20,575.04,573.77,573.19,572.65,571.79,570.57,569.50,568.76,568.99,569.76,569.96,570.08,570.22,570.34,570.37,570.31,570.55,570.83,571.05,571.24,571.47,571.86,572.25,572.32,572.18,571.18,569.56,567.50,565.23,563.20,561.64,560.45,559.30,558.76,557.86,556.40,554.17,550.79,545.37,540.30,536.41,533.03,530.06,527.40,524.97,522.78,520.88,518.79,516.58,514.31,511.94,508.74,505.32,502.32,500.82,500.87,500.96,501.06,501.38,501.50,501.68,501.87,502.05,502.26,502.44,502.63,502.78,502.74,502.53,502.30,502.06,501.85,501.69,501.54,501.39,501.24,501.11,501.09,501.09,501.09,501.10,501.16,501.34,501.65,502.06,502.51,502.98,503.26,503.44,503.66,503.91,504.14,504.31,504.35,504.27,504.14,503.94,503.76,503.76,503.83,503.90,503.99,504.01,503.75,503.49,503.22,502.94,502.78,502.82,503.13,503.61,504.13,504.55,504.67,504.74,504.89,505.06,505.22,505.41,505.64,505.90,506.26,506.65,506.94,507.05,507.24,507.73,508.25,508.64,508.99,509.45,510.76,512.92,515.70,518.58,523.78,529.03,532.45,535.08,537.84,540.15,541.87,543.00,541.98,540.37,538.72,537.15,535.80,536.44,538.11,540.03,541.39,541.88,541.22,539.91,538.87,537.92,537.03,536.71,537.40,538.59,539.98,541.42,542.82,543.92,544.60,545.11,545.59,546.14,546.80,547.49,548.17,548.88,549.68,550.76,551.92
789.63,788.29,787.50,786.36,784.71,782.75,780.57,778.17,775.86,773.08,769.68,765.82,762.14,756.32,749.25,741.92,732.81,721.07,709.58,700.28,694.23,688.28,682.25,677.01,674.01,671.59,670.25,669.72,669.93,670.82,672.00,673.25,674.06,673.24,671.29,668.91,666.58,664.44,661.85,657.69,652.64,647.12,641.48,633.51,625.05,617.83,613.99,611.30,608.91,606.38,603.60,601.03,598.63,596.47,594.36,591.68,588.03,583.58,579.12,575.62,572.97,571.12,569.78,568.90,568.37,567.64,566.51,565.11,563.94,563.79,564.58,565.54,566.32,567.82,569.52,570.94,571.86,572.19,572.19,571.90,571.39,570.76,570.54,570.19,569.49,568.42,567.42,566.54,566.49,567.02,567.28,567.41,567.56,567.67,567.64,567.33,566.77,566.44,566.34,566.13,566.81,567.65,568.44,569.10,569.09,568.00,566.14,563.72,561.24,559.16,557.59,556.30,554.91,553.78,552.29,550.48,548.20,544.64,540.23,535.90,532.06,528.71,525.73,523.22,521.13,519.43,517.93,515.91,513.64,511.34,509.07,506.34,503.27,500.57,499.65,499.89,500.23,500.54,500.89,501.07,501.25,501.44,501.63,501.83,502.02,502.24,502.42,502.46,502.27,502.04,501.84,501.69,501.57,501.39,501.20,501.00,500.82,500.73,500.70,500.70,500.73,500.86,501.13,501.46,501.82,502.20,502.59,502.86,503.07,503.30,503.57,503.81,503.98,504.03,503.96,503.82,503.63,503.45,503.46,503.56,503.65,503.72,503.75,503.48,503.23,502.98,502.72,502.54,502.56,502.89,503.38,503.84,504.27,504.40,504.46,504.61,504.73,504.88,505.05,505.24,505.45,505.77,506.14,506.43,506.55,506.90,507.38,507.81,508.15,508.47,508.93,510.16,512.60,516.80,520.64,525.69,530.32,533.25,535.84,538.48,540.56,541.83,542.15,540.93,539.35,537.71,536.05,534.39,534.35,535.56,537.48,538.88,539.35,538.89,537.93,537.07,536.19,535.74,535.97,536.99,538.28,539.59,540.98,542.28,543.01,543.49,544.01,544.59,545.19,545.90,546.61,547.30,548.00,548.70,549.56,550.46
790.67,790.17,789.77,788.99,787.39,785.25,782.73,780.10,777.14,773.69,769.92,766.36,762.81,757.30,750.33,742.71,734.90,724.70,713.84,704.01,697.21,688.56,679.17,671.19,667.52,664.67,663.38,663.10,663.52,664.61,665.98,667.47,668.56,668.10,666.81,665.49,664.08,662.24,659.94,656.18,651.60,646.46,640.58,631.79,622.25,614.17,610.31,607.64,605.36,602.92,600.18,597.93,595.90,594.14,592.42,590.03,586.66,582.49,578.11,574.28,571.25,569.20,567.72,566.70,566.16,565.73,564.81,563.55,562.50,561.67,561.83,562.29,562.60,563.40,564.68,565.79,566.57,567.30,567.55,567.71,567.88,567.99,568.11,567.93,567.38,566.47,565.50,564.56,564.27,564.54,564.93,565.12,565.26,565.32,565.13,564.48,563.11,561.93,561.20,560.59,561.63,562.90,564.17,565.50,565.81,564.81,562.87,560.26,557.76,555.73,554.07,552.54,550.82,549.00,546.84,544.58,542.23,538.61,535.25,531.66,527.85,524.56,521.44,518.90,517.18,516.43,515.27,513.25,510.88,508.50,506.31,504.17,501.72,499.53,499.02,499.27,499.72,500.14,500.43,500.66,500.83,501.02,501.24,501.40,501.62,501.84,502.04,502.16,502.00,501.78,501.61,501.55,501.48,501.29,501.06,500.83,500.60,500.41,500.34,500.34,500.39,500.61,500.95,501.30,501.61,501.92,502.21,502.46,502.69,502.93,503.22,503.47,503.65,503.71,503.64,503.50,503.31,503.14,503.16,503.29,503.39,503.46,503.47,503.22,502.96,502.74,502.50,502.30,502.31,502.64,503.13,503.53,503.99,504.14,504.20,504.34,504.43,504.56,504.71,504.86,505.01,505.29,505.63,505.92,506.09,506.55,506.98,507.34,507.67,508.05,508.64,509.72,512.25,517.65,522.37,526.88,530.70,533.44,536.11,538.73,540.68,541.60,541.18,539.84,538.24,536.58,534.84,533.04,532.24,532.75,534.42,535.91,536.51,536.31,535.65,534.97,534.38,534.58,535.40,536.64,537.91,539.07,540.31,541.45,541.88,542.32,542.90,543.54,544.20,544.95,545.67,546.37,547.08,547.77,548.46,549.11
790.86,790.64,790.45,790.00,788.76,786.77,784.16,781.45,777.87,773.71,769.49,765.98,762.43,756.71,749.60,742.36,735.65,726.70,716.59,706.89,700.16,691.41,679.89,668.28,661.45,658.12,657.00,656.93,657.47,658.57,659.60,660.88,662.09,662.21,661.89,661.40,660.60,659.08,656.70,653.60,649.60,644.46,637.98,628.67,619.09,611.39,608.02,605.51,603.16,600.67,597.99,595.56,593.38,591.58,589.99,587.94,585.10,581.34,577.14,573.10,569.82,567.59,565.90,564.61,563.94,563.63,562.97,562.02,561.27,560.35,559.38,558.80,558.91,559.34,560.60,562.07,563.36,564.15,564.37,564.61,565.05,565.67,565.99,565.92,565.50,564.67,563.53,562.55,562.07,562.11,562.58,562.79,562.90,562.88,562.62,562.01,560.66,558.67,556.64,556.21,556.94,558.25,559.84,561.48,562.34,561.79,560.22,557.85,555.13,552.93,550.86,548.75,546.64,544.55,542.15,539.66,537.22,534.46,531.42,528.01,524.36,520.89,516.97,513.67,512.20,513.49,512.66,510.63,508.29,506.06,504.11,502.19,500.51,499.21,498.60,498.87,499.36,499.81,500.10,500.28,500.44,500.63,500.85,501.01,501.23,501.42,501.61,501.78,501.71,501.52,501.38,501.36,501.34,501.20,501.00,500.75,500.46,500.18,500.04,500.05,500.19,500.47,500.79,501.11,501.42,501.72,501.92,502.14,502.37,502.60,502.85,503.08,503.28,503.38,503.31,503.18,503.01,502.88,502.89,503.03,503.13,503.19,503.17,502.94,502.71,502.48,502.26,502.09,502.07,502.36,502.81,503.20,503.66,503.84,503.94,504.08,504.16,504.26,504.38,504.52,504.63,504.85,505.14,505.45,505.73,506.07,506.50,506.91,507.33,507.94,508.65,509.47,511.49,516.54,521.33,525.65,529.43,532.61,535.50,538.32,540.18,540.79,540.10,538.47,536.73,535.00,533.20,531.51,530.30,530.06,530.98,532.43,533.23,533.25,532.83,532.59,533.02,533.94,535.07,536.29,537.42,538.43,539.38,540.18,540.60,541.29,541.87,542.40,543.15,543.92,544.63,545.36,546.10,546.80,547.45,548.07
789.21,789.25,789.09,788.83,787.91,786.31,784.07,781.66,777.76,773.13,768.49,764.70,760.69,754.58,747.43,740.79,735.05,726.86,717.96,709.64,702.55,693.41,681.16,668.22,659.25,654.31,651.39,649.76,649.61,651.03,652.10,653.21,654.30,654.68,654.88,654.85,654.50,653.54,651.67,649.15,645.65,640.72,634.06,626.22,618.11,611.20,607.78,605.32,602.75,599.90,596.86,593.97,591.35,589.26,587.62,585.86,583.46,580.00,575.84,571.60,568.52,566.23,564.29,562.68,561.77,561.49,561.10,560.47,559.78,558.85,557.43,556.11,555.40,555.24,556.34,557.93,559.46,560.25,560.50,561.24,562.35,563.38,563.90,563.94,563.59,562.84,561.76,560.44,559.30,558.69,559.06,558.91,558.92,558.92,558.59,557.74,556.22,554.25,552.45,552.14,552.56,553.83,555.68,557.69,559.03,559.23,558.08,555.54,552.63,550.00,547.48,544.97,542.48,539.95,537.31,534.79,532.57,530.24,527.36,524.00,520.23,516.27,512.86,510.38,509.48,510.73,510.29,508.79,506.89,504.89,503.06,501.21,499.84,498.91,498.18,498.46,498.99,499.47,499.82,500.06,500.23,500.39,500.55,500.70,500.87,501.03,501.19,501.37,501.41,501.31,501.20,501.17,501.17,501.09,500.94,500.69,500.41,500.11,499.88,499.82,500.00,500.29,500.57,500.87,501.17,501.44,501.61,501.81,502.05,502.27,502.48,502.70,502.91,503.05,502.99,502.85,502.70,502.59,502.63,502.74,502.85,502.93,502.89,502.68,502.48,502.26,502.04,501.86,501.82,502.07,502.49,502.88,503.30,503.53,503.67,503.79,503.90,503.99,504.10,504.24,504.32,504.50,504.71,504.97,505.34,505.69,506.10,506.59,507.17,507.86,508.53,509.18,510.51,513.92,518.50,522.83,526.81,530.44,533.62,536.38,538.25,538.88,537.96,536.12,534.29,532.58,530.87,529.35,528.17,527.85,528.57,529.70,530.34,530.68,530.94,531.36,532.23,533.40,534.57,535.55,536.47,537.34,538.12,538.81,539.49,540.28,540.81,541.29,542.06,542.84,543.58,544.33,545.09,545.79,546.64,547.52
786.56,786.85,786.66,786.50,785.87,784.70,782.94,780.72,776.68,771.86,767.01,762.80,757.91,751.44,744.54,738.62,733.62,726.00,718.37,711.72,704.28,694.74,682.44,669.29,658.90,652.24,646.81,642.79,641.23,642.51,643.69,644.76,645.73,646.33,646.88,647.13,647.10,646.68,645.62,643.62,640.55,636.05,629.86,624.18,618.09,612.22,608.50,605.95,603.10,599.83,596.33,592.92,589.77,587.22,585.29,583.72,581.63,578.41,574.35,570.09,567.38,565.06,562.88,560.95,559.72,559.39,559.19,558.80,558.09,557.20,555.75,553.98,552.30,551.47,552.26,553.72,555.15,555.83,556.15,557.51,559.45,560.98,561.82,561.94,561.60,560.88,559.83,558.13,556.29,554.94,554.86,554.19,554.07,554.13,553.81,552.77,551.13,549.58,548.48,548.13,548.27,549.51,551.63,554.12,555.85,556.84,556.14,553.38,550.21,547.04,544.07,541.25,538.38,535.42,532.67,530.30,528.32,526.16,523.21,519.72,515.82,511.81,509.50,508.28,507.88,508.24,508.11,507.29,505.95,504.24,502.51,500.72,499.43,498.57,497.75,498.05,498.59,499.10,499.54,499.89,500.09,500.23,500.33,500.47,500.57,500.69,500.84,501.00,501.13,501.11,501.04,500.99,500.99,500.98,500.87,500.65,500.40,500.11,499.81,499.65,499.79,500.07,500.33,500.60,500.89,501.12,501.29,501.49,501.72,501.94,502.11,502.32,502.55,502.73,502.68,502.53,502.37,502.28,502.36,502.44,502.56,502.66,502.63,502.42,502.24,502.05,501.82,501.61,501.56,501.78,502.18,502.56,502.95,503.21,503.37,503.46,503.60,503.69,503.80,503.93,504.03,504.16,504.29,504.51,504.95,505.36,505.76,506.31,507.02,507.68,508.25,508.78,509.49,511.00,514.84,518.93,523.09,527.31,530.81,533.52,535.41,536.19,535.13,533.11,531.17,529.46,527.91,526.69,525.92,525.90,526.66,527.45,527.91,528.63,529.63,530.68,531.71,532.88,533.90,534.56,535.27,536.02,536.73,537.45,538.38,539.17,539.71,540.24,541.04,541.82,542.60,543.40,544.20,544.98,546.09,547.25
783.36,783.82,783.71,783.60,783.14,782.23,780.53,777.34,773.27,768.95,764.62,760.07,753.61,747.23,741.44,736.30,731.32,724.40,717.53,711.38,704.52,695.11,682.88,669.68,658.86,651.99,644.84,638.33,634.18,632.92,633.77,635.15,636.48,637.72,638.74,639.27,639.30,638.94,638.79,637.22,634.49,630.88,626.90,622.45,617.84,613.31,609.26,606.31,603.17,599.76,596.19,592.58,589.03,585.74,583.02,581.35,579.14,576.20,572.74,569.13,566.56,564.19,561.88,559.73,558.05,557.54,557.23,556.75,556.04,555.25,554.20,552.62,550.51,549.09,549.28,549.93,550.51,550.84,551.17,552.95,555.63,558.13,559.63,559.83,559.37,558.49,557.02,555.27,553.40,551.59,550.12,549.00,548.72,548.85,548.89,548.29,547.17,545.94,544.74,543.80,543.81,545.19,547.75,551.00,552.90,554.32,554.18,551.70,547.98,544.24,540.90,537.81,534.49,531.43,529.17,527.16,524.92,522.73,519.13,515.11,511.56,509.67,508.32,507.28,506.61,506.48,506.24,505.63,504.67,503.37,501.89,500.34,499.04,498.04,497.34,497.67,498.17,498.67,499.18,499.66,499.94,500.12,500.24,500.34,500.47,500.58,500.70,500.84,500.89,500.89,500.87,500.85,500.85,500.85,500.79,500.64,500.40,500.11,499.80,499.58,499.55,499.77,500.05,500.32,500.57,500.80,500.97,501.16,501.40,501.62,501.78,501.99,502.22,502.41,502.40,502.23,502.05,501.97,502.09,502.17,502.31,502.40,502.37,502.16,501.95,501.75,501.56,501.34,501.25,501.49,501.91,502.30,502.69,502.88,502.99,503.07,503.16,503.25,503.33,503.44,503.57,503.67,503.87,504.17,504.59,505.08,505.53,506.02,506.56,507.08,507.58,508.06,508.61,509.46,511.04,513.58,517.53,522.77,526.68,529.79,531.74,532.33,531.48,529.27,527.01,525.11,523.76,523.24,523.51,524.10,524.80,525.68,526.63,527.72,528.90,530.09,531.22,532.24,532.95,533.31,533.98,534.69,535.41,536.18,537.04,537.69,538.47,539.37,540.29,541.08,541.93,542.87,543.88,544.92,546.07,547.18
780.13,780.63,780.52,780.33,779.71,778.42,776.12,772.57,768.82,764.99,760.90,755.93,749.33,743.15,737.70,732.74,727.65,721.41,715.19,709.44,703.48,694.44,682.63,670.06,659.88,652.51,645.03,638.00,632.56,629.04,626.47,625.36,625.83,627.53,629.25,630.54,631.25,631.42,632.29,631.65,629.79,627.10,624.40,620.83,617.18,613.58,609.86,606.60,603.21,599.64,595.87,591.81,587.62,583.83,580.81,578.88,576.57,573.93,571.11,568.33,566.00,563.65,561.29,559.02,557.02,555.90,555.23,554.68,553.99,553.33,552.55,551.29,549.38,547.78,547.17,547.13,547.36,547.53,547.92,550.00,553.02,555.67,557.41,557.45,556.79,555.82,554.18,552.16,550.14,548.13,546.11,544.89,544.48,544.56,544.80,544.59,543.88,542.72,541.25,539.88,539.52,540.65,543.19,546.87,549.85,551.98,552.45,550.48,546.21,541.78,537.97,534.65,531.35,528.59,526.50,524.53,522.06,518.82,515.00,511.55,509.12,508.19,507.26,506.30,505.47,504.95,504.49,503.87,503.10,502.14,500.92,499.64,498.44,497.43,496.91,497.28,497.77,498.26,498.80,499.34,499.71,499.97,500.14,500.25,500.37,500.49,500.60,500.71,500.73,500.73,500.71,500.68,500.68,500.68,500.66,500.57,500.37,500.13,499.86,499.58,499.37,499.47,499.72,499.99,500.24,500.47,500.64,500.84,501.06,501.27,501.45,501.67,501.90,502.09,502.10,501.94,501.77,501.68,501.83,501.94,502.06,502.14,502.11,501.91,501.67,501.48,501.30,501.08,500.98,501.19,501.62,502.00,502.38,502.56,502.60,502.61,502.68,502.78,502.87,502.96,503.08,503.19,503.44,503.81,504.22,504.64,505.03,505.44,505.91,506.37,506.83,507.28,507.77,508.42,509.07,510.43,513.01,517.02,521.20,524.46,526.24,526.59,525.97,524.29,522.59,521.25,520.58,520.81,521.65,522.60,523.52,524.57,525.77,527.00,528.24,529.46,530.55,531.31,531.77,532.06,532.69,533.40,534.13,534.91,535.81,536.58,537.54,538.60,539.63,540.62,541.61,542.64,543.75,544.82,545.89,546.90
776.89,777.31,777.12,776.73,775.61,773.47,770.23,766.86,763.57,760.04,755.88,750.42,744.46,738.57,733.04,727.96,722.86,717.33,711.77,706.47,701.29,692.55,681.45,670.14,661.29,653.39,646.51,640.29,634.63,629.44,622.09,616.83,615.24,616.88,619.02,621.18,622.95,624.16,626.11,626.74,626.08,624.31,622.06,619.16,616.14,613.16,610.14,606.71,603.13,599.37,595.24,590.57,585.66,581.60,578.67,576.43,574.09,571.77,569.58,567.59,565.58,563.30,560.97,558.66,556.42,554.45,553.26,552.63,551.93,551.40,550.73,549.77,548.39,546.88,545.58,545.05,545.23,545.41,545.83,548.12,551.28,553.63,555.21,554.95,554.02,552.92,551.13,548.73,546.51,544.57,542.71,541.64,541.14,541.08,541.39,541.49,541.03,539.80,537.96,536.30,535.43,536.02,538.11,541.83,546.28,549.33,550.51,549.15,544.56,539.58,535.29,531.77,528.77,526.47,524.30,522.02,519.20,514.70,511.16,508.96,507.88,507.02,506.16,505.26,504.37,503.59,502.92,502.20,501.48,500.74,499.74,498.71,497.66,496.76,496.49,496.91,497.41,497.91,498.44,498.98,499.45,499.80,500.02,500.16,500.27,500.39,500.51,500.57,500.58,500.58,500.56,500.50,500.49,500.48,500.48,500.44,500.30,500.15,499.94,499.63,499.26,499.20,499.36,499.61,499.89,500.13,500.31,500.52,500.73,500.90,501.12,501.35,501.58,501.78,501.78,501.65,501.50,501.42,501.57,501.72,501.83,501.88,501.84,501.64,501.41,501.22,501.05,500.83,500.73,500.92,501.30,501.68,502.06,502.25,502.24,502.13,502.17,502.29,502.40,502.49,502.58,502.73,503.03,503.44,503.85,504.13,504.38,504.72,505.16,505.60,506.06,506.48,506.95,507.65,508.35,508.99,509.75,511.32,515.30,518.44,520.00,520.16,519.79,519.05,518.38,518.05,518.33,519.26,520.28,521.41,522.67,523.88,525.12,526.35,527.57,528.75,529.73,530.23,530.51,530.84,531.42,532.16,532.93,533.75,534.77,535.83,536.91,538.02,539.13,540.37,541.49,542.56,543.59,544.48,545.44,546.41
773.51,773.63,773.32,772.62,770.37,767.09,763.44,760.56,757.36,753.41,748.55,742.59,736.18,730.69,725.90,721.34,716.96,712.29,707.69,703.05,697.25,687.82,677.84,668.69,661.14,653.96,647.85,642.35,637.06,631.69,623.07,614.79,609.38,609.21,609.62,611.46,614.22,617.24,620.30,622.09,622.55,621.57,619.33,616.93,614.52,612.06,609.44,606.08,602.49,598.51,593.87,588.69,583.46,579.39,576.64,574.38,572.15,570.18,568.45,566.80,564.93,562.86,560.64,558.29,555.80,553.33,551.67,550.68,549.81,549.20,548.40,547.44,546.33,544.93,543.77,543.21,543.22,543.37,543.49,545.99,549.63,552.14,553.27,552.73,551.47,549.72,546.93,544.38,542.42,540.94,539.72,538.96,538.46,538.28,538.52,538.79,538.51,537.19,534.99,532.95,531.74,531.61,532.75,535.82,540.62,544.63,546.71,545.95,542.01,537.46,533.13,529.36,526.49,524.14,521.75,518.67,514.67,511.24,509.07,507.64,506.65,505.80,504.95,504.05,503.19,502.51,501.91,501.23,500.49,499.68,498.74,497.79,496.80,496.01,496.06,496.65,497.23,497.74,498.23,498.76,499.25,499.63,499.89,500.04,500.18,500.29,500.37,500.39,500.39,500.39,500.38,500.35,500.30,500.25,500.23,500.22,500.17,500.12,499.95,499.66,499.27,498.99,498.98,499.14,499.40,499.68,499.95,500.19,500.42,500.63,500.86,501.09,501.32,501.50,501.47,501.33,501.21,501.16,501.31,501.47,501.57,501.61,501.54,501.37,501.16,500.96,500.80,500.63,500.53,500.69,501.02,501.36,501.74,501.98,501.99,501.77,501.73,501.81,501.89,501.97,502.07,502.34,502.70,503.08,503.42,503.72,503.96,504.25,504.60,504.91,505.25,505.66,506.18,506.93,507.68,508.30,508.88,509.70,511.53,514.25,515.95,516.35,516.36,516.12,516.00,516.28,517.21,518.37,519.54,520.74,522.00,523.24,524.47,525.68,526.82,527.84,528.77,529.30,529.57,529.77,530.21,531.00,531.97,533.07,534.28,535.51,536.75,537.98,539.16,540.32,541.42,542.26,542.78,543.32,544.33,545.55
769.62,768.86,767.88,765.88,762.94,759.75,756.66,753.48,749.57,744.73,739.14,733.38,727.34,722.45,718.40,714.65,711.01,707.05,702.92,698.35,692.17,683.04,674.11,666.34,659.78,653.50,648.15,643.26,638.38,632.96,624.52,615.10,607.17,604.54,603.06,603.89,606.30,609.50,613.37,616.00,617.16,616.74,615.05,613.41,611.80,610.07,607.90,604.87,601.35,597.40,592.98,588.23,583.01,578.79,575.73,572.84,570.61,568.85,567.34,565.86,564.19,562.30,560.17,557.74,555.10,552.41,550.32,548.83,547.66,546.76,545.84,544.90,543.95,542.77,541.94,541.48,541.35,541.37,541.35,543.34,546.67,549.74,550.70,549.68,547.76,545.40,542.80,540.79,539.32,538.25,537.36,536.62,536.00,535.68,535.83,536.21,536.13,534.83,532.49,530.46,529.18,528.66,529.17,531.39,535.31,539.61,542.38,542.28,539.29,535.37,531.11,527.07,524.04,520.95,517.77,514.40,510.99,508.84,507.56,506.49,505.45,504.57,503.72,502.87,502.09,501.47,500.93,500.24,499.45,498.59,497.69,496.79,495.96,495.42,495.67,496.32,496.97,497.54,498.04,498.57,499.03,499.42,499.69,499.88,500.06,500.18,500.24,500.24,500.24,500.24,500.23,500.19,500.08,499.99,499.93,499.94,499.96,499.97,499.84,499.58,499.22,498.86,498.69,498.73,498.96,499.26,499.55,499.82,500.07,500.33,500.56,500.80,501.03,501.21,501.17,501.05,500.93,500.90,501.06,501.21,501.31,501.34,501.26,501.10,500.89,500.69,500.52,500.39,500.30,500.41,500.69,501.03,501.42,501.71,501.75,501.47,501.33,501.32,501.38,501.46,501.62,501.98,502.38,502.73,503.01,503.29,503.56,503.83,504.10,504.37,504.69,505.10,505.63,506.34,507.14,507.84,508.44,508.99,509.62,511.38,512.64,513.08,513.43,513.91,514.47,515.27,516.50,517.72,518.93,520.13,521.32,522.55,523.75,524.89,525.95,526.88,527.80,528.38,528.69,528.92,529.43,530.33,531.44,532.66,533.95,535.24,536.50,537.70,538.84,539.89,540.83,541.44,541.68,542.01,543.14,544.60
765.66,763.30,761.06,756.84,753.64,751.46,749.40,745.25,740.12,734.20,728.12,723.20,718.50,714.43,711.01,708.20,705.13,701.61,697.50,692.58,686.50,678.58,670.54,663.26,657.44,652.04,647.38,643.00,638.39,632.88,625.63,616.86,608.12,602.91,599.70,598.94,599.68,601.45,605.51,608.48,609.94,609.98,609.45,608.79,608.12,607.25,605.63,603.14,599.82,596.24,592.77,589.24,584.28,579.72,575.86,571.78,569.45,567.75,566.24,564.83,563.39,561.64,559.52,557.03,554.35,551.65,549.21,547.13,545.53,544.20,543.18,542.32,541.49,540.64,540.18,539.89,539.67,539.50,539.51,540.32,542.47,546.07,547.16,545.69,543.09,540.41,539.11,538.13,537.27,536.44,535.57,534.56,533.71,533.21,533.27,533.69,533.85,532.72,530.49,528.85,527.70,527.14,527.37,528.80,530.97,534.87,537.99,538.55,536.58,533.32,529.14,524.73,521.08,516.86,512.74,509.70,508.45,507.36,506.35,505.31,504.27,503.35,502.49,501.73,501.04,500.43,499.85,499.09,498.26,497.41,496.59,495.79,495.23,495.04,495.36,495.93,496.63,497.30,497.84,498.38,498.80,499.14,499.43,499.66,499.88,500.03,500.09,500.10,500.10,500.09,500.06,499.97,499.83,499.68,499.61,499.63,499.69,499.70,499.61,499.39,499.08,498.77,498.48,498.40,498.59,498.89,499.15,499.43,499.73,500.01,500.24,500.47,500.70,500.89,500.90,500.78,500.66,500.64,500.80,500.95,501.06,501.09,500.99,500.84,500.63,500.41,500.22,500.13,500.06,500.12,500.35,500.72,501.10,501.42,501.48,501.20,500.97,500.87,500.87,500.97,501.22,501.64,502.05,502.38,502.62,502.85,503.14,503.42,503.68,503.98,504.34,504.76,505.25,505.86,506.72,507.48,508.13,508.67,509.19,509.69,510.03,510.30,510.91,512.28,513.61,514.82,516.04,517.21,518.38,519.50,520.62,521.83,522.94,523.99,524.99,525.91,526.83,527.44,527.84,528.25,529.03,530.10,531.25,532.43,533.65,534.88,536.03,537.11,538.13,539.05,539.71,540.13,540.37,540.69,541.97,543.62
764.47,759.38,755.22,749.12,745.03,741.79,738.11,733.95,728.70,723.08,717.76,713.61,710.33,707.38,704.66,702.13,699.09,695.37,691.57,687.60,682.10,674.39,666.66,659.96,654.91,650.18,646.04,641.92,637.24,631.62,625.74,618.68,610.98,604.92,600.45,597.61,596.35,596.98,598.97,600.90,602.52,603.73,604.45,604.60,604.49,604.09,603.01,601.00,598.48,595.97,593.56,590.45,585.64,580.64,575.88,571.12,568.78,567.09,565.50,564.01,562.52,560.84,558.79,556.32,553.67,551.02,548.47,546.07,543.93,542.20,540.99,540.14,539.56,539.09,538.82,538.59,538.37,538.21,538.20,538.06,538.48,540.21,541.21,540.82,539.49,537.78,536.86,536.15,535.42,534.64,533.80,532.68,531.68,530.97,530.78,531.30,531.69,530.96,529.21,527.78,526.55,525.79,525.92,527.46,529.24,532.37,535.09,535.93,534.15,531.36,527.05,521.50,515.79,512.17,509.44,507.57,506.74,505.91,505.06,504.12,503.09,502.13,501.34,500.65,500.00,499.31,498.55,497.72,496.87,496.08,495.56,495.19,494.99,494.96,495.26,495.82,496.44,497.06,497.64,498.19,498.53,498.81,499.06,499.30,499.53,499.70,499.81,499.90,499.91,499.88,499.81,499.72,499.52,499.36,499.31,499.36,499.44,499.45,499.38,499.20,498.90,498.63,498.34,498.22,498.37,498.67,498.96,499.25,499.55,499.80,499.94,500.15,500.38,500.57,500.59,500.46,500.35,500.34,500.53,500.69,500.83,500.87,500.73,500.54,500.35,500.16,500.01,499.98,499.91,499.96,500.17,500.51,500.84,501.13,501.20,500.98,500.70,500.51,500.41,500.49,500.87,501.31,501.67,501.96,502.22,502.41,502.69,503.01,503.33,503.65,503.98,504.36,504.82,505.44,506.28,507.10,507.82,508.36,508.73,508.99,509.18,509.46,510.26,511.80,513.20,514.41,515.59,516.70,517.85,518.93,519.95,521.07,522.09,523.09,524.07,524.99,525.88,526.47,526.99,527.65,528.57,529.68,530.86,532.02,533.03,534.14,535.25,536.32,537.32,538.00,538.42,538.72,539.00,539.52,540.97,542.68
765.26,758.01,752.04,744.94,740.03,735.48,730.08,725.49,719.96,714.50,709.65,705.83,703.19,700.88,698.61,696.25,693.46,689.98,686.65,683.19,677.38,669.83,662.76,656.87,652.36,648.25,644.51,640.38,635.35,629.92,625.17,619.63,613.18,607.04,602.03,597.89,594.92,593.80,593.66,594.50,595.90,597.54,598.81,599.43,599.71,599.66,598.99,597.67,596.20,594.73,593.07,590.49,586.11,581.11,575.92,570.77,568.24,566.45,564.80,563.23,561.68,559.94,557.89,555.48,552.93,550.39,547.84,545.29,542.80,540.76,539.30,538.36,537.93,537.70,537.53,537.33,537.09,536.88,536.40,535.39,534.53,534.76,535.85,536.43,536.33,535.61,534.85,534.24,533.59,532.86,532.06,530.97,529.94,529.12,528.74,529.20,529.49,528.98,527.70,526.43,525.13,524.24,524.27,525.82,527.59,530.11,532.46,533.50,531.63,528.19,523.02,516.80,511.28,508.63,507.05,505.91,505.11,504.33,503.57,502.74,501.80,500.90,500.18,499.52,498.85,498.07,497.18,496.41,495.72,495.16,494.92,494.88,494.88,494.95,495.22,495.76,496.34,496.90,497.46,497.93,498.21,498.45,498.68,498.91,499.14,499.34,499.51,499.64,499.66,499.61,499.53,499.43,499.23,499.06,499.03,499.10,499.17,499.17,499.11,498.98,498.73,498.48,498.18,498.06,498.20,498.50,498.80,499.10,499.38,499.57,499.69,499.87,500.06,500.22,500.21,500.10,500.02,500.04,500.24,500.38,500.51,500.53,500.40,500.23,500.09,499.96,499.84,499.82,499.79,499.86,500.06,500.36,500.62,500.82,500.90,500.77,500.46,500.22,500.09,500.15,500.55,500.92,501.18,501.41,501.68,501.92,502.21,502.55,502.93,503.26,503.65,504.06,504.55,505.21,506.01,506.82,507.51,507.96,508.21,508.50,508.81,509.21,510.09,511.50,512.80,513.95,515.09,516.19,517.32,518.37,519.30,520.29,521.22,522.16,523.13,524.05,524.91,525.57,526.24,527.10,528.06,529.10,530.22,531.34,532.27,533.35,534.43,535.48,536.35,536.81,537.09,537.38,537.81,538.55,539.93,541.44
768.06,759.81,752.42,745.50,740.06,734.49,727.97,722.15,715.84,709.85,704.62,700.49,697.37,694.94,692.79,690.64,688.50,685.93,683.08,679.15,671.87,664.75,658.90,654.10,649.85,646.35,642.80,638.34,632.75,627.93,623.94,619.35,613.89,608.31,603.62,599.39,595.33,591.66,589.90,589.80,590.40,591.27,592.17,592.80,593.30,593.52,593.07,592.69,592.37,591.71,590.39,588.64,585.18,580.81,575.90,570.67,567.73,565.74,564.07,562.45,560.86,558.94,556.76,554.41,552.01,549.67,547.23,544.69,542.19,539.96,538.23,537.08,536.58,536.37,536.21,535.98,535.71,535.39,533.92,532.18,530.85,530.65,532.00,532.99,533.48,533.46,532.78,532.25,531.73,531.11,530.34,529.47,528.56,527.74,527.26,527.42,527.20,526.61,525.68,524.52,523.25,522.37,522.25,523.42,525.32,527.53,529.65,530.72,528.55,523.21,516.54,510.65,508.51,506.84,505.44,504.26,503.37,502.59,501.87,501.12,500.34,499.61,498.97,498.32,497.58,496.70,495.87,495.32,495.00,494.86,494.81,494.81,494.85,494.95,495.22,495.72,496.30,496.85,497.29,497.58,497.82,498.05,498.29,498.52,498.76,498.98,499.18,499.31,499.34,499.28,499.21,499.12,498.96,498.80,498.78,498.85,498.91,498.87,498.79,498.71,498.57,498.29,497.99,497.89,498.07,498.37,498.62,498.90,499.17,499.33,499.48,499.63,499.77,499.83,499.77,499.69,499.68,499.77,499.92,500.02,500.07,500.05,499.98,499.95,499.88,499.79,499.71,499.65,499.68,499.79,499.99,500.26,500.39,500.50,500.57,500.54,500.21,500.00,499.92,499.99,500.28,500.44,500.59,500.75,500.96,501.35,501.70,502.04,502.43,502.83,503.38,503.93,504.50,505.19,505.96,506.68,507.18,507.40,507.65,508.10,508.64,509.25,510.05,511.14,512.29,513.42,514.52,515.66,516.76,517.78,518.68,519.50,520.34,521.24,522.17,523.10,523.95,524.76,525.62,526.58,527.45,528.34,529.31,530.36,531.43,532.56,533.66,534.59,535.20,535.51,535.79,536.25,536.99,537.95,538.97,539.99
771.03,762.84,755.30,748.88,743.55,738.01,731.45,724.44,716.81,709.01,701.78,696.48,692.44,689.99,688.27,686.45,684.58,681.80,677.91,672.68,666.07,660.22,655.28,651.11,647.59,644.38,640.41,635.52,630.13,626.20,622.68,618.41,613.39,608.50,604.45,600.65,596.59,592.11,588.50,586.15,584.96,584.92,585.65,586.02,586.29,586.44,586.25,586.17,586.13,585.87,585.18,584.13,582.12,578.78,574.35,569.86,567.10,565.09,563.31,561.52,559.56,557.38,555.05,552.69,550.51,548.51,546.32,543.93,541.55,539.39,537.58,536.13,535.19,534.88,534.60,534.33,534.15,534.13,532.86,531.33,529.98,529.15,529.48,530.13,530.72,530.98,530.68,530.32,529.87,529.35,528.74,528.00,527.18,526.40,525.75,525.37,524.84,524.18,523.41,522.51,521.49,520.65,520.30,520.92,522.30,524.12,525.09,524.26,521.40,516.42,511.69,508.29,506.82,505.35,503.92,502.66,501.69,500.89,500.18,499.47,498.75,498.06,497.50,497.03,496.48,495.69,495.23,494.97,494.83,494.80,494.75,494.78,494.84,494.95,495.22,495.75,496.25,496.63,496.92,497.19,497.43,497.69,497.94,498.14,498.40,498.62,498.80,498.94,499.00,498.96,498.88,498.79,498.65,498.53,498.54,498.63,498.61,498.54,498.50,498.45,498.34,498.09,497.80,497.70,497.89,498.19,498.47,498.74,498.97,499.13,499.28,499.38,499.45,499.50,499.43,499.35,499.38,499.49,499.61,499.73,499.80,499.82,499.79,499.78,499.76,499.71,499.63,499.56,499.57,499.68,499.85,500.05,500.10,500.20,500.27,500.21,499.98,499.84,499.81,499.87,500.00,500.09,500.16,500.25,500.44,500.84,501.24,501.65,502.10,502.62,503.25,503.90,504.54,505.19,505.83,506.32,506.68,506.96,507.40,507.95,508.56,509.19,509.90,510.83,511.88,512.92,513.94,515.09,516.18,517.17,518.04,518.81,519.58,520.41,521.31,522.27,523.14,523.90,524.68,525.55,526.39,527.32,528.39,529.61,530.78,531.93,532.91,533.63,534.02,534.43,535.23,536.27,537.46,538.68,539.77,540.58
773.89,766.57,759.84,753.81,748.40,742.71,735.99,728.17,719.48,709.92,700.65,694.35,689.54,686.56,684.51,682.54,680.46,677.12,672.35,666.43,660.84,656.08,651.94,648.37,645.44,642.21,637.55,632.36,627.68,624.44,621.13,617.00,612.28,608.07,604.62,601.24,597.51,593.21,588.79,584.21,580.94,579.79,579.99,579.97,579.75,579.51,579.47,579.49,579.44,579.31,579.04,578.42,577.23,574.41,570.35,567.10,565.07,563.53,561.99,560.13,557.84,555.45,553.07,550.81,548.89,547.17,545.23,543.04,540.78,538.73,536.86,535.16,533.83,533.32,532.92,532.66,532.62,532.83,531.98,530.87,529.71,528.54,527.83,527.91,528.32,528.70,528.70,528.46,528.09,527.63,527.13,526.52,525.78,525.01,524.24,523.49,522.75,522.01,521.26,520.48,519.66,518.88,518.33,518.43,519.32,520.45,520.10,517.57,514.52,510.79,508.25,506.86,505.41,503.93,502.47,501.15,500.12,499.31,498.59,497.88,497.17,496.51,496.08,495.82,495.51,494.98,494.85,494.81,494.77,494.75,494.72,494.76,494.84,494.95,495.22,495.72,496.08,496.31,496.52,496.82,497.07,497.33,497.60,497.80,498.06,498.26,498.41,498.56,498.66,498.65,498.57,498.47,498.32,498.25,498.30,498.37,498.30,498.24,498.20,498.16,498.07,497.88,497.61,497.53,497.71,498.00,498.29,498.55,498.76,498.93,499.05,499.08,499.10,499.15,499.08,499.03,499.09,499.22,499.31,499.44,499.54,499.59,499.62,499.63,499.65,499.62,499.55,499.49,499.46,499.54,499.68,499.81,499.83,499.93,500.00,499.94,499.81,499.72,499.72,499.78,499.78,499.83,499.87,499.92,500.10,500.43,500.86,501.33,501.83,502.43,503.11,503.81,504.47,505.05,505.56,505.91,506.21,506.63,507.23,507.85,508.45,509.03,509.65,510.50,511.50,512.53,513.51,514.60,515.66,516.62,517.44,518.21,518.94,519.71,520.58,521.53,522.36,522.98,523.60,524.39,525.29,526.32,527.55,528.91,530.15,531.27,532.08,532.65,533.14,533.82,535.09,536.60,538.13,539.57,540.85,541.73
776.38,770.97,766.29,760.28,754.13,747.48,739.92,731.95,722.97,712.40,701.83,695.29,690.21,685.69,681.74,678.59,675.49,671.47,666.81,661.81,656.90,652.50,649.02,646.20,643.33,639.64,634.13,628.94,625.55,622.48,619.02,614.95,610.60,606.90,603.82,600.64,597.40,594.34,591.20,585.13,579.82,577.16,576.05,575.50,574.49,573.36,573.19,573.23,573.04,572.71,572.31,571.61,569.82,566.38,562.37,560.94,560.42,560.20,559.59,557.88,555.53,553.08,550.86,548.98,547.35,545.72,543.93,541.96,539.79,537.76,535.82,534.00,532.49,531.71,531.25,531.11,531.22,531.34,530.79,530.04,529.24,528.35,527.25,526.63,526.60,527.01,526.96,526.75,526.43,526.00,525.48,524.97,524.29,523.52,522.76,522.05,521.24,520.38,519.45,518.46,517.68,516.93,516.28,516.05,516.71,516.68,515.15,512.25,510.18,508.34,506.79,505.45,504.03,502.52,501.08,499.80,498.76,497.96,497.20,496.44,495.72,495.13,494.90,494.83,494.77,494.67,494.65,494.68,494.69,494.64,494.69,494.76,494.84,494.95,495.19,495.53,495.72,495.90,496.19,496.49,496.74,496.98,497.24,497.51,497.70,497.87,498.03,498.18,498.32,498.36,498.30,498.15,498.00,498.01,498.05,498.05,497.98,497.96,497.91,497.84,497.76,497.67,497.46,497.39,497.57,497.81,498.05,498.29,498.52,498.71,498.76,498.72,498.71,498.76,498.70,498.73,498.83,498.97,499.05,499.14,499.22,499.29,499.36,499.42,499.49,499.49,499.43,499.41,499.36,499.38,499.48,499.62,499.64,499.70,499.78,499.81,499.73,499.65,499.65,499.71,499.72,499.73,499.77,499.84,499.96,500.19,500.60,501.09,501.63,502.19,502.85,503.55,504.18,504.66,505.08,505.46,505.91,506.49,507.10,507.71,508.26,508.75,509.27,510.07,511.14,512.30,513.35,514.32,515.27,516.14,516.92,517.70,518.46,519.23,520.04,520.88,521.56,521.96,522.43,523.25,524.29,525.50,526.83,528.20,529.47,530.44,531.06,531.71,532.81,534.00,535.45,536.99,538.54,540.12,541.63,542.95
776.14,772.27,768.47,762.83,756.88,750.37,742.80,734.34,724.99,714.57,704.29,697.22,692.13,687.09,681.95,677.05,671.96,667.20,662.40,657.54,653.22,649.59,646.61,643.91,640.84,636.35,631.26,626.79,623.55,620.33,616.82,612.96,609.00,605.59,602.46,599.69,597.17,594.79,592.24,587.03,581.67,577.69,575.30,573.23,570.94,568.90,568.03,566.62,566.17,566.13,565.81,564.92,563.41,561.13,558.71,557.83,557.48,557.44,556.93,555.12,552.98,550.90,549.01,547.35,545.80,544.22,542.51,540.66,538.73,536.74,534.78,532.91,531.27,530.32,529.88,529.80,529.94,530.01,529.65,529.11,528.42,527.59,526.61,525.83,525.41,525.34,525.18,524.97,524.69,524.33,523.84,523.33,522.73,522.05,521.30,520.49,519.40,518.35,517.38,516.30,515.60,514.94,514.25,513.69,513.70,512.94,511.37,509.31,507.81,506.53,505.28,503.98,502.62,501.17,499.84,498.65,497.65,496.81,496.06,495.50,495.13,494.81,494.69,494.63,494.60,494.60,494.60,494.63,494.65,494.67,494.74,494.78,494.84,494.93,495.04,495.15,495.29,495.50,495.81,496.12,496.37,496.64,496.94,497.20,497.38,497.51,497.63,497.79,497.94,498.02,498.00,497.87,497.73,497.75,497.77,497.73,497.69,497.66,497.59,497.53,497.49,497.41,497.25,497.22,497.38,497.62,497.85,498.08,498.29,498.42,498.40,498.37,498.36,498.38,498.36,498.43,498.56,498.66,498.74,498.81,498.89,498.97,499.05,499.12,499.20,499.25,499.25,499.29,499.26,499.27,499.33,499.44,499.49,499.55,499.63,499.68,499.61,499.57,499.57,499.60,499.64,499.64,499.70,499.77,499.87,500.00,500.39,500.89,501.43,501.98,502.61,503.22,503.78,504.32,504.76,505.21,505.71,506.25,506.78,507.32,507.82,508.32,508.96,509.77,510.94,512.18,513.16,514.06,514.92,515.73,516.51,517.32,518.07,518.78,519.49,520.22,520.69,520.90,521.31,522.25,523.39,524.64,525.93,527.24,528.53,529.52,530.38,531.32,532.50,533.87,535.52,537.21,538.83,540.41,541.96,543.45
774.27,771.48,768.02,762.89,757.50,751.50,744.25,735.46,725.90,716.19,706.95,699.47,694.40,689.21,683.32,676.73,669.64,663.81,658.47,653.47,649.63,646.77,644.15,641.37,637.91,632.94,628.57,624.83,621.40,618.05,614.57,610.93,607.29,603.99,600.74,598.40,596.60,594.67,592.48,588.66,583.94,579.17,575.79,572.37,569.01,566.15,564.28,561.41,560.57,560.59,560.20,559.26,558.29,557.34,556.46,555.70,555.15,554.91,554.24,552.34,550.46,548.82,547.29,545.77,544.25,542.72,541.07,539.35,537.61,535.66,533.73,531.87,530.21,529.15,528.70,528.63,528.75,528.80,528.58,528.13,527.49,526.66,525.88,525.12,524.43,523.88,523.55,523.27,522.99,522.66,522.20,521.64,521.08,520.43,519.61,518.64,517.32,516.13,515.15,514.10,513.47,512.90,512.25,511.49,510.84,509.66,508.38,507.23,506.07,504.91,503.71,502.46,501.17,499.87,498.66,497.56,496.61,495.81,495.18,494.86,494.83,494.76,494.68,494.62,494.58,494.58,494.60,494.61,494.64,494.71,494.77,494.79,494.83,494.88,494.86,494.81,494.91,495.14,495.44,495.75,496.01,496.31,496.65,496.87,497.04,497.15,497.26,497.42,497.56,497.66,497.69,497.60,497.47,497.49,497.48,497.42,497.41,497.35,497.28,497.23,497.21,497.15,497.03,497.02,497.19,497.42,497.65,497.88,498.05,498.10,498.04,498.02,498.02,498.02,498.04,498.15,498.26,498.34,498.41,498.49,498.57,498.64,498.72,498.80,498.88,498.95,499.03,499.11,499.14,499.15,499.17,499.25,499.34,499.42,499.50,499.55,499.50,499.49,499.49,499.50,499.57,499.60,499.65,499.73,499.80,499.88,500.24,500.73,501.29,501.84,502.45,502.98,503.48,504.05,504.51,504.98,505.46,505.91,506.36,506.83,507.34,507.93,508.74,509.60,510.79,512.04,512.95,513.80,514.59,515.35,516.11,516.91,517.62,518.26,518.90,519.54,519.85,519.95,520.31,521.30,522.53,523.77,525.00,526.25,527.53,528.59,529.73,530.90,532.11,533.62,535.45,537.29,539.01,540.61,542.16,543.72
770.01,767.28,763.58,759.13,754.48,749.11,742.35,734.06,724.85,716.46,709.05,701.80,696.57,691.44,685.40,677.83,669.66,661.80,654.94,649.62,646.14,643.60,641.13,638.15,634.05,629.79,625.90,622.24,618.74,615.61,612.25,608.74,605.16,601.69,598.40,596.44,595.12,593.47,591.62,588.63,584.80,580.60,577.12,573.75,570.36,566.95,563.68,560.66,559.18,558.16,556.97,556.59,556.08,555.36,554.51,553.75,553.08,552.55,551.68,549.90,548.26,546.87,545.53,544.17,542.75,541.22,539.69,538.10,536.33,534.46,532.63,530.92,529.47,528.43,527.83,527.63,527.72,527.78,527.64,527.20,526.54,525.75,524.98,524.25,523.61,523.04,522.44,521.93,521.45,520.99,520.56,519.88,519.23,518.41,517.21,516.03,514.78,513.64,512.68,511.86,511.31,510.83,510.32,509.73,508.80,507.74,506.65,505.54,504.38,503.22,502.02,500.80,499.63,498.65,497.56,496.48,495.62,495.10,494.84,494.71,494.64,494.56,494.49,494.48,494.52,494.53,494.58,494.64,494.69,494.70,494.72,494.77,494.81,494.80,494.75,494.72,494.75,494.87,495.12,495.42,495.72,496.03,496.32,496.49,496.65,496.80,496.94,497.08,497.18,497.31,497.36,497.28,497.20,497.19,497.15,497.10,497.09,497.02,496.98,496.95,496.90,496.88,496.81,496.83,497.00,497.23,497.46,497.66,497.78,497.79,497.72,497.70,497.70,497.70,497.77,497.85,497.93,498.01,498.09,498.17,498.24,498.32,498.40,498.48,498.55,498.63,498.71,498.79,498.90,498.96,498.98,499.06,499.19,499.29,499.37,499.43,499.42,499.42,499.42,499.44,499.51,499.57,499.65,499.73,499.80,499.88,500.20,500.69,501.29,501.90,502.51,503.04,503.51,503.99,504.35,504.65,504.99,505.39,505.79,506.29,506.94,507.76,508.72,509.69,510.74,511.78,512.69,513.49,514.26,514.98,515.63,516.29,516.93,517.56,518.18,518.78,519.17,519.33,519.63,520.43,521.68,522.92,524.16,525.40,526.63,527.74,528.79,529.95,531.41,533.26,535.18,537.12,539.03,540.77,542.40,543.98
763.27,760.71,756.85,752.75,748.37,743.06,736.37,729.21,722.02,715.64,709.84,703.56,698.12,692.69,686.52,678.97,670.61,661.64,653.54,647.14,642.61,640.04,637.84,635.07,630.99,627.14,623.56,619.96,616.28,613.01,609.65,606.21,602.73,599.27,596.05,594.29,593.23,591.74,589.81,587.06,583.79,580.28,577.20,574.08,571.25,568.52,565.43,562.46,560.54,558.90,557.05,555.81,554.50,553.45,552.71,551.98,551.27,550.54,549.45,547.68,546.14,544.80,543.56,542.31,540.93,539.44,537.91,536.44,535.12,533.50,531.74,530.13,528.92,527.90,527.12,526.74,526.72,526.76,526.72,526.30,525.64,524.94,524.23,523.56,522.95,522.38,521.70,521.10,520.41,519.61,518.79,517.89,517.13,516.21,514.89,513.56,512.35,511.43,510.82,510.32,509.80,509.30,508.86,508.38,507.38,506.22,505.02,503.82,502.69,501.54,500.34,499.11,497.94,496.92,496.12,495.48,494.99,494.72,494.60,494.52,494.47,494.46,494.45,494.47,494.50,494.50,494.54,494.61,494.65,494.65,494.65,494.69,494.71,494.70,494.66,494.65,494.68,494.75,494.93,495.16,495.45,495.73,495.95,496.11,496.26,496.41,496.57,496.72,496.84,496.98,497.04,496.97,496.92,496.89,496.85,496.81,496.77,496.73,496.69,496.66,496.62,496.62,496.58,496.63,496.81,497.03,497.26,497.41,497.46,497.42,497.38,497.37,497.37,497.39,497.50,497.58,497.65,497.74,497.81,497.92,498.01,498.09,498.17,498.24,498.32,498.40,498.48,498.59,498.71,498.78,498.83,498.91,499.03,499.11,499.19,499.26,499.30,499.31,499.33,499.38,499.49,499.57,499.65,499.73,499.81,499.95,500.36,500.88,501.42,501.97,502.52,503.00,503.41,503.76,504.07,504.35,504.64,504.95,505.27,505.82,506.59,507.52,508.49,509.46,510.47,511.45,512.28,512.96,513.66,514.32,514.94,515.56,516.18,516.80,517.41,518.01,518.49,518.76,519.12,519.81,520.88,522.11,523.38,524.64,525.88,527.11,528.28,529.53,531.07,533.02,535.00,537.00,538.99,540.77,542.43,544.03
755.37,753.18,749.45,745.45,740.94,735.45,728.94,723.11,718.26,713.83,709.34,704.22,698.69,692.94,686.75,679.69,671.60,662.14,653.06,645.34,639.26,636.42,634.39,631.91,628.20,624.62,620.98,617.29,613.63,610.23,606.87,603.48,600.06,596.68,593.63,592.02,591.06,589.59,587.42,584.70,581.89,579.22,576.79,574.02,571.90,570.17,567.90,565.12,562.90,560.82,558.45,555.99,553.55,551.92,551.12,550.35,549.63,548.74,547.45,545.64,544.08,542.71,541.49,540.36,538.95,537.49,535.94,534.57,533.80,532.51,530.88,529.42,528.42,527.44,526.50,525.92,525.73,525.74,525.79,525.44,524.81,524.20,523.58,522.96,522.37,521.80,521.12,520.40,519.43,518.23,516.95,515.85,514.96,513.97,512.67,511.37,510.30,509.66,509.42,509.21,508.70,508.15,507.67,507.20,506.21,504.92,503.56,502.25,501.12,499.99,498.80,497.56,496.35,495.26,494.81,494.69,494.58,494.50,494.43,494.36,494.32,494.38,494.45,494.48,494.49,494.49,494.50,494.55,494.59,494.58,494.59,494.59,494.60,494.61,494.62,494.62,494.67,494.74,494.83,494.97,495.21,495.43,495.58,495.73,495.88,496.03,496.18,496.33,496.49,496.64,496.71,496.66,496.64,496.59,496.56,496.54,496.49,496.47,496.43,496.39,496.38,496.37,496.37,496.44,496.61,496.84,497.06,497.15,497.13,497.06,497.05,497.05,497.05,497.09,497.23,497.32,497.40,497.49,497.57,497.71,497.82,497.90,497.99,498.06,498.14,498.22,498.31,498.44,498.54,498.62,498.70,498.78,498.85,498.94,499.01,499.09,499.16,499.19,499.25,499.34,499.47,499.57,499.65,499.73,499.82,500.04,500.53,501.08,501.55,502.01,502.46,502.88,503.23,503.48,503.78,504.08,504.37,504.62,504.86,505.41,506.23,507.22,508.19,509.13,510.15,511.12,511.83,512.39,512.98,513.58,514.19,514.81,515.42,516.03,516.64,517.24,517.80,518.21,518.66,519.33,520.16,521.34,522.63,523.91,525.13,526.48,527.83,529.21,530.79,532.74,534.77,536.83,538.88,540.70,542.35,543.96
747.00,745.79,742.97,738.75,733.35,727.70,722.42,717.58,713.76,710.06,706.10,701.72,696.63,691.02,685.15,678.92,671.40,662.18,652.75,643.99,636.61,633.16,630.77,628.25,625.20,621.72,617.01,612.75,609.99,606.99,603.86,600.52,597.02,593.65,591.08,589.66,588.55,586.73,584.29,581.76,579.62,578.00,576.44,574.16,572.38,571.07,569.50,567.07,564.67,562.26,559.66,556.86,553.96,551.64,550.06,548.97,548.16,547.18,545.80,543.91,542.13,540.66,539.46,538.38,536.85,535.37,533.81,532.49,531.97,531.05,529.90,528.79,527.85,526.96,526.04,525.24,524.71,524.70,524.76,524.58,524.17,523.60,522.99,522.37,521.79,521.23,520.57,519.44,517.96,516.37,515.02,513.90,512.91,511.85,510.70,510.05,509.48,509.06,508.79,508.61,508.17,507.52,506.77,506.01,505.03,503.78,502.48,501.22,500.02,498.90,497.76,496.56,495.38,494.61,494.46,494.50,494.38,494.35,494.33,494.31,494.30,494.32,494.34,494.38,494.43,494.43,494.49,494.51,494.50,494.47,494.51,494.53,494.55,494.61,494.67,494.68,494.73,494.80,494.88,494.92,495.03,495.14,495.25,495.40,495.51,495.64,495.79,495.95,496.10,496.26,496.36,496.38,496.33,496.31,496.30,496.29,496.28,496.27,496.26,496.25,496.24,496.19,496.18,496.25,496.42,496.64,496.83,496.86,496.80,496.73,496.72,496.72,496.75,496.82,496.97,497.06,497.17,497.29,497.38,497.52,497.62,497.72,497.85,497.93,498.01,498.08,498.17,498.26,498.34,498.45,498.57,498.65,498.73,498.80,498.88,498.96,499.03,499.14,499.24,499.32,499.42,499.55,499.65,499.73,499.82,500.04,500.47,500.98,501.48,501.89,502.30,502.69,503.04,503.28,503.58,503.89,504.19,504.47,504.71,505.07,505.78,506.82,507.96,508.98,509.99,510.87,511.45,511.94,512.44,512.97,513.54,514.15,514.72,515.32,515.92,516.48,517.08,517.63,518.23,518.92,519.65,520.69,521.89,523.10,524.20,525.53,526.94,528.44,530.14,532.16,534.27,536.43,538.60,540.60,542.25,543.81
739.63,738.92,736.62,731.94,726.17,720.75,716.32,711.93,708.22,704.61,700.86,696.86,691.98,686.65,681.24,675.71,669.03,660.65,651.71,642.69,633.91,629.85,627.10,624.38,621.49,618.01,613.50,609.44,606.74,604.04,601.16,597.99,594.66,591.68,589.55,588.15,586.87,585.00,582.38,580.16,578.47,577.24,576.01,574.29,572.81,571.63,570.36,568.28,565.80,563.16,560.39,557.38,554.23,551.48,549.37,548.04,546.91,545.70,544.27,542.53,540.83,539.11,537.69,536.53,534.86,533.24,531.81,530.75,530.39,529.81,528.94,527.99,527.07,526.18,525.29,524.45,523.81,523.68,523.73,523.67,523.43,522.93,522.36,521.77,521.21,520.58,519.61,518.10,516.32,514.53,513.06,511.94,511.09,510.33,509.63,509.25,508.90,508.55,508.25,508.04,507.65,506.97,506.13,505.29,504.36,503.29,502.09,500.80,499.57,498.46,497.37,496.25,495.11,494.47,494.33,494.36,494.31,494.34,494.34,494.34,494.34,494.34,494.34,494.35,494.36,494.37,494.44,494.46,494.46,494.45,494.49,494.53,494.56,494.61,494.65,494.69,494.73,494.78,494.85,494.86,494.92,494.98,495.04,495.16,495.28,495.41,495.56,495.68,495.80,495.92,496.04,496.13,496.12,496.09,496.08,496.08,496.08,496.08,496.08,496.08,496.07,496.03,496.02,496.08,496.23,496.44,496.59,496.59,496.51,496.41,496.40,496.40,496.44,496.55,496.68,496.79,496.92,497.06,497.14,497.29,497.38,497.49,497.64,497.75,497.84,497.93,498.03,498.11,498.19,498.29,498.41,498.51,498.59,498.67,498.75,498.83,498.94,499.06,499.18,499.27,499.36,499.50,499.61,499.69,499.78,499.97,500.39,500.88,501.33,501.69,502.07,502.46,502.82,503.12,503.42,503.73,504.03,504.30,504.57,504.96,505.67,506.68,507.81,508.84,509.81,510.60,511.07,511.54,511.98,512.44,512.97,513.55,514.13,514.71,515.28,515.83,516.47,517.14,517.82,518.52,519.25,520.18,521.17,522.14,523.13,524.47,525.96,527.54,529.29,531.33,533.59,535.93,538.25,540.38,542.05,543.59
732.92,732.17,730.01,725.05,719.38,714.33,710.31,705.88,701.78,697.97,694.32,690.46,685.67,680.67,675.76,670.85,665.16,658.01,650.00,641.14,631.42,626.90,623.91,621.04,618.05,614.70,611.20,607.77,604.58,601.77,599.10,596.31,593.48,591.09,589.30,587.79,586.30,584.43,581.62,579.61,578.14,576.91,575.68,574.46,573.22,572.00,570.74,568.93,566.44,563.64,560.75,557.70,554.46,551.50,549.13,547.63,546.15,544.68,543.21,541.72,540.22,538.19,536.34,534.88,533.05,531.32,530.07,529.33,529.07,528.74,528.00,527.08,526.15,525.24,524.39,523.63,523.01,522.71,522.70,522.72,522.60,522.19,521.68,521.12,520.53,519.77,518.40,516.64,514.76,512.89,511.27,510.17,509.57,509.27,509.11,508.76,508.43,508.08,507.73,507.47,507.11,506.45,505.62,504.83,503.99,503.12,502.06,500.76,499.56,498.45,497.39,496.33,495.23,494.58,494.32,494.27,494.34,494.40,494.42,494.41,494.40,494.40,494.39,494.35,494.31,494.31,494.38,494.40,494.43,494.48,494.49,494.55,494.59,494.59,494.61,494.67,494.70,494.73,494.79,494.80,494.86,494.90,494.92,495.00,495.13,495.26,495.38,495.46,495.55,495.63,495.75,495.87,495.94,495.91,495.89,495.89,495.89,495.89,495.88,495.88,495.88,495.88,495.88,495.91,496.03,496.24,496.35,496.33,496.24,496.10,496.08,496.08,496.15,496.28,496.37,496.51,496.65,496.79,496.88,497.03,497.13,497.24,497.38,497.53,497.63,497.74,497.88,497.96,498.04,498.13,498.23,498.37,498.45,498.54,498.62,498.71,498.86,498.95,499.07,499.20,499.29,499.43,499.54,499.62,499.71,499.87,500.29,500.74,501.11,501.44,501.81,502.20,502.58,502.95,503.28,503.60,503.89,504.14,504.46,504.97,505.72,506.66,507.65,508.64,509.55,510.26,510.69,511.15,511.56,511.99,512.46,512.99,513.58,514.15,514.70,515.27,515.95,516.69,517.42,518.12,518.88,519.74,520.49,521.16,522.00,523.36,524.94,526.62,528.41,530.47,532.85,535.36,537.82,540.06,541.75,543.28
