496.69,496.69,496.68,496.68,496.68,496.68,496.68,496.68,496.68,496.68,496.68,496.68,496.68,496.64,496.60,496.62,496.68,496.75,496.83,496.89,496.90,496.95,496.99,497.01,497.08,497.09,497.10,497.10,497.11,497.17,497.18,497.18,497.18,497.18,497.19,497.20,497.22,497.27,497.29,497.30,497.33,497.38,497.40,497.40,497.43,497.48,497.49,497.49,497.54,497.58,497.58,497.60,497.65,497.68,497.68,497.70,497.75,497.78,497.79,497.80,497.87,497.89,497.89,497.91,497.97,497.99,497.99,498.00,497.99,497.92,497.90,497.90,497.90,497.90,497.89,497.86,497.80,497.79,497.79,497.79,497.77,497.71,497.70,497.69,497.66,497.61,497.58,497.53,497.46,497.40,497.38,497.32,497.29,497.26,497.19,497.19,497.20,497.23,497.29,497.31,497.36,497.39,497.39,497.42,497.47,497.50,497.53,497.59,497.60,497.66,497.77,497.91,498.06,498.22,498.38,498.47,498.48,498.42,498.39,498.35,498.27,498.21,498.19,498.20,498.22,498.28,498.29,498.35,498.39,498.40,498.40,498.45,498.49,498.50,498.51,498.56,498.59,498.60,498.62,498.68,498.69,498.70,498.72,498.78,498.79,498.79,498.81,498.89,498.90,498.90,498.90,498.90,498.90,498.90,498.85,498.79,498.79,498.79,498.79,498.79,498.78,498.71,498.69,498.69,498.69,498.69,498.63,498.60,498.60,498.60,498.60,498.59,498.56,498.50,498.50,498.50,498.53,498.61,498.68,498.69,498.74,498.79,498.80,498.86,498.89,498.90,498.90,498.90,498.90,498.90,498.90,498.90,498.90,498.95,499.03,499.11,499.19,499.32,499.43,499.51,499.59,499.68,499.79,499.92,500.00,500.07,500.15,500.22,500.30,500.38,500.39,500.44,500.50,500.50,500.50,500.55,500.60,500.62,500.68,500.70,500.74,500.77,500.72,500.70,500.69,500.67,500.61,500.60,500.60,500.56,500.51,500.50,500.50,500.49,500.47,500.37,500.03,499.91,499.91,499.91,499.91,499.91,499.91,499.91,499.91,499.91,499.90,499.89,499.89,499.89,499.89,499.89,499.88,499.82,499.81,499.79
496.75,496.75,496.75,496.75,496.75,496.75,496.75,496.75,496.75,496.75,496.75,496.75,496.75,496.73,496.72,496.72,496.75,496.81,496.89,496.95,496.96,497.02,497.06,497.08,497.14,497.16,497.19,497.22,497.22,497.25,497.25,497.25,497.25,497.26,497.30,497.31,497.33,497.36,497.40,497.42,497.43,497.47,497.50,497.51,497.53,497.57,497.61,497.62,497.63,497.66,497.66,497.71,497.74,497.75,497.76,497.81,497.84,497.88,497.92,497.93,497.99,498.01,498.03,498.08,498.11,498.12,498.09,498.06,498.05,497.98,497.95,497.95,497.95,497.95,497.92,497.88,497.86,497.86,497.86,497.83,497.79,497.76,497.75,497.75,497.73,497.65,497.61,497.57,497.51,497.44,497.40,497.37,497.33,497.27,497.20,497.20,497.24,497.27,497.31,497.35,497.39,497.40,497.41,497.45,497.49,497.53,497.57,497.61,497.65,497.76,497.90,498.05,498.21,498.40,498.54,498.60,498.55,498.48,498.42,498.38,498.34,498.27,498.25,498.25,498.28,498.35,498.36,498.38,498.42,498.45,498.45,498.49,498.52,498.56,498.56,498.59,498.63,498.66,498.67,498.74,498.75,498.75,498.77,498.84,498.86,498.86,498.88,498.94,498.95,498.95,498.95,498.95,498.95,498.95,498.92,498.86,498.86,498.86,498.86,498.84,498.80,498.76,498.75,498.75,498.75,498.75,498.69,498.66,498.66,498.66,498.66,498.63,498.59,498.56,498.56,498.56,498.60,498.68,498.75,498.80,498.83,498.86,498.87,498.94,498.95,498.95,498.95,498.95,498.95,498.95,498.95,498.95,498.95,498.98,499.03,499.12,499.23,499.35,499.44,499.52,499.60,499.71,499.83,499.93,500.00,500.08,500.16,500.24,500.31,500.39,500.44,500.50,500.56,500.56,500.56,500.61,500.66,500.67,500.74,500.75,500.77,500.79,500.76,500.75,500.73,500.69,500.66,500.66,500.66,500.63,500.56,500.56,500.56,500.53,500.49,500.42,500.12,499.98,499.95,499.95,499.95,499.95,499.95,499.95,499.95,499.95,499.95,499.94,499.90,499.90,499.90,499.90,499.89,499.86,499.86,499.83
496.84,496.84,496.84,496.84,496.84,496.84,496.84,496.84,496.83,496.82,496.82,496.82,496.82,496.82,496.82,496.82,496.82,496.87,496.94,497.00,497.02,497.09,497.13,497.16,497.21,497.24,497.28,497.32,497.32,497.32,497.32,497.33,497.34,497.35,497.40,497.43,497.43,497.45,497.50,497.52,497.53,497.55,497.61,497.63,497.63,497.66,497.71,497.72,497.73,497.74,497.75,497.82,497.84,497.85,497.88,497.94,497.95,498.00,498.05,498.07,498.13,498.15,498.19,498.24,498.24,498.23,498.18,498.13,498.12,498.04,498.02,498.02,498.02,498.00,497.95,497.93,497.93,497.92,497.90,497.86,497.82,497.82,497.82,497.81,497.77,497.71,497.63,497.61,497.57,497.50,497.43,497.40,497.36,497.29,497.23,497.22,497.27,497.31,497.34,497.39,497.41,497.43,497.44,497.50,497.51,497.56,497.62,497.66,497.75,497.89,498.05,498.20,498.36,498.57,498.68,498.70,498.62,498.54,498.46,498.41,498.38,498.31,498.31,498.32,498.34,498.40,498.42,498.43,498.45,498.50,498.52,498.52,498.56,498.62,498.63,498.63,498.67,498.72,498.73,498.78,498.81,498.82,498.84,498.89,498.91,498.93,498.94,499.00,499.01,499.02,499.02,499.02,499.02,499.01,498.97,498.93,498.93,498.93,498.91,498.88,498.83,498.82,498.82,498.82,498.82,498.80,498.75,498.72,498.72,498.72,498.70,498.66,498.63,498.63,498.63,498.63,498.66,498.74,498.81,498.90,498.93,498.93,498.95,499.01,499.02,499.02,499.02,499.02,499.02,499.02,499.02,499.02,499.02,499.02,499.05,499.14,499.27,499.36,499.44,499.52,499.62,499.76,499.87,499.94,500.02,500.10,500.18,500.25,500.34,500.41,500.49,500.56,500.63,500.63,500.63,500.68,500.72,500.74,500.80,500.82,500.82,500.82,500.82,500.81,500.76,500.72,500.72,500.72,500.71,500.68,500.63,500.62,500.61,500.57,500.52,500.50,500.27,500.14,500.08,500.07,500.07,500.07,500.07,500.07,500.06,500.05,500.03,500.00,499.95,499.93,499.93,499.91,499.90,499.90,499.90,499.87
496.97,496.97,496.97,496.97,496.97,496.97,496.97,496.97,496.92,496.88,496.88,496.88,496.88,496.88,496.88,496.88,496.88,496.89,496.94,497.01,497.08,497.15,497.22,497.27,497.29,497.35,497.38,497.38,497.38,497.38,497.38,497.42,497.47,497.47,497.48,497.49,497.51,497.57,497.58,497.59,497.62,497.67,497.68,497.69,497.73,497.77,497.78,497.79,497.83,497.87,497.89,497.95,497.97,498.00,498.06,498.08,498.13,498.17,498.19,498.25,498.27,498.32,498.36,498.37,498.37,498.32,498.25,498.19,498.18,498.11,498.09,498.09,498.07,498.01,497.99,497.99,497.99,497.98,497.93,497.89,497.88,497.88,497.88,497.84,497.79,497.77,497.70,497.63,497.59,497.56,497.49,497.42,497.39,497.36,497.29,497.28,497.29,497.33,497.39,497.40,497.46,497.49,497.49,497.50,497.57,497.60,497.66,497.79,497.94,498.09,498.24,498.40,498.55,498.71,498.78,498.75,498.68,498.61,498.52,498.45,498.39,498.32,498.36,498.38,498.39,498.40,498.47,498.49,498.49,498.51,498.57,498.59,498.63,498.69,498.69,498.69,498.74,498.78,498.79,498.80,498.85,498.88,498.89,498.90,498.96,498.99,498.99,499.00,499.07,499.09,499.09,499.09,499.08,499.03,498.99,498.99,498.99,498.99,498.94,498.90,498.88,498.88,498.88,498.88,498.87,498.81,498.79,498.78,498.78,498.78,498.72,498.69,498.69,498.69,498.69,498.69,498.73,498.80,498.88,498.95,498.99,499.01,499.07,499.08,499.09,499.09,499.09,499.09,499.09,499.09,499.09,499.09,499.09,499.09,499.12,499.20,499.28,499.36,499.44,499.53,499.68,499.83,499.94,500.01,500.09,500.17,500.25,500.32,500.40,500.48,500.55,500.63,500.69,500.69,500.69,500.74,500.78,500.80,500.87,500.88,500.88,500.88,500.88,500.82,500.79,500.78,500.78,500.78,500.74,500.69,500.69,500.68,500.63,500.59,500.59,500.57,500.48,500.39,500.32,500.26,500.25,500.25,500.25,500.25,500.25,500.19,500.13,500.08,500.06,500.00,499.99,499.96,499.90,499.90,499.90,499.89
497.05,497.05,497.05,497.05,497.05,497.05,497.05,497.05,497.02,497.00,497.00,497.00,497.00,497.00,497.00,497.00,497.00,497.00,497.02,497.06,497.14,497.22,497.27,497.31,497.35,497.43,497.45,497.45,497.45,497.45,497.48,497.52,497.55,497.55,497.59,497.60,497.62,497.65,497.69,497.70,497.72,497.76,497.79,497.80,497.85,497.90,497.91,497.94,497.98,498.02,498.05,498.10,498.13,498.17,498.21,498.25,498.29,498.33,498.37,498.41,498.44,498.48,498.50,498.49,498.46,498.38,498.30,498.25,498.24,498.18,498.15,498.13,498.09,498.06,498.05,498.05,498.04,498.00,497.97,497.95,497.95,497.94,497.91,497.88,497.83,497.79,497.72,497.67,497.63,497.58,497.50,497.46,497.43,497.37,497.31,497.34,497.35,497.37,497.41,497.45,497.49,497.52,497.55,497.56,497.63,497.71,497.82,497.97,498.13,498.28,498.44,498.59,498.74,498.82,498.82,498.78,498.74,498.67,498.59,498.51,498.44,498.37,498.38,498.42,498.45,498.46,498.53,498.55,498.55,498.56,498.63,498.65,498.67,498.71,498.75,498.75,498.80,498.85,498.85,498.85,498.91,498.95,498.96,499.00,499.03,499.07,499.10,499.11,499.14,499.15,499.15,499.14,499.11,499.07,499.05,499.05,499.05,499.05,499.00,498.95,498.95,498.95,498.95,498.94,498.89,498.86,498.85,498.85,498.85,498.84,498.77,498.75,498.75,498.75,498.75,498.75,498.79,498.87,498.94,499.02,499.08,499.12,499.15,499.15,499.15,499.15,499.15,499.15,499.15,499.15,499.15,499.16,499.19,499.20,499.22,499.25,499.29,499.36,499.46,499.59,499.74,499.86,499.95,500.03,500.10,500.18,500.26,500.34,500.41,500.49,500.57,500.64,500.71,500.75,500.75,500.80,500.85,500.86,500.93,500.95,500.95,500.94,500.90,500.87,500.85,500.84,500.81,500.80,500.77,500.75,500.74,500.70,500.67,500.65,500.64,500.60,500.56,500.52,500.47,500.40,500.36,500.35,500.33,500.30,500.30,500.23,500.15,500.10,500.09,500.02,500.00,499.97,499.90,499.90,499.90,499.90
497.13,497.13,497.13,497.12,497.12,497.12,497.12,497.12,497.12,497.12,497.12,497.12,497.12,497.12,497.12,497.12,497.12,497.12,497.12,497.13,497.19,497.27,497.31,497.34,497.42,497.49,497.51,497.52,497.53,497.53,497.58,497.62,497.63,497.64,497.69,497.72,497.73,497.74,497.81,497.83,497.84,497.86,497.92,497.94,497.98,498.03,498.05,498.11,498.14,498.17,498.23,498.24,498.30,498.34,498.36,498.42,498.44,498.49,498.54,498.55,498.62,498.63,498.63,498.60,498.52,498.45,498.38,498.31,498.31,498.24,498.22,498.19,498.12,498.12,498.12,498.11,498.09,498.03,498.01,498.01,498.01,498.00,497.94,497.91,497.87,497.80,497.73,497.71,497.67,497.59,497.52,497.50,497.46,497.38,497.33,497.38,497.40,497.41,497.43,497.49,497.51,497.56,497.60,497.63,497.71,497.84,498.00,498.15,498.32,498.48,498.63,498.78,498.91,498.92,498.87,498.81,498.79,498.73,498.65,498.58,498.50,498.43,498.42,498.46,498.51,498.52,498.60,498.62,498.62,498.64,498.70,498.73,498.73,498.75,498.81,498.83,498.87,498.92,498.93,498.93,498.99,499.03,499.04,499.11,499.13,499.17,499.22,499.22,499.22,499.22,499.22,499.20,499.13,499.12,499.12,499.12,499.12,499.10,499.06,499.01,499.01,499.01,499.01,498.98,498.92,498.92,498.92,498.92,498.91,498.89,498.83,498.81,498.81,498.81,498.81,498.81,498.86,498.94,499.01,499.09,499.17,499.22,499.22,499.22,499.22,499.23,499.23,499.23,499.23,499.23,499.23,499.24,499.29,499.31,499.31,499.31,499.32,499.38,499.50,499.65,499.80,499.88,499.97,500.04,500.12,500.19,500.27,500.35,500.43,500.50,500.59,500.66,500.73,500.79,500.81,500.87,500.92,500.93,501.00,501.01,501.01,500.99,500.93,500.92,500.91,500.88,500.82,500.81,500.81,500.80,500.79,500.73,500.72,500.71,500.68,500.63,500.62,500.61,500.57,500.49,500.43,500.41,500.36,500.30,500.30,500.23,500.16,500.11,500.09,500.02,500.00,499.97,499.90,499.90,499.90,499.90
497.26,497.26,497.25,497.20,497.18,497.18,497.18,497.18,497.18,497.18,497.18,497.18,497.18,497.18,497.18,497.18,497.18,497.18,497.18,497.19,497.20,497.27,497.34,497.40,497.48,497.55,497.58,497.61,497.66,497.66,497.67,497.71,497.76,497.76,497.78,497.82,497.86,497.87,497.94,497.96,497.99,498.04,498.06,498.12,498.15,498.18,498.24,498.25,498.30,498.35,498.37,498.43,498.45,498.49,498.54,498.56,498.62,498.65,498.68,498.74,498.75,498.76,498.73,498.67,498.59,498.51,498.44,498.38,498.37,498.30,498.28,498.25,498.19,498.18,498.18,498.15,498.10,498.08,498.08,498.08,498.08,498.07,498.00,497.94,497.89,497.87,497.79,497.73,497.69,497.66,497.58,497.52,497.49,497.45,497.39,497.40,497.40,497.43,497.48,497.50,497.56,497.59,497.62,497.69,497.82,497.97,498.13,498.29,498.50,498.67,498.82,498.96,499.04,499.00,498.93,498.86,498.80,498.78,498.72,498.64,498.56,498.49,498.48,498.52,498.58,498.59,498.66,498.68,498.71,498.76,498.78,498.83,498.86,498.86,498.89,498.94,498.97,499.00,499.05,499.06,499.12,499.16,499.16,499.18,499.24,499.27,499.28,499.28,499.28,499.28,499.28,499.27,499.20,499.18,499.18,499.18,499.18,499.13,499.09,499.08,499.08,499.08,499.08,499.04,498.98,498.98,498.98,498.98,498.96,498.90,498.89,498.88,498.88,498.88,498.88,498.88,498.92,499.00,499.08,499.15,499.23,499.28,499.28,499.28,499.33,499.36,499.36,499.36,499.36,499.36,499.36,499.36,499.38,499.38,499.38,499.38,499.38,499.44,499.56,499.72,499.86,499.95,500.03,500.11,500.19,500.26,500.34,500.42,500.50,500.57,500.65,500.73,500.78,500.81,500.86,500.94,500.98,500.99,501.06,501.08,501.05,501.00,500.98,500.98,500.94,500.89,500.88,500.88,500.83,500.80,500.80,500.78,500.78,500.75,500.70,500.68,500.68,500.64,500.57,500.50,500.48,500.43,500.36,500.30,500.30,500.23,500.19,500.16,500.10,500.02,500.00,499.97,499.90,499.90,499.90,499.90
497.35,497.35,497.34,497.30,497.29,497.29,497.29,497.29,497.29,497.29,497.29,497.29,497.29,497.29,497.29,497.29,497.29,497.29,497.29,497.29,497.29,497.33,497.39,497.47,497.54,497.59,497.62,497.68,497.75,497.78,497.79,497.83,497.89,497.89,497.92,497.96,498.00,498.03,498.08,498.12,498.16,498.19,498.23,498.27,498.31,498.35,498.39,498.43,498.46,498.50,498.54,498.58,498.62,498.66,498.70,498.74,498.77,498.79,498.81,498.88,498.86,498.85,498.81,498.74,498.65,498.58,498.50,498.44,498.44,498.37,498.35,498.31,498.25,498.25,498.25,498.20,498.15,498.15,498.15,498.15,498.13,498.10,498.02,497.97,497.93,497.89,497.81,497.76,497.73,497.69,497.64,497.57,497.52,497.49,497.45,497.44,497.44,497.47,497.51,497.54,497.58,497.64,497.72,497.84,497.99,498.15,498.30,498.46,498.66,498.82,498.97,499.10,499.13,499.07,499.00,498.92,498.85,498.81,498.74,498.68,498.63,498.56,498.58,498.63,498.69,498.70,498.74,498.77,498.81,498.85,498.89,498.93,498.97,498.99,499.00,499.03,499.07,499.11,499.15,499.18,499.22,499.26,499.29,499.29,499.33,499.35,499.35,499.35,499.35,499.35,499.35,499.33,499.26,499.25,499.25,499.24,499.20,499.16,499.15,499.15,499.15,499.15,499.12,499.08,499.04,499.04,499.04,499.04,499.02,498.96,498.94,498.94,498.94,498.94,498.91,498.93,498.99,499.06,499.14,499.22,499.29,499.35,499.35,499.38,499.42,499.44,499.44,499.44,499.44,499.44,499.44,499.44,499.44,499.44,499.44,499.44,499.45,499.50,499.63,499.77,499.89,499.97,500.05,500.13,500.20,500.28,500.36,500.44,500.51,500.59,500.67,500.74,500.81,500.85,500.92,501.00,501.04,501.05,501.09,501.10,501.08,501.04,501.04,501.01,500.97,500.94,500.94,500.91,500.87,500.85,500.84,500.81,500.80,500.78,500.75,500.74,500.71,500.65,500.58,500.54,500.51,500.44,500.38,500.34,500.30,500.23,500.20,500.18,500.10,500.02,500.00,499.97,499.90,499.90,499.90,499.90
497.41,497.41,497.41,497.41,497.41,497.41,497.41,497.41,497.41,497.41,497.41,497.41,497.41,497.41,497.41,497.41,497.41,497.41,497.41,497.41,497.41,497.41,497.45,497.52,497.59,497.61,497.67,497.74,497.81,497.89,497.92,497.96,498.02,498.04,498.10,498.13,498.15,498.21,498.23,498.28,498.32,498.35,498.40,498.43,498.47,498.52,498.54,498.60,498.63,498.66,498.71,498.73,498.78,498.82,498.85,498.91,498.92,498.93,498.95,498.99,498.93,498.90,498.87,498.80,498.72,498.64,498.56,498.51,498.50,498.44,498.41,498.38,498.32,498.31,498.31,498.27,498.21,498.21,498.20,498.19,498.18,498.11,498.03,498.01,497.97,497.90,497.83,497.80,497.76,497.71,497.69,497.63,497.55,497.51,497.50,497.50,497.50,497.51,497.53,497.60,497.63,497.73,497.88,498.03,498.19,498.34,498.50,498.65,498.80,498.96,499.11,499.21,499.20,499.13,499.06,498.99,498.91,498.84,498.77,498.74,498.72,498.63,498.67,498.74,498.80,498.81,498.82,498.87,498.91,498.93,499.00,499.02,499.06,499.11,499.12,499.12,499.17,499.22,499.23,499.29,499.32,499.36,499.41,499.41,499.41,499.41,499.41,499.41,499.41,499.41,499.41,499.40,499.33,499.31,499.31,499.29,499.23,499.21,499.21,499.21,499.21,499.20,499.15,499.12,499.11,499.11,499.11,499.10,499.08,499.02,499.01,499.01,499.01,499.00,498.93,498.97,499.04,499.13,499.20,499.28,499.36,499.41,499.43,499.49,499.51,499.51,499.51,499.51,499.51,499.51,499.51,499.51,499.51,499.51,499.51,499.51,499.51,499.57,499.68,499.83,499.90,499.99,500.06,500.14,500.22,500.29,500.37,500.45,500.52,500.60,500.68,500.75,500.82,500.89,500.97,501.05,501.10,501.11,501.12,501.12,501.11,501.10,501.09,501.04,501.01,501.00,500.99,500.93,500.92,500.90,500.88,500.83,500.81,500.81,500.80,500.79,500.73,500.66,500.61,500.58,500.52,500.45,500.41,500.38,500.31,500.23,500.20,500.18,500.10,500.02,500.00,499.97,499.90,499.90,499.90,499.90
497.47,497.47,497.47,497.47,497.47,497.47,497.47,497.47,497.47,497.47,497.47,497.47,497.47,497.47,497.47,497.47,497.47,497.47,497.47,497.47,497.47,497.47,497.49,497.52,497.60,497.66,497.73,497.80,497.88,497.96,498.02,498.09,498.16,498.22,498.24,498.28,498.33,498.36,498.41,498.44,498.48,498.53,498.55,498.60,498.64,498.67,498.72,498.75,498.79,498.83,498.86,498.91,498.94,498.98,499.03,499.05,499.05,499.08,499.12,499.07,499.00,498.93,498.89,498.86,498.78,498.71,498.63,498.57,498.56,498.50,498.47,498.45,498.38,498.38,498.38,498.33,498.28,498.27,498.23,498.20,498.19,498.17,498.09,498.03,497.99,497.96,497.88,497.82,497.79,497.76,497.70,497.63,497.59,497.55,497.50,497.50,497.54,497.57,497.59,497.67,497.78,497.92,498.07,498.23,498.38,498.54,498.69,498.84,499.00,499.15,499.25,499.27,499.27,499.20,499.13,499.04,498.98,498.96,498.94,498.93,498.88,498.71,498.69,498.75,498.81,498.88,498.93,498.96,499.00,499.05,499.08,499.12,499.16,499.19,499.24,499.25,499.30,499.35,499.35,499.37,499.42,499.46,499.47,499.47,499.47,499.47,499.47,499.47,499.47,499.47,499.47,499.46,499.39,499.38,499.38,499.36,499.29,499.27,499.27,499.27,499.26,499.21,499.19,499.18,499.18,499.18,499.18,499.14,499.10,499.08,499.07,499.07,499.07,499.06,498.99,498.99,499.07,499.19,499.27,499.35,499.43,499.50,499.55,499.57,499.57,499.57,499.57,499.57,499.57,499.57,499.57,499.57,499.57,499.57,499.57,499.57,499.57,499.59,499.71,499.89,499.97,500.04,500.13,500.20,500.27,500.36,500.44,500.51,500.59,500.67,500.74,500.78,500.82,500.90,500.98,501.05,501.12,501.17,501.18,501.18,501.14,501.10,501.10,501.08,501.07,501.06,501.00,500.98,500.97,500.95,500.90,500.88,500.88,500.84,500.80,500.79,500.73,500.69,500.65,500.59,500.52,500.49,500.45,500.38,500.31,500.23,500.20,500.18,500.10,500.02,500.00,499.97,499.90,499.90,499.90,499.90
497.58,497.58,497.58,497.58,497.58,497.58,497.58,497.58,497.58,497.58,497.58,497.58,497.58,497.58,497.58,497.58,497.58,497.56,497.54,497.54,497.54,497.54,497.54,497.56,497.64,497.72,497.79,497.87,497.94,498.02,498.10,498.16,498.22,498.29,498.36,498.43,498.49,498.52,498.57,498.60,498.64,498.68,498.72,498.76,498.80,498.83,498.88,498.91,498.95,498.99,499.02,499.07,499.08,499.12,499.18,499.18,499.21,499.23,499.22,499.13,499.06,499.01,498.96,498.93,498.85,498.77,498.70,498.64,498.63,498.56,498.54,498.51,498.45,498.44,498.44,498.40,498.34,498.33,498.27,498.24,498.23,498.19,498.15,498.08,498.03,497.99,497.95,497.88,497.82,497.79,497.74,497.67,497.62,497.58,497.54,497.54,497.57,497.61,497.66,497.77,497.92,498.07,498.23,498.38,498.57,498.73,498.88,499.04,499.19,499.32,499.36,499.33,499.29,499.23,499.17,499.13,499.09,499.08,499.08,499.08,499.02,498.75,498.73,498.78,498.87,498.94,499.01,499.06,499.11,499.18,499.18,499.22,499.26,499.29,499.34,499.37,499.41,499.45,499.47,499.48,499.52,499.54,499.54,499.54,499.54,499.54,499.54,499.54,499.54,499.54,499.54,499.53,499.46,499.44,499.44,499.42,499.35,499.34,499.34,499.34,499.33,499.26,499.24,499.24,499.24,499.24,499.21,499.17,499.14,499.14,499.14,499.14,499.13,499.09,499.05,499.04,499.12,499.25,499.34,499.41,499.49,499.56,499.63,499.64,499.64,499.64,499.64,499.64,499.64,499.64,499.64,499.64,499.64,499.64,499.64,499.64,499.64,499.66,499.77,499.92,500.03,500.11,500.19,500.26,500.35,500.42,500.50,500.58,500.65,500.73,500.80,500.86,500.90,500.98,501.05,501.13,501.20,501.24,501.24,501.21,501.18,501.14,501.14,501.11,501.10,501.09,501.04,501.04,501.01,500.98,500.94,500.94,500.91,500.87,500.83,500.80,500.76,500.72,500.67,500.60,500.55,500.51,500.46,500.38,500.31,500.26,500.22,500.18,500.10,500.02,500.00,499.97,499.90,499.90,499.90,499.90
497.70,497.70,497.70,497.70,497.70,497.70,497.70,497.69,497.69,497.69,497.69,497.69,497.69,497.69,497.69,497.69,497.69,497.64,497.61,497.61,497.61,497.61,497.61,497.63,497.70,497.78,497.86,497.94,498.01,498.09,498.17,498.21,498.23,498.31,498.44,498.54,498.61,498.68,498.70,498.76,498.81,498.83,498.89,498.92,498.95,499.01,499.02,499.08,499.11,499.15,499.20,499.21,499.22,499.25,499.31,499.32,499.37,499.35,499.28,499.21,499.13,499.11,499.07,499.00,498.92,498.84,498.76,498.71,498.70,498.63,498.61,498.58,498.52,498.51,498.50,498.47,498.41,498.40,498.34,498.31,498.28,498.23,498.21,498.15,498.07,498.01,497.99,497.93,497.87,497.81,497.78,497.72,497.65,497.61,497.60,497.60,497.61,497.66,497.75,497.91,498.06,498.21,498.37,498.53,498.74,498.91,499.07,499.22,499.38,499.47,499.46,499.39,499.32,499.25,499.22,499.21,499.21,499.21,499.21,499.21,499.13,498.78,498.77,498.85,498.93,499.00,499.09,499.16,499.23,499.30,499.31,499.31,499.35,499.41,499.42,499.48,499.51,499.54,499.59,499.60,499.60,499.61,499.61,499.61,499.61,499.61,499.61,499.61,499.61,499.61,499.61,499.59,499.52,499.50,499.50,499.49,499.42,499.41,499.41,499.40,499.38,499.32,499.31,499.31,499.30,499.29,499.24,499.21,499.20,499.20,499.20,499.20,499.17,499.12,499.11,499.12,499.20,499.32,499.40,499.48,499.55,499.63,499.70,499.70,499.70,499.70,499.70,499.70,499.70,499.70,499.70,499.70,499.70,499.70,499.70,499.70,499.71,499.76,499.84,499.94,500.09,500.18,500.25,500.33,500.40,500.49,500.56,500.64,500.72,500.79,500.87,500.94,501.02,501.10,501.18,501.25,501.30,501.30,501.30,501.25,501.21,501.20,501.19,501.13,501.11,501.11,501.10,501.10,501.05,501.01,501.00,500.99,500.94,500.91,500.88,500.82,500.81,500.76,500.68,500.62,500.60,500.54,500.47,500.39,500.32,500.31,500.26,500.19,500.11,500.03,500.01,499.98,499.92,499.91,499.91,499.91
497.77,497.77,497.77,497.77,497.77,497.77,497.76,497.71,497.70,497.70,497.70,497.70,497.70,497.70,497.70,497.70,497.70,497.68,497.67,497.67,497.67,497.67,497.70,497.75,497.77,497.85,497.93,498.00,498.08,498.15,498.23,498.27,498.29,498.37,498.46,498.55,498.63,498.71,498.81,498.90,498.96,499.01,499.04,499.08,499.12,499.16,499.20,499.23,499.27,499.32,499.34,499.34,499.38,499.42,499.45,499.50,499.48,499.42,499.36,499.33,499.26,499.24,499.18,499.06,498.98,498.90,498.86,498.83,498.77,498.70,498.67,498.66,498.63,498.58,498.57,498.53,498.47,498.47,498.45,498.41,498.36,498.33,498.28,498.22,498.13,498.06,498.01,497.98,497.93,497.86,497.80,497.73,497.69,497.65,497.61,497.60,497.68,497.80,497.94,498.09,498.25,498.40,498.56,498.71,498.89,499.05,499.20,499.36,499.51,499.56,499.52,499.47,499.44,499.37,499.34,499.34,499.34,499.34,499.34,499.34,499.24,498.86,498.84,498.92,499.00,499.07,499.15,499.23,499.30,499.38,499.43,499.44,499.48,499.54,499.54,499.56,499.61,499.65,499.67,499.67,499.67,499.67,499.67,499.67,499.67,499.67,499.67,499.67,499.67,499.67,499.67,499.66,499.59,499.57,499.57,499.55,499.48,499.47,499.47,499.45,499.40,499.38,499.37,499.37,499.36,499.31,499.28,499.27,499.27,499.27,499.27,499.23,499.19,499.17,499.17,499.26,499.33,499.39,499.47,499.54,499.62,499.69,499.76,499.77,499.77,499.77,499.77,499.77,499.77,499.77,499.77,499.77,499.77,499.77,499.77,499.77,499.77,499.83,499.91,500.00,500.15,500.24,500.31,500.40,500.48,500.55,500.63,500.70,500.78,500.86,500.94,501.01,501.09,501.17,501.25,501.33,501.35,501.31,501.30,501.28,501.27,501.26,501.20,501.18,501.17,501.15,501.11,501.10,501.08,501.07,501.06,501.01,500.98,500.97,500.95,500.88,500.87,500.81,500.74,500.67,500.61,500.58,500.53,500.45,500.38,500.37,500.32,500.25,500.17,500.09,500.07,500.03,499.97,499.97,499.97,499.97
497.80,497.80,497.80,497.80,497.80,497.80,497.79,497.75,497.74,497.74,497.74,497.74,497.74,497.74,497.74,497.74,497.74,497.74,497.74,497.74,497.74,497.75,497.80,497.84,497.84,497.88,497.97,498.06,498.14,498.22,498.29,498.35,498.38,498.43,498.48,498.55,498.63,498.71,498.86,498.96,499.04,499.13,499.17,499.24,499.27,499.29,499.36,499.37,499.42,499.47,499.47,499.50,499.54,499.58,499.61,499.63,499.59,499.54,499.50,499.46,499.39,499.33,499.24,499.13,499.04,498.97,498.94,498.92,498.83,498.76,498.74,498.74,498.72,498.65,498.63,498.59,498.53,498.53,498.53,498.50,498.46,498.43,498.36,498.30,498.24,498.16,498.08,498.05,498.00,497.92,497.84,497.78,497.75,497.70,497.64,497.67,497.81,497.98,498.13,498.29,498.44,498.60,498.75,498.90,499.06,499.21,499.37,499.51,499.62,499.63,499.61,499.57,499.56,499.52,499.50,499.50,499.50,499.50,499.50,499.47,499.34,498.92,498.90,498.98,499.05,499.13,499.21,499.29,499.37,499.44,499.52,499.55,499.60,499.64,499.67,499.67,499.70,499.74,499.74,499.74,499.74,499.74,499.74,499.74,499.74,499.74,499.74,499.74,499.74,499.74,499.74,499.72,499.65,499.63,499.63,499.62,499.54,499.53,499.53,499.50,499.44,499.44,499.44,499.44,499.42,499.35,499.34,499.34,499.34,499.33,499.31,499.26,499.24,499.24,499.24,499.38,499.51,499.58,499.63,499.69,499.74,499.78,499.83,499.84,499.84,499.84,499.84,499.84,499.84,499.84,499.84,499.84,499.84,499.84,499.84,499.84,499.84,499.90,499.98,500.07,500.22,500.30,500.38,500.46,500.53,500.62,500.69,500.77,500.85,500.93,501.00,501.08,501.15,501.24,501.31,501.37,501.38,501.34,501.34,501.31,501.30,501.29,501.24,501.24,501.22,501.19,501.14,501.13,501.11,501.10,501.09,501.04,501.03,501.02,500.99,500.94,500.94,500.88,500.80,500.73,500.65,500.63,500.59,500.52,500.45,500.44,500.38,500.31,500.24,500.15,500.13,500.10,500.04,500.03,500.01,500.00
497.81,497.81,497.81,497.81,497.81,497.81,497.81,497.80,497.80,497.80,497.80,497.80,497.80,497.80,497.80,497.80,497.80,497.80,497.80,497.80,497.81,497.86,497.90,497.90,497.91,497.92,498.01,498.12,498.20,498.28,498.36,498.44,498.49,498.51,498.51,498.56,498.63,498.71,498.86,498.96,499.06,499.19,499.27,499.35,499.39,499.42,499.48,499.50,499.55,499.60,499.62,499.68,499.70,499.74,499.78,499.72,499.70,499.69,499.66,499.59,499.51,499.38,499.27,499.19,499.11,499.03,499.00,498.98,498.90,498.82,498.80,498.80,498.79,498.72,498.70,498.66,498.60,498.60,498.60,498.60,498.57,498.50,498.42,498.40,498.36,498.28,498.21,498.14,498.06,497.99,497.92,497.90,497.84,497.77,497.72,497.78,497.96,498.15,498.31,498.46,498.63,498.78,498.94,499.10,499.25,499.41,499.56,499.68,499.70,499.71,499.70,499.70,499.70,499.69,499.69,499.69,499.69,499.69,499.69,499.62,499.40,498.99,498.97,499.04,499.13,499.20,499.27,499.36,499.43,499.51,499.59,499.66,499.70,499.72,499.78,499.79,499.80,499.80,499.80,499.80,499.80,499.80,499.80,499.80,499.80,499.80,499.80,499.80,499.80,499.80,499.80,499.78,499.72,499.70,499.70,499.68,499.61,499.60,499.60,499.57,499.51,499.50,499.50,499.50,499.48,499.41,499.40,499.40,499.40,499.39,499.33,499.31,499.30,499.30,499.31,499.49,499.70,499.87,499.88,499.89,499.89,499.90,499.91,499.91,499.91,499.91,499.91,499.91,499.91,499.91,499.91,499.91,499.91,499.91,499.91,499.91,499.91,499.97,500.04,500.13,500.27,500.37,500.45,500.53,500.61,500.69,500.76,500.84,500.92,501.00,501.07,501.15,501.23,501.30,501.38,501.41,501.41,501.40,501.39,501.34,501.31,501.31,501.29,501.29,501.25,501.21,501.20,501.19,501.14,501.11,501.11,501.09,501.09,501.05,501.01,501.00,500.99,500.94,500.87,500.79,500.72,500.70,500.66,500.58,500.51,500.50,500.45,500.38,500.30,500.22,500.20,500.17,500.10,500.10,500.04,500.01
497.87,497.87,497.87,497.87,497.87,497.87,497.87,497.87,497.87,497.87,497.87,497.87,497.87,497.87,497.87,497.87,497.87,497.87,497.87,497.88,497.92,497.95,497.97,497.98,498.02,498.08,498.10,498.13,498.22,498.34,498.43,498.50,498.57,498.62,498.63,498.65,498.67,498.72,498.86,498.96,499.04,499.16,499.28,499.37,499.43,499.49,499.56,499.61,499.68,499.75,499.79,499.82,499.87,499.90,499.92,499.90,499.85,499.83,499.79,499.67,499.58,499.45,499.33,499.25,499.18,499.10,499.06,499.04,498.97,498.89,498.87,498.87,498.85,498.78,498.76,498.73,498.67,498.67,498.71,498.70,498.64,498.56,498.49,498.47,498.43,498.36,498.33,498.26,498.19,498.11,498.03,497.98,497.92,497.83,497.78,497.85,498.01,498.20,498.40,498.55,498.75,498.92,499.09,499.29,499.45,499.60,499.74,499.82,499.83,499.83,499.83,499.83,499.83,499.83,499.83,499.83,499.83,499.83,499.83,499.73,499.47,499.05,499.03,499.11,499.19,499.26,499.34,499.42,499.50,499.58,499.65,499.73,499.79,499.84,499.86,499.87,499.87,499.87,499.87,499.87,499.87,499.87,499.87,499.87,499.87,499.87,499.87,499.87,499.87,499.87,499.87,499.85,499.78,499.76,499.76,499.75,499.68,499.67,499.67,499.63,499.57,499.56,499.56,499.54,499.49,499.47,499.47,499.47,499.47,499.46,499.38,499.37,499.37,499.37,499.37,499.55,499.78,499.96,499.97,500.01,500.03,500.03,500.03,500.03,500.03,500.03,500.03,500.03,500.03,500.03,500.03,500.03,500.03,500.03,500.03,500.03,500.03,500.09,500.14,500.19,500.29,500.41,500.54,500.66,500.73,500.81,500.88,500.96,501.04,501.12,501.19,501.27,501.35,501.42,501.45,501.47,501.47,501.46,501.41,501.38,501.37,501.35,501.31,501.30,501.28,501.26,501.26,501.21,501.18,501.17,501.16,501.11,501.10,501.09,501.06,501.06,501.01,500.98,500.94,500.86,500.83,500.79,500.73,500.65,500.58,500.56,500.51,500.44,500.37,500.34,500.29,500.23,500.17,500.16,500.10,500.06
497.93,497.93,497.93,497.93,497.93,497.93,497.92,497.90,497.90,497.90,497.90,497.90,497.90,497.91,497.93,497.93,497.93,497.93,497.94,497.97,498.02,498.02,498.02,498.05,498.13,498.20,498.19,498.17,498.22,498.37,498.48,498.56,498.65,498.72,498.75,498.75,498.75,498.77,498.87,498.96,499.03,499.13,499.27,499.37,499.46,499.55,499.63,499.70,499.78,499.86,499.93,499.95,500.00,500.02,500.02,500.02,499.98,499.95,499.88,499.73,499.63,499.49,499.38,499.31,499.24,499.18,499.15,499.11,499.03,498.95,498.93,498.93,498.92,498.84,498.82,498.80,498.76,498.76,498.81,498.79,498.73,498.63,498.55,498.52,498.50,498.43,498.43,498.37,498.30,498.24,498.16,498.08,498.00,497.92,497.85,497.89,498.04,498.23,498.43,498.61,498.82,499.01,499.19,499.40,499.58,499.74,499.86,499.92,499.93,499.93,499.94,499.95,499.95,499.95,499.95,499.95,499.95,499.93,499.93,499.83,499.56,499.10,499.07,499.15,499.22,499.30,499.38,499.46,499.53,499.61,499.69,499.76,499.84,499.90,499.92,499.93,499.93,499.93,499.93,499.93,499.93,499.93,499.93,499.93,499.93,499.93,499.93,499.93,499.93,499.93,499.92,499.89,499.84,499.82,499.82,499.79,499.74,499.72,499.72,499.70,499.63,499.63,499.63,499.59,499.53,499.52,499.52,499.52,499.52,499.50,499.45,499.43,499.43,499.43,499.44,499.60,499.83,500.03,500.06,500.11,500.15,500.16,500.16,500.16,500.16,500.16,500.16,500.16,500.16,500.16,500.16,500.16,500.16,500.16,500.16,500.16,500.16,500.22,500.25,500.27,500.36,500.48,500.61,500.74,500.83,500.91,500.99,501.06,501.14,501.22,501.29,501.38,501.45,501.51,501.52,501.52,501.52,501.50,501.44,501.43,501.42,501.39,501.34,501.32,501.31,501.30,501.29,501.25,501.22,501.22,501.19,501.14,501.13,501.13,501.12,501.10,501.05,501.02,501.00,500.94,500.93,500.87,500.79,500.72,500.66,500.64,500.58,500.50,500.44,500.43,500.38,500.29,500.23,500.22,500.18,500.15
497.99,497.99,497.99,497.99,497.99,497.99,497.98,497.92,497.91,497.91,497.91,497.91,497.91,497.95,498.00,498.00,498.00,498.00,498.03,498.08,498.09,498.10,498.10,498.12,498.19,498.27,498.29,498.26,498.24,498.37,498.52,498.63,498.71,498.78,498.86,498.88,498.89,498.89,498.91,498.97,499.04,499.13,499.27,499.37,499.48,499.61,499.69,499.76,499.85,499.93,500.00,500.07,500.09,500.10,500.10,500.09,500.08,500.03,499.94,499.79,499.64,499.50,499.40,499.38,499.31,499.29,499.25,499.18,499.09,499.02,499.00,499.00,498.98,498.91,498.90,498.89,498.88,498.89,498.90,498.89,498.84,498.70,498.62,498.60,498.56,498.50,498.49,498.43,498.39,498.36,498.29,498.21,498.13,498.03,497.90,497.91,498.07,498.27,498.45,498.66,498.84,499.04,499.24,499.41,499.63,499.80,499.92,499.99,500.00,500.00,500.02,500.08,500.08,500.08,500.08,500.08,500.07,500.01,499.99,499.91,499.65,499.12,499.08,499.15,499.22,499.30,499.38,499.46,499.53,499.61,499.69,499.76,499.84,499.92,499.98,499.99,499.99,499.99,499.99,499.99,499.99,499.99,500.00,500.00,500.00,500.00,500.00,500.00,500.00,499.99,499.96,499.90,499.89,499.89,499.85,499.80,499.79,499.79,499.79,499.76,499.70,499.69,499.69,499.65,499.60,499.60,499.60,499.59,499.57,499.51,499.50,499.50,499.50,499.50,499.50,499.62,499.86,500.10,500.17,500.19,500.24,500.28,500.28,500.28,500.28,500.28,500.28,500.28,500.28,500.28,500.28,500.28,500.28,500.28,500.28,500.28,500.29,500.35,500.39,500.41,500.48,500.57,500.65,500.76,500.89,500.98,501.05,501.13,501.21,501.29,501.37,501.44,501.52,501.59,501.59,501.59,501.56,501.51,501.50,501.49,501.45,501.40,501.40,501.39,501.35,501.31,501.31,501.29,501.29,501.26,501.21,501.19,501.19,501.19,501.17,501.12,501.10,501.09,501.06,501.00,500.99,500.94,500.86,500.79,500.78,500.72,500.64,500.57,500.50,500.50,500.44,500.36,500.30,500.29,500.29,500.25
498.00,498.00,498.00,498.00,498.00,498.00,497.99,497.96,497.95,497.95,497.95,497.96,498.00,498.04,498.06,498.06,498.06,498.09,498.13,498.16,498.16,498.20,498.22,498.23,498.26,498.34,498.39,498.38,498.34,498.39,498.52,498.66,498.77,498.86,498.93,498.99,499.01,499.01,499.01,499.04,499.07,499.13,499.27,499.37,499.49,499.62,499.70,499.77,499.89,499.99,500.06,500.14,500.16,500.16,500.16,500.16,500.12,500.05,499.96,499.85,499.70,499.54,499.45,499.45,499.42,499.42,499.38,499.29,499.17,499.08,499.06,499.06,499.04,498.98,498.95,498.95,498.97,499.01,499.01,498.99,498.92,498.81,498.69,498.66,498.63,498.56,498.56,498.53,498.49,498.44,498.37,498.33,498.26,498.13,497.93,497.95,498.11,498.30,498.49,498.68,498.88,499.07,499.25,499.41,499.63,499.81,499.93,500.00,500.05,500.06,500.08,500.11,500.15,500.16,500.16,500.14,500.10,500.06,500.02,499.92,499.68,499.17,499.13,499.18,499.22,499.30,499.38,499.46,499.53,499.61,499.69,499.76,499.84,499.92,499.99,500.00,500.00,500.00,500.00,500.00,500.00,500.02,500.06,500.06,500.06,500.06,500.06,500.06,500.06,500.03,499.97,499.90,499.90,499.90,499.86,499.80,499.80,499.80,499.80,499.77,499.71,499.70,499.70,499.69,499.66,499.66,499.66,499.63,499.59,499.56,499.56,499.56,499.56,499.55,499.51,499.66,499.89,500.12,500.24,500.30,500.34,500.38,500.41,500.37,500.36,500.38,500.41,500.42,500.42,500.42,500.42,500.42,500.42,500.42,500.42,500.42,500.42,500.48,500.54,500.58,500.62,500.69,500.76,500.86,500.96,501.04,501.15,501.25,501.33,501.41,501.48,501.56,501.63,501.65,501.61,501.60,501.59,501.56,501.56,501.52,501.49,501.46,501.45,501.42,501.38,501.36,501.35,501.31,501.30,501.29,501.26,501.25,501.22,501.20,501.19,501.16,501.16,501.13,501.09,501.06,501.06,501.00,500.92,500.86,500.85,500.79,500.71,500.63,500.56,500.56,500.50,500.43,500.36,500.36,500.36,500.31
498.02,498.02,498.02,498.02,498.02,498.02,498.02,498.02,498.02,498.03,498.04,498.05,498.10,498.13,498.13,498.14,498.15,498.19,498.22,498.23,498.25,498.30,498.32,498.32,498.33,498.40,498.48,498.50,498.45,498.43,498.52,498.66,498.79,498.89,498.97,499.05,499.11,499.12,499.13,499.13,499.13,499.17,499.28,499.37,499.49,499.62,499.70,499.77,499.90,500.03,500.11,500.18,500.22,500.23,500.24,500.22,500.13,500.05,499.98,499.89,499.74,499.61,499.54,499.54,499.53,499.52,499.48,499.39,499.26,499.17,499.13,499.13,499.11,499.04,499.02,499.03,499.06,499.11,499.14,499.09,499.00,498.92,498.78,498.73,498.69,498.63,498.63,498.63,498.58,498.51,498.45,498.43,498.37,498.21,497.96,497.99,498.13,498.33,498.53,498.69,498.91,499.09,499.25,499.41,499.63,499.81,499.93,500.01,500.09,500.12,500.13,500.14,500.19,500.22,500.21,500.17,500.11,500.10,500.04,499.92,499.69,499.22,499.18,499.21,499.24,499.30,499.38,499.46,499.53,499.61,499.69,499.76,499.84,499.92,499.99,500.02,500.02,500.02,500.02,500.02,500.02,500.05,500.10,500.12,500.13,500.13,500.13,500.13,500.13,500.06,499.97,499.90,499.90,499.90,499.86,499.80,499.80,499.80,499.80,499.77,499.71,499.70,499.70,499.70,499.70,499.70,499.70,499.67,499.63,499.63,499.63,499.63,499.63,499.61,499.54,499.69,499.92,500.14,500.30,500.40,500.44,500.47,500.51,500.46,500.45,500.47,500.52,500.52,500.52,500.53,500.54,500.54,500.54,500.54,500.54,500.54,500.55,500.61,500.69,500.74,500.75,500.82,500.90,500.97,501.04,501.11,501.24,501.36,501.44,501.51,501.59,501.67,501.72,501.69,501.64,501.63,501.62,501.60,501.60,501.55,501.52,501.52,501.50,501.45,501.43,501.42,501.39,501.34,501.32,501.32,501.32,501.30,501.25,501.22,501.22,501.20,501.20,501.16,501.13,501.12,501.10,501.05,500.99,500.93,500.92,500.86,500.77,500.71,500.65,500.63,500.56,500.49,500.43,500.43,500.43,500.38
498.09,498.09,498.09,498.09,498.09,498.09,498.09,498.09,498.09,498.12,498.17,498.17,498.18,498.19,498.21,498.26,498.27,498.28,498.29,498.30,498.36,498.38,498.38,498.39,498.40,498.47,498.54,498.59,498.56,498.51,498.51,498.60,498.74,498.88,498.97,499.05,499.12,499.18,499.19,499.19,499.22,499.27,499.30,499.37,499.49,499.62,499.70,499.77,499.90,500.03,500.11,500.19,500.25,500.32,500.36,500.29,500.15,500.05,499.98,499.89,499.74,499.69,499.68,499.66,499.60,499.59,499.54,499.46,499.38,499.30,499.23,499.19,499.18,499.11,499.09,499.12,499.18,499.19,499.25,499.19,499.06,498.98,498.90,498.83,498.75,498.69,498.69,498.69,498.64,498.58,498.57,498.51,498.44,498.27,498.01,498.00,498.18,498.37,498.53,498.69,498.91,499.09,499.25,499.41,499.63,499.81,499.93,500.01,500.09,500.16,500.19,500.19,500.20,500.26,500.24,500.18,500.11,500.10,500.04,499.93,499.70,499.27,499.20,499.24,499.29,499.31,499.38,499.46,499.53,499.61,499.69,499.76,499.84,499.92,500.00,500.06,500.09,500.09,500.09,500.09,500.09,500.09,500.12,500.17,500.19,500.19,500.19,500.19,500.19,500.08,499.97,499.90,499.90,499.90,499.86,499.80,499.80,499.80,499.80,499.77,499.71,499.70,499.70,499.70,499.70,499.70,499.70,499.69,499.69,499.69,499.69,499.69,499.69,499.67,499.61,499.72,499.92,500.15,500.36,500.45,500.52,500.58,500.59,500.58,500.58,500.58,500.59,500.59,500.59,500.63,500.67,500.67,500.67,500.67,500.67,500.68,500.68,500.74,500.81,500.88,500.88,500.95,501.02,501.10,501.17,501.19,501.30,501.43,501.50,501.58,501.65,501.73,501.77,501.71,501.69,501.69,501.66,501.61,501.60,501.59,501.59,501.57,501.51,501.49,501.49,501.47,501.40,501.39,501.38,501.38,501.37,501.31,501.29,501.28,501.27,501.21,501.20,501.19,501.19,501.18,501.12,501.09,501.05,500.99,500.98,500.92,500.84,500.78,500.76,500.71,500.63,500.55,500.50,500.49,500.49,500.45
498.16,498.16,498.16,498.16,498.16,498.16,498.16,498.16,498.19,498.22,498.25,498.25,498.25,498.28,498.32,498.35,498.36,498.36,498.37,498.41,498.45,498.45,498.45,498.47,498.50,498.54,498.61,498.67,498.70,498.67,498.63,498.64,498.74,498.88,499.01,499.10,499.18,499.25,499.29,499.30,499.32,499.35,499.36,499.38,499.46,499.58,499.69,499.77,499.90,500.03,500.12,500.23,500.31,500.39,500.43,500.31,500.19,500.08,499.98,499.90,499.82,499.80,499.79,499.75,499.71,499.67,499.61,499.53,499.45,499.38,499.30,499.25,499.25,499.21,499.20,499.22,499.26,499.30,499.34,499.28,499.17,499.06,498.98,498.89,498.82,498.76,498.75,498.75,498.71,498.66,498.65,498.62,498.50,498.28,498.03,498.04,498.20,498.38,498.54,498.74,498.92,499.09,499.26,499.45,499.64,499.81,499.93,500.01,500.09,500.17,500.22,500.25,500.26,500.29,500.28,500.23,500.15,500.11,500.04,499.95,499.76,499.34,499.25,499.30,499.37,499.41,499.44,499.48,499.53,499.60,499.64,499.71,499.81,499.92,500.00,500.07,500.10,500.12,500.15,500.16,500.16,500.16,500.16,500.19,500.24,500.25,500.25,500.25,500.25,500.11,499.97,499.90,499.90,499.90,499.86,499.80,499.80,499.80,499.77,499.74,499.70,499.70,499.73,499.75,499.75,499.75,499.75,499.75,499.75,499.75,499.75,499.75,499.74,499.69,499.67,499.78,499.95,500.13,500.28,500.40,500.50,500.57,500.65,500.69,500.70,500.70,500.70,500.70,500.70,500.73,500.75,500.75,500.75,500.75,500.77,500.80,500.81,500.87,500.94,501.00,501.01,501.07,501.16,501.23,501.30,501.30,501.39,501.49,501.56,501.65,501.72,501.77,501.79,501.76,501.75,501.73,501.69,501.66,501.66,501.62,501.60,501.59,501.56,501.56,501.53,501.49,501.46,501.45,501.42,501.40,501.39,501.36,501.36,501.33,501.29,501.26,501.25,501.25,501.24,501.19,501.16,501.16,501.12,501.06,501.05,500.99,500.90,500.86,500.85,500.77,500.70,500.63,500.60,500.56,500.56,500.51
498.20,498.20,498.22,498.22,498.22,498.22,498.22,498.24,498.29,498.31,498.31,498.32,498.33,498.38,498.42,498.42,498.42,498.43,498.47,498.51,498.51,498.51,498.52,498.55,498.61,498.63,498.69,498.76,498.83,498.83,498.77,498.73,498.75,498.89,499.04,499.16,499.25,499.32,499.40,499.43,499.44,499.44,499.44,499.44,499.47,499.55,499.69,499.79,499.91,500.03,500.14,500.28,500.38,500.45,500.47,500.33,500.25,500.13,500.01,499.94,499.94,499.94,499.90,499.84,499.81,499.75,499.68,499.59,499.52,499.45,499.37,499.31,499.31,499.31,499.33,499.34,499.35,499.41,499.42,499.37,499.27,499.14,499.04,498.96,498.88,498.82,498.81,498.81,498.77,498.72,498.72,498.70,498.55,498.30,498.06,498.09,498.22,498.38,498.56,498.77,498.94,499.09,499.27,499.50,499.66,499.81,499.93,500.01,500.09,500.17,500.24,500.30,500.31,500.31,500.31,500.27,500.19,500.12,500.04,499.96,499.81,499.40,499.31,499.37,499.46,499.51,499.53,499.53,499.56,499.61,499.62,499.67,499.78,499.92,500.00,500.07,500.10,500.13,500.19,500.20,500.20,500.21,500.22,500.22,500.27,500.31,500.31,500.31,500.31,500.15,499.97,499.90,499.90,499.90,499.86,499.80,499.80,499.80,499.76,499.72,499.72,499.72,499.77,499.80,499.80,499.80,499.80,499.80,499.80,499.80,499.80,499.80,499.77,499.72,499.72,499.83,499.98,500.12,500.22,500.35,500.45,500.55,500.68,500.78,500.81,500.82,500.84,500.84,500.84,500.84,500.84,500.84,500.84,500.84,500.87,500.93,500.94,501.00,501.07,501.14,501.16,501.21,501.28,501.36,501.43,501.44,501.49,501.57,501.65,501.72,501.79,501.81,501.81,501.80,501.80,501.76,501.72,501.71,501.70,501.65,501.62,501.61,501.60,501.60,501.56,501.51,501.51,501.50,501.45,501.42,501.41,501.40,501.40,501.37,501.31,501.31,501.30,501.30,501.27,501.22,501.22,501.21,501.17,501.12,501.11,501.04,500.97,500.92,500.91,500.84,500.76,500.72,500.70,500.63,500.62,500.57
498.20,498.22,498.27,498.28,498.28,498.28,498.29,498.35,498.38,498.38,498.38,498.39,498.44,498.48,498.49,498.49,498.49,498.53,498.57,498.58,498.59,498.59,498.62,498.67,498.69,498.74,498.82,498.90,498.96,498.96,498.90,498.83,498.80,498.90,499.04,499.19,499.30,499.38,499.47,499.53,499.56,499.56,499.56,499.56,499.57,499.61,499.70,499.84,499.94,500.05,500.20,500.35,500.44,500.49,500.48,500.39,500.31,500.23,500.14,500.07,500.06,500.06,500.03,499.96,499.89,499.81,499.74,499.67,499.58,499.50,499.43,499.38,499.38,499.38,499.43,499.47,499.47,499.48,499.49,499.44,499.35,499.26,499.12,499.02,498.95,498.89,498.88,498.88,498.84,498.78,498.78,498.72,498.59,498.37,498.11,498.10,498.22,498.41,498.61,498.78,498.94,499.09,499.27,499.50,499.66,499.81,499.93,500.01,500.09,500.17,500.24,500.32,500.38,500.38,500.34,500.27,500.19,500.12,500.04,499.96,499.82,499.46,499.38,499.47,499.57,499.59,499.65,499.67,499.67,499.68,499.69,499.69,499.78,499.92,500.00,500.07,500.10,500.13,500.19,500.20,500.20,500.23,500.28,500.28,500.29,500.34,500.38,500.38,500.38,500.17,499.97,499.90,499.90,499.90,499.86,499.80,499.80,499.80,499.79,499.78,499.78,499.78,499.79,499.80,499.80,499.80,499.80,499.80,499.80,499.80,499.80,499.80,499.79,499.78,499.78,499.86,499.98,500.13,500.27,500.37,500.45,500.53,500.63,500.76,500.85,500.91,500.96,500.97,500.97,500.97,500.97,500.97,500.97,500.97,501.00,501.06,501.07,501.13,501.20,501.28,501.34,501.36,501.41,501.49,501.56,501.56,501.62,501.70,501.77,501.85,501.88,501.88,501.87,501.81,501.80,501.79,501.78,501.77,501.71,501.69,501.69,501.67,501.61,501.60,501.59,501.59,501.57,501.52,501.49,501.49,501.47,501.41,501.40,501.39,501.38,501.38,501.32,501.30,501.29,501.28,501.28,501.23,501.19,501.19,501.18,501.12,501.03,500.99,500.97,500.90,500.82,500.78,500.77,500.70,500.69,500.64
498.27,498.30,498.34,498.35,498.35,498.36,498.40,498.44,498.44,498.44,498.45,498.49,498.53,498.54,498.54,498.55,498.59,498.63,498.65,498.65,498.65,498.68,498.72,498.75,498.75,498.83,498.90,498.98,499.05,499.08,499.03,498.95,498.90,498.91,499.01,499.15,499.29,499.40,499.52,499.61,499.67,499.69,499.70,499.70,499.67,499.67,499.75,499.86,499.98,500.09,500.22,500.37,500.49,500.57,500.57,500.50,500.43,500.37,500.32,500.25,500.24,500.21,500.16,500.07,499.97,499.88,499.80,499.73,499.65,499.57,499.50,499.46,499.49,499.49,499.53,499.57,499.59,499.60,499.60,499.55,499.46,499.34,499.23,499.14,499.04,498.95,498.94,498.94,498.90,498.84,498.80,498.76,498.64,498.43,498.18,498.15,498.27,498.44,498.63,498.78,498.94,499.11,499.31,499.50,499.66,499.81,499.93,500.01,500.09,500.17,500.24,500.32,500.39,500.40,500.35,500.27,500.19,500.12,500.04,499.96,499.82,499.48,499.46,499.56,499.66,499.69,499.74,499.75,499.75,499.75,499.75,499.75,499.79,499.88,499.99,500.04,500.08,500.12,500.15,500.19,500.23,500.26,500.31,500.34,500.35,500.40,500.44,500.44,500.44,500.20,499.97,499.90,499.90,499.90,499.86,499.80,499.80,499.80,499.80,499.81,499.84,499.85,499.85,499.85,499.85,499.85,499.85,499.85,499.85,499.85,499.85,499.85,499.85,499.85,499.85,499.91,500.01,500.13,500.25,500.36,500.45,500.53,500.61,500.72,500.84,500.94,501.00,501.04,501.08,501.10,501.10,501.10,501.10,501.10,501.13,501.19,501.20,501.25,501.33,501.41,501.48,501.49,501.54,501.62,501.69,501.73,501.77,501.83,501.90,501.94,501.94,501.93,501.89,501.85,501.85,501.82,501.80,501.79,501.76,501.75,501.73,501.69,501.65,501.65,501.63,501.60,501.59,501.56,501.54,501.53,501.50,501.45,501.44,501.44,501.44,501.40,501.36,501.35,501.33,501.30,501.30,501.26,501.25,501.25,501.24,501.18,501.12,501.08,501.04,500.97,500.89,500.85,500.83,500.76,500.75,500.70
498.36,498.41,498.41,498.42,498.42,498.45,498.50,498.51,498.51,498.52,498.54,498.60,498.61,498.62,498.62,498.63,498.69,498.71,498.72,498.73,498.73,498.78,498.81,498.82,498.83,498.89,498.97,499.04,499.12,499.19,499.17,499.10,499.02,498.96,498.99,499.11,499.25,499.40,499.56,499.66,499.75,499.80,499.81,499.81,499.77,499.75,499.81,499.88,500.00,500.13,500.23,500.38,500.53,500.64,500.70,500.64,500.56,500.53,500.50,500.43,500.40,500.33,500.26,500.16,500.02,499.93,499.85,499.78,499.71,499.63,499.56,499.55,499.61,499.61,499.62,499.66,499.71,499.72,499.71,499.66,499.56,499.43,499.33,499.25,499.15,499.03,499.02,499.00,498.96,498.89,498.82,498.80,498.70,498.49,498.23,498.20,498.32,498.47,498.63,498.79,498.95,499.14,499.35,499.50,499.66,499.81,499.93,500.01,500.09,500.17,500.24,500.32,500.39,500.41,500.36,500.27,500.19,500.12,500.04,499.96,499.82,499.49,499.56,499.67,499.75,499.80,499.81,499.81,499.81,499.81,499.81,499.81,499.81,499.85,499.98,500.01,500.06,500.10,500.13,500.19,500.27,500.32,500.34,500.40,500.42,500.45,500.50,500.51,500.51,500.23,499.96,499.90,499.90,499.90,499.86,499.80,499.80,499.80,499.80,499.83,499.89,499.90,499.90,499.90,499.92,499.92,499.92,499.92,499.92,499.92,499.92,499.92,499.92,499.92,499.92,499.97,500.04,500.12,500.20,500.34,500.44,500.53,500.60,500.68,500.82,500.94,501.01,501.09,501.16,501.21,501.22,501.22,501.22,501.22,501.25,501.32,501.33,501.38,501.47,501.54,501.61,501.63,501.67,501.75,501.81,501.89,501.91,501.94,502.00,502.00,502.00,501.96,501.92,501.91,501.90,501.86,501.81,501.81,501.80,501.80,501.77,501.72,501.71,501.70,501.66,501.62,501.61,501.60,501.60,501.57,501.52,501.51,501.50,501.50,501.48,501.42,501.42,501.41,501.37,501.32,501.31,501.31,501.31,501.30,501.29,501.24,501.21,501.19,501.11,501.03,500.95,500.92,500.90,500.83,500.81,500.77
498.46,498.47,498.47,498.47,498.51,498.56,498.57,498.57,498.57,498.61,498.66,498.67,498.68,498.68,498.70,498.75,498.77,498.77,498.80,498.85,498.86,498.87,498.88,498.89,498.95,498.97,499.03,499.11,499.19,499.26,499.31,499.29,499.21,499.14,499.09,499.13,499.25,499.40,499.56,499.70,499.81,499.87,499.88,499.88,499.87,499.86,499.88,499.89,500.00,500.15,500.29,500.44,500.55,500.67,500.78,500.82,500.76,500.69,500.63,500.55,500.43,500.34,500.24,500.11,500.01,499.94,499.86,499.79,499.77,499.70,499.67,499.66,499.68,499.68,499.73,499.76,499.79,499.84,499.80,499.73,499.65,499.55,499.41,499.32,499.24,499.15,499.09,499.02,498.99,498.95,498.88,498.82,498.74,498.54,498.23,498.20,498.32,498.48,498.63,498.79,498.99,499.18,499.35,499.50,499.66,499.81,499.93,500.01,500.09,500.17,500.24,500.32,500.40,500.46,500.39,500.27,500.19,500.12,500.04,499.96,499.83,499.55,499.67,499.80,499.86,499.87,499.88,499.88,499.88,499.88,499.88,499.88,499.88,499.90,499.99,500.06,500.09,500.12,500.18,500.26,500.34,500.40,500.45,500.47,500.47,500.49,500.52,500.57,500.57,500.22,499.91,499.90,499.90,499.90,499.86,499.80,499.80,499.80,499.80,499.83,499.89,499.90,499.90,499.93,499.97,499.97,499.97,499.97,499.97,499.97,499.97,499.97,499.97,499.97,499.97,499.99,500.04,500.12,500.20,500.29,500.41,500.53,500.60,500.68,500.81,500.94,501.01,501.09,501.17,501.27,501.36,501.36,501.36,501.36,501.38,501.45,501.46,501.51,501.59,501.67,501.74,501.75,501.80,501.86,501.88,501.95,501.97,502.01,502.06,502.01,502.00,501.99,501.97,501.97,501.92,501.89,501.88,501.87,501.81,501.80,501.79,501.77,501.77,501.73,501.69,501.68,501.67,501.62,501.60,501.59,501.57,501.57,501.52,501.50,501.50,501.48,501.47,501.44,501.39,501.38,501.38,501.38,501.35,501.30,501.30,501.28,501.27,501.25,501.18,501.09,501.02,500.97,500.96,500.89,500.88,500.87
498.52,498.54,498.55,498.57,498.62,498.65,498.65,498.68,498.69,498.70,498.74,498.75,498.77,498.78,498.80,498.84,498.85,498.87,498.90,498.94,498.94,498.94,498.96,499.00,499.04,499.04,499.10,499.17,499.25,499.33,499.40,499.42,499.37,499.29,499.21,499.19,499.25,499.40,499.53,499.70,499.85,499.94,499.98,500.01,500.01,499.99,499.99,500.01,500.11,500.23,500.36,500.51,500.63,500.76,500.90,500.96,500.91,500.82,500.71,500.59,500.48,500.36,500.25,500.13,500.02,499.96,499.90,499.85,499.84,499.80,499.78,499.77,499.75,499.75,499.80,499.86,499.90,499.96,499.89,499.79,499.72,499.63,499.49,499.38,499.29,499.20,499.15,499.07,499.02,498.98,498.90,498.83,498.73,498.54,498.27,498.25,498.36,498.51,498.67,498.83,499.02,499.21,499.39,499.54,499.70,499.83,499.93,500.01,500.09,500.17,500.26,500.36,500.43,500.49,500.42,500.30,500.20,500.12,500.06,500.00,499.88,499.62,499.77,499.91,499.94,499.94,499.94,499.94,499.94,499.94,499.94,499.94,499.96,500.00,500.04,500.12,500.16,500.20,500.25,500.33,500.40,500.48,500.54,500.54,500.54,500.54,500.56,500.64,500.65,500.24,499.90,499.90,499.90,499.90,499.86,499.80,499.80,499.80,499.80,499.81,499.86,499.89,499.90,499.94,500.00,500.00,500.00,500.02,500.04,500.04,500.04,500.04,500.04,500.04,500.04,500.07,500.12,500.20,500.28,500.36,500.46,500.56,500.65,500.73,500.83,500.94,501.01,501.09,501.17,501.27,501.38,501.44,501.47,501.49,501.51,501.58,501.59,501.65,501.70,501.76,501.83,501.85,501.89,501.94,501.95,502.02,502.04,502.06,502.09,502.05,502.04,502.02,502.00,502.00,501.96,501.94,501.93,501.89,501.85,501.85,501.82,501.80,501.80,501.76,501.75,501.73,501.69,501.65,501.65,501.65,501.64,501.61,501.56,501.54,501.53,501.50,501.50,501.47,501.44,501.44,501.41,501.40,501.38,501.35,501.34,501.31,501.30,501.29,501.24,501.17,501.11,501.07,501.03,500.96,500.94,500.94
498.54,498.60,498.62,498.67,498.70,498.71,498.73,498.79,498.80,498.80,498.81,498.82,498.88,498.90,498.90,498.91,498.92,498.96,499.00,499.00,499.00,499.01,499.05,499.10,499.11,499.11,499.16,499.24,499.31,499.39,499.47,499.51,499.49,499.42,499.34,499.27,499.26,499.39,499.48,499.67,499.87,500.00,500.09,500.17,500.16,500.12,500.13,500.19,500.27,500.36,500.46,500.60,500.74,500.89,501.02,501.08,501.02,500.90,500.76,500.62,500.52,500.40,500.28,500.19,500.06,500.03,499.99,499.93,499.93,499.93,499.93,499.90,499.84,499.83,499.88,499.95,500.02,500.07,499.95,499.85,499.77,499.67,499.53,499.44,499.34,499.22,499.19,499.13,499.05,498.98,498.90,498.84,498.70,498.51,498.32,498.32,498.44,498.60,498.76,498.91,499.07,499.26,499.45,499.60,499.75,499.85,499.93,500.01,500.10,500.18,500.29,500.41,500.49,500.51,500.45,500.34,500.22,500.13,500.10,500.05,499.93,499.68,499.87,500.00,500.00,500.00,500.00,500.00,500.00,500.01,500.02,500.02,500.05,500.10,500.12,500.18,500.25,500.30,500.32,500.39,500.47,500.54,500.60,500.61,500.61,500.61,500.63,500.69,500.70,500.27,499.90,499.90,499.90,499.90,499.86,499.81,499.81,499.80,499.80,499.80,499.81,499.88,499.90,499.94,500.00,500.00,500.00,500.04,500.10,500.10,500.10,500.11,500.11,500.11,500.12,500.17,500.24,500.32,500.40,500.47,500.56,500.64,500.72,500.80,500.88,500.96,501.03,501.11,501.19,501.27,501.37,501.50,501.58,501.60,501.63,501.69,501.70,501.76,501.80,501.83,501.89,501.91,501.95,502.00,502.01,502.09,502.11,502.11,502.11,502.11,502.10,502.06,502.01,502.01,502.00,502.00,501.97,501.92,501.91,501.90,501.86,501.81,501.81,501.80,501.80,501.77,501.72,501.70,501.70,501.69,501.68,501.63,501.61,501.60,501.58,501.52,501.51,501.51,501.50,501.49,501.43,501.41,501.41,501.39,501.39,501.33,501.31,501.31,501.29,501.23,501.20,501.17,501.10,501.03,501.01,501.00
498.54,498.62,498.67,498.69,498.74,498.79,498.84,498.87,498.88,498.88,498.89,498.94,498.96,498.97,498.97,498.98,499.03,499.06,499.07,499.07,499.08,499.12,499.16,499.18,499.18,499.18,499.23,499.30,499.38,499.45,499.53,499.60,499.62,499.55,499.47,499.40,499.34,499.35,499.47,499.67,499.87,500.02,500.15,500.24,500.26,500.26,500.31,500.39,500.47,500.56,500.69,500.79,500.89,501.02,501.15,501.16,501.05,500.94,500.82,500.68,500.59,500.50,500.41,500.33,500.24,500.21,500.17,500.12,500.12,500.17,500.15,500.09,500.02,500.01,500.03,500.05,500.07,500.09,499.96,499.85,499.76,499.63,499.53,499.44,499.35,499.27,499.21,499.13,499.06,498.98,498.91,498.88,498.70,498.46,498.33,498.42,498.60,498.79,498.94,499.10,499.25,499.39,499.50,499.61,499.76,499.86,499.93,500.02,500.15,500.24,500.33,500.42,500.50,500.55,500.49,500.37,500.27,500.19,500.13,500.06,499.95,499.73,499.90,500.03,500.07,500.07,500.07,500.07,500.07,500.08,500.13,500.14,500.16,500.17,500.18,500.25,500.32,500.38,500.39,500.45,500.53,500.58,500.61,500.66,500.68,500.68,500.68,500.70,500.75,500.30,499.90,499.90,499.90,499.90,499.89,499.88,499.87,499.82,499.80,499.80,499.81,499.88,499.90,499.94,500.00,500.00,500.00,500.04,500.10,500.11,500.15,500.18,500.18,500.18,500.23,500.26,500.31,500.39,500.47,500.54,500.66,500.77,500.85,500.92,501.00,501.08,501.16,501.23,501.31,501.39,501.47,501.57,501.65,501.68,501.70,501.77,501.77,501.84,501.88,501.89,501.96,501.97,502.02,502.07,502.09,502.15,502.18,502.18,502.18,502.17,502.13,502.09,502.07,502.07,502.01,502.00,501.99,501.97,501.97,501.93,501.89,501.88,501.87,501.82,501.80,501.79,501.77,501.77,501.73,501.70,501.70,501.68,501.68,501.64,501.60,501.57,501.57,501.57,501.55,501.50,501.48,501.47,501.44,501.40,501.40,501.38,501.38,501.38,501.36,501.29,501.27,501.24,501.17,501.15,501.09,501.07
498.56,498.62,498.69,498.70,498.75,498.83,498.89,498.90,498.92,498.95,498.98,499.03,499.03,499.03,499.05,499.08,499.12,499.13,499.13,499.14,499.17,499.22,499.24,499.24,499.24,499.26,499.32,499.40,499.48,499.56,499.63,499.71,499.75,499.68,499.60,499.52,499.44,499.40,499.50,499.69,499.87,500.02,500.18,500.31,500.39,500.43,500.51,500.58,500.68,500.79,500.91,500.99,501.09,501.19,501.26,501.20,501.08,501.01,500.93,500.81,500.73,500.65,500.59,500.53,500.46,500.42,500.37,500.30,500.28,500.32,500.32,500.30,500.28,500.25,500.20,500.18,500.19,500.11,499.96,499.84,499.72,499.61,499.52,499.44,499.37,499.29,499.21,499.13,499.06,498.99,498.94,498.88,498.70,498.47,498.35,498.50,498.72,498.90,499.03,499.19,499.31,499.43,499.52,499.61,499.73,499.84,499.94,500.05,500.18,500.26,500.36,500.45,500.53,500.58,500.51,500.40,500.32,500.23,500.14,500.06,499.96,499.79,499.92,500.05,500.11,500.13,500.13,500.16,500.17,500.18,500.23,500.24,500.25,500.27,500.27,500.32,500.38,500.45,500.48,500.52,500.60,500.63,500.65,500.69,500.73,500.74,500.74,500.75,500.81,500.33,499.90,499.90,499.90,499.90,499.90,499.90,499.89,499.86,499.84,499.84,499.84,499.89,499.90,499.94,500.00,500.00,500.00,500.04,500.10,500.11,500.18,500.20,500.21,500.25,500.32,500.36,500.41,500.49,500.56,500.65,500.75,500.87,500.94,501.01,501.10,501.17,501.25,501.33,501.40,501.48,501.55,501.63,501.72,501.75,501.79,501.83,501.84,501.90,501.94,501.95,502.02,502.03,502.09,502.13,502.14,502.22,502.24,502.22,502.20,502.20,502.16,502.13,502.13,502.10,502.05,502.03,502.03,502.03,502.01,501.96,501.94,501.93,501.90,501.86,501.84,501.84,501.83,501.81,501.76,501.74,501.73,501.71,501.70,501.67,501.63,501.63,501.61,501.60,501.58,501.54,501.53,501.51,501.47,501.44,501.44,501.44,501.42,501.40,501.39,501.35,501.34,501.30,501.24,501.23,501.17,501.13
498.60,498.62,498.69,498.71,498.76,498.83,498.89,498.91,498.96,499.03,499.09,499.09,499.10,499.10,499.13,499.19,499.20,499.20,499.20,499.22,499.28,499.30,499.30,499.30,499.31,499.37,499.44,499.52,499.60,499.68,499.75,499.84,499.88,499.81,499.74,499.66,499.57,499.52,499.57,499.71,499.86,500.01,500.18,500.39,500.52,500.60,500.68,500.76,500.89,501.02,501.10,501.19,501.31,501.39,501.37,501.24,501.16,501.12,501.09,501.00,500.92,500.85,500.81,500.78,500.70,500.64,500.56,500.49,500.43,500.42,500.46,500.52,500.56,500.50,500.37,500.33,500.32,500.13,499.96,499.81,499.69,499.60,499.52,499.44,499.37,499.29,499.21,499.14,499.07,499.00,498.98,498.86,498.69,498.50,498.36,498.53,498.75,498.92,499.03,499.17,499.26,499.39,499.51,499.59,499.68,499.81,499.96,500.10,500.19,500.27,500.39,500.51,500.59,500.61,500.55,500.47,500.38,500.24,500.14,500.06,499.97,499.84,499.94,500.05,500.12,500.18,500.20,500.25,500.29,500.29,500.30,500.30,500.34,500.40,500.40,500.40,500.45,500.52,500.59,500.61,500.66,500.70,500.70,500.72,500.77,500.80,500.80,500.81,500.88,500.36,499.90,499.90,499.90,499.90,499.90,499.90,499.90,499.89,499.89,499.89,499.89,499.90,499.90,499.94,500.00,500.00,500.00,500.05,500.10,500.12,500.19,500.21,500.25,500.32,500.39,500.46,500.53,500.61,500.69,500.76,500.85,500.93,501.00,501.08,501.16,501.25,501.32,501.40,501.48,501.55,501.63,501.70,501.77,501.85,501.90,501.90,501.91,501.97,502.00,502.02,502.09,502.10,502.15,502.20,502.21,502.28,502.29,502.26,502.21,502.21,502.20,502.19,502.18,502.12,502.11,502.09,502.09,502.08,502.02,502.00,502.00,501.98,501.92,501.91,501.90,501.89,501.88,501.82,501.81,501.79,501.78,501.72,501.71,501.71,501.70,501.69,501.63,501.61,501.61,501.60,501.59,501.54,501.51,501.50,501.49,501.49,501.45,501.41,501.41,501.39,501.39,501.36,501.30,501.30,501.24,501.19
498.64,498.62,498.69,498.75,498.79,498.83,498.90,498.95,498.99,499.04,499.10,499.11,499.14,499.20,499.24,499.26,499.26,499.26,499.29,499.34,499.36,499.37,499.39,499.43,499.44,499.46,499.52,499.60,499.68,499.75,499.83,499.93,500.02,500.00,499.93,499.82,499.70,499.64,499.61,499.68,499.80,499.97,500.17,500.40,500.54,500.63,500.76,500.84,501.00,501.16,501.25,501.37,501.48,501.53,501.51,501.41,501.37,501.33,501.27,501.19,501.12,501.08,501.04,500.99,500.91,500.83,500.75,500.69,500.66,500.61,500.61,500.66,500.71,500.65,500.51,500.39,500.29,500.12,499.91,499.77,499.68,499.60,499.52,499.44,499.37,499.29,499.22,499.18,499.13,499.05,498.99,498.85,498.66,498.47,498.33,498.44,498.65,498.86,499.02,499.12,499.21,499.33,499.46,499.54,499.67,499.81,499.97,500.11,500.24,500.33,500.42,500.53,500.65,500.67,500.58,500.47,500.38,500.24,500.14,500.06,499.98,499.89,499.96,500.05,500.12,500.20,500.25,500.29,500.32,500.37,500.42,500.43,500.44,500.47,500.47,500.47,500.51,500.60,500.67,500.72,500.75,500.76,500.76,500.77,500.84,500.87,500.87,500.88,500.94,500.39,499.90,499.90,499.90,499.90,499.90,499.90,499.90,499.90,499.90,499.90,499.90,499.90,499.90,499.94,500.00,500.00,500.04,500.08,500.11,500.17,500.25,500.30,500.36,500.43,500.46,500.53,500.61,500.69,500.76,500.84,500.92,501.00,501.07,501.15,501.26,501.37,501.44,501.52,501.60,501.68,501.74,501.77,501.84,501.92,501.97,501.97,502.02,502.05,502.06,502.09,502.15,502.17,502.22,502.26,502.27,502.35,502.33,502.29,502.26,502.26,502.26,502.24,502.19,502.17,502.17,502.13,502.10,502.10,502.07,502.06,502.04,501.99,501.97,501.97,501.94,501.90,501.90,501.87,501.87,501.84,501.79,501.77,501.76,501.76,501.75,501.70,501.67,501.67,501.67,501.66,501.61,501.58,501.56,501.55,501.51,501.50,501.49,501.47,501.46,501.41,501.40,501.39,501.37,501.36,501.30,501.24
498.67,498.65,498.70,498.78,498.80,498.83,498.91,498.99,499.00,499.04,499.11,499.13,499.18,499.25,499.31,499.33,499.33,499.35,499.38,499.43,499.43,499.45,499.49,499.53,499.53,499.53,499.59,499.66,499.74,499.81,499.91,500.05,500.18,500.16,500.09,499.98,499.86,499.76,499.68,499.70,499.79,499.94,500.17,500.38,500.51,500.62,500.79,500.90,501.09,501.27,501.38,501.50,501.59,501.64,501.64,501.57,501.56,501.51,501.44,501.39,501.31,501.27,501.24,501.18,501.10,501.03,500.96,500.92,500.89,500.82,500.77,500.79,500.84,500.77,500.62,500.44,500.26,500.08,499.90,499.78,499.70,499.63,499.55,499.48,499.39,499.32,499.25,499.21,499.16,499.08,498.99,498.83,498.65,498.48,498.36,498.42,498.58,498.77,498.96,499.06,499.16,499.29,499.42,499.51,499.66,499.81,499.97,500.12,500.27,500.38,500.48,500.56,500.68,500.72,500.63,500.49,500.39,500.26,500.15,500.06,499.99,499.92,499.97,500.05,500.12,500.20,500.25,500.29,500.33,500.41,500.49,500.52,500.53,500.53,500.56,500.56,500.60,500.65,500.73,500.79,500.82,500.83,500.83,500.84,500.90,500.93,500.93,500.94,501.00,500.41,499.91,499.93,499.93,499.97,499.98,499.96,499.96,499.96,499.96,499.96,499.96,499.96,499.96,499.99,500.03,500.03,500.10,500.15,500.18,500.25,500.31,500.38,500.46,500.53,500.56,500.63,500.70,500.78,500.86,500.93,501.01,501.09,501.17,501.24,501.36,501.47,501.54,501.62,501.69,501.77,501.83,501.84,501.90,501.99,502.03,502.04,502.11,502.13,502.14,502.17,502.22,502.23,502.28,502.33,502.34,502.39,502.36,502.33,502.32,502.30,502.30,502.27,502.23,502.23,502.21,502.16,502.13,502.13,502.11,502.10,502.07,502.03,502.03,502.01,501.97,501.93,501.93,501.91,501.90,501.88,501.83,501.83,501.81,501.80,501.79,501.74,501.73,501.71,501.70,501.69,501.64,501.63,501.62,501.59,501.54,501.53,501.53,501.52,501.50,501.45,501.43,501.42,501.40,501.39,501.33,501.27
498.70,498.70,498.72,498.78,498.80,498.84,498.91,498.99,499.00,499.04,499.12,499.18,499.20,499.25,499.33,499.38,499.39,499.44,499.49,499.50,499.50,499.56,499.59,499.60,499.60,499.60,499.65,499.73,499.80,499.89,500.02,500.20,500.36,500.30,500.22,500.14,500.03,499.90,499.81,499.79,499.83,499.94,500.17,500.34,500.46,500.58,500.79,500.95,501.15,501.35,501.49,501.58,501.66,501.73,501.77,501.70,501.69,501.64,501.59,501.56,501.50,501.43,501.39,501.37,501.29,501.22,501.18,501.16,501.08,501.01,500.94,500.93,500.97,500.90,500.71,500.49,500.27,500.05,499.93,499.85,499.77,499.70,499.62,499.54,499.47,499.38,499.30,499.23,499.16,499.08,498.99,498.79,498.65,498.53,498.42,498.47,498.57,498.69,498.85,499.00,499.14,499.29,499.42,499.51,499.66,499.81,499.97,500.12,500.27,500.42,500.53,500.62,500.70,500.76,500.69,500.54,500.41,500.31,500.18,500.07,500.00,499.93,499.98,500.05,500.12,500.19,500.21,500.26,500.33,500.41,500.49,500.56,500.59,500.61,500.67,500.69,500.69,500.73,500.79,500.80,500.86,500.90,500.90,500.90,500.97,501.00,501.00,501.00,501.07,500.44,499.93,499.99,500.01,500.12,500.15,500.10,500.10,500.10,500.10,500.10,500.10,500.09,500.09,500.09,500.10,500.11,500.17,500.24,500.30,500.38,500.40,500.45,500.53,500.60,500.67,500.75,500.82,500.90,500.98,501.05,501.14,501.21,501.29,501.37,501.45,501.53,501.61,501.69,501.76,501.84,501.90,501.91,501.97,502.05,502.10,502.11,502.18,502.19,502.23,502.29,502.29,502.30,502.35,502.40,502.40,502.40,502.40,502.40,502.38,502.32,502.31,502.30,502.29,502.28,502.23,502.20,502.19,502.18,502.12,502.11,502.10,502.09,502.08,502.03,502.00,502.00,501.98,501.92,501.91,501.90,501.90,501.88,501.83,501.81,501.80,501.79,501.79,501.75,501.70,501.70,501.69,501.69,501.65,501.60,501.60,501.59,501.59,501.57,501.51,501.50,501.49,501.46,501.41,501.39,501.33,501.30
498.76,498.76,498.76,498.79,498.84,498.87,498.91,498.99,499.00,499.04,499.12,499.19,499.20,499.25,499.33,499.39,499.40,499.46,499.52,499.56,499.56,499.63,499.66,499.66,499.67,499.71,499.74,499.79,499.87,500.00,500.18,500.37,500.50,500.43,500.35,500.27,500.19,500.07,499.95,499.88,499.87,499.94,500.17,500.33,500.47,500.62,500.85,501.01,501.22,501.42,501.57,501.69,501.78,501.84,501.85,501.82,501.78,501.74,501.71,501.66,501.63,501.56,501.52,501.50,501.43,501.39,501.35,501.31,501.27,501.21,501.16,501.13,501.11,501.03,500.84,500.61,500.37,500.15,500.01,499.92,499.83,499.76,499.68,499.61,499.52,499.44,499.32,499.24,499.16,499.08,498.99,498.82,498.68,498.54,498.43,498.48,498.60,498.71,498.83,498.99,499.14,499.29,499.42,499.51,499.66,499.81,499.97,500.12,500.27,500.43,500.57,500.68,500.75,500.79,500.73,500.61,500.46,500.38,500.24,500.13,500.04,499.98,500.03,500.08,500.12,500.20,500.25,500.28,500.33,500.41,500.49,500.56,500.60,500.62,500.69,500.74,500.76,500.78,500.85,500.86,500.92,500.96,500.96,500.96,501.03,501.06,501.06,501.06,501.09,500.45,499.93,500.02,500.16,500.31,500.34,500.28,500.28,500.28,500.28,500.28,500.27,500.23,500.22,500.22,500.22,500.22,500.25,500.30,500.38,500.45,500.51,500.57,500.63,500.67,500.75,500.83,500.90,500.98,501.05,501.13,501.21,501.28,501.37,501.44,501.52,501.60,501.68,501.75,501.83,501.90,501.96,501.97,502.03,502.12,502.16,502.17,502.24,502.26,502.30,502.36,502.37,502.41,502.44,502.46,502.46,502.46,502.46,502.44,502.39,502.37,502.36,502.33,502.30,502.30,502.27,502.26,502.24,502.20,502.17,502.16,502.14,502.10,502.10,502.07,502.06,502.04,502.00,501.97,501.96,501.96,501.95,501.91,501.87,501.86,501.86,501.86,501.81,501.78,501.76,501.75,501.71,501.70,501.69,501.66,501.66,501.62,501.60,501.59,501.56,501.56,501.53,501.49,501.45,501.40,501.33,501.30
498.82,498.82,498.80,498.80,498.85,498.90,498.92,498.99,499.01,499.05,499.12,499.19,499.22,499.26,499.33,499.39,499.40,499.46,499.53,499.60,499.61,499.67,499.71,499.72,499.74,499.80,499.82,499.87,499.99,500.13,500.32,500.50,500.61,500.58,500.49,500.40,500.32,500.24,500.09,499.99,499.95,499.99,500.19,500.36,500.51,500.69,500.91,501.08,501.28,501.49,501.64,501.79,501.88,501.93,501.94,501.92,501.87,501.84,501.81,501.75,501.73,501.68,501.64,501.61,501.56,501.53,501.49,501.44,501.42,501.37,501.34,501.30,501.24,501.14,500.96,500.74,500.50,500.28,500.11,499.98,499.88,499.80,499.72,499.64,499.57,499.48,499.35,499.26,499.17,499.08,499.00,498.87,498.72,498.57,498.45,498.50,498.63,498.75,498.85,498.99,499.14,499.29,499.42,499.51,499.66,499.81,499.97,500.12,500.27,500.43,500.58,500.72,500.79,500.82,500.76,500.65,500.52,500.42,500.29,500.20,500.13,500.07,500.10,500.13,500.17,500.23,500.30,500.34,500.37,500.44,500.51,500.59,500.63,500.65,500.72,500.79,500.82,500.86,500.92,500.93,500.99,501.02,501.02,501.03,501.10,501.13,501.13,501.13,501.13,500.53,500.05,500.14,500.33,500.48,500.52,500.48,500.47,500.46,500.45,500.45,500.44,500.39,500.36,500.35,500.35,500.35,500.35,500.40,500.47,500.53,500.60,500.68,500.73,500.76,500.83,500.91,500.99,501.07,501.15,501.22,501.30,501.38,501.45,501.53,501.61,501.69,501.76,501.82,501.90,501.97,502.02,502.03,502.10,502.18,502.22,502.24,502.31,502.32,502.37,502.43,502.43,502.50,502.52,502.52,502.52,502.50,502.50,502.48,502.43,502.43,502.41,502.37,502.32,502.32,502.31,502.30,502.28,502.23,502.22,502.21,502.17,502.13,502.13,502.11,502.10,502.08,502.03,502.02,502.01,502.00,501.99,501.94,501.93,501.92,501.90,501.89,501.84,501.82,501.82,501.79,501.74,501.72,501.72,501.72,501.70,501.65,501.63,501.62,501.60,501.60,501.56,501.52,501.49,501.43,501.36,501.31
498.88,498.87,498.81,498.81,498.85,498.90,498.92,498.99,499.05,499.09,499.12,499.19,499.26,499.29,499.33,499.39,499.40,499.46,499.53,499.60,499.61,499.67,499.74,499.78,499.79,499.86,499.88,499.97,500.16,500.26,500.41,500.57,500.70,500.75,500.63,500.53,500.45,500.37,500.22,500.13,500.09,500.12,500.27,500.42,500.58,500.75,500.98,501.14,501.35,501.55,501.70,501.86,501.95,502.03,502.06,502.00,501.98,501.94,501.89,501.87,501.81,501.78,501.75,501.70,501.68,501.62,501.59,501.56,501.50,501.48,501.43,501.39,501.35,501.22,501.06,500.86,500.63,500.41,500.24,500.05,499.88,499.80,499.72,499.64,499.57,499.49,499.40,499.32,499.21,499.08,499.00,498.92,498.78,498.63,498.51,498.57,498.66,498.77,498.90,499.00,499.14,499.29,499.42,499.51,499.66,499.81,499.97,500.12,500.27,500.43,500.58,500.72,500.80,500.87,500.79,500.67,500.57,500.44,500.34,500.29,500.26,500.19,500.19,500.23,500.28,500.30,500.37,500.44,500.48,500.50,500.58,500.65,500.69,500.71,500.78,500.87,500.89,500.92,500.98,500.99,501.05,501.09,501.09,501.10,501.15,501.19,501.19,501.19,501.19,500.73,500.35,500.39,500.54,500.64,500.67,500.67,500.66,500.61,500.58,500.58,500.58,500.57,500.51,500.48,500.48,500.48,500.48,500.52,500.58,500.60,500.67,500.75,500.82,500.88,500.96,501.04,501.12,501.19,501.27,501.35,501.43,501.50,501.58,501.66,501.73,501.81,501.88,501.90,501.96,502.03,502.09,502.10,502.17,502.25,502.29,502.30,502.37,502.39,502.43,502.49,502.50,502.56,502.59,502.59,502.58,502.52,502.50,502.50,502.49,502.48,502.43,502.40,502.39,502.38,502.32,502.31,502.30,502.29,502.28,502.23,502.20,502.19,502.18,502.13,502.11,502.10,502.09,502.09,502.04,502.00,502.00,501.99,501.99,501.95,501.91,501.90,501.89,501.88,501.86,501.81,501.79,501.78,501.78,501.77,501.72,501.69,501.69,501.67,501.61,501.61,501.59,501.56,501.50,501.49,501.42,501.35
498.93,498.89,498.86,498.86,498.88,498.90,498.92,498.99,499.06,499.10,499.12,499.19,499.27,499.30,499.33,499.40,499.44,499.48,499.53,499.60,499.61,499.67,499.74,499.80,499.81,499.88,499.93,500.03,500.21,500.33,500.48,500.63,500.78,500.88,500.80,500.69,500.58,500.50,500.39,500.31,500.26,500.29,500.39,500.50,500.67,500.86,501.04,501.20,501.41,501.62,501.77,501.96,502.07,502.15,502.19,502.12,502.11,502.06,502.01,502.00,501.93,501.91,501.88,501.81,501.80,501.75,501.69,501.65,501.61,501.57,501.53,501.48,501.38,501.23,501.08,500.91,500.72,500.53,500.37,500.12,499.88,499.80,499.72,499.64,499.57,499.49,499.41,499.33,499.24,499.12,499.01,498.93,498.80,498.66,498.57,498.59,498.69,498.81,498.91,499.00,499.14,499.29,499.44,499.56,499.71,499.84,499.97,500.12,500.27,500.43,500.58,500.73,500.84,500.89,500.83,500.73,500.64,500.53,500.45,500.39,500.35,500.31,500.27,500.30,500.36,500.37,500.44,500.51,500.56,500.57,500.64,500.72,500.75,500.77,500.85,500.93,500.98,501.02,501.05,501.06,501.12,501.16,501.16,501.16,501.23,501.25,501.25,501.25,501.25,500.91,500.63,500.69,500.75,500.79,500.81,500.81,500.81,500.77,500.74,500.71,500.71,500.71,500.68,500.64,500.61,500.61,500.61,500.63,500.67,500.71,500.78,500.83,500.88,500.97,501.04,501.12,501.19,501.27,501.35,501.43,501.50,501.58,501.66,501.74,501.81,501.89,501.96,502.00,502.04,502.10,502.17,502.21,502.25,502.30,502.36,502.37,502.44,502.45,502.50,502.56,502.56,502.63,502.66,502.64,502.60,502.56,502.56,502.53,502.50,502.50,502.47,502.45,502.44,502.40,502.37,502.36,502.34,502.30,502.30,502.27,502.25,502.25,502.20,502.17,502.16,502.16,502.15,502.11,502.07,502.06,502.06,502.06,502.02,501.98,501.95,501.95,501.91,501.90,501.89,501.86,501.86,501.82,501.80,501.79,501.75,501.72,501.70,501.69,501.66,501.66,501.62,501.57,501.50,501.50,501.44,501.38
498.98,498.92,498.92,498.92,498.92,498.92,498.93,498.99,499.06,499.10,499.12,499.19,499.27,499.30,499.33,499.40,499.48,499.50,499.53,499.60,499.61,499.67,499.74,499.80,499.81,499.88,499.96,500.09,500.25,500.41,500.56,500.72,500.87,501.01,500.97,500.84,500.72,500.63,500.56,500.48,500.44,500.46,500.54,500.63,500.77,500.96,501.12,501.27,501.47,501.68,501.85,502.07,502.18,502.25,502.30,502.25,502.22,502.18,502.14,502.11,502.06,502.03,501.99,501.94,501.92,501.87,501.79,501.74,501.73,501.67,501.63,501.56,501.40,501.25,501.09,500.92,500.77,500.60,500.46,500.16,499.88,499.80,499.72,499.64,499.57,499.49,499.41,499.33,499.26,499.16,499.03,498.93,498.81,498.68,498.61,498.62,498.73,498.84,498.92,499.01,499.15,499.29,499.45,499.60,499.76,499.86,499.97,500.12,500.27,500.43,500.58,500.74,500.88,500.91,500.87,500.79,500.72,500.65,500.58,500.50,500.44,500.42,500.37,500.38,500.42,500.43,500.50,500.58,500.62,500.63,500.70,500.78,500.83,500.86,500.92,501.00,501.07,501.12,501.12,501.12,501.18,501.22,501.22,501.23,501.28,501.32,501.32,501.32,501.32,501.09,500.92,500.95,500.94,500.94,500.94,500.94,500.94,500.94,500.90,500.85,500.84,500.84,500.84,500.81,500.76,500.74,500.74,500.74,500.76,500.82,500.90,500.93,500.97,501.05,501.12,501.19,501.26,501.36,501.44,501.51,501.59,501.67,501.74,501.82,501.88,501.95,502.03,502.11,502.12,502.17,502.24,502.31,502.32,502.38,502.42,502.43,502.50,502.52,502.56,502.62,502.63,502.68,502.70,502.68,502.63,502.62,502.61,502.57,502.52,502.52,502.51,502.50,502.48,502.43,502.42,502.41,502.38,502.32,502.32,502.32,502.31,502.29,502.23,502.22,502.21,502.20,502.19,502.13,502.12,502.11,502.10,502.09,502.05,502.01,502.00,501.99,501.94,501.92,501.91,501.90,501.90,501.85,501.81,501.80,501.80,501.74,501.72,501.71,501.70,501.70,501.64,501.57,501.52,501.50,501.45,501.41
499.04,498.99,498.99,498.99,498.99,498.99,498.99,499.00,499.06,499.10,499.12,499.19,499.27,499.30,499.33,499.40,499.48,499.50,499.53,499.60,499.61,499.67,499.74,499.80,499.81,499.88,500.00,500.17,500.38,500.54,500.69,500.85,501.00,501.13,501.10,500.97,500.84,500.76,500.69,500.61,500.57,500.60,500.73,500.82,500.91,501.02,501.18,501.34,501.54,501.75,501.91,502.13,502.25,502.33,502.38,502.37,502.31,502.28,502.25,502.19,502.17,502.12,502.08,502.06,502.00,501.97,501.93,501.87,501.86,501.79,501.73,501.63,501.47,501.31,501.11,500.92,500.76,500.55,500.44,500.16,499.88,499.80,499.72,499.64,499.57,499.49,499.41,499.33,499.26,499.18,499.08,498.95,498.84,498.73,498.63,498.67,498.75,498.84,498.93,499.06,499.16,499.29,499.45,499.60,499.76,499.86,499.97,500.12,500.27,500.43,500.58,500.74,500.88,500.96,500.94,500.86,500.79,500.77,500.71,500.63,500.56,500.50,500.47,500.48,500.49,500.50,500.56,500.64,500.69,500.70,500.77,500.85,500.92,500.97,500.99,501.05,501.13,501.19,501.19,501.19,501.25,501.28,501.28,501.29,501.36,501.38,501.38,501.38,501.38,501.30,501.20,501.14,501.08,501.07,501.07,501.07,501.07,501.07,501.06,501.03,500.98,500.97,500.97,500.96,500.94,500.88,500.87,500.87,500.87,500.89,500.96,501.03,501.10,501.18,501.25,501.28,501.36,501.49,501.56,501.64,501.72,501.79,501.87,501.95,501.98,502.02,502.10,502.17,502.19,502.23,502.30,502.38,502.38,502.44,502.49,502.50,502.57,502.59,502.63,502.69,502.69,502.69,502.70,502.70,502.69,502.69,502.63,502.60,502.59,502.58,502.53,502.50,502.50,502.49,502.49,502.44,502.39,502.38,502.38,502.38,502.35,502.30,502.29,502.28,502.24,502.20,502.20,502.19,502.19,502.16,502.11,502.10,502.09,502.05,502.00,502.00,501.99,501.99,501.96,501.90,501.90,501.89,501.85,501.80,501.80,501.79,501.78,501.76,501.71,501.70,501.64,501.60,501.57,501.51,501.49,501.45
499.08,499.05,499.05,499.05,499.02,499.00,499.00,499.00,499.06,499.10,499.12,499.19,499.27,499.30,499.33,499.40,499.48,499.50,499.53,499.60,499.61,499.67,499.74,499.80,499.81,499.88,500.00,500.19,500.42,500.65,500.82,500.98,501.13,501.26,501.23,501.10,500.97,500.90,500.86,500.79,500.75,500.78,500.92,501.01,501.09,501.18,501.30,501.45,501.63,501.81,501.98,502.20,502.34,502.44,502.50,502.49,502.43,502.38,502.34,502.30,502.26,502.22,502.18,502.14,502.11,502.07,502.03,501.99,501.95,501.88,501.77,501.64,501.49,501.33,501.12,500.91,500.71,500.52,500.36,500.11,499.89,499.84,499.77,499.66,499.57,499.49,499.41,499.33,499.26,499.18,499.09,498.95,498.85,498.76,498.67,498.69,498.79,498.88,498.97,499.09,499.21,499.34,499.48,499.61,499.76,499.86,499.97,500.12,500.27,500.43,500.58,500.74,500.89,501.01,501.02,500.97,500.90,500.86,500.82,500.76,500.69,500.61,500.56,500.55,500.56,500.60,500.64,500.70,500.76,500.80,500.84,500.92,500.99,501.05,501.06,501.13,501.20,501.25,501.25,501.25,501.31,501.35,501.35,501.36,501.42,501.45,501.45,501.45,501.45,501.39,501.31,501.25,501.21,501.20,501.20,501.20,501.20,501.20,501.20,501.18,501.15,501.11,501.10,501.10,501.09,501.06,501.05,501.02,501.00,501.01,501.07,501.13,501.18,501.25,501.33,501.38,501.46,501.56,501.65,501.72,501.79,501.88,501.95,502.03,502.05,502.09,502.16,502.24,502.25,502.29,502.37,502.44,502.45,502.50,502.55,502.56,502.63,502.65,502.69,502.75,502.75,502.75,502.75,502.74,502.70,502.70,502.67,502.65,502.64,502.61,502.56,502.55,502.54,502.50,502.50,502.47,502.45,502.44,502.41,502.40,502.38,502.34,502.31,502.30,502.27,502.25,502.25,502.21,502.20,502.18,502.14,502.11,502.10,502.08,502.05,502.04,502.01,502.00,501.99,501.94,501.91,501.90,501.88,501.85,501.85,501.81,501.80,501.79,501.75,501.71,501.67,501.63,501.59,501.55,501.52,501.48
499.12,499.11,499.10,499.10,499.05,499.01,499.01,499.01,499.07,499.10,499.12,499.19,499.27,499.30,499.33,499.40,499.48,499.50,499.53,499.60,499.61,499.67,499.74,499.80,499.81,499.88,500.00,500.19,500.45,500.74,500.94,501.11,501.26,501.40,501.36,501.24,501.12,501.05,501.04,500.99,500.94,500.97,501.10,501.20,501.28,501.36,501.45,501.58,501.73,501.88,502.04,502.26,502.44,502.56,502.63,502.61,502.55,502.48,502.43,502.42,502.35,502.33,502.29,502.23,502.23,502.16,502.13,502.11,502.03,501.94,501.81,501.65,501.49,501.33,501.12,500.88,500.67,500.50,500.29,500.06,499.90,499.89,499.82,499.70,499.58,499.50,499.41,499.33,499.26,499.18,499.09,498.96,498.86,498.77,498.71,498.71,498.83,498.94,499.01,499.10,499.24,499.39,499.52,499.61,499.76,499.86,499.97,500.12,500.27,500.43,500.59,500.75,500.90,501.06,501.12,501.09,501.02,500.95,500.92,500.88,500.81,500.74,500.66,500.62,500.63,500.70,500.72,500.77,500.85,500.91,500.92,500.98,501.05,501.12,501.12,501.19,501.26,501.31,501.31,501.31,501.38,501.42,501.42,501.42,501.49,501.51,501.51,501.51,501.51,501.46,501.39,501.34,501.33,501.33,501.33,501.33,501.33,501.33,501.33,501.33,501.31,501.26,501.24,501.23,501.23,501.22,501.22,501.19,501.14,501.14,501.19,501.22,501.26,501.34,501.40,501.48,501.55,501.63,501.71,501.80,501.87,501.94,502.01,502.10,502.12,502.15,502.23,502.30,502.31,502.36,502.44,502.50,502.51,502.56,502.62,502.63,502.70,502.72,502.75,502.81,502.81,502.81,502.81,502.78,502.72,502.72,502.72,502.71,502.69,502.63,502.62,502.61,502.58,502.52,502.51,502.51,502.51,502.49,502.43,502.42,502.41,502.38,502.33,502.31,502.31,502.30,502.29,502.23,502.21,502.20,502.19,502.13,502.12,502.11,502.10,502.09,502.03,502.01,502.01,501.99,501.93,501.92,501.91,501.90,501.89,501.84,501.81,501.81,501.79,501.73,501.71,501.67,501.62,501.60,501.54,501.51
499.18,499.16,499.11,499.10,499.09,499.07,499.07,499.08,499.09,499.10,499.12,499.19,499.27,499.30,499.33,499.40,499.48,499.50,499.53,499.60,499.61,499.67,499.74,499.80,499.81,499.88,500.00,500.21,500.50,500.75,501.02,501.24,501.39,501.52,501.49,501.40,501.31,501.24,501.23,501.18,501.13,501.16,501.25,501.38,501.48,501.56,501.64,501.73,501.82,501.94,502.11,502.33,502.50,502.65,502.74,502.69,502.66,502.61,502.55,502.54,502.48,502.45,502.43,502.36,502.35,502.29,502.25,502.24,502.16,502.02,501.88,501.70,501.49,501.33,501.12,500.88,500.67,500.50,500.29,500.06,499.90,499.89,499.82,499.73,499.64,499.55,499.42,499.33,499.26,499.18,499.10,499.01,498.89,498.77,498.72,498.77,498.85,498.94,499.01,499.10,499.24,499.39,499.52,499.61,499.76,499.86,499.97,500.12,500.27,500.43,500.62,500.81,500.97,501.13,501.18,501.17,501.15,501.07,501.01,500.97,500.94,500.87,500.79,500.72,500.70,500.77,500.77,500.84,500.91,500.97,500.98,501.04,501.12,501.18,501.19,501.25,501.33,501.38,501.38,501.38,501.44,501.47,501.47,501.48,501.54,501.57,501.57,501.57,501.57,501.52,501.47,501.46,501.45,501.45,501.45,501.45,501.45,501.45,501.45,501.45,501.45,501.44,501.39,501.36,501.36,501.36,501.36,501.35,501.32,501.27,501.27,501.32,501.39,501.45,501.48,501.54,501.62,501.69,501.78,501.91,501.97,502.00,502.09,502.16,502.18,502.22,502.29,502.36,502.38,502.43,502.50,502.56,502.57,502.63,502.68,502.69,502.76,502.77,502.82,502.88,502.88,502.88,502.84,502.79,502.78,502.77,502.77,502.75,502.70,502.68,502.68,502.64,502.60,502.58,502.57,502.57,502.55,502.50,502.48,502.47,502.45,502.40,502.38,502.38,502.34,502.30,502.30,502.28,502.23,502.20,502.20,502.18,502.18,502.14,502.10,502.10,502.09,502.07,502.06,502.00,501.98,501.97,501.95,501.90,501.90,501.89,501.88,501.86,501.81,501.78,501.74,501.69,501.67,501.61,501.59,501.54
499.25,499.22,499.16,499.15,499.15,499.13,499.10,499.10,499.13,499.15,499.15,499.20,499.27,499.30,499.33,499.40,499.48,499.50,499.53,499.60,499.61,499.67,499.74,499.80,499.81,499.88,500.00,500.22,500.51,500.76,501.04,501.31,501.52,501.66,501.62,501.54,501.47,501.43,501.40,501.36,501.33,501.34,501.42,501.53,501.65,501.75,501.83,501.91,501.98,502.08,502.21,502.40,502.56,502.72,502.83,502.79,502.76,502.72,502.68,502.64,502.60,502.56,502.52,502.48,502.45,502.41,502.37,502.32,502.24,502.06,501.89,501.71,501.49,501.29,501.10,500.88,500.67,500.50,500.29,500.06,499.90,499.89,499.82,499.74,499.67,499.58,499.46,499.35,499.26,499.18,499.10,499.03,498.92,498.81,498.76,498.79,498.86,498.94,499.02,499.14,499.25,499.39,499.52,499.61,499.76,499.86,499.97,500.12,500.28,500.46,500.65,500.85,501.02,501.16,501.22,501.25,501.24,501.19,501.13,501.07,501.03,500.99,500.92,500.84,500.80,500.84,500.85,500.90,500.98,501.04,501.05,501.11,501.19,501.25,501.29,501.33,501.40,501.44,501.44,501.44,501.50,501.54,501.54,501.54,501.58,501.62,501.65,501.65,501.65,501.61,501.59,501.59,501.59,501.59,501.59,501.59,501.59,501.59,501.59,501.57,501.55,501.54,501.51,501.49,501.49,501.49,501.49,501.49,501.47,501.44,501.40,501.42,501.48,501.54,501.58,501.65,501.73,501.80,501.88,502.00,502.04,502.07,502.15,502.23,502.25,502.28,502.36,502.43,502.44,502.49,502.56,502.64,502.65,502.69,502.75,502.76,502.83,502.85,502.88,502.94,502.91,502.90,502.87,502.85,502.84,502.81,502.80,502.78,502.75,502.74,502.71,502.67,502.65,502.64,502.61,502.60,502.58,502.54,502.51,502.50,502.48,502.44,502.41,502.40,502.37,502.35,502.34,502.31,502.26,502.25,502.24,502.21,502.20,502.17,502.15,502.14,502.11,502.10,502.08,502.04,502.01,502.00,501.98,501.94,501.94,501.91,501.90,501.88,501.81,501.80,501.77,501.73,501.69,501.65,501.61,501.57
499.31,499.29,499.22,499.21,499.20,499.19,499.13,499.13,499.18,499.20,499.20,499.22,499.27,499.30,499.33,499.40,499.47,499.49,499.53,499.60,499.61,499.67,499.74,499.80,499.81,499.88,500.00,500.22,500.51,500.76,501.04,501.35,501.63,501.78,501.75,501.68,501.63,501.62,501.55,501.52,501.52,501.54,501.62,501.69,501.81,501.94,502.02,502.10,502.18,502.25,502.35,502.49,502.64,502.80,502.92,502.91,502.85,502.82,502.79,502.73,502.72,502.66,502.62,502.60,502.53,502.51,502.46,502.38,502.28,502.07,501.89,501.70,501.48,501.25,501.08,500.88,500.67,500.50,500.29,500.06,499.90,499.89,499.82,499.74,499.67,499.59,499.51,499.38,499.27,499.19,499.10,499.03,498.95,498.87,498.80,498.80,498.86,498.94,499.04,499.17,499.27,499.39,499.52,499.61,499.76,499.86,499.97,500.13,500.29,500.50,500.69,500.87,501.07,501.18,501.25,501.30,501.31,501.30,501.25,501.18,501.12,501.10,501.04,500.97,500.92,500.91,500.92,500.97,501.04,501.10,501.12,501.18,501.25,501.33,501.39,501.41,501.46,501.50,501.50,501.51,501.56,501.61,501.61,501.61,501.61,501.65,501.70,501.70,501.70,501.71,501.72,501.72,501.72,501.72,501.72,501.72,501.72,501.72,501.71,501.68,501.63,501.62,501.62,501.62,501.62,501.62,501.62,501.62,501.62,501.61,501.55,501.53,501.55,501.62,501.69,501.77,501.84,501.92,502.00,502.08,502.11,502.13,502.21,502.29,502.31,502.35,502.42,502.49,502.50,502.55,502.63,502.69,502.70,502.76,502.81,502.82,502.89,502.91,502.94,502.98,502.92,502.91,502.91,502.90,502.88,502.83,502.81,502.81,502.80,502.79,502.74,502.71,502.70,502.69,502.63,502.61,502.61,502.58,502.52,502.51,502.51,502.48,502.42,502.41,502.41,502.39,502.38,502.33,502.31,502.30,502.28,502.23,502.21,502.21,502.19,502.19,502.13,502.11,502.10,502.08,502.02,502.01,502.01,502.00,501.99,501.94,501.91,501.88,501.82,501.80,501.80,501.77,501.71,501.69,501.64,501.61
499.38,499.37,499.34,499.29,499.27,499.26,499.25,499.25,499.26,499.27,499.27,499.27,499.29,499.30,499.33,499.39,499.42,499.47,499.53,499.60,499.61,499.67,499.74,499.80,499.81,499.88,500.00,500.22,500.51,500.76,501.04,501.36,501.66,501.90,501.93,501.87,501.82,501.81,501.74,501.72,501.72,501.73,501.81,501.89,502.01,502.14,502.22,502.29,502.37,502.45,502.53,502.63,502.77,502.92,503.04,503.04,502.97,502.95,502.92,502.86,502.85,502.79,502.74,502.73,502.66,502.60,502.53,502.44,502.29,502.07,501.86,501.66,501.48,501.25,501.08,500.88,500.66,500.45,500.27,500.06,499.90,499.89,499.82,499.74,499.67,499.59,499.51,499.42,499.33,499.24,499.11,499.03,498.95,498.87,498.81,498.80,498.86,498.97,499.09,499.19,499.27,499.39,499.52,499.61,499.76,499.86,499.99,500.19,500.35,500.52,500.72,500.92,501.09,501.23,501.29,501.32,501.37,501.38,501.36,501.31,501.24,501.18,501.16,501.10,501.03,500.99,501.03,501.06,501.11,501.18,501.24,501.26,501.31,501.39,501.46,501.47,501.52,501.57,501.57,501.57,501.63,501.68,501.68,501.68,501.68,501.72,501.77,501.77,501.77,501.81,501.85,501.85,501.85,501.85,501.85,501.85,501.85,501.85,501.81,501.76,501.75,501.74,501.74,501.74,501.74,501.74,501.74,501.74,501.74,501.74,501.73,501.68,501.66,501.69,501.76,501.84,501.92,501.99,502.06,502.15,502.18,502.20,502.27,502.36,502.38,502.41,502.49,502.56,502.57,502.62,502.69,502.76,502.77,502.83,502.88,502.89,502.96,502.97,502.99,503.00,502.98,502.97,502.97,502.95,502.90,502.88,502.88,502.85,502.80,502.80,502.78,502.77,502.76,502.70,502.68,502.68,502.65,502.60,502.58,502.57,502.54,502.50,502.48,502.47,502.44,502.40,502.40,502.38,502.33,502.30,502.30,502.28,502.27,502.24,502.20,502.20,502.18,502.14,502.10,502.10,502.08,502.07,502.04,502.00,502.00,501.98,501.94,501.89,501.87,501.81,501.80,501.79,501.76,501.71,501.68,501.64
499.44,499.44,499.43,499.39,499.36,499.34,499.34,499.34,499.34,499.34,499.34,499.34,499.34,499.34,499.37,499.43,499.44,499.47,499.53,499.60,499.61,499.67,499.74,499.80,499.81,499.88,500.00,500.22,500.52,500.79,501.06,501.36,501.66,501.93,502.07,502.06,502.00,501.98,501.93,501.89,501.89,501.93,502.00,502.08,502.19,502.30,502.41,502.49,502.57,502.64,502.72,502.80,502.91,503.04,503.13,503.13,503.09,503.06,503.02,502.98,502.94,502.90,502.86,502.83,502.78,502.71,502.60,502.46,502.29,502.07,501.85,501.64,501.48,501.25,501.08,500.88,500.65,500.43,500.26,500.06,499.90,499.89,499.82,499.74,499.67,499.59,499.51,499.44,499.36,499.27,499.15,499.06,498.99,498.91,498.85,498.84,498.90,499.00,499.11,499.19,499.30,499.41,499.53,499.64,499.77,499.86,500.00,500.22,500.41,500.56,500.75,500.94,501.13,501.28,501.34,501.36,501.40,501.43,501.44,501.42,501.36,501.29,501.25,501.21,501.15,501.09,501.13,501.13,501.17,501.25,501.32,501.34,501.38,501.45,501.52,501.53,501.59,501.63,501.63,501.64,501.69,501.74,501.74,501.74,501.74,501.78,501.84,501.84,501.84,501.90,501.94,501.94,501.94,501.94,501.94,501.94,501.94,501.94,501.91,501.88,501.88,501.88,501.88,501.88,501.88,501.88,501.88,501.88,501.88,501.88,501.88,501.84,501.80,501.79,501.86,501.94,502.00,502.05,502.13,502.21,502.24,502.26,502.34,502.42,502.44,502.48,502.55,502.62,502.66,502.70,502.76,502.83,502.87,502.91,502.95,502.98,503.02,503.03,503.03,503.03,503.03,503.01,503.00,502.98,502.94,502.94,502.92,502.88,502.84,502.84,502.81,502.80,502.79,502.74,502.74,502.72,502.68,502.64,502.63,502.61,502.57,502.53,502.50,502.50,502.47,502.43,502.40,502.40,502.37,502.34,502.33,502.31,502.30,502.27,502.23,502.20,502.20,502.17,502.13,502.13,502.11,502.10,502.07,502.03,502.00,502.00,501.97,501.93,501.89,501.85,501.81,501.80,501.79,501.75,501.71,501.67
499.50,499.50,499.50,499.50,499.45,499.41,499.41,499.41,499.41,499.41,499.41,499.41,499.41,499.41,499.43,499.50,499.50,499.51,499.54,499.60,499.61,499.67,499.74,499.80,499.81,499.88,500.00,500.22,500.53,500.83,501.08,501.35,501.64,501.89,502.17,502.24,502.18,502.12,502.11,502.05,502.05,502.12,502.20,502.27,502.36,502.45,502.59,502.68,502.76,502.84,502.92,502.99,503.07,503.15,503.21,503.21,503.20,503.16,503.11,503.09,503.03,503.00,502.97,502.91,502.90,502.82,502.66,502.46,502.29,502.07,501.85,501.64,501.48,501.25,501.08,500.88,500.65,500.43,500.26,500.06,499.90,499.89,499.82,499.74,499.67,499.59,499.52,499.44,499.37,499.29,499.20,499.12,499.04,498.97,498.90,498.89,498.96,499.03,499.11,499.20,499.34,499.44,499.55,499.69,499.78,499.86,500.00,500.23,500.45,500.63,500.79,500.96,501.18,501.34,501.40,501.41,501.42,501.48,501.50,501.50,501.48,501.41,501.34,501.30,501.27,501.21,501.20,501.20,501.24,501.31,501.39,501.41,501.45,501.52,501.59,501.61,501.65,501.70,501.70,501.70,501.76,501.81,501.81,501.81,501.81,501.85,501.91,501.91,501.91,501.95,502.00,502.00,502.00,502.01,502.01,502.01,502.01,502.01,502.01,502.00,502.00,502.00,502.00,502.00,502.00,502.00,502.00,502.00,502.00,502.00,502.00,501.99,501.97,501.92,501.98,502.06,502.10,502.12,502.19,502.27,502.31,502.33,502.41,502.49,502.51,502.54,502.62,502.69,502.77,502.80,502.83,502.90,502.98,503.00,503.03,503.09,503.10,503.11,503.11,503.10,503.09,503.03,503.01,503.00,503.00,503.00,502.95,502.91,502.90,502.89,502.84,502.81,502.81,502.80,502.80,502.75,502.71,502.69,502.69,502.64,502.61,502.58,502.52,502.51,502.50,502.47,502.42,502.41,502.40,502.39,502.38,502.32,502.31,502.30,502.28,502.22,502.21,502.20,502.19,502.18,502.13,502.11,502.11,502.08,502.02,502.00,502.00,501.97,501.92,501.90,501.84,501.81,501.80,501.79,501.74,501.70
499.56,499.56,499.56,499.56,499.55,499.52,499.47,499.47,499.47,499.47,499.47,499.47,499.47,499.50,499.54,499.56,499.56,499.56,499.58,499.60,499.61,499.67,499.74,499.80,499.81,499.88,500.00,500.22,500.53,500.84,501.08,501.33,501.59,501.88,502.13,502.31,502.38,502.31,502.30,502.25,502.24,502.31,502.39,502.47,502.55,502.63,502.74,502.86,502.95,503.03,503.11,503.19,503.26,503.31,503.34,503.33,503.29,503.25,503.22,503.17,503.14,503.10,503.06,503.03,502.97,502.86,502.67,502.45,502.24,502.06,501.85,501.64,501.48,501.25,501.08,500.88,500.65,500.43,500.26,500.06,499.90,499.89,499.82,499.74,499.67,499.60,499.57,499.50,499.43,499.33,499.21,499.13,499.05,498.97,498.90,498.90,498.96,499.04,499.12,499.20,499.34,499.45,499.55,499.69,499.78,499.86,500.00,500.23,500.46,500.67,500.85,501.01,501.19,501.35,501.44,501.47,501.47,501.49,501.54,501.56,501.56,501.53,501.47,501.41,501.36,501.33,501.28,501.26,501.30,501.38,501.45,501.51,501.55,501.59,501.66,501.67,501.72,501.76,501.76,501.76,501.83,501.87,501.87,501.87,501.87,501.92,501.97,501.97,501.97,502.02,502.06,502.06,502.07,502.11,502.14,502.14,502.14,502.14,502.14,502.12,502.07,502.06,502.06,502.06,502.06,502.06,502.06,502.06,502.06,502.06,502.06,502.06,502.06,502.04,502.06,502.13,502.17,502.19,502.26,502.34,502.40,502.44,502.48,502.55,502.61,502.65,502.68,502.75,502.84,502.87,502.89,502.97,503.04,503.06,503.10,503.16,503.17,503.17,503.17,503.15,503.11,503.08,503.06,503.05,503.00,503.00,502.98,502.97,502.96,502.91,502.88,502.87,502.85,502.81,502.80,502.78,502.75,502.70,502.70,502.68,502.64,502.59,502.57,502.56,502.54,502.49,502.47,502.47,502.43,502.40,502.39,502.37,502.37,502.34,502.29,502.27,502.26,502.23,502.20,502.20,502.17,502.17,502.14,502.09,502.07,502.02,502.00,501.99,501.96,501.91,501.88,501.84,501.80,501.80,501.78,501.74
499.63,499.63,499.63,499.63,499.63,499.61,499.56,499.54,499.53,499.53,499.53,499.53,499.53,499.58,499.63,499.63,499.63,499.63,499.63,499.63,499.63,499.68,499.73,499.77,499.81,499.88,500.00,500.22,500.52,500.81,501.07,501.32,501.56,501.84,502.11,502.35,502.50,502.50,502.50,502.44,502.43,502.51,502.59,502.66,502.74,502.82,502.90,503.02,503.14,503.22,503.27,503.35,503.41,503.45,503.47,503.46,503.40,503.37,503.34,503.27,503.26,503.21,503.17,503.14,503.01,502.87,502.67,502.44,502.22,502.05,501.85,501.64,501.48,501.25,501.08,500.88,500.65,500.43,500.26,500.06,499.90,499.89,499.82,499.74,499.68,499.63,499.60,499.53,499.47,499.40,499.27,499.19,499.12,499.03,498.97,498.94,499.00,499.07,499.15,499.23,499.35,499.45,499.55,499.69,499.78,499.86,500.00,500.23,500.46,500.69,500.90,501.07,501.23,501.38,501.46,501.51,501.53,501.53,501.57,501.61,501.63,501.63,501.58,501.52,501.46,501.43,501.36,501.35,501.38,501.44,501.52,501.60,501.63,501.65,501.72,501.74,501.78,501.84,501.84,501.84,501.89,501.94,501.94,501.94,501.94,501.98,502.03,502.03,502.03,502.09,502.13,502.13,502.13,502.19,502.24,502.24,502.24,502.24,502.24,502.21,502.17,502.17,502.17,502.17,502.17,502.17,502.17,502.17,502.17,502.17,502.17,502.17,502.17,502.17,502.16,502.17,502.18,502.22,502.32,502.40,502.48,502.53,502.54,502.62,502.69,502.74,502.75,502.83,502.90,502.94,502.95,503.03,503.11,503.13,503.17,503.23,503.24,503.21,503.20,503.19,503.14,503.13,503.12,503.08,503.04,503.03,503.01,503.00,502.99,502.94,502.94,502.92,502.89,502.84,502.84,502.81,502.78,502.74,502.74,502.71,502.67,502.63,502.60,502.60,502.57,502.53,502.50,502.50,502.46,502.44,502.43,502.40,502.40,502.37,502.33,502.30,502.30,502.26,502.24,502.23,502.21,502.20,502.17,502.13,502.10,502.05,502.02,502.00,501.99,501.95,501.91,501.88,501.83,501.81,501.80,501.77
499.69,499.69,499.69,499.69,499.69,499.69,499.68,499.62,499.60,499.60,499.60,499.60,499.60,499.65,499.69,499.69,499.69,499.69,499.69,499.69,499.69,499.70,499.71,499.74,499.80,499.87,500.00,500.22,500.52,500.76,501.04,501.31,501.55,501.79,502.08,502.34,502.54,502.67,502.68,502.63,502.63,502.70,502.78,502.86,502.94,503.01,503.09,503.18,503.29,503.38,503.41,503.47,503.50,503.54,503.59,503.58,503.52,503.49,503.47,503.40,503.39,503.34,503.29,503.24,503.04,502.87,502.67,502.44,502.23,502.05,501.85,501.64,501.48,501.25,501.08,500.88,500.65,500.43,500.26,500.06,499.90,499.89,499.82,499.75,499.70,499.69,499.62,499.55,499.51,499.48,499.41,499.33,499.25,499.17,499.08,499.01,499.05,499.13,499.21,499.28,499.37,499.45,499.55,499.69,499.78,499.86,500.00,500.23,500.46,500.69,500.92,501.13,501.28,501.44,501.50,501.53,501.59,501.60,501.60,501.64,501.69,501.69,501.69,501.65,501.57,501.50,501.43,501.45,501.49,501.51,501.59,501.66,501.69,501.72,501.78,501.79,501.85,501.90,501.90,501.90,501.95,502.00,502.00,502.00,502.00,502.04,502.10,502.10,502.10,502.15,502.19,502.19,502.20,502.26,502.29,502.29,502.30,502.30,502.30,502.30,502.29,502.29,502.28,502.28,502.28,502.28,502.28,502.28,502.28,502.28,502.28,502.28,502.28,502.28,502.28,502.18,502.15,502.22,502.36,502.45,502.53,502.59,502.61,502.68,502.75,502.79,502.81,502.88,502.97,503.00,503.02,503.10,503.18,503.19,503.23,503.29,503.29,503.24,503.20,503.20,503.19,503.19,503.15,503.10,503.10,503.09,503.04,503.00,503.00,503.00,502.99,502.95,502.90,502.90,502.89,502.84,502.80,502.79,502.79,502.74,502.70,502.68,502.62,502.61,502.60,502.57,502.51,502.50,502.50,502.49,502.48,502.42,502.40,502.40,502.38,502.31,502.31,502.30,502.29,502.28,502.22,502.20,502.20,502.18,502.12,502.10,502.05,502.00,502.00,502.00,501.94,501.90,501.88,501.82,501.81,501.80
499.76,499.76,499.76,499.76,499.76,499.76,499.76,499.73,499.68,499.67,499.67,499.67,499.71,499.74,499.76,499.76,499.76,499.76,499.76,499.76,499.76,499.76,499.76,499.77,499.80,499.83,499.98,500.22,500.51,500.75,501.01,501.28,501.55,501.78,502.04,502.31,502.56,502.75,502.81,502.80,502.82,502.90,502.98,503.05,503.13,503.21,503.28,503.36,503.43,503.48,503.53,503.56,503.60,503.66,503.71,503.67,503.64,503.59,503.55,503.52,503.48,503.44,503.38,503.27,503.09,502.89,502.67,502.45,502.26,502.07,501.85,501.64,501.48,501.25,501.08,500.88,500.65,500.43,500.26,500.06,499.90,499.89,499.82,499.78,499.76,499.76,499.73,499.70,499.66,499.62,499.58,499.51,499.47,499.35,499.12,499.07,499.09,499.14,499.22,499.29,499.37,499.45,499.55,499.69,499.78,499.86,500.00,500.23,500.46,500.69,500.93,501.15,501.34,501.46,501.53,501.57,501.61,501.65,501.67,501.68,501.71,501.75,501.76,501.74,501.70,501.63,501.54,501.54,501.56,501.58,501.65,501.73,501.76,501.78,501.85,501.87,501.92,501.97,501.97,501.97,502.02,502.06,502.06,502.06,502.06,502.11,502.17,502.17,502.17,502.22,502.26,502.26,502.26,502.33,502.37,502.37,502.37,502.41,502.43,502.43,502.42,502.38,502.37,502.37,502.37,502.37,502.37,502.37,502.37,502.37,502.37,502.37,502.37,502.37,502.36,502.24,502.13,502.12,502.26,502.39,502.49,502.57,502.66,502.75,502.82,502.87,502.88,502.95,503.03,503.06,503.09,503.16,503.24,503.26,503.29,503.35,503.31,503.28,503.26,503.25,503.21,503.20,503.18,503.17,503.16,503.11,503.08,503.06,503.06,503.06,503.02,502.99,502.97,502.96,502.91,502.88,502.87,502.86,502.81,502.78,502.74,502.69,502.67,502.67,502.63,502.59,502.56,502.56,502.53,502.50,502.49,502.46,502.42,502.40,502.39,502.37,502.37,502.33,502.30,502.30,502.27,502.23,502.20,502.19,502.16,502.12,502.08,502.06,502.06,502.01,501.98,501.94,501.89,501.87,501.87,501.84
