464.58,464.95,464.92,464.88,465.14,465.33,465.54,465.77,466.02,466.29,466.49,466.69,466.88,467.01,467.23,467.41,467.58,467.76,467.96,468.17,468.44,468.75,469.04,469.37,469.66,469.92,470.18,470.46,470.77,470.90,470.80,470.69,470.42,470.01,469.45,468.67,467.84,467.07,466.75,467.17,467.82,468.44,469.05,469.64,470.27,471.01,471.45,471.67,471.79,471.69,472.29,473.15,473.93,474.27,474.35,474.29,474.10,473.78,473.98,474.38,474.91,475.63,476.55,477.57,478.44,479.03,479.20,479.29,479.29,479.21,479.17,479.61,480.06,480.51,480.97,481.45,482.22,483.14,484.09,484.94,485.33,485.63,485.88,486.08,486.35,486.53,486.73,486.96,487.19,487.42,487.50,487.50,487.52,487.52,487.58,487.63,487.71,488.01,488.73,489.48,490.08,490.49,490.99,491.41,491.43,490.84,490.24,489.35,488.84,489.11,490.28,491.36,491.87,492.00,492.11,492.42,493.12,493.94,494.63,494.84,494.72,494.36,493.83,493.19,492.60,492.11,491.66,491.16,490.57,490.01,489.75,489.93,490.51,491.64,493.12,494.64,495.90,496.90,497.63,498.25,498.84,499.29,499.75,500.32,500.88,501.11,501.09,501.05,500.98,500.94,501.33,501.91,502.54,503.19,503.80,504.45,504.83,505.00,505.16,505.35,505.52,505.45,504.99,504.35,503.87,503.46,503.07,502.73,502.75,503.56,504.78,506.03,507.21,508.22,508.88,509.16,509.36,509.44,509.40,509.27,509.04,508.76,507.88,506.32,504.20,502.30,500.93,500.48,500.71,500.68,500.69,500.75,500.98,501.49,502.25,503.18,503.36,502.67,502.47,502.29,502.26,502.26,501.98,501.50,500.84,500.11,499.36,498.65,498.46,498.94,500.26,502.64,505.16,507.07,508.15,508.26,508.32,507.96,507.39,506.74,506.09,505.34,504.68,504.50,505.44,506.33,507.22,508.11,508.94,509.69,510.31,510.89,511.39,511.62,511.18,510.52,509.76,508.87,508.02,507.93,508.44,509.33,510.09,510.68,511.28,511.91,512.44,512.47,512.30,512.07,511.82,511.56,511.89,512.53,513.26,514.00
464.15,464.49,464.40,464.37,464.82,465.16,465.43,465.69,465.94,466.17,466.34,466.50,466.65,466.81,467.01,467.20,467.38,467.57,467.82,468.07,468.38,468.73,469.04,469.31,469.53,469.73,469.96,470.19,470.46,470.58,470.47,470.36,470.05,469.57,468.91,468.07,467.22,466.67,466.66,467.29,467.98,468.62,469.23,469.84,470.42,470.92,471.02,470.85,470.61,470.50,471.02,471.78,472.48,472.93,473.15,473.28,473.34,473.42,473.97,474.57,475.18,475.89,476.80,477.60,478.18,478.51,478.60,478.68,478.72,478.71,478.70,479.15,479.64,480.12,480.60,481.12,481.98,482.97,483.95,484.75,485.05,485.28,485.48,485.66,485.95,486.14,486.33,486.57,486.80,487.03,487.05,486.96,486.94,486.96,487.01,487.03,487.18,487.91,488.94,489.74,490.23,490.55,490.98,491.28,491.26,490.74,490.21,489.24,488.59,488.75,489.84,490.66,490.89,490.86,491.11,491.72,492.62,493.44,493.94,494.06,493.98,493.71,493.27,492.67,492.06,491.52,491.01,490.50,489.95,489.53,489.40,489.60,489.96,491.08,492.48,493.93,495.31,496.52,497.47,498.21,498.76,499.12,499.44,499.83,500.20,500.32,500.27,500.21,500.18,500.29,500.82,501.43,502.04,502.66,503.28,503.86,504.17,504.31,504.50,504.74,504.91,504.76,504.09,503.23,502.58,502.04,501.56,501.33,501.70,502.66,503.88,505.03,506.08,507.05,507.75,508.12,508.31,508.33,508.22,508.01,507.70,507.42,506.83,505.62,503.66,501.84,500.39,499.56,499.37,499.60,499.77,499.89,500.14,500.75,501.62,502.49,502.51,501.65,501.32,501.20,501.23,501.28,501.07,500.66,500.09,499.45,498.77,498.10,498.14,498.82,500.08,501.89,504.15,506.00,507.09,507.25,507.34,506.95,506.35,505.72,505.09,504.39,503.89,503.93,504.94,505.77,506.62,507.48,508.34,509.18,509.90,510.55,511.10,511.34,510.93,510.29,509.50,508.48,507.48,507.60,508.35,509.36,510.18,510.78,511.34,511.87,512.21,512.03,511.78,511.54,511.29,511.09,511.70,512.56,513.39,514.13
463.50,463.77,463.73,463.81,464.45,464.98,465.34,465.64,465.88,466.00,466.14,466.30,466.46,466.61,466.78,466.99,467.21,467.45,467.75,468.05,468.35,468.66,468.95,469.14,469.27,469.40,469.63,469.86,470.10,470.22,470.16,470.01,469.62,469.05,468.33,467.48,466.66,466.44,466.72,467.34,468.02,468.66,469.27,469.82,470.13,470.10,470.00,469.89,469.75,469.79,469.99,470.38,470.93,471.36,471.74,472.25,472.90,473.69,474.53,475.14,475.67,476.32,477.17,477.57,477.75,477.87,477.95,478.03,478.11,478.19,478.32,478.74,479.25,479.74,480.23,480.85,481.78,482.81,483.79,484.44,484.68,484.89,485.10,485.27,485.56,485.76,485.95,486.18,486.41,486.64,486.60,486.43,486.38,486.42,486.45,486.47,486.72,487.89,489.16,489.97,490.36,490.66,491.03,491.23,491.13,490.68,490.20,489.17,488.34,488.25,489.15,489.64,489.77,489.86,490.37,491.25,492.16,492.79,493.00,493.14,493.11,492.94,492.62,492.08,491.48,491.00,490.57,490.08,489.55,489.15,489.13,489.52,490.04,491.19,492.40,493.54,494.69,495.90,497.13,498.09,498.57,498.85,499.05,499.27,499.49,499.56,499.50,499.32,499.28,499.62,500.26,500.90,501.52,502.14,502.75,503.25,503.46,503.56,503.84,504.09,504.27,504.11,503.43,502.47,501.62,500.83,500.20,500.15,500.73,501.76,502.91,503.92,504.87,505.85,506.61,506.99,507.07,506.93,506.72,506.48,506.19,505.95,505.67,504.87,503.24,501.40,499.99,498.93,498.34,498.55,498.72,498.88,499.23,500.04,501.06,501.73,501.57,500.68,500.21,500.16,500.23,500.27,500.15,499.81,499.36,498.81,498.18,497.53,497.88,498.78,500.05,501.69,503.47,505.03,506.07,506.26,506.36,505.93,505.29,504.62,503.99,503.37,503.11,503.38,504.31,505.17,506.06,506.95,507.81,508.66,509.49,510.22,510.80,511.16,510.75,510.10,509.23,508.03,506.88,507.30,508.37,509.46,510.25,510.84,511.34,511.73,511.79,511.49,511.21,510.95,510.69,510.66,511.46,512.51,513.50,514.29
462.82,463.02,463.17,463.51,464.23,464.88,465.27,465.52,465.67,465.75,465.89,466.05,466.22,466.42,466.62,466.87,467.15,467.43,467.74,468.04,468.31,468.52,468.74,468.86,468.95,469.08,469.30,469.50,469.68,469.72,469.58,469.37,468.95,468.41,467.75,466.93,466.36,466.32,466.66,467.24,467.88,468.51,469.06,469.48,469.67,469.56,469.44,469.37,469.33,469.48,469.70,470.08,470.64,471.29,471.95,472.68,473.49,474.35,475.04,475.56,476.00,476.40,476.86,477.05,477.14,477.22,477.30,477.38,477.60,477.90,478.21,478.58,479.00,479.46,479.97,480.68,481.70,482.78,483.71,484.15,484.35,484.56,484.76,484.93,485.18,485.37,485.56,485.79,486.02,486.21,486.15,485.97,485.89,485.87,485.87,486.02,486.60,488.01,489.33,490.10,490.41,490.63,490.83,490.92,490.88,490.65,490.20,489.19,488.12,487.52,488.08,488.49,488.75,489.12,489.92,490.82,491.48,491.88,492.03,492.18,492.19,492.10,491.89,491.48,490.93,490.48,490.05,489.54,489.00,488.85,489.11,489.72,490.53,491.70,492.89,494.02,495.14,496.29,497.09,497.65,498.04,498.37,498.55,498.72,498.88,498.94,498.73,498.43,498.35,498.81,499.56,500.28,500.97,501.63,502.23,502.61,502.75,502.83,503.14,503.42,503.65,503.50,502.77,501.76,500.83,500.07,499.58,499.55,500.03,500.86,501.81,502.77,503.70,504.65,505.38,505.75,505.75,505.60,505.41,505.23,505.06,504.87,504.69,504.15,502.97,501.40,499.98,498.72,497.76,497.50,497.58,497.79,498.29,499.36,500.52,501.13,500.93,499.96,499.21,499.12,499.20,499.24,499.20,499.01,498.63,498.11,497.51,496.98,497.63,498.74,500.04,501.65,503.30,504.45,505.07,505.25,505.33,504.87,504.21,503.57,502.95,502.40,502.31,502.74,503.62,504.51,505.40,506.29,507.18,508.07,508.94,509.74,510.42,510.78,510.53,509.90,508.94,507.59,506.36,506.91,508.18,509.41,510.21,510.76,511.26,511.60,511.43,511.08,510.73,510.43,510.23,510.35,511.24,512.37,513.46,514.40
462.13,462.29,462.64,463.18,463.90,464.58,465.04,465.31,465.42,465.52,465.66,465.83,466.02,466.27,466.52,466.81,467.12,467.42,467.70,467.95,468.16,468.31,468.46,468.55,468.63,468.75,468.97,469.10,469.18,469.11,468.88,468.64,468.25,467.76,467.15,466.43,466.16,466.25,466.59,467.09,467.72,468.28,468.73,469.04,469.17,469.09,469.03,469.06,469.19,469.41,469.71,470.16,470.83,471.70,472.56,473.37,474.12,474.76,475.18,475.57,475.89,476.10,476.25,476.36,476.47,476.60,476.80,477.01,477.40,477.89,478.35,478.68,479.05,479.45,479.94,480.73,481.78,482.79,483.55,483.81,483.98,484.17,484.37,484.55,484.78,484.97,485.17,485.40,485.62,485.79,485.72,485.53,485.43,485.34,485.32,485.62,486.47,487.94,489.26,490.03,490.31,490.44,490.53,490.56,490.57,490.54,490.21,489.29,488.11,487.11,487.17,487.50,487.91,488.49,489.44,490.27,490.70,490.93,491.08,491.21,491.25,491.23,491.12,490.81,490.30,489.86,489.42,488.88,488.46,488.66,489.23,490.07,491.14,492.36,493.54,494.67,495.77,496.54,496.75,496.86,497.18,497.63,497.95,498.17,498.30,498.25,497.89,497.48,497.39,497.97,498.82,499.66,500.43,501.11,501.70,501.98,502.05,502.12,502.41,502.74,503.01,502.89,502.14,501.10,500.16,499.47,499.07,499.09,499.47,500.09,500.89,501.80,502.70,503.61,504.31,504.63,504.57,504.43,504.29,504.16,504.06,503.91,503.75,503.36,502.52,501.26,499.87,498.48,497.25,496.50,496.46,496.76,497.44,498.61,499.86,500.46,500.22,499.21,498.23,498.06,498.13,498.20,498.19,498.15,497.89,497.44,496.89,496.54,497.44,498.71,500.06,501.62,503.03,503.79,504.09,504.23,504.30,503.79,503.13,502.52,501.92,501.52,501.56,502.06,502.93,503.84,504.72,505.60,506.51,507.42,508.29,509.18,509.99,510.41,510.33,509.68,508.56,507.12,505.91,506.58,508.01,509.37,510.16,510.69,511.13,511.38,511.04,510.68,510.32,510.03,509.88,510.09,511.04,512.22,513.39,514.49
461.42,461.64,462.09,462.68,463.32,463.95,464.53,464.96,465.15,465.31,465.47,465.67,465.91,466.21,466.50,466.81,467.12,467.40,467.57,467.70,467.83,467.99,468.13,468.23,468.30,468.43,468.62,468.66,468.53,468.33,468.10,467.86,467.55,467.11,466.55,466.00,466.05,466.25,466.53,466.92,467.56,467.99,468.28,468.52,468.66,468.62,468.71,468.98,469.35,469.62,469.96,470.53,471.37,472.33,473.19,473.88,474.36,474.59,474.74,474.92,475.10,475.27,475.43,475.58,475.77,476.06,476.60,477.14,477.71,478.29,478.80,479.14,479.50,479.87,480.29,481.10,482.08,482.79,483.19,483.36,483.53,483.68,483.87,484.09,484.32,484.55,484.78,485.01,485.23,485.40,485.32,485.12,484.97,484.83,484.85,485.25,486.21,487.48,488.82,489.66,489.97,490.06,490.14,490.16,490.22,490.31,490.20,489.49,488.44,487.31,486.68,486.86,487.31,487.93,488.78,489.52,489.85,490.01,490.14,490.23,490.29,490.32,490.26,490.00,489.51,489.07,488.62,488.11,488.02,488.63,489.53,490.56,491.82,493.13,494.25,495.29,496.24,496.17,495.78,495.61,495.92,496.55,497.17,497.60,497.71,497.43,496.95,496.48,496.41,497.12,498.07,499.04,499.89,500.57,501.16,501.36,501.37,501.39,501.65,502.00,502.33,502.26,501.56,500.52,499.66,498.94,498.47,498.66,499.02,499.58,500.28,501.14,502.00,502.86,503.47,503.72,503.66,503.52,503.41,503.30,503.16,503.00,502.81,502.42,501.71,500.68,499.41,498.02,496.65,495.65,495.43,495.88,496.71,497.71,498.95,499.52,499.26,498.25,497.20,496.98,497.03,497.08,497.10,497.15,497.08,496.82,496.40,496.28,497.31,498.68,500.07,501.49,502.36,502.85,503.12,503.25,503.28,502.72,502.05,501.49,500.90,500.74,500.89,501.36,502.27,503.13,504.03,504.93,505.79,506.65,507.55,508.54,509.50,510.10,510.13,509.37,508.08,506.62,505.54,506.39,507.96,509.35,510.16,510.68,510.97,510.97,510.61,510.28,510.00,509.79,509.70,509.92,510.91,512.13,513.37,514.58
460.86,461.16,461.58,462.12,462.74,463.36,463.94,464.42,464.77,465.09,465.34,465.60,465.88,466.19,466.50,466.81,467.05,467.18,467.22,467.32,467.45,467.61,467.76,467.85,467.95,468.04,468.04,467.93,467.73,467.50,467.27,467.03,466.77,466.45,466.09,465.87,466.02,466.25,466.50,466.80,467.23,467.54,467.79,468.01,468.21,468.42,468.75,469.15,469.57,470.01,470.65,471.41,472.21,472.95,473.45,473.80,474.05,474.16,474.24,474.34,474.50,474.74,474.98,475.28,475.66,476.13,476.71,477.31,477.96,478.59,479.15,479.61,480.01,480.36,480.75,481.49,482.11,482.50,482.71,482.87,483.06,483.23,483.41,483.64,483.87,484.13,484.39,484.61,484.80,484.89,484.80,484.62,484.48,484.40,484.55,485.05,485.97,487.21,488.38,489.12,489.46,489.65,489.71,489.78,489.87,489.97,489.98,489.40,488.43,487.28,486.37,486.31,486.56,487.04,487.89,488.71,488.94,488.88,488.77,488.75,488.81,488.88,488.88,488.74,488.34,488.01,487.75,487.63,488.14,489.01,490.07,491.27,492.59,493.97,494.80,495.21,495.47,495.12,494.60,494.37,494.69,495.35,496.01,496.62,496.93,496.47,495.97,495.52,495.50,496.27,497.21,498.17,499.05,499.79,500.34,500.55,500.63,500.71,500.92,501.25,501.62,501.60,500.90,500.00,499.20,498.44,497.91,498.08,498.46,499.00,499.67,500.44,501.25,502.00,502.53,502.77,502.75,502.65,502.53,502.40,502.25,502.09,501.86,501.47,500.83,499.93,498.70,497.27,495.88,495.06,494.78,495.06,495.66,496.36,497.16,497.57,497.38,496.65,496.06,495.90,495.93,496.00,496.05,496.19,496.28,496.15,495.80,495.80,496.90,498.31,499.69,500.96,501.53,501.86,502.10,502.27,502.30,501.73,501.02,500.43,500.00,500.01,500.23,500.69,501.57,502.43,503.30,504.19,505.07,505.93,506.84,507.88,508.89,509.35,509.30,508.49,507.22,505.95,505.10,506.08,507.73,509.21,510.09,510.57,510.73,510.66,510.35,510.00,509.70,509.56,509.71,510.09,511.10,512.32,513.52,514.57
460.37,460.73,461.11,461.57,462.17,462.77,463.33,463.84,464.34,464.87,465.24,465.55,465.86,466.17,466.46,466.71,466.87,466.86,466.81,466.90,467.05,467.20,467.35,467.45,467.59,467.65,467.47,467.25,467.02,466.79,466.55,466.31,466.07,465.87,465.76,465.82,466.02,466.25,466.50,466.78,467.04,467.29,467.53,467.76,468.01,468.43,468.93,469.44,469.94,470.65,471.46,472.20,472.79,473.23,473.37,473.44,473.52,473.61,473.74,473.88,474.09,474.43,474.75,475.19,475.74,476.34,476.90,477.51,478.17,478.84,479.43,479.95,480.37,480.70,481.07,481.67,481.96,482.10,482.21,482.37,482.57,482.77,482.97,483.20,483.43,483.72,483.97,484.18,484.32,484.36,484.27,484.11,484.00,484.07,484.38,484.94,485.79,487.02,487.95,488.56,488.94,489.22,489.28,489.39,489.51,489.58,489.64,489.12,488.23,487.13,486.12,485.80,485.81,486.11,486.89,487.88,487.96,487.59,487.19,487.12,487.16,487.26,487.35,487.33,487.17,487.11,487.19,487.51,488.50,489.53,490.67,491.98,493.29,494.49,494.84,494.57,494.23,493.83,493.35,493.14,493.45,494.13,494.89,495.67,496.10,495.45,494.95,494.55,494.55,495.31,496.21,497.14,498.03,498.80,499.35,499.58,499.73,499.92,500.18,500.51,500.93,500.95,500.28,499.53,498.77,498.02,497.43,497.46,497.87,498.44,499.08,499.76,500.49,501.09,501.55,501.80,501.83,501.78,501.67,501.51,501.36,501.17,500.91,500.51,499.92,499.11,497.93,496.51,495.18,494.58,494.25,494.33,494.66,495.06,495.39,495.63,495.53,495.11,494.95,494.85,494.86,494.94,495.05,495.26,495.44,495.42,495.17,495.26,496.39,497.79,499.10,500.19,500.63,500.89,501.11,501.29,501.29,500.73,499.99,499.36,499.08,499.24,499.54,499.99,500.81,501.66,502.52,503.40,504.32,505.19,505.98,506.87,507.72,507.99,507.90,507.08,505.95,505.16,504.81,505.94,507.60,509.10,509.96,510.35,510.43,510.33,510.09,509.73,509.44,509.40,509.79,510.38,511.42,512.56,513.62,514.44
459.97,460.30,460.65,461.10,461.65,462.21,462.75,463.28,463.88,464.69,465.15,465.49,465.80,466.09,466.29,466.38,466.41,466.41,466.40,466.47,466.59,466.75,466.90,467.04,467.23,467.31,467.09,466.86,466.63,466.40,466.15,465.86,465.62,465.53,465.60,465.80,466.02,466.25,466.56,466.98,467.34,467.65,467.92,468.15,468.40,468.82,469.29,469.84,470.62,471.76,472.25,472.44,472.56,472.64,472.67,472.72,472.81,472.98,473.28,473.62,473.99,474.42,474.81,475.30,475.87,476.48,477.09,477.70,478.37,479.02,479.56,479.98,480.33,480.62,480.90,481.31,481.48,481.61,481.75,481.90,482.07,482.32,482.58,482.81,483.05,483.29,483.50,483.66,483.81,483.89,483.78,483.61,483.58,483.97,484.42,484.98,485.77,486.90,487.58,488.07,488.49,488.78,488.87,489.00,489.10,489.12,489.19,488.63,487.81,486.87,485.84,485.37,485.21,485.30,485.81,487.00,486.83,486.04,485.42,485.41,485.43,485.58,485.79,485.84,486.22,486.78,487.39,488.06,489.10,490.12,491.23,492.51,493.80,494.15,493.74,493.05,492.64,492.40,492.06,491.90,492.23,492.97,494.18,495.09,495.26,494.38,493.85,493.47,493.46,494.09,494.98,495.91,496.77,497.52,498.11,498.34,498.50,498.78,499.37,499.82,500.28,500.37,499.83,499.13,498.43,497.72,497.10,496.87,497.31,497.91,498.54,499.17,499.75,500.16,500.53,500.84,500.92,500.92,500.82,500.67,500.50,500.24,499.93,499.54,498.96,498.24,497.16,495.93,494.80,494.24,493.79,493.78,494.01,494.21,494.34,494.45,494.38,494.13,493.97,493.88,493.89,493.98,494.14,494.35,494.53,494.61,494.57,494.73,495.79,497.09,498.26,499.09,499.70,500.01,500.18,500.31,500.21,499.66,498.93,498.28,498.10,498.35,498.72,499.18,499.91,500.75,501.64,502.56,503.49,504.38,504.77,505.00,505.25,505.43,505.53,504.78,503.93,504.16,504.95,506.32,507.86,509.18,509.76,509.96,510.01,509.94,509.70,509.39,509.25,509.38,509.88,510.71,511.81,512.75,513.46,514.08
459.63,459.91,460.23,460.64,461.18,461.72,462.37,463.08,463.83,464.65,465.13,465.45,465.70,465.88,465.95,465.96,465.96,465.96,465.96,466.05,466.18,466.35,466.54,466.70,466.88,466.92,466.66,466.42,466.22,466.01,465.77,465.50,465.36,465.37,465.51,465.75,466.01,466.33,466.72,467.18,467.60,467.97,468.29,468.58,468.83,469.22,469.77,470.40,471.07,471.55,471.78,471.87,471.88,471.92,472.08,472.30,472.57,472.85,473.22,473.63,474.07,474.53,475.00,475.55,476.11,476.65,477.20,477.80,478.40,478.96,479.44,479.77,480.02,480.24,480.46,480.76,480.94,481.10,481.26,481.45,481.64,481.89,482.14,482.38,482.61,482.81,482.99,483.14,483.29,483.38,483.30,483.20,483.40,483.89,484.41,485.00,485.74,486.48,487.00,487.48,487.96,488.35,488.48,488.56,488.63,488.66,488.70,488.12,487.33,486.48,485.56,485.03,484.77,484.77,485.26,486.36,486.03,485.24,484.80,484.80,484.87,485.00,485.25,485.65,486.33,487.08,487.87,488.71,489.69,490.70,491.76,492.85,493.74,493.50,492.69,491.78,491.16,490.97,490.79,490.81,491.29,492.36,493.78,494.57,494.42,493.44,492.78,492.40,492.38,492.91,493.76,494.65,495.44,496.14,496.76,497.08,497.50,498.11,498.77,499.19,499.45,499.48,499.19,498.66,498.00,497.30,496.67,496.34,496.78,497.40,498.00,498.58,499.13,499.49,499.79,499.96,499.77,499.69,499.61,499.47,499.25,499.11,498.84,498.46,497.99,497.34,496.50,495.53,494.59,494.00,493.46,493.26,493.32,493.45,493.50,493.55,493.47,493.24,493.01,492.90,492.91,493.01,493.18,493.39,493.55,493.64,493.75,494.22,495.32,496.50,497.50,498.25,498.95,499.35,499.52,499.50,499.14,498.55,497.84,497.20,497.11,497.43,497.88,498.40,499.10,499.86,500.69,501.54,502.36,502.99,503.31,503.39,503.33,503.31,503.43,503.41,503.52,504.26,505.37,506.81,508.14,509.05,509.40,509.55,509.59,509.52,509.35,509.10,509.10,509.38,509.95,510.80,511.73,512.51,513.09,513.53
459.29,459.55,459.83,460.20,460.73,461.30,462.07,462.95,463.84,464.62,465.07,465.35,465.53,465.60,465.55,465.51,465.50,465.51,465.52,465.64,465.80,465.98,466.19,466.37,466.52,466.51,466.22,465.97,465.79,465.61,465.40,465.22,465.19,465.27,465.45,465.72,466.04,466.45,466.91,467.38,467.84,468.25,468.64,468.98,469.25,469.66,470.23,470.82,471.16,470.87,470.95,471.13,471.20,471.34,471.67,472.08,472.51,472.90,473.29,473.74,474.19,474.63,475.13,475.69,476.22,476.69,477.20,477.81,478.34,478.81,479.22,479.47,479.64,479.80,479.96,480.18,480.39,480.58,480.76,481.00,481.24,481.47,481.69,481.92,482.14,482.31,482.47,482.62,482.78,482.88,482.85,482.90,483.32,483.83,484.36,484.94,485.57,485.93,486.40,486.93,487.47,487.92,488.06,488.10,488.13,488.19,488.21,487.63,486.86,486.08,485.27,484.74,484.41,484.38,484.91,485.76,485.40,484.78,484.60,484.64,484.78,484.95,485.25,485.99,486.82,487.62,488.43,489.33,490.24,491.21,492.19,493.06,493.40,492.71,491.70,490.70,489.95,489.75,489.76,490.00,490.68,492.06,493.50,494.03,493.53,492.50,491.73,491.34,491.32,491.76,492.53,493.36,494.11,494.78,495.50,495.99,496.73,497.61,498.18,498.48,498.52,498.48,498.40,498.08,497.51,496.85,496.20,495.81,496.25,496.87,497.46,498.00,498.54,498.91,499.13,499.10,498.62,498.39,498.25,498.07,497.85,497.90,497.69,497.35,496.98,496.41,495.84,495.17,494.43,493.80,493.18,492.77,492.62,492.72,492.74,492.74,492.63,492.37,492.07,491.94,491.94,492.05,492.21,492.42,492.54,492.68,493.00,493.81,494.92,495.97,496.82,497.51,498.26,498.77,498.95,498.70,498.06,497.41,496.74,496.15,496.15,496.54,497.04,497.59,498.25,498.90,499.61,500.35,501.04,501.39,501.77,501.90,501.76,501.71,501.93,502.69,503.73,504.75,505.90,507.25,508.30,508.79,508.98,509.13,509.17,509.10,509.00,508.79,508.92,509.32,509.91,510.70,511.44,512.13,512.70,512.90
458.96,459.22,459.50,459.85,460.31,461.00,461.81,462.67,463.55,464.40,464.79,465.01,465.15,465.21,465.15,465.09,465.05,465.06,465.12,465.25,465.44,465.64,465.82,466.02,466.13,466.07,465.82,465.53,465.34,465.20,465.10,465.06,465.09,465.21,465.41,465.77,466.19,466.64,467.11,467.57,468.04,468.49,468.87,469.21,469.58,470.16,470.54,470.59,470.27,470.14,470.37,470.71,471.02,471.39,471.78,472.18,472.58,472.97,473.41,473.87,474.26,474.56,474.91,475.32,475.78,476.28,476.92,477.60,478.18,478.65,478.97,479.16,479.32,479.45,479.56,479.72,479.89,480.09,480.31,480.55,480.83,481.04,481.24,481.46,481.63,481.79,481.95,482.11,482.32,482.42,482.54,482.79,483.30,483.78,484.22,484.61,484.96,485.34,485.93,486.58,487.15,487.44,487.55,487.61,487.66,487.69,487.79,487.24,486.50,485.77,485.00,484.48,484.15,484.12,484.60,485.11,484.94,484.59,484.51,484.78,485.01,485.38,485.92,486.59,487.40,488.20,488.97,489.73,490.58,491.46,492.37,493.06,492.75,491.90,490.89,490.01,489.55,489.31,489.46,489.93,490.77,492.17,493.27,493.35,492.51,491.51,490.67,490.30,490.31,490.64,491.26,492.03,492.79,493.58,494.56,495.50,496.43,497.18,497.43,497.46,497.46,497.42,497.36,497.27,496.94,496.39,495.73,495.25,495.67,496.28,496.88,497.41,497.96,498.32,498.43,498.20,497.69,497.22,496.78,496.44,496.40,496.57,496.49,496.22,495.85,495.41,495.07,494.70,494.22,493.55,492.92,492.36,491.98,491.96,491.95,491.95,491.83,491.52,491.17,490.98,491.00,491.14,491.29,491.41,491.54,491.93,492.75,493.65,494.63,495.50,496.22,496.86,497.56,498.18,498.35,497.71,496.97,496.27,495.66,495.24,495.30,495.78,496.27,496.71,497.22,497.68,498.19,498.78,499.43,499.78,500.19,500.51,500.78,501.29,502.11,503.14,504.24,505.27,506.47,507.44,508.08,508.36,508.53,508.68,508.74,508.69,508.55,508.39,508.57,509.00,509.57,510.23,511.01,511.82,512.40,512.26
458.64,458.90,459.19,459.56,459.99,460.69,461.54,462.42,463.29,464.05,464.37,464.52,464.63,464.69,464.63,464.60,464.60,464.60,464.65,464.83,465.07,465.31,465.47,465.66,465.74,465.67,465.40,464.92,464.42,463.87,463.26,462.96,464.28,465.21,465.54,465.96,466.39,466.84,467.31,467.77,468.23,468.70,469.10,469.45,469.84,470.29,470.37,470.13,469.76,469.86,470.20,470.62,471.05,471.48,471.87,472.25,472.65,473.06,473.44,473.80,474.10,474.31,474.58,474.94,475.41,476.01,476.74,477.44,478.00,478.41,478.67,478.84,478.99,479.12,479.21,479.36,479.54,479.74,479.93,480.14,480.40,480.60,480.77,480.97,481.15,481.31,481.47,481.63,481.83,481.98,482.24,482.62,483.12,483.59,483.93,484.28,484.71,485.14,485.75,486.39,486.89,486.99,487.04,487.10,487.17,487.22,487.36,486.85,486.15,485.47,484.84,484.29,483.88,483.77,484.22,484.56,484.53,484.42,484.49,484.94,485.33,485.81,486.39,486.99,487.69,488.33,488.94,489.58,490.26,491.04,491.94,492.65,492.28,491.35,490.37,489.60,489.19,489.11,489.41,490.05,491.03,492.26,492.61,492.16,491.28,490.56,489.92,489.63,489.63,489.91,490.40,491.18,492.07,493.02,494.12,495.24,496.03,496.44,496.45,496.38,496.36,496.33,496.27,496.26,496.09,495.76,495.25,494.71,495.13,495.72,496.28,496.79,497.33,497.70,497.70,497.30,496.73,496.19,495.63,495.21,495.24,495.43,495.47,495.34,495.08,494.76,494.51,494.27,493.94,493.33,492.70,492.06,491.53,491.29,491.20,491.18,491.05,490.73,490.38,490.16,490.19,490.35,490.47,490.52,490.78,491.39,492.43,493.45,494.40,495.24,495.94,496.56,497.19,497.70,497.79,497.07,496.34,495.63,495.07,494.75,494.80,495.16,495.52,495.80,496.03,496.25,496.58,497.14,497.94,498.60,499.28,499.92,500.56,501.43,502.48,503.61,504.73,505.75,506.73,507.33,507.68,507.88,508.06,508.23,508.32,508.30,508.15,507.99,508.24,508.78,509.43,509.99,510.75,511.45,511.84,511.57
458.31,458.58,458.91,459.30,459.73,460.40,461.26,462.19,463.04,463.60,463.84,463.95,464.03,464.09,464.05,464.08,464.13,464.13,464.14,464.38,464.68,464.95,465.11,465.26,465.31,465.22,464.87,464.14,463.26,462.19,460.99,460.42,463.31,465.25,465.71,466.16,466.57,467.01,467.48,467.94,468.41,468.88,469.30,469.67,470.02,470.18,469.96,469.61,469.50,469.82,470.27,470.72,471.15,471.56,471.94,472.30,472.68,473.08,473.35,473.58,473.79,473.99,474.28,474.66,475.21,475.89,476.66,477.33,477.81,478.13,478.34,478.52,478.67,478.79,478.89,479.05,479.25,479.44,479.61,479.78,480.00,480.19,480.34,480.52,480.74,480.91,481.06,481.22,481.37,481.59,481.95,482.41,482.87,483.34,483.63,484.05,484.67,485.15,485.70,486.23,486.60,486.54,486.53,486.58,486.66,486.76,486.90,486.49,485.86,485.22,484.72,484.13,483.59,483.38,483.79,484.05,484.14,484.23,484.50,485.06,485.60,486.13,486.67,487.20,487.75,488.21,488.67,489.21,489.70,490.41,491.32,492.12,491.90,490.94,490.02,489.31,488.86,489.03,489.50,490.26,491.31,492.15,491.69,490.85,490.09,489.70,489.36,489.15,489.14,489.43,489.83,490.68,491.71,492.81,493.95,495.00,495.51,495.57,495.44,495.36,495.32,495.28,495.21,495.19,495.11,494.98,494.70,494.20,494.60,495.16,495.67,496.16,496.70,497.02,496.91,496.36,495.75,495.19,494.63,494.22,494.25,494.46,494.60,494.63,494.53,494.30,494.07,493.87,493.62,493.11,492.50,491.83,491.19,490.71,490.51,490.45,490.31,490.02,489.72,489.48,489.50,489.68,489.76,489.80,490.20,490.98,492.06,493.19,494.20,495.05,495.78,496.39,496.94,497.28,497.23,496.60,495.92,495.25,494.74,494.47,494.47,494.66,494.86,494.98,494.94,494.97,495.28,495.96,497.02,498.07,499.00,499.88,500.78,501.84,502.92,504.04,505.14,506.09,506.74,507.05,507.23,507.40,507.62,507.78,507.89,507.91,507.76,507.61,507.94,508.60,509.38,509.92,510.59,511.04,511.12,510.84
458.00,458.30,458.65,459.06,459.53,460.20,461.07,461.99,462.78,463.03,463.20,463.31,463.39,463.45,463.45,463.53,463.61,463.61,463.62,463.86,464.17,464.44,464.60,464.70,464.71,464.52,463.99,463.05,462.06,461.00,460.03,460.00,463.19,465.25,465.72,466.18,466.63,467.08,467.55,468.02,468.54,469.01,469.41,469.73,469.97,469.86,469.54,469.30,469.46,469.97,470.42,470.82,471.24,471.67,472.03,472.29,472.51,472.75,472.98,473.18,473.39,473.71,474.31,474.84,475.40,476.07,476.81,477.29,477.58,477.79,477.97,478.17,478.35,478.49,478.63,478.79,478.95,479.15,479.34,479.51,479.73,479.94,480.14,480.30,480.53,480.70,480.85,481.00,481.11,481.37,481.72,482.15,482.62,483.13,483.63,484.19,484.79,485.26,485.62,485.92,486.10,486.02,486.01,486.06,486.16,486.30,486.45,486.15,485.66,485.12,484.54,483.94,483.31,482.95,483.23,483.47,483.70,484.01,484.46,484.96,485.50,486.01,486.49,486.98,487.51,487.99,488.47,489.00,489.53,490.24,491.13,491.86,491.50,490.57,489.72,489.04,488.58,489.00,489.63,490.48,491.38,491.29,490.62,489.95,489.49,489.20,488.90,488.73,488.80,489.21,489.70,490.58,491.65,492.79,493.90,494.42,494.69,494.79,494.70,494.62,494.52,494.42,494.33,494.23,494.14,494.02,493.85,493.67,494.06,494.55,495.04,495.56,496.10,496.22,495.94,495.33,494.71,494.12,493.67,493.44,493.51,493.72,494.00,494.18,494.12,493.91,493.68,493.45,493.22,492.88,492.26,491.57,490.92,490.36,490.06,489.90,489.75,489.55,489.30,489.06,489.06,489.21,489.30,489.51,489.92,490.65,491.73,492.83,493.93,494.84,495.52,496.08,496.57,496.80,496.66,496.09,495.46,494.91,494.45,494.15,494.14,494.28,494.48,494.63,494.63,494.77,495.52,496.72,498.12,499.22,499.85,500.42,501.16,502.23,503.31,504.41,505.35,505.89,506.31,506.65,506.90,507.06,507.23,507.39,507.51,507.52,507.38,507.27,507.70,508.47,509.29,509.99,510.44,510.55,510.36,510.07
457.68,458.05,458.48,458.97,459.51,460.17,461.00,461.80,462.32,462.35,462.47,462.60,462.70,462.78,462.87,463.00,463.10,463.10,463.11,463.31,463.55,463.73,463.85,463.88,463.84,463.60,462.93,461.93,460.96,460.08,459.51,459.92,463.23,465.31,465.80,466.26,466.73,467.19,467.64,468.06,468.46,468.87,469.22,469.51,469.71,469.49,469.14,469.00,469.43,470.00,470.46,470.84,471.18,471.51,471.81,472.02,472.18,472.37,472.56,472.84,473.23,473.81,474.55,475.15,475.68,476.23,476.80,477.11,477.30,477.46,477.62,477.81,478.00,478.17,478.33,478.52,478.67,478.88,479.08,479.25,479.47,479.70,479.91,480.10,480.30,480.47,480.60,480.73,480.85,481.15,481.51,481.94,482.44,483.00,483.60,484.18,484.69,485.06,485.28,485.42,485.51,485.47,485.49,485.56,485.69,485.84,485.96,485.81,485.46,484.97,484.36,483.71,483.06,482.63,482.84,483.22,483.64,484.08,484.56,485.03,485.56,486.07,486.56,487.03,487.53,488.03,488.53,489.04,489.56,490.24,491.05,491.63,491.12,490.27,489.46,488.79,488.38,488.94,489.69,490.45,490.98,490.49,489.85,489.32,488.95,488.71,488.44,488.36,488.56,489.09,489.63,490.51,491.61,492.72,493.50,493.71,493.86,494.00,493.97,493.91,493.79,493.68,493.57,493.44,493.33,493.21,493.11,493.10,493.46,493.93,494.44,494.98,495.52,495.45,494.98,494.26,493.67,493.08,492.75,492.67,492.80,493.04,493.38,493.65,493.69,493.48,493.23,492.98,492.74,492.46,492.03,491.45,490.79,490.21,489.82,489.52,489.29,489.10,488.87,488.66,488.67,488.86,489.07,489.39,489.79,490.46,491.51,492.57,493.66,494.57,495.24,495.72,496.09,496.25,496.17,495.74,495.09,494.49,494.00,493.74,493.84,494.06,494.29,494.48,494.57,494.93,496.30,497.97,499.27,500.15,500.61,501.03,501.64,502.61,503.67,504.57,505.16,505.38,505.75,506.18,506.52,506.73,506.88,507.04,507.15,507.16,506.99,506.90,507.38,508.16,508.94,509.65,509.93,509.87,509.57,509.26
457.39,457.85,458.40,459.01,459.63,460.25,461.01,461.56,461.71,461.61,461.70,461.85,461.98,462.10,462.31,462.49,462.58,462.58,462.58,462.74,462.85,462.88,462.95,462.89,462.81,462.53,461.80,460.85,459.97,459.39,459.31,460.11,463.37,465.40,465.92,466.38,466.82,467.25,467.67,468.01,468.22,468.51,468.82,469.12,469.32,469.11,468.77,468.72,469.36,469.92,470.39,470.74,470.97,471.15,471.37,471.57,471.74,471.96,472.13,472.57,473.25,474.13,474.89,475.44,475.88,476.26,476.59,476.78,476.94,477.10,477.27,477.44,477.64,477.84,478.02,478.24,478.41,478.61,478.82,478.99,479.21,479.44,479.67,479.88,480.04,480.19,480.32,480.42,480.60,480.94,481.34,481.78,482.33,482.92,483.52,484.02,484.39,484.65,484.77,484.85,484.91,484.92,484.98,485.10,485.24,485.38,485.44,485.44,485.23,484.75,484.13,483.46,482.81,482.40,482.57,483.18,483.83,484.36,484.79,485.25,485.77,486.31,486.82,487.29,487.75,488.26,488.76,489.22,489.69,490.32,490.99,491.39,490.79,490.04,489.25,488.55,488.22,488.82,489.63,490.21,490.28,489.81,489.31,488.84,488.44,488.19,487.94,488.02,488.39,489.01,489.58,490.46,491.52,492.51,492.80,492.92,493.04,493.18,493.23,493.19,493.11,493.00,492.86,492.77,492.64,492.54,492.48,492.52,492.82,493.30,493.84,494.39,494.94,494.75,494.07,493.19,492.62,492.11,491.88,491.91,492.07,492.36,492.73,493.06,493.22,493.02,492.73,492.45,492.20,491.92,491.76,491.36,490.77,490.19,489.72,489.27,488.92,488.67,488.43,488.26,488.33,488.61,488.98,489.36,489.76,490.37,491.34,492.28,493.26,494.13,494.79,495.20,495.45,495.63,495.68,495.43,494.74,494.00,493.50,493.39,493.66,494.00,494.28,494.50,494.75,495.37,497.33,499.32,500.25,500.80,501.22,501.65,502.19,502.97,503.93,504.51,504.69,504.67,505.13,505.66,506.10,506.39,506.56,506.72,506.83,506.83,506.61,506.51,506.96,507.69,508.38,508.97,509.14,509.04,508.78,508.43
457.22,457.84,458.45,459.09,459.75,460.38,460.89,461.13,461.02,460.89,460.94,461.07,461.25,461.49,461.77,462.00,462.10,462.06,462.06,462.03,462.02,462.03,462.09,461.95,461.80,461.47,460.72,459.93,459.21,458.98,459.55,460.94,463.75,465.50,466.04,466.44,466.71,467.00,467.28,467.51,467.77,468.07,468.38,468.68,468.92,468.76,468.52,468.55,469.13,469.68,470.05,470.32,470.55,470.76,470.94,471.14,471.34,471.52,471.73,472.40,473.35,474.31,474.96,475.24,475.46,475.75,476.05,476.23,476.38,476.57,476.83,477.09,477.25,477.44,477.69,477.92,478.13,478.33,478.51,478.72,478.95,479.18,479.39,479.57,479.73,479.88,480.00,480.11,480.38,480.74,481.22,481.76,482.31,482.87,483.32,483.70,484.03,484.30,484.42,484.47,484.51,484.56,484.63,484.73,484.83,484.90,484.84,484.86,484.75,484.37,483.76,483.13,482.50,482.10,482.32,483.08,483.91,484.60,485.09,485.56,486.08,486.60,487.09,487.60,488.02,488.48,488.95,489.36,489.77,490.32,490.81,491.01,490.55,489.91,489.09,488.28,487.92,488.52,489.28,489.75,489.71,489.31,488.85,488.41,488.00,487.63,487.38,487.61,488.19,488.95,489.61,490.41,491.24,491.89,491.95,492.06,492.21,492.34,492.41,492.44,492.40,492.29,492.15,492.07,491.97,491.91,491.91,492.02,492.14,492.59,493.22,493.81,494.35,494.14,493.31,492.15,491.55,491.20,491.11,491.18,491.31,491.64,492.06,492.49,492.80,492.52,492.21,491.91,491.63,491.39,491.24,491.00,490.63,490.13,489.65,489.15,488.71,488.38,488.05,487.95,488.12,488.47,488.86,489.29,489.69,490.24,490.98,491.49,492.21,492.92,493.51,494.05,494.49,494.81,494.95,494.76,494.12,493.43,493.26,493.72,494.08,494.34,494.57,494.88,495.43,496.24,498.22,500.07,500.74,501.32,501.78,502.24,502.74,503.34,503.86,504.06,504.02,504.01,504.52,505.08,505.59,506.00,506.23,506.39,506.50,506.49,506.22,506.12,506.39,506.96,507.64,508.03,508.20,508.16,507.95,507.63
457.12,457.73,458.35,458.99,459.65,460.25,460.56,460.55,460.28,460.11,460.14,460.32,460.61,460.98,461.30,461.53,461.62,461.57,461.54,461.41,461.31,461.27,461.23,461.05,460.85,460.49,459.82,459.15,458.74,458.89,459.89,461.87,464.18,465.53,465.99,466.22,466.36,466.56,466.78,467.00,467.30,467.61,467.92,468.23,468.50,468.41,468.29,468.41,468.93,469.38,469.69,469.93,470.13,470.33,470.50,470.70,470.91,471.08,471.37,472.18,473.23,474.16,474.79,474.93,475.03,475.23,475.50,475.72,475.92,476.17,476.47,476.76,476.87,477.02,477.30,477.56,477.82,478.04,478.22,478.43,478.66,478.89,479.09,479.24,479.37,479.52,479.65,479.81,480.14,480.58,481.12,481.69,482.20,482.67,483.02,483.33,483.64,483.94,484.07,484.12,484.15,484.23,484.31,484.35,484.34,484.24,484.03,483.98,483.91,483.73,483.34,482.76,482.16,481.77,481.99,482.90,483.92,484.78,485.34,485.79,486.31,486.78,487.19,487.57,487.89,488.25,488.65,489.07,489.52,490.07,490.47,490.58,490.34,489.77,488.93,488.05,487.57,488.09,488.77,489.20,489.19,488.78,488.33,487.90,487.51,487.12,486.93,487.29,488.01,488.82,489.56,490.26,490.79,491.05,491.03,491.19,491.38,491.52,491.60,491.69,491.67,491.58,491.44,491.38,491.33,491.33,491.40,491.52,491.54,491.89,492.50,493.15,493.75,493.54,492.62,491.33,490.64,490.39,490.38,490.46,490.61,490.97,491.44,491.94,492.34,492.10,491.75,491.40,491.08,490.84,490.67,490.51,490.28,489.91,489.45,488.96,488.50,488.11,487.77,487.62,487.80,488.20,488.60,489.03,489.40,489.81,490.30,490.57,491.08,491.61,492.10,492.65,493.16,493.50,493.68,493.64,493.38,493.26,493.57,494.30,494.72,494.97,495.21,495.63,496.43,497.46,499.06,500.46,501.03,501.53,501.98,502.42,502.84,503.22,503.44,503.42,503.31,503.38,503.91,504.48,505.04,505.54,505.88,506.07,506.18,506.16,505.87,505.74,505.84,506.23,506.84,507.04,507.19,507.23,507.08,506.81
456.98,457.47,458.03,458.65,459.26,459.80,459.96,459.82,459.49,459.29,459.30,459.58,460.05,460.55,460.90,461.06,461.12,461.10,461.03,460.90,460.75,460.58,460.37,460.19,459.93,459.58,459.08,458.51,458.57,459.11,460.32,462.75,464.55,465.48,465.75,465.74,465.80,465.99,466.25,466.54,466.85,467.16,467.47,467.78,468.06,468.05,468.05,468.27,468.76,469.06,469.34,469.58,469.74,469.90,470.06,470.25,470.46,470.65,471.06,471.91,472.88,473.67,474.41,474.60,474.66,474.78,475.03,475.31,475.61,475.91,476.20,476.44,476.51,476.61,476.86,477.16,477.46,477.72,477.94,478.11,478.33,478.56,478.76,478.90,479.00,479.14,479.30,479.51,479.90,480.46,481.02,481.52,481.96,482.31,482.63,482.94,483.25,483.55,483.68,483.76,483.83,483.90,483.96,483.93,483.75,483.40,483.05,482.84,482.78,482.81,482.82,482.35,481.79,481.40,481.53,482.58,483.82,484.84,485.48,485.89,486.40,486.82,487.07,487.16,487.31,487.52,487.85,488.33,488.92,489.55,489.96,490.11,490.11,489.58,488.75,487.86,487.21,487.58,488.17,488.62,488.71,488.24,487.75,487.32,486.95,486.64,486.59,487.06,487.82,488.60,489.35,489.94,490.19,490.12,490.12,490.34,490.59,490.76,490.83,490.91,490.93,490.87,490.75,490.73,490.74,490.80,490.92,491.00,491.02,491.22,491.69,492.43,493.12,492.93,492.04,490.76,489.95,489.70,489.70,489.80,489.99,490.42,490.92,491.45,491.87,491.74,491.35,490.93,490.56,490.28,490.11,489.95,489.79,489.57,489.14,488.68,488.24,487.87,487.55,487.26,487.38,487.81,488.19,488.57,488.87,489.14,489.46,489.72,490.10,490.47,490.83,491.30,491.70,491.96,492.14,492.34,492.75,493.54,494.35,495.01,495.47,495.82,496.17,496.67,497.60,498.83,499.78,500.52,501.11,501.41,501.77,502.15,502.47,502.59,502.69,502.63,502.57,502.78,503.28,503.87,504.45,504.98,505.49,505.73,505.86,505.84,505.54,505.36,505.32,505.54,505.98,506.05,506.18,506.25,506.19,505.98
456.37,456.75,457.27,457.89,458.47,458.85,458.97,458.89,458.67,458.54,458.45,458.77,459.37,459.94,460.42,460.58,460.60,460.59,460.51,460.41,460.24,459.95,459.59,459.27,458.97,458.63,458.25,458.04,458.61,459.62,461.06,463.22,464.60,465.16,465.24,465.26,465.29,465.49,465.78,466.09,466.40,466.71,467.01,467.33,467.66,467.70,467.82,468.10,468.48,468.77,469.04,469.25,469.41,469.56,469.72,469.89,470.06,470.26,470.76,471.54,472.37,473.10,473.86,474.19,474.32,474.44,474.72,475.02,475.34,475.65,475.93,476.09,476.13,476.20,476.41,476.71,477.02,477.31,477.58,477.83,478.02,478.21,478.38,478.53,478.66,478.81,479.06,479.41,479.81,480.39,480.84,481.18,481.50,481.86,482.18,482.51,482.86,483.16,483.33,483.43,483.49,483.52,483.46,483.26,482.95,482.56,482.17,481.86,481.64,481.64,481.99,481.80,481.37,480.94,480.83,481.83,483.33,484.61,485.33,485.75,486.22,486.54,486.61,486.42,486.39,486.49,486.75,487.29,487.99,488.74,489.26,489.49,489.59,489.24,488.51,487.63,487.01,487.22,487.65,488.07,488.24,487.76,487.21,486.74,486.36,486.04,486.06,486.56,487.30,488.05,488.69,489.11,489.43,489.66,489.65,489.81,489.98,490.08,490.12,490.19,490.21,490.19,490.14,490.14,490.22,490.32,490.41,490.49,490.50,490.61,490.94,491.62,492.31,492.41,491.75,490.51,489.71,489.30,489.21,489.33,489.62,490.13,490.65,491.14,491.52,491.41,490.98,490.50,490.12,489.91,489.75,489.59,489.45,489.29,488.87,488.44,488.04,487.66,487.30,486.98,487.03,487.35,487.69,487.98,488.26,488.69,489.32,489.76,490.16,490.53,490.89,491.25,491.60,491.88,492.18,492.62,493.32,494.20,494.99,495.57,496.09,496.55,497.02,497.56,498.25,499.09,499.75,500.30,500.75,500.96,501.26,501.56,501.75,501.79,501.86,501.82,501.84,502.18,502.69,503.25,503.81,504.35,504.93,505.33,505.56,505.56,505.21,504.95,504.87,504.96,505.16,505.19,505.27,505.35,505.36,505.28
455.67,455.98,456.46,457.01,457.48,457.74,457.86,457.85,457.73,457.64,457.53,457.82,458.42,459.05,459.61,459.81,459.82,459.80,459.72,459.63,459.43,459.12,458.73,458.34,458.00,457.77,457.78,458.07,458.98,460.18,461.64,463.55,464.54,464.81,464.76,464.83,464.88,465.10,465.40,465.69,466.00,466.29,466.59,466.91,467.25,467.35,467.55,467.86,468.17,468.48,468.73,468.93,469.08,469.24,469.39,469.55,469.71,469.92,470.40,471.08,471.81,472.52,473.28,473.76,474.01,474.15,474.43,474.72,475.05,475.38,475.66,475.73,475.72,475.78,475.96,476.26,476.56,476.90,477.24,477.53,477.71,477.86,478.02,478.17,478.31,478.52,478.86,479.29,479.69,480.19,480.53,480.75,481.02,481.40,481.74,482.10,482.48,482.82,483.00,483.09,483.14,483.14,483.00,482.66,482.24,481.82,481.40,480.98,480.65,480.57,481.08,481.14,480.87,480.44,480.23,481.19,482.87,484.36,485.18,485.58,485.97,486.20,486.17,485.80,485.61,485.56,485.75,486.31,487.08,487.92,488.52,488.81,488.96,488.84,488.26,487.44,486.84,486.90,487.23,487.61,487.81,487.31,486.72,486.20,485.77,485.48,485.57,486.03,486.69,487.37,487.85,488.16,488.60,489.11,489.25,489.38,489.47,489.51,489.54,489.57,489.58,489.58,489.58,489.59,489.69,489.80,489.88,489.97,490.00,490.04,490.24,490.76,491.44,491.87,491.53,490.42,489.63,489.09,488.87,488.97,489.39,489.98,490.44,490.83,491.10,490.97,490.57,490.07,489.61,489.38,489.26,489.18,489.12,489.01,488.63,488.23,487.84,487.46,487.07,486.73,486.68,486.89,487.19,487.45,487.89,488.59,489.50,490.03,490.45,490.84,491.24,491.58,491.90,492.26,492.69,493.24,493.94,494.68,495.32,495.85,496.37,496.91,497.44,497.98,498.52,499.07,499.58,500.01,500.30,500.45,500.65,500.83,500.92,500.94,500.99,500.99,501.10,501.55,502.09,502.64,503.18,503.74,504.32,504.85,505.19,505.25,504.91,504.57,504.46,504.49,504.56,504.56,504.62,504.70,504.76,504.76
454.95,455.25,455.66,456.07,456.34,456.58,456.69,456.70,456.62,456.55,456.52,456.71,457.14,457.79,458.34,458.60,458.67,458.60,458.53,458.41,458.23,457.98,457.72,457.39,457.11,457.17,457.91,458.77,459.75,460.75,461.93,463.76,464.39,464.45,464.37,464.46,464.59,464.84,465.13,465.38,465.68,465.94,466.21,466.52,466.81,466.99,467.23,467.54,467.85,468.15,468.41,468.61,468.76,468.92,469.07,469.23,469.41,469.65,469.98,470.56,471.25,471.96,472.71,473.34,473.71,473.88,474.10,474.35,474.71,475.11,475.37,475.35,475.29,475.31,475.51,475.81,476.13,476.51,476.92,477.21,477.38,477.54,477.69,477.83,477.94,478.29,478.69,479.09,479.47,479.81,480.04,480.25,480.57,480.95,481.33,481.72,482.12,482.53,482.69,482.74,482.77,482.81,482.63,482.22,481.72,481.25,480.74,480.26,479.87,479.73,480.14,480.38,480.24,479.93,479.88,480.87,482.58,484.16,485.06,485.44,485.71,485.87,485.84,485.47,485.12,484.90,484.98,485.51,486.32,487.16,487.77,488.08,488.24,488.36,488.00,487.29,486.63,486.61,486.90,487.26,487.41,486.88,486.32,485.75,485.24,485.03,485.17,485.55,486.06,486.56,486.86,487.20,487.68,488.29,488.80,489.00,489.05,489.07,489.12,489.07,489.06,489.06,489.06,489.06,489.13,489.21,489.31,489.44,489.52,489.55,489.63,489.93,490.57,491.30,491.32,490.45,489.63,489.03,488.68,488.69,489.27,489.88,490.25,490.46,490.53,490.39,490.09,489.58,488.98,488.57,488.54,488.63,488.72,488.67,488.40,488.03,487.65,487.26,486.88,486.50,486.34,486.45,486.75,487.07,487.84,488.88,489.89,490.36,490.75,491.17,491.62,492.06,492.39,492.87,493.41,493.88,494.31,494.81,495.30,495.77,496.25,496.77,497.32,497.86,498.39,498.93,499.38,499.69,499.85,499.94,499.99,500.02,500.06,500.12,500.14,500.18,500.39,500.93,501.53,502.09,502.64,503.18,503.73,504.31,504.74,504.89,504.62,504.26,504.13,504.16,504.23,504.24,504.30,504.37,504.43,504.44
454.04,454.32,454.67,455.00,455.23,455.42,455.52,455.57,455.57,455.55,455.58,455.67,455.88,456.31,456.72,456.99,457.09,457.07,457.08,457.10,457.02,456.84,456.71,456.73,457.14,457.88,458.84,459.68,460.54,461.42,462.42,463.79,464.10,464.06,464.05,464.17,464.36,464.64,464.92,465.16,465.46,465.71,465.96,466.22,466.49,466.74,466.99,467.27,467.57,467.84,468.11,468.33,468.50,468.64,468.80,469.03,469.33,469.64,469.91,470.43,471.07,471.69,472.36,472.96,473.35,473.54,473.69,473.95,474.31,474.68,474.90,474.86,474.79,474.85,475.12,475.50,475.90,476.31,476.68,476.89,477.06,477.18,477.31,477.48,477.68,478.05,478.45,478.83,479.16,479.37,479.53,479.76,480.16,480.59,481.02,481.47,481.91,482.20,482.32,482.38,482.42,482.44,482.36,481.97,481.44,480.94,480.40,479.88,479.38,479.04,479.21,479.37,479.54,479.78,480.26,481.24,482.66,483.90,484.61,485.07,485.31,485.44,485.45,485.22,484.82,484.49,484.49,485.08,485.86,486.60,487.00,487.06,487.26,487.53,487.48,487.05,486.36,486.21,486.47,486.80,486.94,486.50,486.01,485.47,484.97,484.73,484.84,485.09,485.39,485.69,485.85,486.21,486.74,487.40,488.00,488.43,488.60,488.60,488.58,488.55,488.51,488.48,488.48,488.49,488.58,488.68,488.77,488.87,488.95,489.01,489.17,489.58,490.20,490.77,490.85,490.30,489.55,488.90,488.39,488.27,488.88,489.46,489.77,489.90,489.89,489.70,489.35,488.87,488.30,487.76,487.72,487.85,488.01,488.15,488.09,487.78,487.42,487.07,486.68,486.26,486.05,486.09,486.43,486.93,487.83,488.94,489.99,490.52,490.92,491.32,491.75,492.21,492.62,493.07,493.53,493.95,494.34,494.78,495.24,495.71,496.18,496.70,497.21,497.72,498.26,498.76,499.10,499.30,499.39,499.44,499.51,499.58,499.62,499.65,499.65,499.76,500.07,500.69,501.32,501.91,502.47,503.03,503.60,504.07,504.42,504.56,504.30,503.94,503.79,503.79,503.85,503.90,503.94,504.00,504.06,504.11
453.06,453.32,453.62,453.92,454.14,454.32,454.43,454.49,454.55,454.63,454.71,454.75,454.81,455.04,455.35,455.58,455.70,455.72,455.78,455.90,455.96,456.07,456.52,457.06,457.93,458.93,459.79,460.44,461.20,462.03,462.88,463.69,463.74,463.68,463.74,463.93,464.16,464.44,464.72,464.96,465.26,465.52,465.75,465.98,466.22,466.50,466.75,467.00,467.29,467.54,467.82,468.06,468.22,468.42,468.63,468.93,469.32,469.69,469.98,470.46,471.03,471.59,472.17,472.64,472.97,473.14,473.27,473.53,473.86,474.17,474.36,474.32,474.29,474.44,474.82,475.28,475.73,476.12,476.42,476.56,476.71,476.83,476.95,477.14,477.44,477.80,478.18,478.53,478.80,478.93,479.09,479.38,479.86,480.32,480.80,481.29,481.72,481.85,481.93,482.01,482.07,482.09,482.11,481.77,481.25,480.74,480.19,479.60,478.99,478.49,478.48,478.66,479.12,479.81,480.64,481.56,482.64,483.56,484.12,484.60,484.82,484.96,485.02,484.91,484.52,484.13,484.10,484.71,485.43,486.05,486.24,486.08,486.24,486.63,486.89,486.77,486.11,485.85,486.03,486.33,486.44,486.13,485.69,485.21,484.77,484.51,484.57,484.70,484.84,484.99,485.07,485.38,485.94,486.67,487.35,487.89,488.10,488.08,488.03,488.01,487.96,487.92,487.92,487.93,488.03,488.14,488.22,488.32,488.39,488.51,488.78,489.32,489.90,490.25,490.29,489.99,489.37,488.72,488.10,487.82,488.38,488.88,489.13,489.24,489.21,488.98,488.54,488.06,487.56,487.00,486.91,487.03,487.27,487.61,487.79,487.55,487.19,486.85,486.44,485.99,485.73,485.75,486.13,486.83,487.80,488.88,489.92,490.51,490.95,491.36,491.78,492.25,492.72,493.13,493.50,493.89,494.27,494.70,495.17,495.64,496.11,496.62,497.12,497.62,498.12,498.54,498.75,498.85,498.92,498.94,499.05,499.16,499.23,499.25,499.31,499.52,499.94,500.63,501.27,501.88,502.43,502.93,503.45,503.82,504.09,504.21,503.98,503.64,503.44,503.40,503.49,503.55,503.58,503.62,503.69,503.78
452.08,452.25,452.55,452.88,453.11,453.33,453.44,453.50,453.56,453.81,453.98,454.04,454.09,454.28,454.63,454.77,454.82,454.88,454.90,454.98,455.27,456.08,457.92,459.11,459.70,460.03,460.40,460.82,461.60,462.47,463.19,463.43,463.35,463.32,463.44,463.72,463.96,464.25,464.52,464.77,465.07,465.32,465.55,465.78,466.02,466.26,466.50,466.73,466.98,467.27,467.53,467.74,467.93,468.27,468.63,469.00,469.38,469.76,470.13,470.58,471.11,471.69,472.18,472.40,472.52,472.65,472.86,473.09,473.34,473.59,473.78,473.74,473.86,474.18,474.68,475.15,475.55,475.87,476.08,476.18,476.32,476.47,476.64,476.88,477.18,477.50,477.85,478.19,478.37,478.52,478.79,479.20,479.72,480.19,480.70,481.18,481.50,481.49,481.54,481.62,481.69,481.76,481.82,481.54,481.10,480.65,480.06,479.35,478.64,478.10,478.12,478.62,479.26,479.96,480.67,481.41,482.26,483.08,483.69,484.05,484.25,484.43,484.57,484.47,484.12,483.77,483.75,484.31,484.88,485.38,485.50,485.26,485.26,485.73,486.28,486.48,485.88,485.55,485.64,485.86,485.94,485.71,485.30,484.90,484.59,484.37,484.34,484.40,484.52,484.66,484.76,484.92,485.44,486.33,487.17,487.45,487.51,487.51,487.50,487.44,487.41,487.40,487.40,487.40,487.47,487.56,487.65,487.79,487.87,488.12,488.51,488.98,489.47,489.72,489.71,489.44,489.01,488.47,487.81,487.39,487.80,488.14,488.36,488.48,488.48,488.21,487.68,487.15,486.70,486.36,486.14,486.25,486.61,487.11,487.52,487.35,486.97,486.58,486.13,485.67,485.38,485.38,485.82,486.70,487.70,488.72,489.68,490.32,490.80,491.25,491.72,492.24,492.72,493.10,493.44,493.83,494.21,494.61,495.06,495.57,496.04,496.51,497.02,497.53,497.97,498.21,498.29,498.33,498.41,498.48,498.56,498.64,498.72,498.81,499.04,499.45,500.00,500.70,501.38,501.96,502.42,502.75,503.04,503.40,503.70,503.83,503.66,503.36,503.11,503.03,503.15,503.18,503.23,503.27,503.31,503.45
450.99,451.14,451.48,451.84,452.07,452.30,452.42,452.50,452.65,453.05,453.30,453.38,453.47,453.79,454.16,454.31,454.37,454.44,454.46,455.01,456.17,457.74,459.19,460.03,460.43,460.64,460.88,461.18,461.88,462.61,463.05,463.04,462.94,463.00,463.22,463.48,463.75,464.02,464.30,464.57,464.84,465.11,465.36,465.59,465.82,466.05,466.28,466.52,466.75,467.02,467.26,467.51,467.81,468.19,468.57,468.96,469.35,469.73,470.08,470.53,471.04,471.54,471.82,471.94,472.02,472.13,472.36,472.56,472.77,473.00,473.20,473.19,473.46,473.94,474.50,474.96,475.30,475.54,475.70,475.79,475.93,476.12,476.34,476.61,476.92,477.26,477.57,477.80,477.93,478.14,478.54,479.07,479.64,480.11,480.61,480.99,481.17,481.15,481.17,481.23,481.31,481.38,481.42,481.26,480.93,480.43,479.75,479.00,478.22,477.66,477.89,478.44,479.05,479.64,480.20,480.88,481.71,482.53,483.19,483.52,483.75,483.96,484.13,484.06,483.73,483.39,483.38,483.90,484.37,484.75,484.82,484.65,484.72,485.19,485.77,486.07,485.66,485.30,485.27,485.40,485.50,485.36,485.03,484.68,484.39,484.18,484.07,484.11,484.26,484.45,484.65,484.91,485.42,486.23,486.94,486.99,486.94,486.94,486.93,486.89,486.88,486.88,486.88,486.88,486.92,486.99,487.11,487.23,487.38,487.71,488.14,488.61,489.11,489.30,489.18,488.81,488.43,487.95,487.39,486.98,487.13,487.35,487.56,487.72,487.76,487.44,486.88,486.32,485.85,485.52,485.44,485.67,486.10,486.59,487.06,487.02,486.70,486.27,485.85,485.39,485.10,485.11,485.64,486.57,487.60,488.63,489.58,490.26,490.76,491.23,491.70,492.20,492.67,493.06,493.42,493.81,494.20,494.55,494.97,495.47,495.97,496.48,496.95,497.36,497.61,497.75,497.81,497.87,497.94,498.02,498.10,498.22,498.40,498.68,499.05,499.50,500.07,500.75,501.34,501.74,502.01,502.22,502.45,502.84,503.20,503.42,503.32,503.04,502.79,502.68,502.78,502.83,502.93,503.03,503.13,503.28
450.03,450.14,450.48,450.83,451.05,451.27,451.39,451.53,451.80,452.31,452.61,452.75,452.92,453.38,453.77,453.96,454.05,454.13,454.26,455.47,457.44,459.46,460.16,460.55,460.82,461.06,461.31,461.56,462.11,462.59,462.75,462.63,462.58,462.74,463.03,463.26,463.55,463.81,464.06,464.36,464.60,464.89,465.16,465.39,465.63,465.86,466.09,466.33,466.57,466.79,467.00,467.28,467.67,468.06,468.44,468.82,469.21,469.58,469.89,470.32,470.79,471.18,471.34,471.42,471.50,471.62,471.85,472.02,472.21,472.43,472.63,472.70,473.10,473.65,474.22,474.66,474.95,475.16,475.31,475.41,475.56,475.78,476.06,476.35,476.65,477.00,477.26,477.39,477.51,477.79,478.28,478.88,479.46,479.94,480.38,480.67,480.75,480.76,480.77,480.82,480.90,480.97,481.00,480.95,480.72,480.16,479.40,478.62,477.82,477.25,477.64,478.16,478.69,479.18,479.64,480.32,481.20,482.02,482.63,482.97,483.23,483.48,483.68,483.66,483.35,483.01,483.00,483.49,483.86,484.12,484.18,484.10,484.32,484.81,485.31,485.60,485.37,485.04,484.93,484.97,485.08,485.04,484.78,484.47,484.18,483.96,483.81,483.88,484.08,484.34,484.64,485.02,485.55,486.18,486.62,486.47,486.34,486.33,486.34,486.35,486.35,486.35,486.36,486.35,486.36,486.43,486.57,486.69,486.92,487.31,487.77,488.24,488.76,488.87,488.64,488.19,487.80,487.36,486.91,486.54,486.49,486.59,486.79,486.99,487.05,486.70,486.13,485.56,485.10,484.89,484.99,485.32,485.76,486.20,486.64,486.68,486.43,485.99,485.60,485.17,484.88,484.94,485.55,486.50,487.56,488.62,489.58,490.27,490.78,491.25,491.71,492.16,492.63,493.03,493.42,493.81,494.20,494.52,494.91,495.39,495.93,496.43,496.83,497.10,497.18,497.26,497.34,497.40,497.48,497.59,497.72,497.92,498.23,498.67,499.12,499.59,500.11,500.73,501.17,501.38,501.48,501.58,501.82,502.23,502.64,502.94,502.98,502.72,502.46,502.34,502.41,502.51,502.65,502.81,502.98,503.13
449.57,449.51,449.67,449.91,450.08,450.25,450.39,450.62,451.01,451.53,451.87,452.18,452.53,452.99,453.38,453.60,453.72,453.87,454.38,456.34,458.47,459.99,460.41,460.78,461.11,461.40,461.70,462.00,462.27,462.41,462.38,462.25,462.36,462.61,462.90,463.13,463.37,463.61,463.87,464.17,464.41,464.70,464.97,465.20,465.43,465.66,465.89,466.15,466.43,466.61,466.73,466.95,467.35,467.73,468.12,468.50,468.87,469.19,469.50,469.80,470.11,470.44,470.77,470.90,470.98,471.11,471.38,471.56,471.73,471.90,472.08,472.32,472.73,473.22,473.69,474.09,474.41,474.66,474.88,475.07,475.24,475.53,475.84,476.09,476.33,476.59,476.80,476.95,477.12,477.50,477.97,478.48,479.01,479.43,479.78,480.06,480.23,480.25,480.30,480.37,480.45,480.52,480.59,480.56,480.36,479.88,479.09,478.30,477.52,476.96,477.21,477.70,478.21,478.70,479.25,480.03,480.97,481.66,481.95,482.31,482.62,482.95,483.24,483.27,483.01,482.69,482.63,483.02,483.30,483.54,483.59,483.57,484.02,484.55,484.94,485.10,484.92,484.74,484.63,484.63,484.71,484.75,484.52,484.21,483.93,483.71,483.64,483.81,484.10,484.40,484.70,485.12,485.65,486.14,486.08,485.87,485.72,485.70,485.76,485.76,485.76,485.79,485.83,485.78,485.81,485.89,486.01,486.23,486.55,486.98,487.44,487.91,488.39,488.37,488.05,487.61,487.22,486.82,486.38,486.02,485.96,485.97,486.14,486.34,486.40,486.05,485.49,484.94,484.64,484.93,485.16,485.45,485.79,486.13,486.47,486.45,486.19,485.79,485.41,485.01,484.78,484.89,485.61,486.62,487.69,488.77,489.75,490.36,490.85,491.31,491.76,492.17,492.63,493.03,493.42,493.81,494.20,494.52,494.93,495.46,495.99,496.33,496.53,496.64,496.73,496.80,496.88,496.93,496.99,497.23,497.55,497.92,498.34,498.74,499.14,499.59,500.06,500.53,500.77,500.85,500.89,501.00,501.23,501.60,501.99,502.36,502.61,502.40,502.14,502.00,502.04,502.23,502.39,502.58,502.78,502.94
449.19,449.21,449.40,449.60,449.71,449.83,449.95,450.15,450.49,450.91,451.27,451.70,452.19,452.64,453.01,453.23,453.35,453.64,454.94,457.12,459.03,460.19,460.52,460.83,461.08,461.29,461.54,461.84,462.01,462.04,461.95,461.86,462.11,462.45,462.78,463.04,463.28,463.53,463.80,464.07,464.30,464.54,464.77,465.00,465.24,465.50,465.77,466.04,466.28,466.39,466.47,466.66,467.02,467.41,467.79,468.18,468.54,468.84,469.09,469.32,469.57,469.86,470.16,470.35,470.48,470.64,470.93,471.11,471.26,471.42,471.59,471.85,472.25,472.73,473.16,473.51,473.80,474.10,474.38,474.62,474.88,475.19,475.50,475.74,476.00,476.19,476.35,476.50,476.67,477.08,477.55,478.02,478.51,478.91,479.25,479.52,479.72,479.73,479.70,479.71,479.78,479.97,480.19,480.24,480.04,479.50,478.79,478.05,477.30,476.71,476.79,477.25,477.79,478.39,479.15,480.00,480.70,481.11,481.25,481.58,481.92,482.32,482.72,482.86,482.66,482.37,482.25,482.50,482.76,482.98,483.11,483.26,483.75,484.25,484.58,484.69,484.60,484.43,484.34,484.34,484.42,484.49,484.29,484.00,483.71,483.50,483.46,483.68,484.03,484.41,484.72,485.14,485.57,485.80,485.56,485.29,485.13,485.10,485.17,485.21,485.23,485.26,485.31,485.28,485.31,485.38,485.53,485.81,486.21,486.66,487.12,487.58,488.04,487.94,487.56,487.11,486.68,486.29,485.91,485.60,485.53,485.49,485.56,485.68,485.71,485.39,484.87,484.62,484.76,485.10,485.39,485.66,485.90,486.06,486.22,486.18,485.97,485.64,485.26,484.85,484.63,484.84,485.74,486.86,488.01,489.10,490.00,490.54,491.00,491.43,491.80,492.09,492.46,492.85,493.26,493.71,494.14,494.51,494.94,495.44,495.76,495.96,496.07,496.14,496.22,496.30,496.40,496.55,496.79,497.13,497.53,497.96,498.38,498.76,499.14,499.54,499.91,500.20,500.34,500.38,500.38,500.41,500.61,500.96,501.42,501.93,502.27,502.07,501.81,501.68,501.74,501.92,502.09,502.28,502.49,502.65
448.93,449.16,449.44,449.63,449.70,449.77,449.87,450.03,450.29,450.59,450.94,451.41,451.93,452.33,452.65,452.86,453.07,453.62,455.58,457.68,459.29,460.23,460.52,460.74,460.87,460.97,461.14,461.42,461.57,461.59,461.52,461.50,461.86,462.28,462.64,462.95,463.20,463.48,463.76,464.00,464.23,464.43,464.63,464.87,465.10,465.39,465.69,465.95,466.13,466.15,466.21,466.39,466.70,467.08,467.46,467.85,468.20,468.49,468.68,468.88,469.11,469.33,469.57,469.80,469.99,470.19,470.48,470.67,470.82,470.98,471.14,471.35,471.74,472.20,472.62,472.94,473.21,473.52,473.85,474.12,474.47,474.81,475.09,475.35,475.64,475.79,475.90,476.06,476.23,476.63,477.09,477.56,478.00,478.39,478.73,479.01,479.18,479.20,479.06,478.96,478.99,479.27,479.64,479.81,479.62,479.02,478.39,477.73,477.02,476.42,476.37,476.79,477.37,478.07,479.02,479.87,480.29,480.45,480.53,480.84,481.25,481.74,482.23,482.46,482.30,482.03,481.87,481.97,482.24,482.45,482.69,483.03,483.50,483.96,484.24,484.34,484.31,484.12,484.06,484.08,484.16,484.23,484.07,483.81,483.51,483.30,483.25,483.49,483.90,484.33,484.68,485.08,485.36,485.37,485.09,484.77,484.58,484.53,484.61,484.68,484.73,484.77,484.83,484.84,484.85,484.94,485.13,485.44,485.87,486.33,486.79,487.26,487.72,487.55,487.13,486.66,486.20,485.79,485.45,485.20,485.11,485.03,485.01,485.03,485.00,484.73,484.40,484.54,485.05,485.29,485.56,485.79,485.92,485.92,485.92,485.87,485.73,485.48,485.11,484.67,484.47,484.74,485.80,487.05,488.34,489.44,490.21,490.68,491.10,491.46,491.73,491.91,492.22,492.57,493.00,493.52,494.00,494.41,494.86,495.29,495.39,495.48,495.56,495.64,495.73,495.84,496.01,496.30,496.74,497.13,497.58,498.00,498.39,498.76,499.12,499.44,499.70,499.85,499.95,499.98,499.95,499.93,500.07,500.39,500.93,501.56,501.94,501.75,501.50,501.37,501.46,501.61,501.76,501.95,502.18,502.36
449.04,449.48,449.84,450.06,450.13,450.16,450.31,450.54,450.83,451.08,451.34,451.61,451.86,452.09,452.34,452.60,453.14,454.23,455.88,457.62,459.12,460.14,460.34,460.42,460.49,460.57,460.69,460.92,461.09,461.13,461.10,461.26,461.67,462.09,462.47,462.82,463.07,463.35,463.63,463.88,464.16,464.44,464.69,464.92,465.15,465.40,465.65,465.84,465.89,465.89,465.99,466.15,466.38,466.75,467.14,467.50,467.80,468.05,468.27,468.46,468.65,468.88,469.11,469.30,469.52,469.79,470.03,470.26,470.43,470.59,470.74,470.85,471.22,471.66,472.05,472.36,472.70,473.01,473.30,473.64,473.98,474.29,474.61,474.95,475.21,475.37,475.51,475.65,475.78,476.18,476.64,477.09,477.49,477.87,478.25,478.51,478.61,478.67,478.46,478.17,478.00,478.21,478.56,478.89,478.88,478.30,477.64,477.04,476.46,475.97,475.91,476.34,476.86,477.47,478.34,479.09,479.47,479.66,479.82,480.24,480.82,481.43,481.94,482.08,481.87,481.64,481.53,481.56,481.74,482.00,482.34,482.77,483.24,483.70,483.95,484.02,484.00,483.85,483.80,483.82,483.90,483.97,483.85,483.61,483.32,483.10,482.96,483.20,483.63,484.04,484.46,484.78,484.98,484.98,484.74,484.40,484.13,484.01,484.09,484.16,484.27,484.37,484.44,484.50,484.56,484.67,484.85,485.12,485.54,486.01,486.47,486.94,487.40,487.19,486.73,486.27,485.80,485.36,485.02,484.79,484.61,484.51,484.49,484.43,484.25,484.03,484.42,484.88,485.19,485.36,485.50,485.58,485.59,485.55,485.54,485.49,485.39,485.23,484.91,484.47,484.27,484.49,485.42,486.91,488.42,489.61,490.27,490.59,490.83,491.06,491.31,491.53,491.87,492.22,492.62,493.14,493.62,494.06,494.50,494.85,494.89,495.00,495.11,495.20,495.35,495.59,495.93,496.35,496.80,497.19,497.64,498.07,498.44,498.76,498.99,499.22,499.44,499.59,499.73,499.77,499.76,499.76,499.86,500.09,500.60,501.24,501.62,501.48,501.20,501.05,501.13,501.28,501.44,501.63,501.88,502.20
449.38,449.87,450.28,450.58,450.70,450.72,450.94,451.25,451.57,451.81,452.04,452.23,452.37,452.50,452.63,452.77,453.25,454.31,455.78,457.33,458.80,459.89,460.06,460.09,460.12,460.16,460.23,460.41,460.60,460.71,460.75,461.04,461.47,461.89,462.28,462.65,462.96,463.25,463.52,463.78,464.06,464.38,464.70,464.98,465.18,465.35,465.52,465.63,465.64,465.67,465.77,465.88,466.06,466.43,466.82,467.14,467.41,467.64,467.84,468.03,468.23,468.43,468.66,468.88,469.16,469.47,469.67,469.81,469.96,470.12,470.27,470.41,470.74,471.12,471.47,471.81,472.16,472.49,472.79,473.15,473.46,473.79,474.13,474.47,474.68,474.89,475.09,475.23,475.36,475.73,476.19,476.63,477.01,477.40,477.76,478.00,478.07,478.11,477.92,477.59,477.26,477.25,477.52,477.86,478.00,477.66,477.09,476.56,476.03,475.59,475.50,475.87,476.36,476.91,477.60,478.30,478.78,479.18,479.60,480.06,480.61,481.15,481.58,481.70,481.49,481.27,481.15,481.17,481.31,481.61,482.00,482.48,482.97,483.41,483.64,483.69,483.67,483.54,483.49,483.54,483.64,483.71,483.64,483.43,483.16,482.90,482.70,482.93,483.37,483.75,484.15,484.45,484.60,484.56,484.30,483.99,483.70,483.53,483.61,483.68,483.81,483.95,484.06,484.17,484.31,484.48,484.71,484.96,485.39,485.83,486.27,486.72,487.06,486.90,486.51,486.05,485.62,485.13,484.77,484.50,484.20,483.96,483.86,483.82,483.77,483.87,484.48,484.98,485.18,485.26,485.29,485.29,485.27,485.20,485.16,485.04,484.92,484.78,484.54,484.17,484.03,484.25,485.01,486.32,487.87,489.17,489.90,490.21,490.42,490.64,490.90,491.18,491.54,491.88,492.25,492.76,493.22,493.64,493.99,494.24,494.32,494.51,494.70,494.90,495.16,495.52,495.93,496.38,496.83,497.25,497.65,498.01,498.33,498.60,498.78,498.98,499.19,499.38,499.56,499.59,499.60,499.68,499.79,500.00,500.44,501.01,501.31,501.17,500.89,500.72,500.81,500.96,501.14,501.41,501.76,502.11
449.82,450.29,450.72,451.10,451.31,451.37,451.67,452.05,452.41,452.66,452.88,453.06,453.18,453.24,453.25,453.22,453.41,454.14,455.49,456.95,458.42,459.57,459.73,459.76,459.76,459.76,459.79,459.93,460.14,460.31,460.46,460.83,461.27,461.69,462.08,462.47,462.86,463.15,463.42,463.71,463.96,464.30,464.66,464.98,465.13,465.23,465.31,465.37,465.38,465.45,465.53,465.61,465.75,466.11,466.49,466.78,467.02,467.24,467.41,467.61,467.81,467.99,468.23,468.52,468.87,469.19,469.32,469.35,469.44,469.57,469.74,469.94,470.24,470.56,470.91,471.28,471.62,471.97,472.32,472.63,472.95,473.30,473.65,473.94,474.13,474.38,474.61,474.77,474.95,475.30,475.74,476.18,476.57,476.94,477.27,477.48,477.55,477.55,477.42,477.10,476.67,476.41,476.51,476.79,477.04,477.03,476.63,476.18,475.69,475.26,475.13,475.44,475.93,476.46,476.97,477.64,478.28,478.94,479.63,480.10,480.49,480.87,481.18,481.30,481.15,480.92,480.77,480.78,480.93,481.26,481.69,482.16,482.69,483.11,483.32,483.37,483.34,483.22,483.18,483.23,483.37,483.45,483.41,483.25,483.01,482.71,482.47,482.67,483.09,483.47,483.79,484.10,484.23,484.11,483.81,483.56,483.27,483.09,483.21,483.31,483.46,483.62,483.78,483.92,484.11,484.37,484.65,484.90,485.32,485.75,486.16,486.55,486.71,486.61,486.32,485.91,485.52,485.05,484.65,484.31,483.92,483.47,483.26,483.27,483.49,483.95,484.47,484.86,485.06,485.05,485.00,484.96,484.91,484.82,484.73,484.56,484.37,484.20,484.03,483.78,483.76,484.04,484.63,485.55,486.96,488.32,489.17,489.55,489.85,490.17,490.54,490.85,491.22,491.56,491.92,492.37,492.83,493.19,493.46,493.65,493.84,494.12,494.43,494.75,495.14,495.58,496.00,496.41,496.86,497.29,497.63,497.90,498.13,498.35,498.52,498.73,498.95,499.18,499.40,499.42,499.45,499.61,499.77,500.00,500.38,500.81,500.96,500.80,500.54,500.40,500.49,500.67,500.91,501.29,501.75,502.04
450.20,450.66,451.08,451.47,451.80,452.09,452.44,452.83,453.20,453.54,453.75,453.85,453.88,453.84,453.79,453.76,453.83,454.22,455.29,456.68,458.12,459.24,459.35,459.37,459.37,459.37,459.39,459.53,459.74,459.98,460.25,460.63,461.03,461.46,461.88,462.28,462.71,463.05,463.35,463.65,463.94,464.21,464.49,464.74,464.89,464.99,465.03,465.06,465.12,465.20,465.27,465.34,465.47,465.79,466.12,466.40,466.62,466.80,467.00,467.19,467.38,467.60,467.88,468.23,468.60,468.90,468.90,468.90,468.89,468.93,469.09,469.26,469.57,469.96,470.38,470.76,471.13,471.48,471.81,472.12,472.48,472.82,473.12,473.38,473.64,473.85,474.06,474.27,474.49,474.84,475.31,475.79,476.17,476.50,476.78,476.96,477.02,477.02,476.90,476.58,476.12,475.67,475.47,475.72,476.12,476.28,476.03,475.65,475.25,474.94,474.86,475.20,475.74,476.31,476.85,477.52,478.24,478.97,479.63,480.05,480.31,480.53,480.74,480.87,480.79,480.60,480.41,480.35,480.58,480.94,481.36,481.84,482.37,482.83,483.03,483.03,482.97,482.93,482.91,482.95,483.06,483.18,483.16,483.02,482.81,482.51,482.27,482.41,482.77,483.15,483.47,483.77,483.88,483.71,483.42,483.12,482.82,482.70,483.04,483.29,483.52,483.73,483.92,484.02,484.14,484.33,484.59,484.89,485.27,485.70,486.10,486.33,486.26,486.12,485.92,485.67,485.39,485.08,484.71,484.28,483.83,483.32,483.03,483.04,483.38,483.79,484.19,484.55,484.80,484.75,484.72,484.61,484.44,484.26,484.12,483.95,483.77,483.56,483.35,483.29,483.51,483.94,484.39,484.99,486.04,487.12,487.85,488.34,488.89,489.55,490.19,490.52,490.90,491.23,491.57,491.98,492.39,492.77,493.14,493.50,493.82,494.18,494.55,494.91,495.31,495.76,496.21,496.62,496.96,497.26,497.53,497.75,497.92,498.10,498.31,498.53,498.74,498.93,499.15,499.24,499.32,499.49,499.70,500.01,500.32,500.49,500.38,500.22,500.10,500.07,500.19,500.49,500.91,501.35,501.73,501.93
450.58,451.02,451.44,451.85,452.23,452.62,453.02,453.45,453.89,454.29,454.47,454.51,454.48,454.42,454.35,454.31,454.31,454.47,455.13,456.42,457.82,458.87,458.97,458.98,458.98,459.01,459.11,459.31,459.58,459.87,460.19,460.58,460.96,461.38,461.80,462.19,462.57,462.86,463.13,463.40,463.65,463.89,464.13,464.35,464.52,464.64,464.70,464.73,464.79,464.89,464.99,465.10,465.24,465.48,465.75,465.99,466.19,466.38,466.58,466.76,466.98,467.25,467.61,467.99,468.33,468.52,468.46,468.42,468.36,468.33,468.41,468.56,468.86,469.27,469.76,470.26,470.67,471.01,471.32,471.64,472.01,472.35,472.63,472.87,473.14,473.35,473.58,473.87,474.17,474.56,474.98,475.39,475.74,476.03,476.27,476.44,476.50,476.47,476.35,476.04,475.59,475.13,474.79,474.96,475.33,475.51,475.38,475.06,474.74,474.55,474.67,475.10,475.64,476.23,476.81,477.44,478.17,478.89,479.47,479.81,479.99,480.13,480.28,480.42,480.40,480.23,480.03,479.94,480.21,480.60,481.05,481.55,482.08,482.54,482.72,482.70,482.63,482.62,482.64,482.68,482.78,482.91,482.89,482.79,482.62,482.32,482.07,482.15,482.45,482.82,483.14,483.43,483.50,483.29,482.99,482.68,482.53,482.65,483.15,483.51,483.78,484.00,484.18,484.26,484.32,484.42,484.60,484.88,485.23,485.64,485.97,486.04,485.84,485.65,485.45,485.25,485.10,484.91,484.55,484.09,483.59,483.11,482.80,482.79,483.15,483.51,483.85,484.21,484.50,484.46,484.43,484.26,484.00,483.75,483.53,483.36,483.17,482.95,482.83,483.09,483.56,484.09,484.55,485.27,486.25,487.13,487.69,488.28,488.80,489.43,490.10,490.45,490.82,491.19,491.57,491.96,492.34,492.73,493.13,493.56,493.95,494.33,494.72,495.11,495.50,495.90,496.29,496.64,496.94,497.18,497.41,497.60,497.76,497.92,498.14,498.35,498.54,498.70,498.93,499.07,499.19,499.36,499.59,499.91,500.12,500.17,500.01,499.89,499.88,499.96,500.16,500.55,500.98,501.35,501.62,501.81
450.97,451.37,451.81,452.24,452.62,453.00,453.43,453.92,454.43,454.85,455.01,455.02,454.99,454.99,454.93,454.86,454.82,454.85,455.07,456.19,457.51,458.49,458.58,458.60,458.61,458.70,458.94,459.23,459.58,459.93,460.26,460.63,461.00,461.38,461.75,462.12,462.37,462.56,462.76,462.98,463.16,463.37,463.61,463.83,464.06,464.23,464.33,464.39,464.42,464.55,464.69,464.85,465.00,465.16,465.38,465.57,465.76,465.97,466.14,466.35,466.61,466.95,467.39,467.78,468.02,468.07,468.00,467.93,467.86,467.81,467.82,467.98,468.27,468.66,469.17,469.76,470.21,470.56,470.88,471.19,471.56,471.89,472.17,472.41,472.67,472.92,473.22,473.61,473.99,474.42,474.75,475.01,475.30,475.54,475.76,475.92,475.96,475.90,475.77,475.50,475.11,474.73,474.40,474.46,474.69,474.80,474.73,474.47,474.21,474.13,474.55,475.07,475.62,476.18,476.78,477.34,478.04,478.71,479.19,479.45,479.57,479.69,479.84,479.98,479.99,479.84,479.64,479.57,479.84,480.26,480.75,481.30,481.84,482.24,482.39,482.36,482.31,482.30,482.35,482.42,482.52,482.65,482.63,482.55,482.42,482.12,481.88,481.89,482.13,482.50,482.82,483.07,483.08,482.84,482.54,482.26,482.39,482.86,483.45,483.88,484.17,484.37,484.51,484.58,484.60,484.62,484.68,484.91,485.20,485.55,485.78,485.68,485.47,485.20,484.93,484.70,484.69,484.56,484.23,483.74,483.24,482.84,482.55,482.53,482.83,483.14,483.50,483.88,484.18,484.18,484.11,483.89,483.60,483.29,482.99,482.79,482.59,482.41,482.47,483.12,483.84,484.46,485.13,486.34,487.44,488.18,488.55,489.15,489.43,489.76,490.21,490.58,490.98,491.40,491.83,492.22,492.60,492.99,493.37,493.77,494.14,494.51,494.88,495.26,495.64,495.96,496.25,496.52,496.81,497.05,497.28,497.47,497.63,497.79,498.01,498.19,498.35,498.52,498.73,498.90,499.06,499.23,499.46,499.70,499.86,499.90,499.83,499.82,499.88,500.05,500.35,500.76,501.06,501.26,501.45,501.66
451.36,451.80,452.22,452.62,453.00,453.34,453.74,454.21,454.70,455.01,455.18,455.27,455.36,455.45,455.49,455.44,455.37,455.35,455.41,456.12,457.19,458.15,458.20,458.21,458.33,458.58,458.91,459.22,459.59,459.96,460.30,460.59,460.88,461.16,461.44,461.72,461.91,462.08,462.26,462.48,462.64,462.86,463.08,463.32,463.55,463.81,463.95,464.02,464.08,464.23,464.34,464.49,464.68,464.79,464.96,465.15,465.35,465.52,465.68,465.92,466.26,466.68,467.19,467.48,467.62,467.62,467.55,467.47,467.42,467.49,467.79,468.18,468.56,468.84,469.02,469.22,469.69,470.13,470.48,470.79,471.12,471.41,471.67,471.97,472.35,472.73,473.14,473.58,474.01,474.34,474.57,474.76,474.96,475.10,475.27,475.38,475.40,475.37,475.24,475.02,474.71,474.33,474.01,474.08,474.29,474.31,474.20,473.97,473.82,473.91,474.41,474.99,475.55,476.12,476.72,477.27,477.90,478.46,478.82,479.06,479.21,479.35,479.50,479.58,479.55,479.42,479.28,479.30,479.62,480.02,480.51,481.10,481.67,481.97,482.04,482.00,481.97,481.97,482.06,482.16,482.25,482.35,482.35,482.30,482.17,481.92,481.69,481.67,481.85,482.18,482.49,482.70,482.67,482.40,482.15,482.06,482.39,483.00,483.62,484.16,484.56,484.78,484.83,484.86,484.87,484.87,484.90,485.03,485.23,485.48,485.61,485.42,485.19,484.65,484.24,484.15,484.32,484.24,483.88,483.38,482.96,482.66,482.41,482.35,482.56,482.82,483.14,483.50,483.81,483.85,483.70,483.48,483.20,482.89,482.58,482.32,482.05,481.90,482.31,483.15,484.02,485.01,486.49,488.26,489.13,489.44,489.64,489.95,490.07,490.23,490.50,490.84,491.26,491.69,492.09,492.48,492.86,493.25,493.63,494.00,494.29,494.57,494.86,495.17,495.54,495.81,496.12,496.43,496.68,496.92,497.15,497.34,497.50,497.66,497.88,498.06,498.21,498.37,498.55,498.71,498.89,499.10,499.33,499.56,499.71,499.78,499.81,499.90,500.09,500.31,500.52,500.77,500.98,501.14,501.31,501.48
451.76,452.21,452.63,453.01,453.36,453.68,454.04,454.47,454.88,455.10,455.26,455.42,455.57,455.72,455.83,455.86,455.86,455.85,455.88,456.20,456.94,457.80,457.85,457.95,458.19,458.51,458.85,459.16,459.49,459.82,460.14,460.38,460.61,460.84,461.07,461.27,461.43,461.59,461.76,461.96,462.12,462.33,462.56,462.80,463.06,463.34,463.54,463.66,463.73,463.87,464.00,464.18,464.38,464.47,464.56,464.70,464.88,465.07,465.28,465.60,466.02,466.50,466.96,467.14,467.19,467.17,467.10,467.10,467.21,467.48,467.97,468.50,468.97,469.26,469.32,469.25,469.51,469.80,470.06,470.37,470.70,471.00,471.32,471.71,472.19,472.65,473.13,473.58,474.00,474.23,474.40,474.54,474.64,474.72,474.82,474.88,474.88,474.88,474.74,474.54,474.29,473.94,473.65,473.72,473.88,473.86,473.72,473.52,473.50,473.77,474.28,474.86,475.44,476.02,476.62,477.13,477.66,478.11,478.41,478.66,478.84,479.01,479.15,479.17,479.11,478.99,478.92,479.10,479.52,479.92,480.38,480.94,481.50,481.68,481.68,481.64,481.65,481.67,481.77,481.88,481.98,482.06,482.09,482.06,481.93,481.72,481.49,481.44,481.57,481.87,482.17,482.34,482.28,482.01,481.80,481.96,482.46,483.13,483.75,484.37,484.79,485.01,485.03,485.03,485.03,485.04,485.07,485.13,485.25,485.38,485.41,485.17,484.74,483.99,483.54,483.62,483.88,483.86,483.53,483.08,482.76,482.51,482.28,482.18,482.31,482.54,482.82,483.16,483.46,483.51,483.31,483.06,482.78,482.47,482.16,481.84,481.52,481.45,482.15,483.13,484.19,485.47,487.40,489.37,490.08,490.21,490.35,490.54,490.61,490.68,490.85,491.14,491.56,491.96,492.35,492.73,493.04,493.38,493.74,494.09,494.34,494.57,494.80,495.07,495.42,495.71,496.02,496.33,496.56,496.81,497.03,497.21,497.37,497.53,497.72,497.92,498.09,498.24,498.39,498.55,498.74,498.97,499.18,499.40,499.56,499.68,499.83,499.98,500.20,500.43,500.58,500.71,500.86,501.01,501.16,501.29
452.17,452.60,453.01,453.37,453.68,453.99,454.35,454.70,455.00,455.16,455.31,455.46,455.62,455.77,455.92,456.06,456.19,456.31,456.39,456.41,456.81,457.44,457.56,457.86,458.18,458.47,458.72,459.03,459.29,459.54,459.78,460.00,460.22,460.45,460.66,460.82,460.97,461.13,461.28,461.44,461.60,461.81,462.05,462.30,462.59,462.84,463.11,463.31,463.35,463.50,463.70,463.92,464.12,464.19,464.23,464.25,464.35,464.65,464.95,465.40,465.91,466.40,466.72,466.76,466.73,466.72,466.69,466.87,467.25,467.75,468.28,468.82,469.35,469.76,469.96,469.84,469.71,469.63,469.68,469.97,470.33,470.70,471.13,471.65,472.17,472.65,473.13,473.57,473.93,474.06,474.19,474.30,474.32,474.39,474.42,474.44,474.43,474.41,474.24,474.04,473.85,473.54,473.30,473.32,473.42,473.39,473.26,473.12,473.25,473.69,474.16,474.69,475.27,475.88,476.46,476.88,477.28,477.65,477.96,478.27,478.46,478.64,478.79,478.73,478.65,478.54,478.57,478.97,479.54,479.98,480.38,480.81,481.30,481.35,481.33,481.32,481.33,481.39,481.48,481.58,481.72,481.80,481.87,481.83,481.68,481.52,481.30,481.22,481.30,481.54,481.85,481.98,481.91,481.68,481.52,481.94,482.58,483.26,483.87,484.49,484.85,485.02,485.08,485.08,485.08,485.12,485.17,485.18,485.25,485.24,485.12,484.78,484.00,483.18,482.84,483.07,483.36,483.43,483.21,482.86,482.62,482.38,482.15,482.01,482.06,482.27,482.56,482.88,483.13,483.18,482.94,482.63,482.32,482.01,481.70,481.34,481.03,481.04,481.96,483.08,484.31,485.75,487.63,489.37,490.10,490.35,490.58,490.87,491.00,491.09,491.22,491.47,491.83,492.20,492.56,492.90,493.10,493.34,493.65,494.02,494.27,494.50,494.74,494.99,495.31,495.67,495.95,496.19,496.44,496.73,496.93,497.08,497.24,497.39,497.56,497.75,497.95,498.11,498.26,498.42,498.61,498.83,499.00,499.21,499.40,499.59,499.86,500.03,500.19,500.36,500.50,500.59,500.73,500.88,501.01,501.10
452.65,453.03,453.38,453.69,453.95,454.21,454.50,454.78,455.01,455.13,455.23,455.34,455.47,455.67,455.83,455.98,456.14,456.30,456.46,456.55,456.83,457.24,457.44,457.75,458.07,458.35,458.60,458.90,459.18,459.42,459.59,459.69,459.85,460.04,460.20,460.32,460.46,460.62,460.77,460.92,461.08,461.30,461.55,461.82,462.09,462.37,462.63,462.86,463.01,463.25,463.48,463.70,463.85,463.89,463.89,463.95,464.12,464.52,464.92,465.39,465.85,466.20,466.35,466.31,466.28,466.33,466.59,466.97,467.47,468.01,468.56,469.14,469.62,469.99,470.19,470.15,470.03,469.93,469.88,469.98,470.24,470.63,471.10,471.63,472.13,472.64,473.13,473.53,473.72,473.78,473.86,473.93,473.94,473.97,474.01,474.04,474.02,473.92,473.72,473.53,473.35,473.10,472.90,472.88,472.91,472.89,472.75,472.85,473.16,473.62,474.09,474.58,475.11,475.67,476.16,476.44,476.78,477.16,477.52,477.92,478.12,478.27,478.35,478.28,478.20,478.16,478.34,478.88,479.49,479.97,480.36,480.70,481.02,481.03,481.00,481.00,481.01,481.12,481.21,481.30,481.41,481.53,481.62,481.57,481.43,481.31,481.10,480.99,481.04,481.28,481.58,481.61,481.49,481.35,481.43,481.93,482.60,483.28,483.89,484.51,484.86,485.01,485.04,485.04,485.04,485.03,485.03,485.07,485.11,484.95,484.44,483.47,482.66,482.14,482.06,482.39,482.74,483.00,482.96,482.72,482.48,482.25,482.02,481.84,481.80,482.01,482.31,482.59,482.80,482.80,482.51,482.15,481.81,481.50,481.15,480.80,480.55,480.66,481.71,482.93,484.27,485.74,487.35,488.72,489.65,490.22,490.52,490.86,491.11,491.33,491.56,491.84,492.09,492.27,492.44,492.62,492.69,492.99,493.41,493.87,494.23,494.50,494.70,494.92,495.23,495.57,495.83,496.06,496.31,496.61,496.80,496.96,497.11,497.26,497.42,497.59,497.78,497.98,498.13,498.29,498.48,498.70,498.86,499.07,499.29,499.52,499.81,499.99,500.11,500.24,500.38,500.46,500.60,500.73,500.82,500.86
452.94,453.24,453.54,453.83,454.06,454.29,454.52,454.74,454.93,455.03,455.12,455.19,455.30,455.49,455.64,455.81,455.98,456.15,456.38,456.58,456.84,457.15,457.38,457.68,457.99,458.28,458.54,458.82,459.10,459.28,459.35,459.40,459.53,459.67,459.79,459.88,460.00,460.15,460.29,460.43,460.57,460.77,461.05,461.34,461.60,461.94,462.23,462.48,462.74,463.04,463.29,463.48,463.56,463.55,463.55,463.67,463.97,464.45,464.90,465.34,465.72,465.92,465.95,465.92,465.96,466.15,466.61,467.13,467.67,468.22,468.77,469.36,469.80,470.13,470.32,470.37,470.33,470.26,470.19,470.16,470.31,470.70,471.19,471.71,472.19,472.68,473.09,473.37,473.43,473.45,473.49,473.55,473.55,473.55,473.60,473.63,473.57,473.42,473.20,473.01,472.84,472.62,472.47,472.42,472.42,472.41,472.36,472.64,473.07,473.53,473.97,474.42,474.89,475.36,475.72,475.93,476.28,476.71,477.17,477.59,477.80,477.90,477.93,477.85,477.77,477.86,478.19,478.77,479.36,479.85,480.22,480.48,480.68,480.69,480.67,480.68,480.71,480.83,480.94,481.02,481.09,481.24,481.35,481.33,481.20,481.09,480.90,480.76,480.77,481.01,481.30,481.25,481.11,481.06,481.35,481.89,482.54,483.19,483.82,484.43,484.63,484.61,484.49,484.19,484.09,484.06,484.07,484.13,484.12,483.74,482.97,481.88,481.29,481.08,481.19,481.62,482.08,482.54,482.66,482.49,482.27,482.05,481.82,481.64,481.55,481.73,482.02,482.29,482.48,482.48,482.15,481.76,481.39,481.05,480.67,480.33,480.13,480.36,481.53,482.82,484.20,485.62,487.00,488.12,489.22,490.04,490.41,490.77,491.11,491.43,491.72,491.96,492.09,492.12,492.14,492.19,492.22,492.57,493.09,493.64,494.14,494.47,494.70,494.89,495.17,495.45,495.70,495.94,496.18,496.48,496.67,496.82,496.98,497.13,497.29,497.44,497.62,497.84,498.00,498.16,498.35,498.57,498.75,498.97,499.20,499.45,499.72,499.90,500.00,500.10,500.23,500.33,500.47,500.58,500.62,500.63
452.89,453.13,453.41,453.69,453.93,454.16,454.38,454.58,454.75,454.88,454.98,455.05,455.13,455.24,455.39,455.59,455.79,455.96,456.19,456.47,456.80,457.14,457.38,457.68,457.99,458.30,458.58,458.83,459.01,459.06,458.99,459.12,459.26,459.38,459.47,459.55,459.63,459.76,459.89,459.98,460.06,460.27,460.55,460.86,461.17,461.58,461.94,462.24,462.53,462.84,463.09,463.23,463.23,463.17,463.16,463.40,463.85,464.36,464.77,465.16,465.45,465.55,465.56,465.62,465.85,466.27,466.74,467.27,467.81,468.35,468.89,469.44,469.87,470.18,470.40,470.53,470.56,470.52,470.46,470.46,470.54,470.93,471.43,471.91,472.43,472.79,473.00,473.05,473.06,473.06,473.11,473.15,473.15,473.15,473.21,473.19,473.06,472.90,472.68,472.49,472.32,472.11,472.00,471.97,471.97,472.00,472.17,472.50,472.93,473.38,473.78,474.17,474.57,474.90,475.12,475.40,475.82,476.36,476.94,477.28,477.47,477.55,477.54,477.46,477.39,477.63,478.09,478.63,479.12,479.59,479.91,480.08,480.24,480.31,480.34,480.37,480.44,480.52,480.65,480.74,480.78,480.92,481.07,481.09,480.99,480.85,480.69,480.54,480.51,480.75,480.99,480.93,480.81,480.84,481.26,481.78,482.38,483.00,483.62,484.20,484.02,483.58,483.15,482.19,481.86,481.86,481.97,482.02,481.93,481.28,480.53,480.24,480.13,480.09,480.28,480.77,481.42,482.07,482.27,482.11,481.94,481.72,481.54,481.38,481.28,481.42,481.69,481.96,482.17,482.27,481.91,481.50,481.11,480.74,480.35,479.97,479.82,480.21,481.50,482.82,484.15,485.46,486.71,487.81,488.94,489.84,490.32,490.66,491.02,491.36,491.62,491.71,491.68,491.66,491.66,491.68,491.75,492.16,492.72,493.33,493.92,494.39,494.71,494.93,495.12,495.34,495.57,495.80,496.05,496.35,496.54,496.69,496.85,497.00,497.16,497.31,497.49,497.71,497.88,498.03,498.22,498.44,498.67,498.89,499.12,499.36,499.59,499.75,499.86,499.94,500.05,500.19,500.34,500.43,500.43,500.44
452.77,453.00,453.25,453.51,453.74,453.97,454.17,454.34,454.49,454.60,454.69,454.77,454.86,454.98,455.17,455.36,455.57,455.81,456.05,456.40,456.79,457.14,457.38,457.68,457.99,458.30,458.59,458.75,458.78,458.72,458.66,458.80,458.92,459.01,459.10,459.21,459.30,459.40,459.50,459.57,459.65,459.95,460.33,460.71,461.07,461.40,461.72,462.02,462.29,462.64,462.81,462.87,462.85,462.79,462.88,463.19,463.64,464.04,464.39,464.74,465.03,465.22,465.31,465.53,465.90,466.40,466.87,467.39,467.93,468.48,469.01,469.52,469.90,470.16,470.32,470.51,470.65,470.74,470.78,470.78,470.85,471.17,471.65,472.13,472.47,472.62,472.66,472.66,472.67,472.70,472.74,472.77,472.77,472.77,472.79,472.73,472.54,472.38,472.17,471.95,471.76,471.63,471.58,471.56,471.56,471.61,471.86,472.22,472.64,473.09,473.47,473.87,474.17,474.41,474.65,475.13,475.68,476.21,476.69,476.92,477.13,477.20,477.15,477.08,477.07,477.38,477.85,478.34,478.81,479.24,479.54,479.68,479.80,479.92,479.99,480.06,480.17,480.25,480.36,480.44,480.50,480.65,480.81,480.83,480.74,480.59,480.48,480.31,480.25,480.48,480.63,480.58,480.58,480.78,481.19,481.68,482.25,482.86,483.41,483.46,482.88,482.07,481.31,480.64,480.47,480.49,480.54,480.53,480.47,480.11,479.75,479.68,479.63,479.69,479.88,480.29,480.97,481.67,481.90,481.77,481.57,481.38,481.22,481.09,481.06,481.16,481.35,481.60,481.86,482.01,481.69,481.29,480.89,480.47,480.08,479.69,479.64,480.22,481.55,482.91,484.25,485.51,486.66,487.75,488.85,489.75,490.25,490.58,490.92,491.22,491.42,491.41,491.27,491.19,491.16,491.19,491.37,491.81,492.39,493.00,493.57,494.13,494.60,494.94,495.10,495.24,495.44,495.68,495.92,496.22,496.41,496.56,496.72,496.87,497.03,497.18,497.35,497.54,497.74,497.90,498.05,498.21,498.44,498.63,498.85,499.08,499.31,499.47,499.57,499.70,499.90,500.06,500.24,500.32,500.29,500.29
452.62,452.86,453.09,453.31,453.53,453.75,453.94,454.08,454.21,454.29,454.36,454.44,454.54,454.68,454.94,455.14,455.38,455.68,455.95,456.37,456.79,457.14,457.38,457.68,457.99,458.28,458.51,458.57,458.46,458.36,458.35,458.48,458.56,458.64,458.74,458.87,458.97,459.05,459.13,459.21,459.34,459.75,460.21,460.63,460.96,461.22,461.51,461.82,462.10,462.41,462.49,462.48,462.47,462.42,462.59,462.93,463.33,463.64,463.95,464.27,464.61,464.94,465.18,465.54,466.00,466.53,467.00,467.53,468.06,468.58,469.09,469.52,469.84,470.05,470.20,470.44,470.67,470.87,471.01,471.06,471.16,471.44,471.82,472.20,472.34,472.33,472.30,472.30,472.30,472.35,472.38,472.38,472.38,472.39,472.39,472.27,472.02,471.84,471.64,471.41,471.23,471.18,471.17,471.17,471.19,471.26,471.54,471.92,472.32,472.74,473.13,473.49,473.77,474.02,474.37,474.98,475.58,476.06,476.37,476.56,476.77,476.83,476.76,476.70,476.79,477.13,477.58,478.04,478.51,478.89,479.14,479.27,479.35,479.49,479.60,479.70,479.85,479.95,480.03,480.12,480.22,480.37,480.54,480.57,480.46,480.32,480.24,480.06,479.97,480.15,480.25,480.27,480.41,480.75,481.15,481.61,482.13,482.71,483.12,482.66,481.79,480.79,479.90,479.59,479.57,479.59,479.56,479.51,479.48,479.44,479.40,479.39,479.35,479.46,479.66,479.97,480.59,481.27,481.54,481.44,481.21,481.05,480.91,480.84,480.85,480.93,481.06,481.28,481.55,481.73,481.46,481.08,480.67,480.23,479.79,479.45,479.54,480.29,481.66,483.05,484.39,485.63,486.71,487.79,488.87,489.74,490.21,490.53,490.83,491.06,491.17,491.08,490.88,490.73,490.65,490.70,491.00,491.49,492.06,492.66,493.22,493.83,494.46,494.96,495.09,495.19,495.36,495.56,495.79,496.09,496.28,496.44,496.59,496.74,496.90,497.05,497.21,497.37,497.58,497.74,497.86,497.97,498.16,498.34,498.53,498.75,498.98,499.14,499.26,499.43,499.72,499.92,500.13,500.22,500.17,500.16
452.42,452.72,452.93,453.10,453.27,453.50,453.67,453.80,453.88,453.96,454.04,454.12,454.20,454.32,454.64,454.95,455.25,455.57,455.93,456.37,456.79,457.14,457.38,457.68,457.99,458.24,458.31,458.22,458.07,458.01,458.07,458.16,458.24,458.32,458.40,458.49,458.63,458.73,458.80,458.91,459.18,459.69,460.16,460.46,460.66,460.94,461.29,461.65,461.99,462.14,462.13,462.08,462.08,462.08,462.27,462.55,462.88,463.19,463.50,463.86,464.28,464.77,465.20,465.64,466.13,466.66,467.13,467.65,468.15,468.63,469.07,469.37,469.57,469.79,470.07,470.36,470.61,470.84,471.05,471.24,471.45,471.69,471.88,471.95,471.98,471.98,471.97,471.97,471.97,471.98,471.99,471.99,472.00,472.06,472.03,471.84,471.50,471.27,471.10,470.89,470.73,470.78,470.79,470.79,470.84,471.00,471.29,471.66,472.01,472.36,472.74,473.02,473.41,473.89,474.39,474.94,475.41,475.73,475.94,476.22,476.41,476.44,476.37,476.33,476.55,476.90,477.32,477.78,478.25,478.55,478.73,478.81,478.90,479.04,479.14,479.25,479.40,479.54,479.64,479.74,479.89,480.05,480.25,480.28,480.14,480.00,479.96,479.77,479.61,479.71,479.85,480.03,480.30,480.69,481.14,481.60,482.08,482.51,482.67,482.01,481.12,480.30,479.72,479.41,479.31,479.24,479.19,479.17,479.11,479.08,479.07,479.08,479.13,479.31,479.53,479.81,480.25,480.89,481.18,481.11,480.89,480.72,480.66,480.64,480.66,480.73,480.87,481.03,481.23,481.41,481.18,480.82,480.43,480.00,479.44,479.25,479.55,480.42,481.84,483.25,484.56,485.76,486.84,487.92,489.00,489.83,490.22,490.53,490.79,490.90,490.84,490.70,490.54,490.35,490.20,490.26,490.66,491.17,491.71,492.27,492.88,493.55,494.34,495.01,495.10,495.24,495.35,495.48,495.67,495.96,496.15,496.31,496.46,496.62,496.77,496.92,497.07,497.24,497.40,497.51,497.62,497.75,497.86,498.06,498.25,498.43,498.65,498.82,498.97,499.17,499.48,499.76,499.96,500.07,500.10,500.04
452.23,452.50,452.69,452.85,453.01,453.24,453.38,453.48,453.56,453.64,453.72,453.79,453.89,454.07,454.39,454.79,455.17,455.50,455.91,456.37,456.79,457.15,457.43,457.70,457.92,458.04,457.98,457.84,457.71,457.68,457.76,457.84,457.91,457.99,458.07,458.15,458.26,458.38,458.49,458.67,459.10,459.53,459.90,460.20,460.48,460.81,461.16,461.50,461.77,461.80,461.77,461.73,461.70,461.71,461.93,462.22,462.53,462.84,463.18,463.71,464.31,464.87,465.31,465.76,466.25,466.75,467.25,467.75,468.14,468.45,468.78,468.99,469.21,469.57,470.02,470.30,470.54,470.77,471.00,471.19,471.35,471.53,471.65,471.65,471.65,471.65,471.65,471.65,471.65,471.65,471.65,471.65,471.65,471.69,471.64,471.44,471.06,470.75,470.54,470.38,470.32,470.39,470.43,470.47,470.57,470.78,471.08,471.41,471.76,472.13,472.55,472.94,473.39,473.90,474.39,474.83,475.14,475.36,475.55,475.88,476.05,476.06,476.00,476.03,476.29,476.67,477.10,477.52,477.94,478.16,478.28,478.37,478.48,478.60,478.72,478.83,478.95,479.06,479.15,479.28,479.46,479.62,479.87,479.98,479.88,479.64,479.60,479.43,479.24,479.22,479.36,479.66,480.04,480.49,480.98,481.45,481.85,482.12,482.11,481.51,480.80,480.15,479.69,479.41,479.23,479.05,478.88,478.81,478.76,478.75,478.78,478.87,479.01,479.22,479.46,479.71,480.07,480.60,480.85,480.79,480.61,480.49,480.45,480.45,480.46,480.49,480.63,480.78,480.94,481.10,480.94,480.63,480.26,479.79,479.09,479.07,479.61,480.65,482.09,483.56,484.85,485.98,487.02,488.10,489.16,489.93,490.25,490.42,490.57,490.65,490.61,490.46,490.27,490.03,489.85,489.91,490.28,490.79,491.35,491.94,492.57,493.47,494.37,495.03,495.14,495.26,495.38,495.49,495.63,495.85,496.02,496.18,496.33,496.49,496.64,496.77,496.90,497.05,497.17,497.28,497.40,497.51,497.63,497.78,497.95,498.14,498.33,498.50,498.70,498.96,499.27,499.58,499.74,499.83,499.88,499.81
452.03,452.25,452.44,452.59,452.75,452.97,453.08,453.16,453.24,453.31,453.40,453.50,453.65,453.90,454.20,454.64,455.09,455.45,455.90,456.37,456.79,457.16,457.46,457.68,457.78,457.76,457.61,457.46,457.37,457.36,457.43,457.50,457.58,457.67,457.74,457.82,457.90,458.03,458.19,458.45,458.97,459.28,459.58,459.95,460.35,460.73,461.05,461.32,461.48,461.44,461.42,461.38,461.33,461.34,461.58,461.89,462.19,462.55,462.99,463.69,464.45,465.04,465.45,465.88,466.35,466.83,467.31,467.74,468.00,468.17,468.39,468.57,468.89,469.39,469.99,470.24,470.46,470.66,470.86,471.00,471.08,471.21,471.31,471.31,471.31,471.31,471.31,471.31,471.31,471.31,471.31,471.31,471.31,471.31,471.25,471.05,470.68,470.31,470.05,469.93,469.93,470.01,470.09,470.18,470.32,470.56,470.87,471.20,471.57,471.99,472.45,472.98,473.45,473.88,474.29,474.59,474.79,474.97,475.20,475.54,475.67,475.66,475.63,475.74,476.04,476.45,476.88,477.27,477.61,477.75,477.83,477.93,478.07,478.16,478.28,478.41,478.50,478.57,478.64,478.78,478.99,479.17,479.44,479.64,479.63,479.29,479.22,479.06,478.86,478.77,478.90,479.30,479.76,480.25,480.78,481.21,481.48,481.60,481.48,481.06,480.55,480.05,479.63,479.37,479.12,478.83,478.56,478.45,478.42,478.44,478.52,478.70,478.93,479.16,479.39,479.63,479.94,480.34,480.52,480.48,480.35,480.28,480.25,480.25,480.25,480.26,480.38,480.53,480.66,480.76,480.67,480.42,480.03,479.48,478.75,478.96,479.75,480.93,482.37,483.89,485.16,486.21,487.21,488.28,489.26,489.94,490.18,490.21,490.29,490.37,490.39,490.26,490.04,489.75,489.54,489.59,489.92,490.39,490.92,491.51,492.24,493.38,494.39,495.04,495.17,495.25,495.37,495.50,495.59,495.74,495.89,496.04,496.18,496.34,496.48,496.58,496.69,496.83,496.91,497.05,497.18,497.28,497.41,497.51,497.67,497.86,498.03,498.19,498.44,498.75,499.06,499.37,499.50,499.56,499.59,499.52
451.77,452.00,452.17,452.33,452.49,452.66,452.76,452.83,452.91,452.99,453.12,453.33,453.60,453.89,454.20,454.54,454.95,455.44,455.90,456.37,456.79,457.16,457.45,457.55,457.49,457.37,457.23,457.12,457.04,457.03,457.10,457.13,457.24,457.34,457.42,457.50,457.57,457.70,457.93,458.26,458.57,458.87,459.29,459.83,460.27,460.61,460.89,461.07,461.11,461.10,461.06,461.01,461.00,461.02,461.26,461.54,461.85,462.36,463.03,463.78,464.53,465.16,465.57,465.97,466.44,466.91,467.20,467.43,467.61,467.77,467.96,468.22,468.75,469.37,469.93,470.18,470.31,470.42,470.52,470.62,470.69,470.82,470.92,470.92,470.92,470.92,470.92,470.92,470.92,470.92,470.92,470.92,470.92,470.92,470.87,470.68,470.36,470.04,469.79,469.62,469.54,469.62,469.75,469.89,470.06,470.31,470.61,471.06,471.53,471.99,472.45,472.98,473.36,473.64,473.91,474.10,474.31,474.58,474.92,475.23,475.26,475.23,475.25,475.42,475.80,476.22,476.63,477.04,477.21,477.30,477.40,477.54,477.63,477.71,477.83,477.96,478.04,478.12,478.20,478.31,478.49,478.70,478.99,479.25,479.30,478.95,478.84,478.67,478.49,478.44,478.63,479.07,479.57,480.05,480.56,480.79,480.85,480.83,480.79,480.59,480.23,479.80,479.36,479.05,478.71,478.38,478.14,478.11,478.10,478.22,478.41,478.63,478.86,479.09,479.32,479.56,479.81,480.07,480.20,480.18,480.09,480.06,480.06,480.06,480.06,480.06,480.18,480.31,480.37,480.34,480.31,480.03,479.51,478.85,478.45,479.02,480.05,481.30,482.70,484.17,485.39,486.39,487.35,488.41,489.19,489.65,489.81,489.82,489.98,490.09,490.10,490.04,489.79,489.49,489.27,489.32,489.61,489.96,490.29,490.76,491.84,493.10,494.24,495.02,495.11,495.14,495.24,495.37,495.46,495.61,495.76,495.89,495.99,496.14,496.24,496.32,496.42,496.57,496.65,496.79,496.94,497.07,497.17,497.30,497.42,497.55,497.76,497.92,498.19,498.49,498.80,499.11,499.24,499.26,499.20,499.13
451.51,451.74,451.91,452.07,452.22,452.34,452.46,452.56,452.64,452.79,453.00,453.27,453.59,453.89,454.20,454.53,454.93,455.40,455.86,456.35,456.79,457.13,457.29,457.25,457.13,456.99,456.88,456.76,456.70,456.71,456.77,456.78,456.88,456.99,457.09,457.17,457.25,457.38,457.61,457.94,458.18,458.58,459.10,459.65,460.06,460.34,460.57,460.73,460.73,460.73,460.70,460.66,460.64,460.68,460.91,461.17,461.54,462.20,462.99,463.79,464.56,465.22,465.69,466.04,466.38,466.70,466.87,467.03,467.18,467.34,467.56,467.98,468.59,469.21,469.72,469.94,470.01,470.07,470.15,470.23,470.31,470.43,470.54,470.57,470.57,470.57,470.57,470.57,470.57,470.57,470.57,470.57,470.57,470.57,470.52,470.35,470.04,469.77,469.52,469.32,469.19,469.25,469.44,469.64,469.86,470.15,470.55,471.04,471.51,471.96,472.33,472.72,473.02,473.24,473.45,473.70,473.99,474.30,474.58,474.76,474.76,474.76,474.86,475.16,475.57,475.97,476.35,476.66,476.76,476.87,476.99,477.10,477.18,477.28,477.40,477.50,477.55,477.62,477.72,477.83,477.97,478.20,478.49,478.80,478.95,478.65,478.45,478.26,478.11,478.08,478.35,478.83,479.32,479.74,480.12,480.17,480.13,480.11,480.09,479.99,479.73,479.37,478.96,478.61,478.25,477.96,477.78,477.79,477.91,478.10,478.33,478.57,478.80,479.05,479.31,479.52,479.69,479.82,479.88,479.85,479.79,479.78,479.78,479.79,479.81,479.78,479.81,479.88,479.93,479.88,479.72,479.39,478.85,478.23,478.44,479.29,480.44,481.72,483.07,484.44,485.56,486.48,487.34,488.01,488.51,488.82,488.95,489.09,489.32,489.50,489.56,489.58,489.44,489.19,488.98,489.02,489.29,489.57,489.82,490.15,491.06,492.35,493.61,494.53,494.76,494.92,495.07,495.19,495.28,495.43,495.59,495.70,495.80,495.94,496.04,496.11,496.20,496.32,496.43,496.55,496.69,496.82,496.91,497.05,497.18,497.31,497.47,497.69,497.97,498.28,498.58,498.82,498.88,498.85,498.77,498.69
451.25,451.48,451.65,451.81,451.94,452.04,452.17,452.30,452.44,452.68,452.97,453.27,453.59,453.89,454.21,454.56,454.94,455.34,455.80,456.31,456.76,457.04,457.03,456.90,456.75,456.62,456.52,456.38,456.34,456.38,456.43,456.45,456.52,456.63,456.76,456.84,456.92,457.04,457.25,457.55,457.82,458.33,458.90,459.41,459.78,459.98,460.17,460.31,460.31,460.31,460.32,460.30,460.27,460.34,460.54,460.82,461.27,462.06,462.88,463.72,464.51,465.18,465.70,465.99,466.18,466.33,466.42,466.56,466.72,466.92,467.24,467.81,468.43,469.00,469.43,469.60,469.63,469.68,469.76,469.83,469.91,470.04,470.17,470.23,470.25,470.25,470.25,470.25,470.25,470.25,470.25,470.25,470.25,470.25,470.19,470.02,469.74,469.50,469.27,469.04,468.87,468.92,469.19,469.46,469.72,470.06,470.57,471.03,471.46,471.85,472.09,472.33,472.57,472.80,473.02,473.39,473.75,474.04,474.21,474.22,474.22,474.27,474.45,474.90,475.31,475.70,476.02,476.23,476.32,476.45,476.56,476.64,476.73,476.86,476.97,477.02,477.03,477.11,477.23,477.36,477.47,477.69,477.99,478.33,478.56,478.35,478.06,477.85,477.72,477.71,478.05,478.54,478.99,479.32,479.50,479.43,479.37,479.37,479.37,479.30,479.13,478.85,478.49,478.11,477.78,477.56,477.47,477.53,477.78,478.03,478.27,478.51,478.75,479.02,479.28,479.47,479.54,479.55,479.55,479.53,479.47,479.47,479.47,479.49,479.52,479.44,479.37,479.37,479.42,479.38,479.06,478.67,478.19,477.77,478.57,479.63,480.81,482.11,483.40,484.66,485.65,486.43,487.10,487.29,487.54,487.78,487.91,488.19,488.51,488.75,488.89,488.96,488.97,488.81,488.63,488.68,488.96,489.21,489.42,489.68,490.25,491.45,492.71,493.71,494.16,494.53,494.77,494.95,495.08,495.24,495.39,495.51,495.60,495.74,495.84,495.91,495.98,496.07,496.21,496.31,496.42,496.57,496.66,496.80,496.94,497.08,497.19,497.46,497.77,498.08,498.36,498.50,498.48,498.40,498.31,498.24
450.96,451.21,451.39,451.53,451.63,451.76,451.87,452.06,452.37,452.66,452.97,453.27,453.59,453.89,454.25,454.60,454.93,455.28,455.73,456.21,456.59,456.77,456.66,456.51,456.39,456.28,456.15,455.99,455.99,456.04,456.06,456.12,456.19,456.28,456.38,456.51,456.55,456.65,456.87,457.19,457.53,458.00,458.52,459.02,459.39,459.59,459.72,459.80,459.80,459.80,459.84,459.89,459.94,460.02,460.17,460.51,461.09,461.91,462.71,463.50,464.28,464.97,465.37,465.59,465.72,465.83,465.96,466.06,466.23,466.54,467.07,467.68,468.30,468.78,469.05,469.16,469.23,469.29,469.37,469.44,469.53,469.65,469.78,469.85,469.91,469.92,469.92,469.92,469.92,469.92,469.92,469.92,469.92,469.92,469.83,469.67,469.47,469.24,469.01,468.77,468.63,468.76,469.10,469.41,469.71,470.06,470.57,470.92,471.21,471.48,471.66,471.88,472.14,472.46,472.86,473.29,473.58,473.73,473.76,473.71,473.70,473.80,474.06,474.52,475.02,475.41,475.66,475.78,475.92,476.02,476.11,476.19,476.27,476.41,476.49,476.50,476.52,476.63,476.74,476.86,477.01,477.24,477.53,477.85,478.08,478.00,477.69,477.49,477.38,477.33,477.72,478.15,478.50,478.70,478.66,478.57,478.53,478.54,478.58,478.52,478.42,478.27,478.02,477.65,477.33,477.19,477.25,477.49,477.73,477.97,478.22,478.50,478.74,478.99,479.18,479.27,479.29,479.25,479.23,479.22,479.20,479.20,479.20,479.19,479.13,479.00,478.91,478.88,478.90,478.87,478.50,478.05,477.73,477.81,478.75,479.87,481.06,482.30,483.50,484.73,485.56,485.98,486.18,486.28,486.51,486.77,486.99,487.29,487.64,487.93,488.12,488.19,488.25,488.26,488.25,488.29,488.57,488.82,489.09,489.45,489.95,490.75,491.67,492.51,493.04,493.63,494.12,494.54,494.87,495.04,495.20,495.31,495.39,495.50,495.63,495.69,495.72,495.81,495.95,496.06,496.16,496.32,496.45,496.56,496.69,496.84,496.99,497.27,497.58,497.89,498.14,498.15,498.09,497.99,497.87,497.79
450.70,450.95,451.13,451.27,451.36,451.57,451.75,452.00,452.34,452.65,452.97,453.29,453.62,453.94,454.28,454.59,454.88,455.20,455.60,456.00,456.28,456.37,456.30,456.16,456.04,455.91,455.76,455.63,455.63,455.67,455.72,455.79,455.87,455.96,456.07,456.15,456.16,456.26,456.47,456.77,457.18,457.63,458.13,458.64,459.04,459.21,459.29,459.31,459.28,459.28,459.36,459.48,459.61,459.69,459.88,460.31,460.97,461.79,462.59,463.37,464.10,464.69,465.00,465.16,465.26,465.35,465.47,465.58,465.83,466.28,466.93,467.55,468.12,468.51,468.67,468.75,468.82,468.90,468.98,469.06,469.13,469.24,469.36,469.46,469.54,469.59,469.62,469.64,469.64,469.64,469.64,469.64,469.64,469.64,469.53,469.36,469.18,468.98,468.75,468.51,468.39,468.59,468.92,469.26,469.59,469.92,470.32,470.60,470.83,471.05,471.25,471.52,471.86,472.25,472.71,473.09,473.29,473.35,473.31,473.24,473.19,473.35,473.71,474.17,474.62,475.00,475.25,475.34,475.49,475.60,475.70,475.78,475.86,475.97,476.02,476.02,476.04,476.14,476.26,476.38,476.55,476.75,477.06,477.37,477.61,477.68,477.35,477.13,477.02,476.98,477.35,477.70,477.91,477.91,477.77,477.70,477.72,477.79,477.88,477.80,477.71,477.60,477.42,477.14,476.95,476.97,477.16,477.44,477.68,477.93,478.19,478.46,478.70,478.89,479.00,479.04,479.04,478.98,478.92,478.90,478.90,478.90,478.88,478.83,478.74,478.59,478.50,478.43,478.38,478.31,477.89,477.45,477.35,477.96,479.00,480.15,481.33,482.49,483.48,484.44,485.06,485.33,485.33,485.37,485.59,485.87,486.12,486.42,486.79,487.12,487.34,487.46,487.64,487.84,488.03,488.20,488.50,488.80,489.10,489.45,489.89,490.56,491.31,492.05,492.66,493.29,493.78,494.19,494.56,494.76,494.97,495.12,495.20,495.28,495.39,495.46,495.49,495.56,495.69,495.80,495.90,496.06,496.21,496.31,496.41,496.56,496.78,497.08,497.39,497.68,497.89,497.76,497.66,497.54,497.41,497.34
