432.00,431.84,431.69,431.55,431.44,431.28,431.25,431.25,431.23,431.13,431.12,431.33,431.62,431.73,431.85,431.97,432.08,432.20,432.31,432.43,432.55,432.66,432.82,432.94,433.06,433.18,433.33,433.46,433.57,433.71,433.89,434.04,434.18,434.29,434.40,434.52,434.63,434.75,434.85,434.90,434.98,435.14,435.31,435.45,435.56,435.68,435.85,436.03,436.21,436.40,436.50,436.62,436.75,436.83,436.91,437.03,437.17,437.27,437.39,437.49,437.61,437.76,437.89,438.04,438.15,438.24,438.44,438.62,438.78,438.95,439.15,439.35,439.48,439.61,439.77,439.92,440.04,440.17,440.32,440.48,440.63,440.79,440.94,441.09,441.25,441.40,441.56,441.71,441.87,442.02,442.18,442.32,442.43,442.55,442.66,442.78,442.90,443.01,443.13,443.27,443.40,443.48,443.59,443.71,443.81,443.89,443.97,444.04,444.15,444.28,444.39,444.52,444.72,445.00,445.33,445.64,446.10,446.73,447.48,448.16,448.75,449.20,449.47,449.57,449.66,449.76,449.90,450.11,450.15,449.91,449.52,449.08,448.58,448.05,447.66,447.55,447.92,448.61,449.21,449.62,449.79,449.89,449.95,449.97,449.96,449.92,449.83,449.81,449.75,449.52,449.33,449.49,450.11,451.33,453.22,454.63,455.43,455.86,456.27,456.67,456.94,457.17,457.39,457.51,457.63,457.77,457.94,458.17,458.46,458.82,459.18,459.49,459.80,460.11,460.36,460.54,460.73,460.98,461.29,461.66,462.03,462.33,462.66,462.99,463.27,463.58,463.85,464.17,464.55,464.88,465.13,465.32,465.48,465.60,465.69,465.77,465.92,466.23,466.75,467.36,467.92,468.41,468.85,469.19,469.51,469.83,470.22,470.86,471.35,471.75,472.14,472.52,472.82,473.09,473.32,473.53,473.69,473.88,474.06,474.21,474.37,474.52,474.68,474.83,474.99,475.14,475.30,475.45,475.60,475.76,475.91,476.11,476.32,476.48,476.63,476.83,477.03,477.16,477.31,477.46,477.70,478.06,478.46,478.93,479.29,479.57,479.94,480.59,481.10,481.42,481.59,481.80,481.99,482.20,482.42,482.57
432.64,432.48,432.33,432.18,432.02,431.87,431.84,431.84,431.80,431.65,431.55,431.70,431.96,432.10,432.20,432.32,432.45,432.55,432.69,432.78,432.90,433.05,433.20,433.30,433.42,433.57,433.71,433.81,433.94,434.13,434.34,434.49,434.59,434.71,434.84,434.93,435.06,435.16,435.21,435.24,435.31,435.49,435.68,435.84,435.99,436.10,436.27,436.50,436.73,436.96,437.08,437.20,437.34,437.42,437.50,437.61,437.73,437.73,437.80,437.83,437.89,438.02,438.12,438.25,438.29,438.27,438.41,438.50,438.63,438.79,438.94,439.09,439.24,439.39,439.54,439.69,439.84,439.99,440.15,440.30,440.45,440.60,440.76,440.91,441.06,441.21,441.36,441.52,441.67,441.83,441.98,442.14,442.28,442.36,442.50,442.62,442.72,442.86,442.96,443.08,443.21,443.30,443.44,443.55,443.64,443.72,443.82,443.91,444.05,444.25,444.42,444.63,444.95,445.32,445.70,446.03,446.56,447.24,448.01,448.77,449.43,449.86,450.10,450.25,450.33,450.46,450.64,450.83,450.92,450.69,450.34,449.91,449.34,448.78,448.21,447.71,447.49,447.95,448.46,448.89,449.23,449.44,449.50,449.51,449.49,449.42,449.30,449.30,449.29,449.15,449.16,449.50,450.16,451.23,452.78,454.33,455.20,455.61,456.07,456.47,456.89,457.31,457.65,457.84,457.97,458.10,458.23,458.35,458.61,458.95,459.31,459.62,459.93,460.24,460.51,460.74,460.97,461.26,461.57,461.90,462.26,462.52,462.81,463.09,463.35,463.65,463.95,464.30,464.69,465.06,465.32,465.59,465.86,466.07,466.18,466.27,466.39,466.63,467.15,467.73,468.24,468.65,468.97,469.23,469.52,469.86,470.28,470.86,471.30,471.69,472.08,472.46,472.84,473.22,473.57,473.86,474.05,474.22,474.38,474.54,474.69,474.85,475.00,475.16,475.31,475.47,475.62,475.78,475.93,476.08,476.24,476.43,476.65,476.80,476.96,477.15,477.33,477.44,477.58,477.74,477.90,478.10,478.38,478.75,479.10,479.42,479.83,480.44,480.83,481.06,481.25,481.53,481.78,482.01,482.26,482.54
433.23,433.07,432.92,432.76,432.61,432.45,432.41,432.41,432.37,432.17,431.99,432.08,432.34,432.44,432.57,432.68,432.79,432.93,433.08,433.17,433.29,433.44,433.59,433.68,433.81,433.96,434.10,434.19,434.36,434.56,434.73,434.88,435.02,435.13,435.23,435.31,435.41,435.49,435.56,435.61,435.64,435.74,435.93,436.18,436.38,436.53,436.72,436.97,437.25,437.49,437.64,437.78,437.92,438.00,438.08,438.17,438.23,438.19,438.20,438.21,438.25,438.36,438.48,438.55,438.53,438.49,438.53,438.61,438.73,438.87,438.97,439.07,439.21,439.37,439.51,439.62,439.76,439.92,440.07,440.22,440.33,440.46,440.62,440.77,440.93,441.04,441.17,441.32,441.48,441.63,441.79,441.94,442.09,442.17,442.30,442.45,442.57,442.68,442.80,442.92,443.03,443.16,443.31,443.45,443.58,443.72,443.90,444.03,444.19,444.38,444.58,444.86,445.20,445.60,446.03,446.40,446.98,447.72,448.53,449.31,450.00,450.55,450.92,451.07,451.11,451.25,451.45,451.61,451.71,451.71,451.55,451.10,450.27,449.55,448.96,448.45,448.00,447.81,447.84,448.05,448.36,448.59,448.68,448.71,448.69,448.63,448.62,448.70,448.83,449.00,449.35,449.75,450.40,451.44,452.89,454.20,454.95,455.36,455.82,456.26,456.71,457.17,457.60,457.96,458.23,458.42,458.56,458.65,458.83,459.12,459.44,459.75,460.06,460.37,460.64,460.88,461.17,461.47,461.75,462.03,462.36,462.65,462.91,463.18,463.47,463.77,464.08,464.43,464.82,465.20,465.50,465.76,466.03,466.30,466.50,466.72,466.89,467.07,467.54,468.00,468.38,468.68,468.99,469.27,469.58,469.93,470.38,470.83,471.24,471.62,472.01,472.40,472.78,473.20,473.62,473.97,474.29,474.52,474.71,474.86,475.02,475.17,475.33,475.48,475.64,475.79,475.95,476.10,476.25,476.41,476.56,476.75,476.97,477.13,477.28,477.45,477.61,477.75,477.90,478.05,478.21,478.35,478.47,478.79,479.14,479.45,479.80,480.21,480.55,480.82,481.08,481.34,481.62,481.88,482.13,482.42
433.85,433.69,433.54,433.37,433.20,433.04,433.00,433.00,432.95,432.70,432.45,432.48,432.69,432.80,432.93,433.04,433.16,433.31,433.44,433.55,433.68,433.83,433.95,434.06,434.19,434.34,434.46,434.57,434.77,434.97,435.13,435.30,435.44,435.54,435.62,435.70,435.77,435.83,435.90,435.96,435.97,436.03,436.19,436.46,436.73,436.95,437.19,437.47,437.76,438.00,438.20,438.37,438.51,438.58,438.66,438.72,438.71,438.62,438.60,438.58,438.61,438.71,438.81,438.81,438.77,438.73,438.71,438.74,438.86,439.00,439.10,439.20,439.32,439.47,439.60,439.69,439.80,439.98,440.17,440.32,440.45,440.60,440.77,440.94,441.10,441.23,441.38,441.53,441.65,441.73,441.84,441.98,442.13,442.21,442.34,442.50,442.64,442.75,442.89,443.01,443.09,443.23,443.36,443.50,443.65,443.82,444.02,444.20,444.37,444.54,444.78,445.10,445.47,445.90,446.33,446.75,447.29,447.97,448.78,449.56,450.23,450.85,451.38,451.72,451.89,452.07,452.25,452.40,452.51,452.75,452.79,452.43,451.58,450.77,450.06,449.41,448.75,448.17,447.88,447.83,447.97,448.08,448.08,448.06,448.06,448.07,448.16,448.38,448.71,449.14,449.66,450.13,450.75,451.70,453.10,454.10,454.73,455.20,455.66,456.12,456.60,457.09,457.55,458.00,458.39,458.67,458.85,458.96,459.11,459.31,459.57,459.88,460.19,460.50,460.77,461.02,461.32,461.63,461.88,462.12,462.43,462.74,462.99,463.25,463.56,463.87,464.18,464.49,464.80,465.11,465.39,465.66,465.94,466.27,466.53,466.83,467.08,467.32,467.79,468.15,468.44,468.71,469.02,469.31,469.61,469.97,470.39,470.79,471.19,471.60,471.98,472.37,472.75,473.19,473.63,474.01,474.39,474.70,474.96,475.16,475.34,475.50,475.65,475.81,475.96,476.12,476.27,476.42,476.58,476.73,476.89,477.08,477.30,477.45,477.58,477.72,477.88,478.04,478.22,478.38,478.52,478.63,478.71,479.02,479.35,479.63,479.86,480.11,480.37,480.65,480.95,481.18,481.45,481.73,481.99,482.27
434.50,434.33,434.18,434.00,433.78,433.62,433.59,433.58,433.52,433.23,432.92,432.88,433.04,433.17,433.27,433.40,433.55,433.69,433.78,433.92,434.06,434.20,434.30,434.43,434.58,434.71,434.81,434.96,435.16,435.36,435.53,435.74,435.85,435.93,436.01,436.08,436.16,436.19,436.23,436.29,436.30,436.36,436.47,436.68,437.03,437.34,437.65,437.96,438.26,438.51,438.75,438.95,439.10,439.18,439.24,439.23,439.15,439.02,438.99,438.94,438.95,439.07,439.09,439.04,439.00,438.97,438.91,438.90,439.00,439.15,439.29,439.44,439.55,439.67,439.83,439.92,440.02,440.22,440.47,440.63,440.84,441.02,441.20,441.41,441.57,441.78,441.97,442.11,442.18,442.14,442.16,442.26,442.40,442.49,442.63,442.78,442.93,443.08,443.23,443.34,443.41,443.50,443.58,443.71,443.85,444.01,444.17,444.38,444.56,444.74,444.99,445.34,445.76,446.20,446.61,447.06,447.49,448.05,448.79,449.55,450.15,450.78,451.47,452.15,452.58,452.84,453.03,453.19,453.34,453.74,453.96,453.77,453.17,452.41,451.52,450.58,449.69,449.00,448.55,448.29,448.17,448.03,447.84,447.72,447.72,447.82,447.98,448.37,448.90,449.47,450.02,450.57,451.16,451.97,453.30,454.00,454.57,455.14,455.61,456.06,456.58,457.09,457.55,458.01,458.46,458.84,459.11,459.27,459.43,459.55,459.72,460.01,460.32,460.63,460.89,461.15,461.45,461.76,461.99,462.19,462.49,462.79,463.05,463.31,463.61,463.91,464.21,464.44,464.61,464.79,465.02,465.30,465.62,465.99,466.30,466.61,466.94,467.34,467.87,468.19,468.48,468.77,469.08,469.32,469.61,469.95,470.34,470.73,471.17,471.60,471.98,472.37,472.75,473.18,473.62,474.01,474.39,474.77,475.11,475.39,475.62,475.78,475.94,476.10,476.26,476.43,476.58,476.75,476.90,477.06,477.21,477.40,477.62,477.76,477.87,477.99,478.15,478.31,478.52,478.69,478.82,478.93,479.08,479.41,479.70,479.90,480.00,480.16,480.33,480.54,480.83,481.06,481.29,481.56,481.85,482.09
435.14,434.94,434.77,434.58,434.32,434.19,434.16,434.15,434.05,433.75,433.40,433.30,433.40,433.51,433.64,433.79,433.92,434.03,434.15,434.30,434.43,434.54,434.67,434.82,434.98,435.11,435.20,435.39,435.57,435.77,435.97,436.14,436.25,436.32,436.38,436.42,436.49,436.55,436.61,436.67,436.68,436.70,436.77,436.92,437.21,437.55,437.91,438.27,438.62,438.95,439.25,439.51,439.73,439.81,439.77,439.70,439.61,439.46,439.39,439.33,439.32,439.40,439.37,439.30,439.23,439.17,439.11,439.09,439.18,439.34,439.49,439.65,439.78,439.98,440.26,440.44,440.62,440.84,441.07,441.23,441.45,441.63,441.82,442.04,442.20,442.41,442.61,442.74,442.81,442.68,442.62,442.67,442.78,442.90,443.05,443.21,443.36,443.51,443.63,443.69,443.73,443.81,443.89,443.98,444.09,444.20,444.35,444.53,444.72,444.94,445.23,445.59,446.02,446.48,446.92,447.38,447.85,448.32,448.80,449.50,450.12,450.79,451.53,452.25,452.89,453.40,453.78,454.01,454.14,454.42,454.64,454.64,454.42,454.04,453.26,452.19,451.08,450.05,449.48,449.17,448.95,448.70,448.39,448.08,447.82,447.73,448.00,448.47,449.02,449.60,450.18,450.84,451.52,452.25,453.20,453.88,454.52,455.13,455.60,456.06,456.57,457.09,457.55,458.01,458.47,458.91,459.28,459.52,459.69,459.83,459.99,460.20,460.46,460.72,460.99,461.27,461.58,461.89,462.14,462.35,462.56,462.82,463.06,463.30,463.55,463.77,463.94,464.10,464.25,464.41,464.59,464.88,465.23,465.57,465.93,466.25,466.59,467.05,467.75,468.19,468.51,468.78,469.08,469.33,469.61,469.95,470.34,470.72,471.16,471.60,471.98,472.37,472.75,473.16,473.58,474.00,474.39,474.78,475.13,475.43,475.66,475.83,476.01,476.21,476.42,476.62,476.83,477.03,477.23,477.38,477.54,477.70,477.88,478.03,478.17,478.31,478.46,478.62,478.80,478.96,479.11,479.25,479.45,479.76,479.96,480.04,480.13,480.27,480.43,480.60,480.81,481.00,481.18,481.42,481.71,481.95
435.78,435.57,435.37,435.15,434.88,434.77,434.74,434.70,434.59,434.27,433.90,433.76,433.82,433.92,434.05,434.20,434.34,434.45,434.59,434.73,434.85,434.96,435.11,435.27,435.42,435.54,435.62,435.81,436.00,436.19,436.39,436.56,436.66,436.72,436.77,436.80,436.87,436.94,436.99,437.03,437.04,437.06,437.10,437.19,437.41,437.74,438.11,438.48,438.87,439.27,439.75,440.25,440.69,440.81,440.70,440.52,440.34,440.19,440.04,439.88,439.75,439.68,439.60,439.52,439.45,439.37,439.27,439.24,439.34,439.50,439.68,439.94,440.26,440.59,440.88,441.08,441.30,441.52,441.73,441.90,442.11,442.28,442.47,442.68,442.85,443.06,443.25,443.39,443.45,443.27,443.15,443.14,443.21,443.33,443.48,443.63,443.79,443.92,444.00,444.05,444.09,444.17,444.24,444.30,444.37,444.45,444.58,444.71,444.89,445.15,445.50,445.90,446.34,446.81,447.27,447.73,448.24,448.65,449.00,449.63,450.35,451.10,451.82,452.46,453.12,453.75,454.29,454.62,454.75,454.90,455.03,455.13,455.15,455.04,454.52,453.69,452.74,451.56,450.86,450.40,449.96,449.41,448.96,448.51,448.06,447.77,448.04,448.50,449.03,449.58,450.19,450.94,451.72,452.47,453.19,453.87,454.54,455.16,455.62,456.08,456.60,457.12,457.59,458.02,458.47,458.94,459.37,459.69,459.91,460.08,460.24,460.40,460.60,460.83,461.10,461.40,461.71,461.99,462.21,462.38,462.51,462.70,462.92,463.14,463.34,463.50,463.60,463.71,463.87,464.02,464.17,464.46,464.81,465.15,465.51,465.83,466.20,466.73,467.55,468.16,468.54,468.81,469.09,469.34,469.62,469.95,470.34,470.72,471.15,471.58,471.98,472.37,472.75,473.13,473.55,474.00,474.39,474.77,475.10,475.37,475.61,475.79,475.98,476.17,476.38,476.59,476.80,477.01,477.21,477.37,477.54,477.73,477.93,478.13,478.33,478.52,478.71,478.92,479.09,479.25,479.41,479.57,479.78,480.03,480.17,480.20,480.29,480.41,480.56,480.71,480.87,481.02,481.18,481.38,481.64,481.85
436.43,436.21,435.98,435.73,435.46,435.35,435.28,435.24,435.16,434.80,434.42,434.25,434.29,434.44,434.53,434.66,434.82,434.97,435.12,435.22,435.34,435.48,435.63,435.79,435.94,436.04,436.07,436.22,436.43,436.62,436.80,437.01,437.12,437.15,437.18,437.25,437.33,437.36,437.36,437.37,437.37,437.42,437.46,437.50,437.67,437.96,438.27,438.62,439.00,439.45,440.25,441.21,442.03,442.28,442.15,441.82,441.48,441.31,441.05,440.72,440.35,439.98,439.83,439.73,439.64,439.54,439.41,439.33,439.43,439.63,439.84,440.36,441.03,441.53,441.70,441.81,442.02,442.21,442.39,442.60,442.77,442.93,443.11,443.33,443.50,443.71,443.90,444.04,444.10,443.92,443.75,443.65,443.66,443.74,443.87,444.02,444.17,444.25,444.33,444.40,444.47,444.55,444.63,444.66,444.69,444.77,444.87,444.95,445.10,445.36,445.80,446.26,446.72,447.19,447.65,448.11,448.59,449.02,449.44,450.03,450.97,451.84,452.50,452.98,453.39,453.92,454.48,454.92,455.10,455.16,455.19,455.21,455.27,455.21,455.06,454.87,454.54,453.54,452.70,451.95,451.08,449.98,449.37,448.88,448.37,447.97,448.04,448.40,448.90,449.45,450.05,450.84,451.72,452.60,453.37,454.02,454.65,455.23,455.70,456.17,456.69,457.23,457.73,458.07,458.50,458.95,459.39,459.76,460.06,460.27,460.43,460.58,460.75,460.96,461.23,461.53,461.82,462.01,462.14,462.23,462.31,462.41,462.59,462.80,462.96,463.11,463.20,463.32,463.48,463.63,463.78,464.04,464.37,464.74,465.07,465.38,465.82,466.47,467.30,468.06,468.56,468.86,469.11,469.40,469.66,469.95,470.34,470.72,471.11,471.54,471.98,472.37,472.75,473.13,473.55,474.00,474.39,474.72,474.99,475.22,475.45,475.67,475.82,475.94,476.10,476.26,476.42,476.59,476.75,476.91,477.12,477.38,477.67,477.96,478.25,478.54,478.83,479.11,479.34,479.52,479.69,479.87,480.03,480.20,480.32,480.40,480.48,480.56,480.69,480.85,481.00,481.15,481.31,481.47,481.64,481.80
437.04,436.81,436.55,436.27,436.03,435.89,435.84,435.82,435.75,435.38,434.95,434.74,434.77,434.99,435.10,435.23,435.38,435.54,435.69,435.82,435.93,436.06,436.21,436.36,436.46,436.49,436.48,436.65,436.88,437.08,437.24,437.47,437.57,437.61,437.63,437.70,437.78,437.78,437.73,437.69,437.69,437.75,437.79,437.83,437.98,438.19,438.49,438.84,439.19,439.56,440.58,441.97,443.29,443.69,443.58,443.32,443.06,442.85,442.55,442.19,441.70,441.01,440.35,440.04,439.85,439.69,439.54,439.44,439.53,439.70,439.93,440.57,441.46,442.13,442.38,442.52,442.73,442.92,443.08,443.27,443.43,443.58,443.76,443.98,444.14,444.36,444.55,444.69,444.75,444.57,444.39,444.24,444.13,444.19,444.31,444.45,444.55,444.59,444.65,444.73,444.81,444.88,444.96,445.02,445.08,445.16,445.27,445.37,445.41,445.53,446.01,446.49,446.97,447.47,447.94,448.44,448.92,449.40,450.01,450.97,452.03,453.05,453.85,454.13,454.27,454.50,454.80,455.05,455.22,455.29,455.34,455.38,455.41,455.35,455.27,455.19,455.06,454.54,453.96,453.10,451.82,450.44,449.70,449.17,448.69,448.25,448.00,448.25,448.77,449.30,449.79,450.62,451.63,452.69,453.55,454.21,454.80,455.37,455.92,456.43,456.99,457.58,458.12,458.45,458.81,459.18,459.55,459.88,460.16,460.38,460.58,460.78,460.93,461.15,461.39,461.63,461.76,461.88,461.97,462.04,462.07,462.14,462.30,462.47,462.62,462.73,462.81,462.93,463.08,463.24,463.35,463.62,463.96,464.31,464.66,464.98,465.46,466.20,467.04,467.83,468.47,468.93,469.20,469.47,469.71,470.00,470.38,470.73,471.11,471.53,471.98,472.37,472.75,473.13,473.53,473.95,474.38,474.56,474.65,474.76,474.95,475.13,475.29,475.42,475.57,475.73,475.88,476.04,476.19,476.35,476.60,476.89,477.19,477.50,477.81,478.13,478.44,478.73,478.97,479.25,479.59,479.96,480.13,480.29,480.42,480.53,480.62,480.73,480.88,481.01,481.13,481.28,481.44,481.59,481.75,481.90
437.63,437.38,437.10,436.83,436.61,436.44,436.40,436.40,436.31,435.93,435.49,435.21,435.21,435.53,435.68,435.82,435.97,436.12,436.27,436.43,436.55,436.64,436.79,436.93,436.96,436.91,436.88,437.09,437.32,437.51,437.69,437.90,438.02,438.07,438.10,438.16,438.20,438.15,438.07,438.02,438.02,438.07,438.12,438.17,438.30,438.44,438.71,439.07,439.42,439.85,441.11,442.80,444.46,445.13,445.09,444.92,444.75,444.50,444.18,443.81,443.24,442.31,441.20,440.63,440.24,439.90,439.68,439.59,439.64,439.78,440.03,440.75,441.73,442.57,443.05,443.21,443.42,443.61,443.77,443.92,444.07,444.24,444.43,444.64,444.81,445.02,445.21,445.36,445.40,445.22,445.04,444.86,444.66,444.65,444.75,444.86,444.94,444.96,445.03,445.11,445.20,445.28,445.36,445.43,445.52,445.62,445.75,445.83,445.78,445.74,446.15,446.61,447.12,447.63,448.11,448.64,449.13,449.66,450.44,451.83,453.07,454.13,454.89,455.02,454.99,455.01,455.08,455.18,455.31,455.41,455.48,455.54,455.54,455.48,455.40,455.32,455.22,455.09,454.77,453.94,452.45,451.00,450.11,449.49,448.99,448.52,448.06,448.15,448.61,449.12,449.53,450.28,451.32,452.53,453.54,454.36,455.01,455.59,456.22,456.78,457.38,457.98,458.55,458.89,459.21,459.49,459.75,460.02,460.24,460.47,460.70,460.92,461.09,461.28,461.47,461.60,461.61,461.64,461.70,461.78,461.81,461.88,462.00,462.14,462.27,462.37,462.45,462.56,462.69,462.84,462.93,463.19,463.54,463.88,464.24,464.59,465.14,465.93,466.76,467.56,468.31,468.93,469.29,469.55,469.79,470.08,470.44,470.78,471.14,471.55,471.98,472.37,472.75,473.13,473.52,473.91,474.30,474.33,474.25,474.25,474.38,474.52,474.68,474.84,474.99,475.14,475.30,475.44,475.59,475.76,476.05,476.37,476.68,476.99,477.30,477.60,477.91,478.22,478.49,478.86,479.34,479.88,480.14,480.32,480.50,480.65,480.75,480.89,481.05,481.18,481.29,481.43,481.57,481.72,481.88,482.03
438.20,437.92,437.65,437.41,437.19,437.03,436.99,436.96,436.83,436.45,436.00,435.64,435.56,435.98,436.29,436.44,436.55,436.71,436.86,437.02,437.13,437.23,437.37,437.47,437.42,437.30,437.28,437.53,437.74,437.93,438.13,438.30,438.45,438.55,438.60,438.60,438.56,438.44,438.35,438.34,438.34,438.40,438.47,438.54,438.63,438.72,438.95,439.29,439.73,440.53,442.07,443.88,445.55,446.65,446.76,446.63,446.49,446.18,445.82,445.44,444.83,443.78,442.48,441.66,440.96,440.28,439.89,439.81,439.80,439.88,440.19,440.95,441.91,442.90,443.71,443.87,444.07,444.27,444.41,444.57,444.73,444.92,445.13,445.30,445.51,445.69,445.88,446.06,446.06,445.87,445.68,445.50,445.29,445.15,445.13,445.21,445.33,445.41,445.48,445.59,445.72,445.80,445.88,445.95,446.05,446.19,446.28,446.30,446.21,446.06,446.21,446.61,447.12,447.63,448.11,448.64,449.13,449.67,450.57,452.32,453.83,454.73,455.07,455.16,455.17,455.17,455.23,455.36,455.45,455.53,455.61,455.67,455.67,455.60,455.52,455.43,455.29,455.20,455.03,454.38,453.06,451.78,450.69,449.86,449.24,448.78,448.31,448.19,448.40,448.87,449.32,449.79,450.64,451.93,453.19,454.42,455.29,455.92,456.60,457.22,457.79,458.37,458.95,459.34,459.66,459.86,459.99,460.16,460.33,460.53,460.76,460.98,461.14,461.31,461.38,461.35,461.34,461.30,461.32,461.41,461.53,461.62,461.71,461.80,461.89,462.03,462.12,462.21,462.31,462.45,462.55,462.77,463.11,463.48,463.80,464.21,464.83,465.66,466.45,467.28,468.07,468.79,469.33,469.61,469.89,470.20,470.53,470.90,471.23,471.59,471.98,472.37,472.75,473.14,473.52,473.88,474.10,473.99,473.81,473.73,473.80,473.94,474.10,474.25,474.40,474.56,474.71,474.84,474.95,475.17,475.50,475.85,476.16,476.47,476.77,477.08,477.40,477.72,478.07,478.50,478.99,479.54,480.02,480.30,480.52,480.72,480.87,481.02,481.18,481.32,481.47,481.63,481.73,481.85,482.00,482.16
438.79,438.49,438.23,437.99,437.74,437.60,437.57,437.52,437.35,436.97,436.49,436.07,435.94,436.40,436.79,437.03,437.17,437.29,437.44,437.60,437.73,437.85,437.96,437.97,437.85,437.69,437.66,437.89,438.13,438.37,438.59,438.74,438.86,438.98,439.06,439.01,438.90,438.76,438.65,438.62,438.66,438.72,438.78,438.83,438.95,439.03,439.20,439.53,440.20,441.51,443.25,445.14,446.96,448.25,448.45,448.33,448.13,447.78,447.43,447.06,446.40,445.23,443.83,442.74,441.92,441.35,441.06,440.94,440.69,440.57,441.03,441.69,442.43,443.26,444.08,444.51,444.77,444.96,445.12,445.27,445.43,445.60,445.78,445.95,446.17,446.35,446.54,446.71,446.67,446.51,446.31,446.12,445.91,445.61,445.61,445.72,445.83,445.91,446.02,446.13,446.24,446.32,446.39,446.50,446.61,446.72,446.76,446.71,446.58,446.40,446.35,446.64,447.12,447.65,448.15,448.61,449.04,449.53,450.35,452.19,454.01,454.98,455.18,455.29,455.30,455.33,455.40,455.51,455.59,455.67,455.74,455.78,455.71,455.59,455.50,455.42,455.30,455.22,455.12,454.70,453.73,452.35,451.02,450.02,449.35,448.88,448.38,448.15,448.24,448.66,449.09,449.51,450.21,451.33,452.79,454.30,455.35,456.05,456.74,457.40,458.06,458.73,459.32,459.70,459.95,460.08,460.13,460.25,460.40,460.60,460.81,460.99,461.08,461.15,461.16,461.08,461.04,461.00,460.99,461.01,461.13,461.25,461.33,461.43,461.55,461.66,461.75,461.82,461.92,462.06,462.15,462.38,462.70,463.04,463.35,463.86,464.56,465.40,466.18,467.02,467.82,468.57,469.24,469.63,469.99,470.32,470.64,470.98,471.30,471.64,472.03,472.42,472.80,473.17,473.51,473.81,473.84,473.67,473.47,473.32,473.25,473.36,473.51,473.65,473.77,473.92,474.08,474.22,474.36,474.62,474.95,475.30,475.64,475.95,476.25,476.56,476.90,477.29,477.68,478.12,478.62,479.18,479.82,480.20,480.52,480.80,480.99,481.15,481.28,481.41,481.56,481.72,481.81,481.91,482.03,482.18
439.39,439.06,438.79,438.54,438.28,438.18,438.15,438.08,437.87,437.47,436.97,436.52,436.34,436.78,437.24,437.57,437.77,437.88,438.02,438.18,438.33,438.45,438.50,438.45,438.27,438.08,438.05,438.24,438.53,438.81,439.04,439.20,439.29,439.39,439.47,439.37,439.22,439.08,438.96,438.91,438.96,439.03,439.08,439.13,439.27,439.37,439.57,440.03,441.06,442.81,444.58,446.44,448.33,449.64,449.98,449.91,449.69,449.37,449.05,448.65,447.92,446.62,445.07,444.00,443.33,442.98,442.81,442.59,442.00,441.58,442.11,442.65,443.19,443.81,444.53,445.17,445.48,445.66,445.81,445.97,446.12,446.28,446.44,446.61,446.82,447.00,447.19,447.35,447.28,447.14,446.94,446.72,446.49,446.04,446.09,446.27,446.35,446.44,446.57,446.68,446.76,446.84,446.92,447.05,447.16,447.22,447.21,447.09,446.93,446.75,446.56,446.72,447.13,447.64,448.13,448.53,448.93,449.36,450.06,451.79,453.84,454.98,455.22,455.36,455.42,455.49,455.56,455.64,455.72,455.79,455.87,455.88,455.72,455.56,455.45,455.36,455.27,455.19,455.11,454.81,454.00,452.46,451.04,450.01,449.37,448.89,448.41,448.14,448.14,448.48,448.87,449.29,449.86,450.78,452.44,454.15,455.33,456.08,456.79,457.49,458.24,458.97,459.59,459.93,460.13,460.21,460.24,460.33,460.47,460.64,460.82,460.94,460.95,460.94,460.90,460.83,460.76,460.72,460.67,460.63,460.70,460.83,460.94,461.07,461.21,461.28,461.36,461.43,461.53,461.67,461.76,461.98,462.28,462.60,462.93,463.53,464.31,465.14,465.92,466.74,467.55,468.33,469.08,469.64,470.09,470.46,470.78,471.07,471.38,471.72,472.10,472.48,472.86,473.18,473.47,473.68,473.56,473.34,473.14,472.96,472.76,472.80,472.92,473.05,473.15,473.29,473.44,473.60,473.78,474.09,474.40,474.74,475.11,475.43,475.74,476.06,476.43,476.88,477.28,477.78,478.35,478.98,479.69,480.14,480.53,480.87,481.08,481.25,481.35,481.45,481.60,481.75,481.85,481.93,482.03,482.16
440.00,439.60,439.31,439.08,438.86,438.76,438.75,438.64,438.38,437.94,437.47,437.01,436.77,437.12,437.56,438.00,438.31,438.46,438.61,438.77,438.89,438.96,438.97,438.90,438.69,438.47,438.44,438.63,438.92,439.22,439.49,439.65,439.75,439.79,439.78,439.63,439.48,439.37,439.28,439.22,439.23,439.29,439.36,439.44,439.60,439.74,440.20,441.18,442.85,444.69,446.17,447.69,449.34,450.48,451.01,451.17,451.12,451.02,450.69,450.18,449.34,447.92,445.98,445.72,445.77,445.57,445.39,444.92,443.90,443.04,443.25,443.75,444.29,444.85,445.42,445.91,446.15,446.31,446.46,446.62,446.77,446.93,447.10,447.31,447.49,447.64,447.84,448.00,447.93,447.79,447.59,447.32,446.95,446.45,446.55,446.79,446.88,447.02,447.12,447.20,447.28,447.37,447.49,447.60,447.66,447.67,447.61,447.48,447.29,447.09,446.92,446.89,447.16,447.60,447.96,448.34,448.77,449.22,449.85,451.18,453.21,454.61,455.15,455.31,455.50,455.62,455.69,455.77,455.85,455.93,455.97,455.93,455.73,455.56,455.42,455.28,455.14,455.06,454.98,454.41,453.07,451.55,450.41,449.69,449.23,448.79,448.47,448.27,448.19,448.31,448.72,449.09,449.51,450.33,452.25,454.07,455.26,456.03,456.78,457.49,458.24,458.95,459.54,459.92,460.13,460.23,460.31,460.45,460.55,460.65,460.73,460.75,460.75,460.71,460.66,460.63,460.56,460.44,460.34,460.29,460.32,460.39,460.56,460.75,460.88,460.90,460.97,461.05,461.14,461.29,461.38,461.56,461.84,462.21,462.59,463.25,464.05,464.88,465.66,466.44,467.25,468.07,468.85,469.63,470.19,470.61,470.96,471.21,471.51,471.82,472.16,472.54,472.88,473.15,473.36,473.43,473.25,473.02,472.79,472.58,472.41,472.30,472.31,472.41,472.56,472.71,472.86,473.01,473.21,473.56,473.88,474.20,474.53,474.90,475.22,475.61,476.03,476.44,476.88,477.57,478.39,479.19,479.78,480.21,480.59,480.93,481.09,481.25,481.35,481.43,481.53,481.68,481.77,481.88,482.01,482.11
440.77,440.33,439.98,439.68,439.44,439.35,439.30,439.18,438.89,438.44,437.99,437.52,437.24,437.50,437.94,438.40,438.79,439.03,439.19,439.35,439.44,439.47,439.43,439.30,439.07,438.86,438.83,439.06,439.39,439.76,440.17,440.54,440.77,440.87,440.78,440.34,439.92,439.71,439.61,439.54,439.54,439.60,439.97,440.70,441.70,442.72,443.66,444.72,446.11,447.39,448.32,449.24,450.28,451.17,451.84,452.24,452.36,452.17,451.63,450.92,449.94,448.63,447.58,447.94,448.27,448.11,447.88,447.19,445.89,444.64,444.33,444.72,445.23,445.73,446.21,446.60,446.80,446.96,447.11,447.27,447.46,447.62,447.79,447.98,448.14,448.29,448.50,448.69,448.58,448.44,448.21,447.89,447.42,446.89,446.98,447.26,447.43,447.56,447.64,447.72,447.81,447.92,448.04,448.11,448.13,448.12,448.01,447.87,447.68,447.45,447.26,447.14,447.25,447.53,447.83,448.23,448.65,449.10,449.63,450.52,452.35,454.04,455.08,455.25,455.47,455.65,455.79,455.90,455.97,456.05,456.06,455.95,455.73,455.53,455.37,455.21,455.00,454.50,453.87,452.93,451.63,450.59,449.90,449.45,449.15,448.92,448.74,448.54,448.35,448.29,448.50,448.74,449.13,449.93,451.59,453.56,454.97,455.86,456.60,457.29,458.02,458.70,459.30,459.80,460.06,460.20,460.28,460.39,460.44,460.51,460.56,460.55,460.52,460.48,460.46,460.44,460.32,460.21,460.01,459.78,459.66,459.74,460.11,460.47,460.59,460.57,460.59,460.65,460.75,460.90,460.99,461.16,461.42,461.76,462.23,462.96,463.77,464.58,465.39,466.20,467.06,467.94,468.82,469.71,470.31,470.74,471.11,471.39,471.66,471.93,472.21,472.52,472.80,473.05,473.22,473.22,472.98,472.74,472.51,472.29,472.09,471.90,471.80,471.82,471.97,472.12,472.25,472.41,472.66,473.00,473.34,473.67,474.00,474.38,474.73,475.17,475.73,476.41,477.13,478.00,478.87,479.60,479.98,480.30,480.62,480.89,481.04,481.17,481.28,481.38,481.47,481.62,481.72,481.83,481.97,482.05
441.63,441.16,440.76,440.40,440.12,440.00,439.92,439.75,439.44,438.97,438.49,438.02,437.72,437.90,438.32,438.79,439.24,439.61,439.84,440.00,440.08,440.05,439.96,439.74,439.51,439.34,439.32,439.59,439.96,440.43,441.00,441.60,442.02,442.21,442.07,441.38,440.75,440.42,440.35,440.51,440.75,441.13,441.88,443.11,444.76,446.47,447.68,448.54,449.34,449.96,450.37,450.75,451.22,451.87,452.61,453.20,453.46,453.05,452.26,451.35,450.27,449.19,449.19,449.99,450.51,450.43,450.05,449.15,447.71,446.21,445.41,445.65,446.09,446.56,446.99,447.28,447.46,447.61,447.76,447.92,448.13,448.31,448.47,448.63,448.79,448.95,449.19,449.39,449.27,449.08,448.81,448.40,447.87,447.32,447.40,447.72,447.99,448.10,448.17,448.25,448.35,448.48,448.56,448.59,448.58,448.55,448.41,448.25,448.06,447.84,447.62,447.46,447.45,447.57,447.79,448.15,448.56,448.97,449.43,449.95,451.50,453.37,454.88,455.17,455.40,455.62,455.83,455.98,456.09,456.18,456.15,455.97,455.75,455.51,455.32,455.15,454.86,453.90,452.69,451.45,450.38,449.85,449.57,449.36,449.20,449.17,449.09,448.88,448.61,448.42,448.38,448.45,448.80,449.55,450.76,452.83,454.50,455.60,456.30,456.98,457.66,458.30,458.90,459.49,459.87,460.07,460.19,460.25,460.27,460.32,460.36,460.34,460.28,460.26,460.24,460.17,459.98,459.82,459.47,459.03,458.78,458.94,459.51,460.03,460.16,460.13,460.14,460.20,460.31,460.50,460.60,460.76,460.99,461.29,461.89,462.68,463.51,464.33,465.18,466.04,466.94,467.89,468.88,469.80,470.40,470.82,471.18,471.47,471.71,471.95,472.19,472.42,472.66,472.89,473.05,473.01,472.74,472.49,472.25,472.02,471.79,471.55,471.36,471.28,471.39,471.52,471.64,471.81,472.13,472.45,472.82,473.17,473.49,473.88,474.32,474.87,475.59,476.59,477.59,478.60,479.44,479.99,480.19,480.40,480.62,480.83,480.98,481.06,481.19,481.31,481.40,481.55,481.64,481.76,481.90,481.99
442.51,442.11,441.76,441.42,441.08,440.92,440.78,440.52,440.08,439.50,438.97,438.48,438.17,438.30,438.72,439.18,439.68,440.23,440.68,440.91,440.95,440.88,440.73,440.46,440.24,440.12,440.15,440.42,440.83,441.37,442.04,442.71,443.33,443.61,443.50,443.04,442.68,442.35,442.54,443.65,445.00,446.76,447.86,448.24,448.90,449.54,450.00,450.35,450.68,450.99,451.39,451.83,452.28,452.75,453.40,454.01,454.25,453.61,452.69,451.71,450.70,449.88,450.00,450.86,451.74,452.07,451.21,450.18,448.83,447.46,446.60,446.57,446.94,447.40,447.81,448.01,448.13,448.26,448.41,448.57,448.74,448.89,449.07,449.27,449.44,449.64,449.90,450.12,450.02,449.73,449.31,448.80,448.26,447.72,447.83,448.17,448.46,448.65,448.71,448.79,448.92,449.00,449.03,449.04,449.02,448.94,448.80,448.60,448.40,448.23,448.07,447.96,447.96,448.02,448.02,448.12,448.46,448.89,449.30,449.79,450.99,452.64,454.25,455.01,455.29,455.49,455.72,455.93,456.13,456.28,456.26,456.04,455.81,455.57,455.35,455.12,454.74,453.65,452.46,451.34,450.44,449.95,449.76,449.68,449.63,449.56,449.44,449.26,449.06,448.85,448.72,448.54,448.63,449.16,450.04,451.88,453.74,455.15,455.84,456.48,457.08,457.63,458.13,458.69,459.32,459.80,460.04,460.07,460.12,460.15,460.15,460.09,460.07,460.07,459.96,459.69,459.30,458.82,458.25,457.68,457.41,457.86,458.49,458.97,459.17,459.27,459.39,459.52,459.72,460.08,460.21,460.34,460.55,460.91,461.60,462.42,463.31,464.26,465.16,466.08,467.03,468.01,468.94,469.82,470.38,470.72,470.99,471.24,471.43,471.66,471.94,472.17,472.40,472.63,472.80,472.76,472.53,472.25,471.99,471.76,471.52,471.24,471.03,470.89,470.83,470.90,471.02,471.24,471.61,471.98,472.36,472.71,473.04,473.45,474.13,474.96,475.90,476.91,477.97,478.99,479.74,480.08,480.25,480.42,480.60,480.76,480.90,481.00,481.13,481.25,481.34,481.49,481.58,481.70,481.83,481.92
443.50,443.12,442.79,442.45,442.09,441.88,441.72,441.36,440.70,439.97,439.39,438.89,438.57,438.65,439.06,439.57,440.17,440.87,441.51,441.80,441.85,441.76,441.63,441.41,441.23,441.10,441.08,441.32,441.78,442.38,443.09,443.85,444.66,445.08,445.08,444.80,444.56,444.29,444.74,446.42,448.03,449.60,450.44,450.62,450.91,451.16,451.34,451.51,451.71,452.00,452.39,452.83,453.29,453.72,454.28,454.85,455.05,454.24,453.32,452.43,451.62,451.07,451.23,451.86,452.69,453.24,452.58,451.50,450.11,448.72,447.82,447.67,447.85,448.20,448.60,448.71,448.79,448.90,449.06,449.21,449.37,449.59,449.85,450.11,450.32,450.60,450.86,450.98,450.72,450.18,449.61,449.07,448.57,448.12,448.25,448.60,448.92,449.18,449.29,449.37,449.45,449.49,449.50,449.50,449.46,449.34,449.19,449.00,448.84,448.71,448.56,448.47,448.46,448.46,448.36,448.29,448.50,448.86,449.25,449.66,450.41,451.77,453.50,454.85,455.23,455.45,455.68,455.91,456.14,456.34,456.35,456.14,455.88,455.64,455.41,455.16,454.79,453.82,452.71,451.72,450.97,450.43,450.13,450.01,450.00,449.94,449.81,449.68,449.50,449.26,449.13,448.86,448.71,448.87,449.60,451.09,452.76,454.23,455.18,455.84,456.36,456.83,457.29,457.71,458.38,458.84,459.02,459.19,459.36,459.42,459.30,458.97,458.84,458.79,458.61,458.24,457.89,457.39,456.83,456.32,456.07,456.57,457.15,457.54,457.67,457.79,457.92,458.04,458.24,458.68,458.96,459.24,459.70,460.44,461.23,462.07,462.95,463.86,464.75,465.64,466.56,467.53,468.59,469.63,470.21,470.50,470.72,470.94,471.14,471.37,471.64,471.90,472.14,472.38,472.55,472.57,472.35,472.05,471.77,471.54,471.27,471.00,470.75,470.54,470.37,470.33,470.47,470.75,471.13,471.48,471.84,472.24,472.71,473.34,474.15,475.10,476.10,477.10,478.12,479.06,479.73,480.06,480.24,480.39,480.54,480.69,480.85,480.96,481.08,481.20,481.31,481.43,481.54,481.66,481.78,481.89
444.51,444.15,443.82,443.49,443.12,442.86,442.67,442.19,441.32,440.41,439.76,439.26,438.94,439.00,439.39,439.97,440.69,441.52,442.30,442.68,442.77,442.70,442.61,442.47,442.31,442.17,442.09,442.26,442.83,443.54,444.30,445.15,446.06,446.58,446.69,446.55,446.35,446.18,446.80,448.61,449.97,450.68,451.11,451.43,451.75,452.00,452.19,452.38,452.63,453.00,453.39,453.82,454.28,454.75,455.20,455.70,455.88,455.01,454.18,453.43,452.85,452.57,452.76,453.08,453.64,454.24,454.11,453.01,451.53,450.11,449.19,448.98,448.98,449.16,449.51,449.57,449.64,449.76,449.89,449.99,450.16,450.46,450.79,451.08,451.38,451.73,451.94,451.86,451.34,450.50,449.81,449.30,448.87,448.56,448.68,449.01,449.38,449.75,449.95,450.01,450.01,449.98,449.98,449.97,449.91,449.76,449.60,449.44,449.32,449.22,449.08,448.99,448.95,448.89,448.74,448.60,448.65,448.87,449.21,449.53,449.87,450.95,452.77,454.65,455.19,455.44,455.68,455.92,456.16,456.38,456.44,456.25,455.97,455.73,455.49,455.25,454.95,454.21,453.23,452.35,451.71,451.10,450.60,450.36,450.33,450.31,450.18,450.07,449.94,449.71,449.63,449.34,448.95,448.71,449.32,450.41,451.70,453.06,454.31,455.03,455.51,455.94,456.36,456.63,457.14,457.38,457.39,457.72,458.01,458.12,457.88,457.26,456.99,456.88,456.65,456.28,456.09,455.69,455.26,454.91,454.74,455.16,455.63,455.91,455.93,455.98,456.05,456.14,456.30,456.73,457.16,457.64,458.40,459.59,460.61,461.53,462.39,463.19,464.04,464.92,465.77,466.67,467.77,469.06,469.76,470.11,470.38,470.63,470.86,471.09,471.35,471.64,471.88,472.12,472.32,472.42,472.17,471.86,471.59,471.34,471.05,470.79,470.51,470.23,470.00,469.83,469.98,470.29,470.65,470.98,471.33,471.83,472.53,473.41,474.28,475.22,476.21,477.19,478.10,478.91,479.55,479.98,480.17,480.32,480.47,480.62,480.78,480.94,481.04,481.15,481.29,481.38,481.51,481.63,481.72,481.87
445.44,445.15,444.86,444.52,444.15,443.80,443.51,442.94,441.95,440.88,440.05,439.52,439.29,439.43,439.75,440.39,441.22,442.13,443.00,443.56,443.75,443.66,443.59,443.49,443.36,443.24,443.22,443.32,444.17,445.20,446.13,447.07,447.71,448.03,448.12,448.12,448.07,447.98,448.35,449.45,450.35,451.07,451.67,452.16,452.52,452.83,453.07,453.28,453.54,453.96,454.40,454.86,455.31,455.77,456.19,456.62,456.79,456.19,455.52,454.82,454.33,454.24,454.48,454.79,455.17,455.58,455.73,454.64,453.22,451.94,451.12,450.84,450.79,450.87,451.05,451.22,451.36,451.47,451.48,451.31,451.55,451.84,452.09,452.30,452.60,452.88,452.93,452.59,451.74,450.79,450.07,449.58,449.26,449.09,449.19,449.44,449.85,450.56,450.84,450.88,450.78,450.58,450.55,450.51,450.42,450.27,450.11,449.96,449.81,449.69,449.59,449.51,449.41,449.29,449.13,448.98,448.89,448.91,449.10,449.40,449.71,450.65,452.31,454.34,455.07,455.41,455.70,455.98,456.21,456.45,456.50,456.34,456.14,455.91,455.65,455.38,455.11,454.63,453.88,453.09,452.43,451.81,451.18,450.79,450.65,450.59,450.44,450.38,450.35,450.33,450.36,449.92,449.32,448.87,449.11,449.75,450.73,451.92,453.08,453.82,454.37,454.84,455.21,455.45,455.48,455.34,455.20,455.41,455.62,455.69,455.52,455.07,454.81,454.73,454.59,454.33,454.20,453.86,453.50,453.26,453.32,453.65,454.05,454.28,454.22,454.13,454.17,454.25,454.39,454.73,455.04,455.48,456.21,457.39,459.06,460.39,461.41,462.25,463.10,464.04,464.88,465.51,465.98,467.31,468.37,469.24,470.01,470.35,470.59,470.85,471.13,471.38,471.63,471.86,472.08,472.23,472.03,471.73,471.46,471.21,470.90,470.61,470.31,470.01,469.73,469.51,469.61,469.85,470.09,470.45,471.03,471.77,472.62,473.49,474.39,475.32,476.25,477.13,477.91,478.59,479.24,479.80,480.08,480.21,480.34,480.51,480.71,480.88,480.98,481.09,481.23,481.31,481.45,481.56,481.66,481.81
446.31,446.07,445.79,445.46,445.11,444.78,444.38,443.72,442.75,441.69,440.82,440.21,439.91,440.07,440.46,441.15,442.00,442.89,443.76,444.42,444.70,444.64,444.60,444.55,444.59,444.67,444.68,444.55,445.42,446.74,448.02,448.78,449.17,449.33,449.39,449.45,449.46,449.47,449.70,450.29,450.82,451.38,452.00,452.61,453.11,453.57,453.90,454.18,454.51,454.94,455.39,455.84,456.28,456.71,457.13,457.51,457.71,457.39,456.89,456.27,455.87,455.94,456.23,456.54,456.79,457.00,457.16,456.48,455.30,454.15,453.62,453.42,453.46,453.57,453.69,453.85,453.97,453.96,453.76,453.28,453.14,453.25,453.43,453.60,453.81,453.96,453.76,453.12,452.13,451.15,450.57,450.25,449.94,449.75,449.86,450.14,450.64,451.53,451.83,451.79,451.55,451.22,451.12,451.06,450.98,450.82,450.67,450.51,450.38,450.25,450.15,450.06,449.92,449.74,449.53,449.37,449.21,449.12,449.17,449.45,449.74,450.59,452.16,454.24,455.07,455.49,455.82,456.12,456.38,456.56,456.56,456.40,456.22,456.02,455.77,455.51,455.26,454.95,454.43,453.79,453.11,452.45,451.75,451.26,451.06,451.06,450.98,450.96,451.00,451.05,451.09,450.41,449.60,449.02,448.91,449.30,449.99,450.85,451.77,452.42,452.93,453.26,453.40,453.46,453.33,453.12,452.96,453.03,453.12,453.15,453.08,452.84,452.66,452.60,452.51,452.38,452.32,452.09,451.90,451.84,452.03,452.23,452.47,452.62,452.59,452.63,452.78,452.95,453.12,453.39,453.63,453.95,454.41,455.21,456.94,458.62,460.08,461.25,462.09,462.92,463.50,463.82,464.10,465.30,466.55,467.80,469.05,469.93,470.34,470.63,470.89,471.13,471.37,471.59,471.82,472.00,471.87,471.62,471.35,471.08,470.78,470.49,470.19,469.87,469.51,469.21,469.25,469.46,469.71,470.14,470.88,471.75,472.67,473.55,474.42,475.24,476.02,476.77,477.47,478.11,478.75,479.36,479.77,480.03,480.21,480.39,480.64,480.81,480.93,481.05,481.17,481.27,481.40,481.51,481.62,481.75
447.16,446.91,446.63,446.32,446.03,445.78,445.32,444.64,443.76,442.84,442.04,441.34,440.86,440.95,441.45,442.17,442.97,443.81,444.60,445.30,445.64,445.64,445.63,445.63,445.94,446.33,446.36,445.93,446.51,447.94,449.63,450.10,450.38,450.49,450.51,450.58,450.58,450.68,450.90,451.22,451.50,451.77,452.22,452.87,453.51,454.17,454.64,455.02,455.48,455.90,456.35,456.78,457.17,457.58,458.02,458.39,458.61,458.54,458.22,457.73,457.45,457.66,457.95,458.23,458.38,458.40,458.42,458.35,457.56,456.64,456.46,456.42,456.60,456.81,456.94,457.03,457.06,456.87,456.38,455.55,454.79,454.64,454.80,454.93,455.01,454.93,454.44,453.52,452.54,451.63,451.30,451.23,450.86,450.59,450.74,451.13,451.72,452.62,452.86,452.69,452.31,451.89,451.68,451.62,451.56,451.40,451.25,451.10,450.98,450.88,450.75,450.66,450.50,450.25,449.97,449.77,449.59,449.44,449.38,449.64,449.97,450.82,452.35,454.35,455.18,455.64,456.00,456.32,456.62,456.70,456.62,456.43,456.20,456.02,455.81,455.58,455.37,455.14,454.83,454.34,453.63,452.93,452.22,451.74,451.58,451.71,451.73,451.77,451.82,451.82,451.80,450.84,449.81,449.16,448.77,449.02,449.43,449.91,450.50,450.97,451.31,451.43,451.26,451.09,451.03,450.98,450.91,450.85,450.86,450.87,450.86,450.83,450.76,450.69,450.65,450.64,450.64,450.57,450.60,450.74,450.97,451.07,451.19,451.28,451.36,451.69,452.05,452.34,452.56,452.79,453.02,453.18,453.27,453.51,454.73,456.56,458.50,460.14,460.97,461.57,461.77,461.80,462.23,463.26,464.59,466.08,467.72,469.37,470.08,470.41,470.65,470.89,471.12,471.35,471.57,471.76,471.72,471.53,471.26,470.97,470.66,470.40,470.13,469.78,469.33,468.93,468.91,469.15,469.50,470.02,470.85,471.75,472.66,473.53,474.31,474.96,475.55,476.19,476.87,477.51,478.13,478.72,479.23,479.72,480.05,480.28,480.56,480.74,480.90,481.02,481.12,481.25,481.36,481.47,481.61,481.69
448.04,447.78,447.48,447.19,446.94,446.75,446.51,446.01,445.20,444.34,443.63,442.97,442.41,442.18,442.57,443.26,444.04,444.83,445.61,446.28,446.65,446.72,446.68,446.67,447.13,447.76,448.01,447.53,447.20,447.98,449.76,450.37,451.09,451.44,451.44,451.46,451.42,451.58,451.83,452.09,452.32,452.55,452.86,453.26,453.71,454.36,454.98,455.56,456.17,456.72,457.20,457.63,458.03,458.47,458.93,459.25,459.40,459.40,459.33,459.20,459.15,459.30,459.49,459.58,459.60,459.60,459.60,459.60,459.45,459.21,459.03,459.00,459.12,459.25,459.35,459.42,459.44,459.14,458.37,456.96,456.19,456.04,456.14,456.22,456.20,455.70,454.90,453.92,453.00,452.32,452.20,452.25,451.91,451.87,452.13,452.52,453.01,453.71,453.72,453.43,453.04,452.64,452.31,452.21,452.13,451.94,451.82,451.68,451.56,451.48,451.38,451.35,451.20,450.94,450.62,450.22,449.92,449.72,449.67,449.84,450.62,451.76,453.15,454.66,455.30,455.72,456.11,456.51,456.82,456.82,456.63,456.31,455.98,455.75,455.53,455.34,455.26,455.14,454.88,454.38,453.58,452.80,452.30,452.15,452.27,452.41,452.48,452.56,452.62,452.62,452.39,451.31,450.18,449.42,449.01,448.89,449.03,449.32,449.62,449.84,449.97,450.00,449.93,449.85,449.83,449.84,449.86,449.83,449.83,449.87,449.89,449.90,449.92,449.95,449.97,449.98,450.02,450.06,450.09,450.24,450.63,451.04,451.39,451.70,451.99,452.41,452.77,453.05,453.27,453.45,453.63,453.78,453.83,453.79,454.02,455.20,456.88,458.60,459.46,459.97,460.11,460.09,460.44,461.63,463.25,465.03,466.87,468.72,469.72,470.21,470.46,470.74,470.98,471.18,471.37,471.57,471.57,471.44,471.20,470.90,470.64,470.36,470.06,469.70,469.19,468.70,468.71,469.04,469.53,470.11,470.92,471.77,472.53,473.11,473.72,474.32,474.93,475.55,476.19,476.81,477.38,477.88,478.35,479.09,479.75,480.20,480.45,480.67,480.84,480.96,481.05,481.20,481.30,481.41,481.55,481.63
448.89,448.62,448.33,448.08,447.88,447.74,447.65,447.35,446.72,445.90,445.27,444.69,444.11,443.63,443.76,444.36,445.14,445.91,446.67,447.27,447.63,447.77,447.74,447.72,448.25,449.00,449.40,449.15,448.47,448.50,449.50,450.16,451.22,452.00,452.34,452.31,452.28,452.47,452.72,452.93,453.16,453.40,453.63,453.87,454.17,454.65,455.24,455.88,456.57,457.22,457.78,458.29,458.76,459.29,459.81,460.12,460.21,460.22,460.29,460.36,460.44,460.53,460.65,460.66,460.66,460.67,460.65,460.64,460.82,460.95,460.76,460.70,460.74,460.81,460.89,460.96,461.00,460.61,459.65,458.14,457.54,457.43,457.46,457.39,457.09,456.31,455.34,454.35,453.47,453.06,453.12,453.25,453.12,453.30,453.62,453.98,454.35,454.74,454.55,454.18,453.79,453.40,453.01,452.82,452.69,452.52,452.41,452.31,452.21,452.13,452.06,452.03,451.89,451.66,451.33,450.88,450.75,450.63,450.37,450.44,451.43,452.74,454.05,455.06,455.55,455.94,456.34,456.72,456.97,456.84,456.51,456.11,455.73,455.43,455.17,455.00,454.96,454.86,454.56,454.04,453.30,452.75,452.56,452.68,452.95,453.10,453.21,453.30,453.38,453.40,453.17,452.10,450.84,449.82,449.39,449.10,449.06,449.19,449.28,449.35,449.38,449.40,449.40,449.42,449.44,449.48,449.52,449.53,449.55,449.59,449.63,449.67,449.76,449.85,449.91,449.98,450.10,450.24,450.39,450.60,451.00,451.58,452.11,452.55,452.93,453.35,453.71,453.97,454.14,454.28,454.44,454.59,454.62,454.42,454.11,454.46,455.51,457.02,457.99,458.50,458.76,459.01,459.62,460.98,462.75,464.65,466.52,468.24,469.34,469.98,470.29,470.57,470.79,470.98,471.18,471.38,471.38,471.28,471.09,470.84,470.60,470.33,470.00,469.58,469.00,468.43,468.45,468.85,469.42,469.99,470.74,471.47,472.06,472.52,473.06,473.64,474.25,474.86,475.48,476.06,476.65,477.25,477.86,478.73,479.55,480.12,480.33,480.58,480.77,480.90,481.01,481.14,481.25,481.36,481.48,481.56
449.69,449.46,449.22,449.00,448.85,448.76,448.69,448.55,448.22,447.46,446.92,446.39,445.81,445.25,445.02,445.48,446.25,447.02,447.77,448.26,448.57,448.75,448.80,448.76,449.29,450.04,450.47,450.65,450.27,449.66,449.23,449.73,450.92,452.26,453.21,453.16,453.22,453.40,453.61,453.78,454.01,454.24,454.47,454.71,454.95,455.16,455.53,456.05,456.72,457.39,458.07,458.72,459.34,460.01,460.64,460.98,461.06,461.06,461.13,461.20,461.28,461.36,461.45,461.51,461.58,461.62,461.57,461.56,461.70,461.81,461.65,461.51,461.52,461.60,461.67,461.75,461.81,461.31,460.29,459.20,458.86,458.79,458.70,458.39,457.66,456.76,455.80,454.81,453.98,453.84,454.00,454.23,454.45,454.79,455.12,455.44,455.69,455.73,455.38,454.97,454.58,454.19,453.79,453.47,453.25,453.15,453.01,452.97,452.92,452.84,452.77,452.69,452.57,452.37,452.06,451.75,452.09,452.16,451.59,451.57,452.38,453.64,454.90,455.50,455.93,456.31,456.68,456.97,457.07,456.77,456.32,455.88,455.49,455.12,454.83,454.65,454.55,454.37,454.01,453.52,453.02,452.98,453.11,453.35,453.61,453.76,453.91,454.01,454.09,454.15,454.12,453.23,451.86,450.51,450.00,449.75,449.62,449.58,449.60,449.61,449.66,449.70,449.72,449.79,449.87,449.90,449.92,449.92,449.97,450.01,450.05,450.13,450.27,450.37,450.47,450.63,450.84,451.11,451.46,451.80,452.03,452.57,453.12,453.56,453.89,454.28,454.66,454.89,454.98,455.07,455.27,455.41,455.39,455.13,454.76,454.34,454.54,455.58,456.71,457.31,457.88,458.66,459.84,461.33,463.07,464.88,466.60,467.91,468.92,469.67,470.14,470.39,470.56,470.76,470.98,471.17,471.13,471.05,470.93,470.76,470.54,470.30,469.94,469.42,468.75,468.12,468.12,468.52,469.11,469.60,470.24,470.81,471.26,471.80,472.39,472.96,473.54,474.16,474.81,475.36,476.03,476.94,477.88,478.76,479.52,480.06,480.23,480.50,480.70,480.86,481.00,481.09,481.22,481.33,481.41,481.48
450.58,450.35,450.15,449.96,449.78,449.73,449.66,449.59,449.47,449.06,448.56,447.93,447.23,446.65,446.32,446.69,447.40,448.16,448.84,449.25,449.49,449.62,449.69,449.72,450.09,450.64,451.08,451.38,451.06,450.50,450.09,450.36,451.52,452.90,453.92,453.95,454.06,454.26,454.48,454.68,454.86,455.08,455.31,455.56,455.83,456.00,456.23,456.53,456.93,457.54,458.23,458.93,459.66,460.44,461.21,461.70,461.90,461.90,461.93,462.02,462.13,462.21,462.28,462.36,462.44,462.50,462.52,462.52,462.63,462.72,462.56,462.40,462.38,462.41,462.46,462.57,462.50,461.91,460.97,460.30,460.02,459.86,459.59,459.06,458.19,457.27,456.29,455.31,454.68,454.73,454.96,455.26,455.73,456.12,456.45,456.74,456.91,456.69,456.28,455.86,455.46,455.02,454.59,454.18,453.89,453.81,453.71,453.64,453.58,453.50,453.43,453.35,453.25,453.07,452.76,452.69,453.24,453.65,453.51,453.39,453.69,454.38,455.20,455.69,456.17,456.59,456.97,457.26,457.19,456.81,456.35,455.89,455.46,455.07,454.79,454.63,454.50,454.37,454.20,454.02,453.87,453.88,454.00,454.15,454.31,454.47,454.62,454.73,454.80,454.87,454.88,454.45,453.54,452.38,451.78,451.20,450.86,450.74,450.74,450.74,450.78,450.87,450.96,451.04,451.16,451.24,451.28,451.28,451.31,451.38,451.47,451.56,451.75,451.86,451.97,452.13,452.32,452.56,452.89,453.17,453.27,453.61,454.13,454.57,454.82,455.24,455.60,455.80,455.87,455.92,456.11,456.25,456.19,455.84,455.38,454.83,454.60,454.97,455.97,456.98,458.00,459.11,460.47,462.02,463.60,465.04,466.24,467.30,468.29,469.22,469.96,470.24,470.42,470.59,470.77,470.92,470.88,470.80,470.73,470.64,470.46,470.20,469.77,469.18,468.48,467.81,467.73,468.06,468.57,469.05,469.54,470.01,470.49,471.12,471.70,472.28,472.89,473.58,474.42,475.26,476.19,477.20,478.20,479.16,479.79,480.09,480.21,480.41,480.61,480.80,480.94,481.07,481.18,481.25,481.29,481.36
451.51,451.29,451.10,450.92,450.70,450.67,450.61,450.56,450.51,450.35,449.88,449.24,448.56,448.05,447.73,447.92,448.47,449.20,449.77,450.10,450.29,450.38,450.46,450.56,450.82,451.20,451.61,451.95,451.69,451.29,451.07,451.19,452.31,453.61,454.57,454.71,454.89,455.10,455.32,455.53,455.71,455.93,456.16,456.41,456.71,456.90,457.06,457.22,457.42,457.88,458.44,459.10,459.88,460.74,461.63,462.32,462.72,462.74,462.75,462.83,462.95,463.05,463.13,463.21,463.28,463.36,463.43,463.46,463.54,463.58,463.44,463.31,463.26,463.25,463.27,463.40,463.18,462.57,461.81,461.37,461.11,460.87,460.45,459.65,458.70,457.75,456.75,455.83,455.47,455.67,455.94,456.26,456.80,457.33,457.73,458.00,458.06,457.65,457.19,456.75,456.32,455.79,455.23,454.81,454.56,454.46,454.38,454.31,454.23,454.15,454.07,454.02,453.95,453.78,453.47,453.65,454.25,454.79,454.94,454.78,454.75,455.00,455.44,455.89,456.39,456.84,457.24,457.53,457.32,456.90,456.44,455.98,455.52,455.17,454.98,454.88,454.78,454.71,454.69,454.72,454.79,454.82,454.88,454.95,455.02,455.13,455.25,455.35,455.43,455.48,455.49,455.34,454.84,454.05,453.48,452.68,452.24,452.17,452.19,452.19,452.27,452.41,452.57,452.66,452.78,452.88,452.94,452.92,452.90,452.98,453.09,453.21,453.43,453.55,453.65,453.79,453.94,454.14,454.38,454.56,454.60,454.73,455.15,455.57,455.80,456.19,456.52,456.70,456.75,456.79,456.95,457.05,456.95,456.52,456.06,455.50,454.96,454.76,455.64,456.91,458.20,459.51,460.96,462.38,463.69,464.77,465.57,466.38,467.31,468.29,469.23,469.94,470.25,470.43,470.56,470.65,470.59,470.53,470.50,470.47,470.33,470.04,469.54,468.89,468.19,467.50,467.30,467.50,467.95,468.41,468.84,469.31,469.86,470.54,471.16,471.80,472.48,473.24,474.18,475.23,476.31,477.38,478.41,479.41,479.97,480.13,480.23,480.36,480.54,480.73,480.88,481.02,481.11,481.14,481.16,481.21
452.48,452.26,452.07,451.87,451.61,451.57,451.52,451.45,451.36,451.19,450.73,450.25,449.83,449.50,449.25,449.13,449.38,450.07,450.51,450.74,450.89,451.03,451.12,451.25,451.50,451.82,452.16,452.52,452.38,452.09,451.91,452.03,453.08,454.28,455.18,455.47,455.70,455.93,456.15,456.32,456.54,456.77,457.00,457.26,457.56,457.79,457.98,458.13,458.29,458.50,458.82,459.33,460.07,460.96,461.92,462.83,463.49,463.57,463.59,463.65,463.75,463.88,463.97,464.05,464.12,464.20,464.28,464.35,464.39,464.38,464.29,464.21,464.13,464.09,464.12,464.24,463.88,463.36,462.85,462.40,462.14,461.88,461.31,460.22,459.16,458.16,457.16,456.37,456.32,456.62,456.91,457.17,457.57,458.38,458.94,459.22,459.14,458.59,458.08,457.61,457.09,456.41,455.65,455.34,455.25,455.12,455.04,454.96,454.88,454.81,454.73,454.71,454.65,454.49,454.22,454.60,455.10,455.40,455.41,455.34,455.37,455.51,455.75,456.15,456.61,457.07,457.50,457.76,457.47,457.03,456.57,456.11,455.66,455.43,455.39,455.42,455.41,455.40,455.39,455.43,455.51,455.58,455.65,455.70,455.71,455.73,455.74,455.84,455.93,455.94,455.94,455.72,455.41,455.08,454.73,453.94,453.66,453.81,453.87,453.88,454.03,454.25,454.45,454.54,454.62,454.70,454.74,454.67,454.61,454.63,454.74,454.89,455.11,455.23,455.31,455.41,455.57,455.73,455.85,455.94,456.00,455.97,456.23,456.59,456.87,457.13,457.43,457.58,457.61,457.67,457.76,457.81,457.64,457.17,456.86,456.23,455.44,454.93,455.75,456.93,458.20,459.57,461.08,462.12,463.04,463.87,464.53,465.07,465.85,466.68,467.70,469.27,469.95,470.19,470.27,470.27,470.20,470.18,470.19,470.18,470.09,469.76,469.21,468.51,467.82,467.13,466.79,466.84,467.26,467.72,468.24,468.79,469.42,470.11,470.85,471.60,472.38,473.22,474.08,475.11,476.18,477.25,478.31,479.33,479.92,480.13,480.27,480.37,480.51,480.67,480.81,480.90,480.98,481.01,481.02,481.02
453.45,453.23,453.00,452.73,452.47,452.43,452.41,452.36,452.24,451.95,451.57,451.22,450.94,450.73,450.53,450.37,450.42,450.78,451.09,451.31,451.49,451.64,451.80,451.96,452.21,452.52,452.82,453.13,453.08,452.89,452.74,452.77,453.54,454.57,455.54,456.14,456.36,456.62,456.91,457.15,457.38,457.62,457.87,458.15,458.45,458.70,458.88,459.04,459.20,459.39,459.70,460.18,460.85,461.55,462.33,463.17,463.93,464.32,464.42,464.48,464.57,464.68,464.76,464.83,464.91,465.00,465.12,465.20,465.23,465.22,465.18,465.11,465.00,464.93,464.97,465.13,464.81,464.33,463.83,463.39,463.17,462.55,461.58,460.41,459.40,458.46,457.58,456.99,457.23,457.59,457.88,458.08,458.33,459.20,459.90,460.26,460.17,459.51,458.82,458.14,457.44,456.68,456.14,455.99,455.97,455.82,455.74,455.66,455.58,455.51,455.43,455.38,455.32,455.18,454.98,455.46,455.75,455.82,455.78,455.75,455.80,455.94,456.16,456.48,456.88,457.32,457.73,457.93,457.61,457.16,456.70,456.24,455.80,455.69,455.78,455.91,455.94,455.95,455.95,456.02,456.17,456.29,456.35,456.39,456.41,456.37,456.32,456.35,456.41,456.43,456.32,456.08,455.87,455.78,455.85,455.38,455.24,455.44,455.55,455.56,455.78,456.07,456.28,456.41,456.50,456.55,456.55,456.43,456.35,456.34,456.40,456.53,456.75,456.90,457.00,457.09,457.24,457.32,457.37,457.40,457.43,457.37,457.40,457.58,457.90,458.06,458.30,458.46,458.50,458.54,458.60,458.58,458.42,458.08,457.64,456.92,456.05,455.37,455.63,456.64,457.85,459.10,460.38,461.37,462.18,462.82,463.23,463.54,464.12,464.89,465.89,467.28,468.31,468.91,469.16,469.11,469.04,469.14,469.32,469.45,469.40,468.91,468.23,467.50,466.82,466.20,466.05,466.29,466.81,467.36,467.97,468.59,469.22,469.88,470.71,471.54,472.37,473.22,474.06,475.05,476.07,477.06,478.01,478.97,479.67,480.08,480.23,480.36,480.50,480.64,480.74,480.78,480.81,480.83,480.83,480.83
454.36,454.18,453.90,453.56,453.33,453.30,453.29,453.24,453.11,452.77,452.48,452.23,452.01,451.85,451.69,451.53,451.47,451.57,451.76,451.93,452.10,452.28,452.51,452.67,452.93,453.23,453.51,453.73,453.76,453.68,453.57,453.52,453.97,454.81,455.85,456.76,457.02,457.29,457.62,457.93,458.20,458.45,458.74,459.06,459.38,459.64,459.87,460.05,460.22,460.44,460.77,461.25,461.85,462.40,462.99,463.69,464.44,465.05,465.24,465.33,465.40,465.48,465.58,465.66,465.74,465.83,465.96,466.03,466.06,466.08,466.08,466.00,465.88,465.79,465.82,466.00,465.73,465.29,464.81,464.37,463.98,463.00,461.74,460.57,459.60,458.74,458.04,457.71,458.13,458.54,458.84,459.01,459.15,459.94,460.69,461.12,461.01,460.22,459.36,458.50,457.68,456.95,456.69,456.68,456.67,456.52,456.43,456.36,456.28,456.20,456.12,456.05,455.97,455.86,455.78,456.18,456.27,456.19,456.13,456.12,456.19,456.37,456.60,456.85,457.18,457.60,457.95,458.06,457.72,457.28,456.83,456.38,455.99,455.99,456.15,456.34,456.44,456.47,456.49,456.61,456.82,456.98,457.01,457.05,457.08,457.02,456.94,456.90,456.90,456.89,456.69,456.45,456.31,456.37,456.77,456.72,456.80,457.04,457.21,457.28,457.56,457.88,458.08,458.22,458.30,458.31,458.26,458.14,458.06,458.04,458.05,458.13,458.32,458.47,458.58,458.66,458.83,458.87,458.87,458.86,458.82,458.75,458.63,458.67,458.93,459.03,459.20,459.33,459.38,459.40,459.46,459.39,459.24,459.01,458.44,457.63,456.70,455.85,455.56,456.24,457.25,458.35,459.42,460.42,461.18,461.66,461.88,462.05,462.42,463.07,463.95,464.85,466.00,466.83,467.24,467.24,467.21,467.47,467.81,468.08,468.10,467.65,467.02,466.33,465.66,465.25,465.38,465.85,466.46,467.08,467.75,468.40,469.01,469.65,470.50,471.37,472.22,473.08,473.87,474.72,475.64,476.61,477.47,478.38,479.21,479.84,480.13,480.31,480.45,480.56,480.63,480.63,480.63,480.63,480.64,480.66
455.15,455.10,454.77,454.37,454.22,454.20,454.15,454.08,453.98,453.73,453.54,453.33,453.10,452.89,452.73,452.57,452.51,452.59,452.68,452.68,452.77,453.00,453.22,453.39,453.64,453.93,454.16,454.34,454.42,454.45,454.41,454.35,454.53,455.16,456.18,457.32,457.74,457.96,458.22,458.59,458.95,459.27,459.61,459.98,460.35,460.66,460.99,461.28,461.45,461.68,461.97,462.42,463.02,463.56,464.12,464.69,465.27,465.79,466.05,466.17,466.25,466.34,466.47,466.56,466.64,466.72,466.80,466.83,466.88,466.94,466.98,466.86,466.75,466.68,466.66,466.79,466.51,466.15,465.79,465.33,464.36,463.21,462.04,460.89,459.89,459.06,458.59,458.60,458.99,459.43,459.75,459.94,460.13,460.63,461.28,461.68,461.50,460.53,459.53,458.66,457.92,457.40,457.34,457.40,457.37,457.17,457.08,457.00,456.93,456.85,456.78,456.69,456.62,456.57,456.61,456.69,456.66,456.59,456.51,456.45,456.61,456.82,457.06,457.29,457.54,457.89,458.18,458.20,457.80,457.38,456.96,456.54,456.29,456.36,456.52,456.69,456.88,456.97,457.08,457.26,457.47,457.63,457.66,457.67,457.67,457.66,457.59,457.52,457.43,457.30,457.08,456.84,456.74,456.88,457.33,457.79,458.20,458.55,458.83,459.04,459.37,459.66,459.82,459.91,459.94,459.88,459.77,459.74,459.66,459.63,459.64,459.66,459.75,459.85,459.90,459.98,460.24,460.29,460.29,460.25,460.13,460.04,459.96,459.92,459.99,460.06,460.16,460.21,460.24,460.30,460.31,460.26,460.13,459.86,459.28,458.39,457.34,456.32,455.72,455.79,456.38,457.32,458.37,459.33,459.96,460.36,460.58,460.74,460.89,461.30,461.87,462.22,462.97,463.63,464.09,464.32,464.45,464.85,465.30,465.63,465.77,465.81,465.62,465.15,464.50,464.55,465.00,465.59,466.20,466.82,467.45,468.07,468.69,469.32,470.08,470.91,471.78,472.64,473.26,473.77,474.56,475.68,476.55,477.47,478.38,479.23,479.92,480.17,480.28,480.37,480.43,480.44,480.44,480.44,480.45,480.52
455.82,455.70,455.37,455.02,454.93,454.91,454.86,454.83,454.82,454.64,454.52,454.36,454.15,453.93,453.73,453.59,453.50,453.46,453.42,453.35,453.41,453.61,453.84,454.07,454.35,454.65,454.92,455.15,455.36,455.54,455.64,455.55,455.62,456.10,456.90,457.79,458.42,458.69,458.88,459.21,459.66,460.16,460.61,461.00,461.42,461.78,462.13,462.46,462.72,462.92,463.19,463.62,464.19,464.74,465.28,465.81,466.30,466.59,466.80,466.99,467.14,467.23,467.34,467.43,467.52,467.61,467.61,467.58,467.66,467.79,467.84,467.75,467.55,467.43,467.48,467.58,467.29,466.97,466.68,466.26,465.25,464.11,462.95,461.81,460.80,459.97,459.53,459.58,460.07,460.64,460.85,460.86,461.07,461.56,462.18,462.42,461.91,460.81,459.77,458.92,458.28,458.02,458.07,458.14,458.08,457.87,457.78,457.70,457.63,457.55,457.47,457.36,457.22,457.12,457.15,457.12,457.05,456.97,456.90,456.88,457.05,457.28,457.51,457.74,457.98,458.25,458.44,458.33,457.91,457.48,457.05,456.71,456.67,456.80,456.97,457.17,457.35,457.47,457.67,457.89,458.08,458.27,458.34,458.34,458.31,458.30,458.20,458.06,457.89,457.69,457.46,457.20,457.13,457.36,457.85,458.38,458.94,459.53,460.08,460.43,460.73,460.97,461.06,461.11,461.15,461.05,460.82,460.59,460.49,460.46,460.46,460.47,460.54,460.62,460.73,460.94,461.34,461.49,461.52,461.46,461.23,461.07,460.96,460.91,460.93,461.00,461.05,461.08,461.12,461.16,461.20,461.14,460.97,460.63,459.87,458.92,457.85,456.82,456.31,456.14,456.28,456.63,457.19,457.96,458.56,458.98,459.24,459.44,459.57,459.82,460.14,460.29,460.72,461.13,461.43,461.65,461.81,462.37,462.93,463.27,463.43,463.59,463.71,463.75,463.70,464.09,464.66,465.27,465.90,466.51,467.13,467.75,468.37,468.99,469.60,470.28,471.02,471.71,472.20,472.55,473.22,474.36,475.41,476.39,477.33,478.26,479.10,479.63,479.97,480.18,480.24,480.29,480.27,480.25,480.26,480.33
456.42,456.20,455.87,455.59,455.52,455.51,455.47,455.52,455.61,455.50,455.41,455.30,455.13,454.90,454.68,454.56,454.43,454.24,454.08,454.00,454.03,454.20,454.48,454.81,455.16,455.51,455.85,456.17,456.49,456.80,457.03,456.93,456.94,457.27,457.83,458.43,459.18,459.50,459.64,459.91,460.44,461.11,461.66,462.08,462.53,462.93,463.28,463.61,463.97,464.17,464.44,464.83,465.37,465.90,466.44,466.94,467.30,467.38,467.52,467.77,468.01,468.11,468.20,468.29,468.38,468.45,468.37,468.31,468.43,468.62,468.69,468.64,468.34,468.17,468.31,468.35,468.08,467.80,467.55,467.19,466.32,465.23,464.11,463.07,462.09,461.28,460.82,460.86,461.37,461.94,461.97,461.77,462.00,462.55,463.13,463.17,462.35,461.15,460.13,459.32,458.80,458.73,458.83,458.88,458.79,458.58,458.50,458.41,458.31,458.21,458.09,457.92,457.74,457.62,457.61,457.53,457.46,457.38,457.32,457.31,457.48,457.70,457.93,458.15,458.38,458.62,458.70,458.48,458.05,457.59,457.18,456.94,457.12,457.28,457.48,457.69,457.84,457.97,458.22,458.47,458.67,458.91,459.02,459.01,458.94,458.90,458.75,458.55,458.32,458.09,457.84,457.57,457.52,457.83,458.34,458.84,459.47,460.28,461.18,461.68,461.95,462.12,462.17,462.19,462.24,462.10,461.74,461.32,461.13,461.06,461.05,461.06,461.13,461.24,461.47,461.86,462.38,462.63,462.70,462.62,462.30,462.03,461.88,461.83,461.85,461.91,461.92,461.96,462.01,462.03,462.08,462.02,461.78,461.26,460.30,459.29,458.29,457.42,457.11,456.87,456.63,456.45,456.48,456.95,457.44,457.81,458.06,458.29,458.46,458.62,458.78,458.88,459.08,459.26,459.41,459.58,459.75,460.36,460.95,461.28,461.49,461.71,462.07,462.56,463.10,463.70,464.32,464.94,465.55,466.16,466.77,467.39,468.01,468.60,469.05,469.48,469.98,470.52,470.92,471.21,471.81,472.91,474.13,475.22,476.19,477.09,477.98,478.77,479.37,479.76,479.94,480.08,480.08,480.04,480.02,480.06
456.96,456.68,456.33,456.04,455.98,455.96,456.00,456.10,456.22,456.19,456.13,456.04,455.91,455.69,455.50,455.40,455.20,454.84,454.66,454.62,454.65,454.82,455.24,455.72,456.26,456.78,457.21,457.58,457.96,458.30,458.54,458.53,458.48,458.63,459.03,459.68,460.24,460.51,460.66,460.90,461.47,462.14,462.75,463.23,463.64,464.08,464.44,464.78,465.15,465.44,465.70,466.04,466.54,467.07,467.62,467.91,468.01,468.09,468.24,468.46,468.71,468.95,469.10,469.20,469.22,469.16,469.04,469.05,469.21,469.41,469.53,469.54,469.21,469.02,469.13,469.09,468.92,468.71,468.47,468.17,467.44,466.39,465.44,464.80,463.95,463.20,462.85,462.92,463.14,463.25,462.98,462.70,462.96,463.47,463.94,463.82,462.88,461.68,460.77,460.09,459.64,459.57,459.58,459.59,459.51,459.30,459.21,459.08,458.92,458.70,458.44,458.16,458.05,458.06,458.06,457.99,457.91,457.84,457.76,457.70,457.82,458.03,458.24,458.42,458.64,458.88,458.93,458.62,458.17,457.76,457.42,457.30,457.66,457.87,458.06,458.27,458.41,458.46,458.64,458.92,459.25,459.55,459.67,459.63,459.50,459.37,459.16,458.94,458.71,458.46,458.18,457.97,458.00,458.33,458.81,459.38,460.00,460.86,462.18,462.86,463.16,463.26,463.29,463.35,463.37,463.15,462.73,462.33,461.94,461.71,461.63,461.64,461.71,461.97,462.38,462.89,463.48,463.82,463.94,463.84,463.46,463.05,462.82,462.76,462.81,462.83,462.83,462.84,462.87,462.93,462.95,462.89,462.53,461.57,460.46,459.42,458.68,458.33,458.19,457.92,457.66,457.45,457.28,457.26,457.33,457.39,457.43,457.64,457.81,458.00,458.20,458.35,458.56,458.71,458.84,459.06,459.28,459.68,460.06,460.35,460.75,461.21,461.71,462.22,462.71,463.31,463.93,464.54,465.16,465.72,466.32,466.94,467.54,468.07,468.35,468.31,468.38,469.01,469.43,469.75,470.36,471.42,472.64,473.89,474.90,475.70,476.50,477.28,478.01,478.70,479.30,479.70,479.83,479.77,479.61,479.59
457.44,457.14,456.80,456.53,456.44,456.50,456.60,456.71,456.81,456.85,456.79,456.76,456.69,456.48,456.40,456.38,456.21,455.82,455.63,455.61,455.65,455.76,456.17,456.78,457.40,458.00,458.52,458.99,459.39,459.75,460.00,460.08,460.06,460.12,460.40,461.10,461.54,461.77,461.91,462.09,462.57,463.23,463.86,464.39,464.76,465.20,465.57,465.90,466.29,466.67,466.94,467.25,467.70,468.19,468.53,468.66,468.68,468.76,468.94,469.13,469.45,469.92,470.13,470.19,470.11,469.99,469.95,470.03,470.26,470.60,470.94,470.68,470.40,470.24,470.19,470.02,469.86,469.66,469.42,469.12,468.57,467.82,467.11,466.56,465.81,465.12,464.83,464.90,464.79,464.51,464.04,463.68,463.88,464.32,464.70,464.47,463.47,462.59,461.93,461.39,461.20,461.91,462.31,462.44,462.18,461.29,460.00,459.50,459.26,458.98,458.68,458.46,458.44,458.52,458.51,458.44,458.37,458.26,458.13,458.09,458.17,458.33,458.53,458.72,458.95,459.13,459.12,458.76,458.34,457.92,457.68,457.77,458.23,458.45,458.65,458.85,458.95,458.97,459.11,459.40,459.95,460.81,461.49,461.65,461.23,460.37,459.70,459.30,459.05,458.81,458.54,458.41,458.51,458.84,459.30,460.13,461.05,462.05,463.25,464.01,464.31,464.40,464.44,464.54,464.46,464.15,463.71,463.31,462.86,462.53,462.33,462.30,462.49,462.91,463.42,463.97,464.54,464.96,465.13,465.01,464.59,464.16,463.85,463.69,463.70,463.74,463.75,463.75,463.75,463.79,463.83,463.62,463.01,461.91,460.88,459.95,459.38,459.23,459.15,458.97,458.73,458.47,458.25,458.09,457.96,457.85,457.80,457.96,458.13,458.30,458.50,458.68,458.85,458.94,459.02,459.17,459.27,459.44,459.66,459.93,460.31,460.83,461.37,461.88,462.33,462.88,463.49,464.11,464.72,465.30,465.91,466.51,467.03,467.35,467.51,467.30,467.10,467.37,467.61,467.98,468.77,470.11,471.62,472.67,473.46,474.14,474.88,475.68,476.49,477.27,477.98,478.56,478.81,478.79,478.63,478.67
457.91,457.59,457.28,457.03,456.94,457.06,457.21,457.33,457.42,457.49,457.45,457.47,457.47,457.28,457.32,457.40,457.31,457.00,456.79,456.79,456.83,456.90,457.21,457.87,458.55,459.18,459.80,460.34,460.79,461.16,461.45,461.62,461.66,461.68,461.88,462.56,462.94,463.14,463.25,463.38,463.74,464.34,464.98,465.54,465.88,466.31,466.68,467.02,467.41,467.86,468.16,468.47,468.85,469.24,469.34,469.35,469.37,469.47,469.71,469.92,470.30,470.95,471.24,471.23,471.10,470.97,471.05,471.19,471.46,471.92,472.44,471.93,471.70,471.57,471.32,471.03,470.84,470.64,470.39,470.07,469.71,469.28,468.82,468.29,467.65,467.05,466.76,466.71,466.30,465.72,465.09,464.67,464.78,465.13,465.45,465.18,464.24,463.72,463.31,462.89,463.02,464.77,465.71,466.02,465.57,463.96,461.26,460.02,459.49,459.18,458.91,458.80,458.87,458.97,458.96,458.90,458.82,458.67,458.48,458.47,458.53,458.65,458.81,459.04,459.26,459.38,459.29,458.90,458.51,458.08,457.96,458.27,458.78,459.03,459.25,459.44,459.52,459.54,459.69,460.08,460.90,462.43,463.76,464.24,463.65,462.00,460.70,459.92,459.47,459.18,458.94,458.86,459.00,459.38,459.96,461.15,462.42,463.56,464.46,465.21,465.47,465.54,465.63,465.74,465.52,465.13,464.69,464.29,463.83,463.42,463.09,462.99,463.37,463.93,464.52,465.06,465.59,466.08,466.29,466.17,465.72,465.33,464.91,464.62,464.58,464.63,464.65,464.65,464.65,464.66,464.71,464.31,463.48,462.40,461.52,460.75,460.31,460.22,460.17,460.09,459.88,459.59,459.34,459.12,458.89,458.68,458.56,458.68,458.82,459.00,459.18,459.38,459.47,459.50,459.53,459.56,459.50,459.47,459.56,459.78,460.07,460.52,461.04,461.53,461.95,462.46,463.05,463.67,464.28,464.90,465.50,466.04,466.44,466.53,466.62,466.37,465.95,465.69,465.69,466.04,467.02,468.73,470.59,471.37,471.88,472.49,473.24,474.07,474.90,475.69,476.39,477.08,477.45,477.52,477.45,477.66
458.36,458.05,457.74,457.52,457.51,457.64,457.79,457.94,458.06,458.14,458.14,458.21,458.26,458.12,458.22,458.31,458.32,458.23,458.12,458.11,458.14,458.22,458.39,458.91,459.59,460.31,460.96,461.52,462.07,462.55,462.89,463.11,463.24,463.32,463.51,464.02,464.36,464.53,464.60,464.68,465.03,465.48,466.04,466.65,467.03,467.43,467.81,468.19,468.57,468.98,469.34,469.68,469.97,470.09,470.16,470.19,470.22,470.38,470.75,471.07,471.46,472.01,472.38,472.36,472.29,472.32,472.46,472.61,472.79,473.09,473.45,473.19,472.92,472.66,472.37,472.06,471.83,471.61,471.36,471.05,470.78,470.54,470.25,469.88,469.43,468.98,468.54,468.07,467.45,466.78,466.08,465.56,465.63,465.97,466.22,466.10,465.54,465.07,464.67,464.34,464.75,467.20,468.63,469.07,468.67,467.17,464.10,461.26,459.68,459.40,459.22,459.21,459.32,459.43,459.42,459.36,459.23,459.06,458.87,458.86,458.92,459.00,459.13,459.36,459.54,459.58,459.42,459.03,458.64,458.25,458.25,458.72,459.25,459.62,459.93,460.15,460.23,460.29,460.66,461.41,462.66,464.40,465.94,466.88,466.81,465.15,463.18,461.47,460.24,459.66,459.39,459.24,459.37,459.98,461.28,462.78,464.15,465.27,466.05,466.62,466.76,466.77,466.84,466.87,466.55,466.13,465.72,465.27,464.81,464.36,463.93,463.70,464.33,464.98,465.56,466.10,466.63,467.16,467.42,467.33,466.89,466.54,465.98,465.55,465.54,465.55,465.56,465.56,465.56,465.56,465.57,465.12,464.31,463.39,462.53,461.91,461.58,461.53,461.55,461.50,461.29,460.97,460.61,460.18,459.80,459.50,459.33,459.35,459.48,459.69,459.93,460.04,460.08,460.12,460.13,460.02,459.89,459.81,459.80,459.88,460.01,460.28,460.69,461.16,461.61,462.09,462.66,463.28,463.90,464.51,465.04,465.39,465.55,465.63,465.71,465.46,464.88,464.15,463.86,463.98,464.92,466.83,468.84,469.60,470.11,470.79,471.71,472.57,473.34,474.08,474.83,475.52,476.04,476.27,476.37,476.99
458.77,458.46,458.17,457.99,458.01,458.17,458.34,458.51,458.68,458.79,458.84,458.95,459.07,459.03,459.13,459.26,459.38,459.43,459.45,459.48,459.54,459.60,459.68,460.03,460.65,461.39,462.13,462.72,463.28,463.81,464.28,464.58,464.82,464.98,465.14,465.48,465.79,465.93,465.95,466.01,466.34,466.72,467.21,467.78,468.22,468.59,468.95,469.32,469.74,470.16,470.53,470.85,471.08,471.13,471.17,471.23,471.31,471.50,471.89,472.26,472.66,473.15,473.51,473.57,473.61,473.73,473.88,474.03,474.19,474.36,474.53,474.32,474.03,473.73,473.45,473.14,472.87,472.61,472.34,472.07,471.83,471.61,471.36,471.05,470.72,470.35,469.84,469.18,468.45,467.72,466.97,466.44,466.51,466.83,467.02,466.97,466.64,466.19,465.81,465.63,466.25,468.75,470.03,470.48,470.27,469.13,466.48,463.08,460.69,459.78,459.59,459.72,459.95,460.13,460.11,459.99,459.73,459.44,459.23,459.24,459.33,459.41,459.49,459.65,459.75,459.73,459.56,459.20,458.81,458.48,458.56,459.10,459.68,460.36,460.90,461.26,461.42,461.51,462.05,462.98,464.28,466.05,467.75,469.02,469.38,468.03,466.14,464.25,462.71,461.81,461.26,461.13,461.44,462.22,463.37,464.78,466.08,467.09,467.68,468.08,468.14,468.08,468.02,467.92,467.54,467.10,466.67,466.20,465.71,465.20,464.66,464.30,464.98,465.74,466.44,467.06,467.67,468.24,468.55,468.53,468.14,467.67,466.96,466.48,466.51,466.51,466.51,466.51,466.51,466.50,466.45,465.99,465.24,464.42,463.58,463.17,463.03,463.04,463.13,463.04,462.77,462.38,461.92,461.42,460.97,460.57,460.27,460.22,460.36,460.57,460.77,460.82,460.88,460.96,460.97,460.84,460.66,460.50,460.41,460.38,460.33,460.37,460.51,460.81,461.25,461.70,462.25,462.85,463.45,463.98,464.36,464.57,464.64,464.73,464.80,464.55,463.96,463.22,463.05,463.13,463.75,465.12,466.94,467.83,468.62,469.57,470.66,471.45,472.13,472.81,473.51,474.18,474.75,475.18,475.60,476.38
459.19,458.86,458.60,458.45,458.47,458.66,458.84,459.04,459.25,459.43,459.56,459.74,459.94,460.04,460.12,460.30,460.49,460.64,460.81,460.91,460.99,461.06,461.10,461.31,461.81,462.51,463.29,463.94,464.45,465.01,465.62,466.04,466.37,466.60,466.78,466.97,467.23,467.32,467.32,467.37,467.65,468.01,468.44,468.92,469.44,469.80,470.11,470.47,470.92,471.37,471.73,472.00,472.20,472.28,472.30,472.39,472.53,472.71,473.06,473.45,473.87,474.31,474.63,474.82,474.96,475.11,475.26,475.42,475.57,475.68,475.64,475.38,475.06,474.79,474.54,474.24,473.93,473.62,473.33,473.09,472.86,472.59,472.29,472.00,471.75,471.39,470.84,470.11,469.34,468.57,467.81,467.31,467.41,467.67,467.81,467.80,467.61,467.18,466.87,466.86,467.58,469.66,470.51,470.95,470.97,470.23,468.40,465.19,462.31,460.61,460.25,460.47,460.81,461.05,461.01,460.80,460.36,459.93,459.69,459.73,459.85,459.93,459.97,460.05,460.08,460.00,459.80,459.44,459.06,458.76,458.87,459.40,460.05,461.07,461.92,462.50,462.87,463.02,463.70,464.66,465.80,467.45,469.23,470.71,471.44,470.62,469.24,467.69,466.25,465.16,464.29,464.22,464.73,465.52,466.07,467.10,468.21,469.05,469.32,469.47,469.46,469.34,469.13,468.90,468.49,468.02,467.56,467.09,466.56,465.96,465.32,464.85,465.45,466.32,467.17,467.92,468.63,469.28,469.64,469.69,469.38,468.73,467.90,467.41,467.48,467.49,467.49,467.48,467.47,467.45,467.33,466.90,466.23,465.45,464.65,464.51,464.59,464.67,464.79,464.62,464.25,463.77,463.24,462.76,462.30,461.81,461.35,461.21,461.36,461.55,461.67,461.70,461.82,461.93,461.96,461.86,461.64,461.42,461.26,461.16,460.95,460.75,460.62,460.65,460.95,461.33,461.83,462.39,462.94,463.32,463.53,463.65,463.74,463.81,463.89,463.65,463.19,462.74,462.86,463.03,463.27,463.81,465.19,466.29,467.44,468.71,469.91,470.62,471.23,471.83,472.44,473.04,473.60,474.24,474.98,475.72
459.66,459.31,459.08,458.94,458.92,459.08,459.28,459.50,459.75,460.06,460.41,460.75,461.06,461.29,461.44,461.60,461.77,461.96,462.31,462.45,462.56,462.68,462.81,463.01,463.33,463.78,464.43,465.14,465.68,466.20,466.79,467.38,467.79,468.13,468.42,468.61,468.72,468.72,468.68,468.72,468.96,469.31,469.71,470.15,470.67,471.07,471.40,471.74,472.15,472.56,472.93,473.19,473.32,473.44,473.47,473.55,473.71,473.88,474.19,474.59,475.04,475.48,475.80,476.03,476.19,476.30,476.45,476.61,476.76,476.83,476.70,476.41,476.11,475.83,475.58,475.28,474.97,474.66,474.36,474.08,473.84,473.59,473.33,473.08,472.84,472.41,471.75,470.91,470.13,469.36,468.65,468.21,468.30,468.44,468.53,468.60,468.58,468.21,468.10,468.26,468.84,470.08,470.83,471.43,471.58,470.88,469.77,467.06,464.53,462.94,462.00,462.00,462.19,462.29,462.20,461.90,461.42,460.97,460.71,460.67,460.74,460.84,460.96,461.09,461.15,460.91,460.46,459.95,459.50,459.13,459.13,459.56,460.20,461.25,462.32,463.31,464.20,464.63,465.42,466.41,467.45,468.68,470.19,471.75,472.89,472.70,471.93,470.97,470.08,469.40,468.79,468.70,468.92,469.28,469.50,470.06,470.86,471.40,470.96,470.50,470.33,470.25,470.05,469.77,469.35,468.88,468.40,467.88,467.30,466.65,465.97,465.47,466.00,466.81,467.66,468.50,469.35,470.10,470.57,470.66,470.29,469.72,468.87,468.34,468.45,468.45,468.45,468.43,468.38,468.32,468.23,467.84,467.20,466.46,465.92,466.04,466.27,466.35,466.42,466.13,465.66,465.13,464.60,464.08,463.63,463.13,462.54,462.23,462.34,462.48,462.54,462.65,462.75,462.87,462.94,462.84,462.62,462.39,462.23,462.12,461.89,461.66,461.49,461.32,461.08,461.07,461.44,461.93,462.29,462.48,462.59,462.71,462.82,462.91,462.98,462.83,462.62,462.63,462.83,463.09,463.32,463.63,464.50,465.65,466.89,468.11,469.19,470.14,470.79,471.29,471.79,472.26,472.82,473.52,474.25,474.59
460.51,459.98,459.62,459.43,459.38,459.53,459.84,460.16,460.50,460.94,461.40,461.83,462.23,462.54,462.75,462.93,463.10,463.31,463.74,463.97,464.13,464.31,464.56,464.78,464.98,465.26,465.72,466.33,466.88,467.39,467.91,468.58,469.08,469.49,469.83,470.01,470.04,470.08,470.12,470.14,470.31,470.65,471.04,471.46,471.98,472.37,472.71,473.05,473.39,473.77,474.13,474.37,474.46,474.61,474.64,474.74,474.91,475.08,475.34,475.75,476.20,476.62,476.93,477.18,477.35,477.47,477.62,477.78,477.90,477.92,477.74,477.46,477.16,476.89,476.63,476.32,476.01,475.70,475.40,475.12,474.88,474.65,474.42,474.19,473.95,473.40,472.60,471.68,470.88,470.13,469.51,469.12,469.11,469.17,469.25,469.35,469.44,469.25,469.24,469.43,469.84,470.57,471.22,471.87,472.08,471.48,470.66,468.70,466.63,464.97,463.77,463.61,463.63,463.57,463.40,463.05,462.56,462.12,461.88,461.79,461.81,461.92,462.07,462.20,462.16,461.75,461.13,460.50,459.94,459.52,459.40,459.70,460.36,461.42,462.58,463.75,464.87,465.64,466.59,467.63,468.65,469.74,471.08,472.64,474.11,474.73,474.57,474.12,473.71,473.52,473.22,473.18,473.20,473.19,473.20,473.26,473.38,473.24,472.39,471.56,471.15,470.97,470.81,470.51,470.10,469.65,469.17,468.62,468.00,467.33,466.66,466.13,466.52,467.30,468.16,469.02,469.92,470.74,471.34,471.54,471.08,470.56,469.83,469.37,469.43,469.46,469.42,469.36,469.28,469.20,469.10,468.77,468.23,467.58,467.28,467.62,467.98,468.07,467.97,467.56,467.04,466.50,465.96,465.41,464.95,464.42,463.78,463.29,463.31,463.41,463.47,463.61,463.70,463.83,463.90,463.81,463.59,463.38,463.22,463.09,462.87,462.63,462.43,462.15,461.64,461.34,461.36,461.53,461.72,461.83,461.91,462.03,462.17,462.28,462.38,462.47,462.60,462.88,463.15,463.40,463.62,463.82,464.25,465.06,466.07,467.14,468.11,469.11,469.89,470.51,471.06,471.51,472.11,472.80,473.38,473.37
461.70,460.90,460.31,459.98,459.94,460.13,460.56,461.04,461.50,462.03,462.51,462.97,463.41,463.77,464.03,464.26,464.46,464.67,465.11,465.45,465.69,465.92,466.32,466.54,466.70,466.90,467.17,467.56,468.08,468.58,469.03,469.67,470.23,470.68,471.01,471.16,471.19,471.38,471.57,471.61,471.69,472.01,472.39,472.82,473.33,473.69,474.04,474.38,474.64,475.01,475.33,475.54,475.63,475.76,475.80,475.93,476.14,476.31,476.53,476.92,477.34,477.72,478.03,478.28,478.47,478.63,478.77,478.92,478.99,478.95,478.78,478.49,478.23,477.97,477.66,477.36,477.05,476.75,476.45,476.22,475.99,475.76,475.52,475.29,475.04,474.34,473.43,472.46,471.61,470.89,470.38,470.05,469.89,469.94,469.99,470.07,470.18,470.23,470.25,470.34,470.61,471.17,471.72,472.27,472.51,472.08,471.23,470.08,468.49,466.63,465.43,465.18,465.05,464.83,464.59,464.22,463.74,463.32,463.12,463.03,463.02,463.10,463.24,463.31,463.01,462.44,461.75,461.07,460.39,459.92,459.70,459.86,460.54,461.60,462.76,463.90,465.00,466.10,467.24,468.33,469.39,470.63,471.96,473.49,475.15,476.62,477.08,477.02,476.97,477.19,477.14,477.21,477.17,476.95,476.79,476.38,475.62,474.62,473.64,472.70,472.00,471.60,471.45,471.16,470.78,470.35,469.87,469.32,468.66,468.01,467.37,466.82,467.00,467.75,468.65,469.51,470.37,471.23,471.99,472.36,471.86,471.33,470.82,470.47,470.42,470.47,470.38,470.28,470.21,470.13,469.99,469.74,469.32,468.76,468.67,469.16,469.63,469.73,469.41,468.91,468.39,467.86,467.32,466.79,466.25,465.67,465.02,464.35,464.26,464.34,464.44,464.59,464.68,464.80,464.88,464.78,464.57,464.39,464.23,464.07,463.84,463.62,463.39,463.07,462.54,462.09,461.66,461.37,461.36,461.45,461.52,461.63,461.80,462.01,462.21,462.60,463.06,463.41,463.74,463.97,464.17,464.34,464.47,464.64,465.13,465.90,466.72,467.55,468.46,469.36,470.09,470.71,471.41,472.03,472.37,472.12
463.05,462.29,461.61,461.16,461.08,461.23,461.60,462.07,462.59,463.13,463.65,464.13,464.58,464.96,465.30,465.56,465.76,465.98,466.46,466.94,467.27,467.53,467.97,468.22,468.43,468.64,468.87,469.10,469.43,469.79,470.15,470.64,471.17,471.63,471.98,472.21,472.24,472.49,472.81,473.02,473.07,473.38,473.76,474.16,474.59,475.01,475.38,475.68,475.93,476.25,476.53,476.71,476.79,476.89,476.95,477.10,477.33,477.53,477.76,478.08,478.45,478.82,479.09,479.32,479.54,479.73,479.83,479.94,479.98,479.95,479.81,479.53,479.24,478.97,478.70,478.39,478.13,477.81,477.50,477.32,477.14,476.89,476.63,476.38,476.05,475.24,474.27,473.28,472.35,471.69,471.28,471.05,471.00,471.05,470.91,470.76,470.75,470.86,470.88,470.97,471.22,471.76,472.30,472.80,473.03,472.67,471.86,470.90,469.72,468.33,467.06,466.61,466.34,466.06,465.76,465.39,464.97,464.61,464.41,464.32,464.31,464.33,464.35,464.21,463.70,463.04,462.35,461.65,460.95,460.34,460.03,460.13,460.65,461.68,462.84,463.98,465.07,466.27,467.44,468.57,469.76,471.26,472.79,474.37,476.03,477.66,478.72,479.07,479.13,479.25,479.29,479.33,479.31,479.20,478.99,478.14,477.07,475.98,474.93,473.94,473.04,472.40,472.12,471.81,471.40,470.95,470.47,469.92,469.34,468.70,468.04,467.47,467.32,467.99,468.93,469.87,470.76,471.67,472.60,473.20,472.89,472.43,471.96,471.57,471.35,471.39,471.33,471.27,471.24,471.20,471.07,470.88,470.50,469.89,469.81,470.32,470.79,470.87,470.55,470.09,469.63,469.17,468.68,468.14,467.57,466.93,466.19,465.32,465.18,465.28,465.41,465.56,465.65,465.75,465.80,465.75,465.54,465.36,465.21,465.04,464.82,464.67,464.43,464.04,463.51,463.03,462.62,462.22,461.84,461.54,461.49,461.58,461.84,462.47,463.01,463.43,463.76,464.02,464.46,464.88,465.28,465.63,465.70,465.44,465.20,465.08,465.16,465.67,466.51,467.46,468.41,469.53,470.53,471.09,471.12,470.82
464.38,463.67,462.97,462.44,462.31,462.41,462.73,463.17,463.69,464.21,464.75,465.27,465.75,466.16,466.53,466.81,467.05,467.31,467.80,468.33,468.74,469.06,469.46,469.72,469.93,470.13,470.31,470.47,470.66,470.93,471.26,471.59,472.08,472.55,472.93,473.21,473.30,473.56,473.94,474.32,474.47,474.76,475.13,475.51,475.90,476.33,476.69,476.99,477.24,477.50,477.72,477.88,477.95,478.03,478.13,478.29,478.50,478.73,478.99,479.26,479.57,479.89,480.13,480.37,480.60,480.79,480.85,480.92,480.95,480.94,480.85,480.59,480.29,480.00,479.75,479.51,479.28,478.91,478.52,478.42,478.26,478.03,477.76,477.48,476.97,476.08,475.08,474.07,473.11,472.56,472.27,472.15,472.15,472.17,471.90,471.59,471.42,471.43,471.46,471.56,471.80,472.34,472.86,473.34,473.56,473.24,472.44,471.55,470.65,469.71,468.61,467.98,467.58,467.25,466.93,466.56,466.20,465.91,465.70,465.59,465.57,465.54,465.38,464.94,464.27,463.56,462.87,462.17,461.46,460.79,460.47,460.57,460.94,461.81,462.90,464.05,465.16,466.36,467.53,468.68,469.89,471.50,473.15,474.79,476.45,478.12,479.51,480.11,480.26,480.35,480.43,480.47,480.47,480.42,480.22,479.33,478.27,477.22,476.17,475.16,474.17,473.35,472.81,472.41,471.95,471.47,471.00,470.48,469.94,469.33,468.72,468.20,467.82,468.32,469.20,470.20,471.18,472.19,473.26,474.02,473.84,473.48,473.08,472.69,472.35,472.34,472.29,472.26,472.28,472.27,472.19,472.00,471.66,471.13,471.04,471.48,471.86,471.88,471.57,471.15,470.74,470.34,469.89,469.40,468.81,468.09,467.23,466.28,466.12,466.22,466.36,466.50,466.61,466.70,466.76,466.75,466.54,466.35,466.18,466.02,465.82,465.72,465.44,465.00,464.51,464.08,463.72,463.33,462.85,462.34,462.19,462.27,462.65,463.52,464.25,464.69,464.93,465.08,465.18,465.79,466.52,467.08,467.23,466.83,466.21,465.58,465.17,465.27,465.68,466.16,466.76,468.07,469.31,469.92,469.82,469.47
465.69,464.95,464.26,463.73,463.55,463.59,463.90,464.31,464.79,465.26,465.79,466.36,466.92,467.37,467.71,468.02,468.32,468.65,469.10,469.62,470.07,470.43,470.75,471.00,471.19,471.32,471.43,471.57,471.74,472.00,472.33,472.54,473.00,473.48,473.90,474.20,474.37,474.63,475.02,475.52,475.88,476.17,476.49,476.88,477.26,477.65,478.00,478.30,478.58,478.76,478.93,479.05,479.14,479.21,479.34,479.50,479.68,479.92,480.20,480.46,480.70,480.94,481.18,481.41,481.63,481.81,481.83,481.90,481.93,481.92,481.89,481.68,481.39,481.09,480.82,480.70,480.49,480.04,479.55,479.51,479.38,479.16,478.93,478.60,477.84,476.88,475.86,474.85,473.92,473.54,473.38,473.32,473.31,473.25,472.95,472.57,472.24,472.04,472.04,472.14,472.39,472.92,473.40,473.87,474.08,473.75,472.96,472.11,471.36,470.69,470.00,469.29,468.77,468.42,468.10,467.74,467.45,467.20,466.99,466.84,466.80,466.66,466.30,465.52,464.74,464.02,463.32,462.62,461.86,461.26,461.03,461.19,461.46,462.04,462.98,464.12,465.27,466.44,467.59,468.69,469.80,471.32,472.98,474.68,476.36,478.01,479.44,480.11,480.37,480.62,480.72,480.81,480.83,480.75,480.57,480.09,479.26,478.25,477.24,476.24,475.27,474.36,473.54,473.02,472.50,472.00,471.53,471.05,470.52,469.96,469.43,469.00,468.56,468.82,469.55,470.58,471.65,472.83,474.00,474.80,474.63,474.39,474.14,473.81,473.43,473.34,473.27,473.27,473.32,473.32,473.30,473.09,472.77,472.52,472.43,472.70,472.92,472.85,472.50,472.11,471.72,471.33,470.93,470.52,469.92,469.12,468.15,467.24,467.08,467.17,467.26,467.41,467.56,467.67,467.75,467.78,467.58,467.36,467.16,467.01,466.85,466.75,466.43,465.94,465.55,465.23,464.87,464.57,464.32,463.89,463.67,463.79,464.26,465.09,465.80,466.30,466.61,466.64,465.99,466.63,467.71,468.53,468.84,468.58,468.07,467.49,466.99,466.66,466.33,465.88,465.51,466.48,467.80,468.55,468.50,468.12
466.97,466.18,465.54,465.07,464.84,464.83,465.06,465.43,465.89,466.36,466.88,467.44,468.00,468.50,468.91,469.28,469.62,469.95,470.35,470.83,471.25,471.59,471.88,472.13,472.29,472.40,472.53,472.68,472.84,473.09,473.43,473.61,473.92,474.36,474.84,475.17,475.40,475.67,476.06,476.60,477.13,477.50,477.85,478.24,478.63,479.01,479.32,479.60,479.88,480.06,480.21,480.33,480.41,480.49,480.59,480.75,480.96,481.19,481.41,481.66,481.88,482.00,482.26,482.50,482.69,482.80,482.81,482.87,482.90,482.90,482.88,482.72,482.47,482.19,481.93,481.82,481.51,481.14,480.83,480.69,480.53,480.33,480.08,479.70,478.86,477.81,476.65,475.53,474.87,474.64,474.56,474.54,474.52,474.37,474.01,473.60,473.23,472.90,472.71,472.73,472.97,473.50,473.94,474.38,474.62,474.32,473.49,472.74,472.07,471.47,470.93,470.32,469.86,469.54,469.28,468.99,468.70,468.44,468.23,468.12,467.95,467.57,466.94,466.10,465.27,464.50,463.76,463.03,462.30,461.78,461.61,461.78,462.02,462.38,463.13,464.19,465.34,466.42,467.48,468.55,469.67,471.10,472.74,474.42,476.03,477.49,478.85,479.75,480.27,480.52,480.75,480.96,481.13,481.16,480.86,480.36,479.57,478.60,477.60,476.59,475.61,474.84,474.42,474.09,473.64,473.14,472.63,472.12,471.58,470.95,470.31,469.75,469.28,469.44,470.11,471.19,472.36,473.54,474.74,475.56,475.37,475.18,474.99,474.75,474.46,474.33,474.27,474.30,474.36,474.36,474.36,474.24,474.07,473.98,473.90,473.96,473.98,473.84,473.51,473.13,472.75,472.36,471.96,471.50,470.81,469.97,469.06,468.16,468.00,468.08,468.16,468.28,468.46,468.62,468.73,468.76,468.56,468.36,468.17,468.00,467.92,467.74,467.39,466.96,466.60,466.44,466.17,465.92,465.76,465.42,465.22,465.40,465.97,466.67,467.32,467.81,468.16,468.25,467.50,467.33,468.08,469.47,469.96,469.85,469.56,469.20,468.79,468.28,467.70,466.97,466.15,465.90,466.66,467.21,467.23,467.25
468.20,467.39,466.79,466.37,466.11,466.08,466.25,466.56,467.00,467.47,467.99,468.53,469.08,469.65,470.16,470.58,470.94,471.25,471.61,472.04,472.43,472.73,472.98,473.23,473.38,473.48,473.63,473.76,473.93,474.18,474.51,474.70,474.91,475.27,475.73,476.12,476.39,476.69,477.11,477.65,478.27,478.78,479.23,479.62,480.01,480.36,480.63,480.87,481.16,481.33,481.52,481.66,481.73,481.81,481.89,482.05,482.28,482.49,482.63,482.88,483.05,483.05,483.33,483.58,483.73,483.77,483.78,483.85,483.88,483.88,483.86,483.72,483.52,483.28,483.02,482.88,482.54,482.26,482.10,481.88,481.71,481.48,481.17,480.65,479.66,478.49,477.27,476.26,475.91,475.80,475.76,475.74,475.69,475.47,475.08,474.66,474.28,473.89,473.54,473.40,473.55,474.04,474.46,474.89,475.13,474.88,474.10,473.44,472.84,472.24,471.74,471.23,470.85,470.58,470.35,470.14,469.89,469.66,469.46,469.29,468.94,468.32,467.50,466.67,465.83,465.03,464.25,463.47,462.75,462.31,462.20,462.39,462.62,462.85,463.38,464.22,465.33,466.34,467.35,468.38,469.49,470.84,472.43,474.06,475.58,476.84,478.11,479.20,479.97,480.31,480.60,480.91,481.25,481.48,481.11,480.49,479.68,478.75,477.76,476.76,475.90,475.42,475.38,475.28,474.90,474.39,473.86,473.31,472.78,472.11,471.40,470.77,470.35,470.47,471.09,472.16,473.33,474.46,475.57,476.32,476.13,475.97,475.82,475.64,475.44,475.28,475.29,475.37,475.43,475.43,475.43,475.40,475.37,475.35,475.29,475.20,475.07,474.87,474.54,474.17,473.79,473.39,472.96,472.38,471.62,470.78,469.95,469.16,468.99,469.03,469.10,469.20,469.37,469.56,469.71,469.75,469.56,469.39,469.20,469.01,468.99,468.75,468.41,468.03,467.68,467.66,467.52,467.35,467.23,466.92,466.71,466.94,467.60,468.25,468.85,469.32,469.67,469.75,469.02,468.08,468.36,470.06,470.72,470.85,470.77,470.60,470.28,469.75,469.12,468.32,467.28,466.15,466.13,466.25,466.20,466.46
469.38,468.61,468.02,467.60,467.34,467.31,467.48,467.75,468.11,468.57,469.09,469.64,470.21,470.88,471.49,471.95,472.31,472.61,472.87,473.28,473.66,473.93,474.05,474.31,474.48,474.57,474.72,474.82,475.00,475.27,475.56,475.79,475.97,476.23,476.59,477.02,477.35,477.70,478.15,478.71,479.33,480.03,480.62,481.05,481.43,481.71,481.90,482.11,482.39,482.57,482.81,483.01,483.10,483.17,483.25,483.41,483.63,483.78,483.88,484.12,484.23,484.12,484.37,484.62,484.74,484.75,484.75,484.81,484.84,484.84,484.82,484.69,484.53,484.33,484.10,483.89,483.64,483.44,483.28,483.11,482.90,482.62,482.14,481.32,480.04,478.70,477.67,477.11,477.03,477.01,476.96,476.90,476.80,476.52,476.16,475.76,475.38,474.98,474.55,474.20,474.11,474.51,474.96,475.38,475.61,475.43,474.83,474.25,473.67,473.06,472.47,472.04,471.73,471.49,471.26,471.09,470.97,470.84,470.64,470.29,469.70,468.91,468.04,467.25,466.40,465.60,464.81,463.98,463.21,462.84,462.82,463.04,463.27,463.50,463.75,464.22,465.22,466.23,467.23,468.24,469.29,470.53,472.03,473.57,475.01,476.14,477.32,478.46,479.42,479.99,480.28,480.58,481.11,481.65,481.32,480.59,479.74,478.84,477.89,476.92,476.43,476.33,476.43,476.47,476.13,475.63,475.09,474.56,474.01,473.42,472.78,472.22,471.99,472.13,472.69,473.64,474.67,475.69,476.55,477.07,476.97,476.82,476.67,476.51,476.34,476.20,476.32,476.46,476.52,476.52,476.53,476.57,476.58,476.52,476.50,476.39,476.22,475.96,475.59,475.21,474.82,474.41,473.92,473.15,472.37,471.59,470.86,470.33,470.11,470.05,470.09,470.23,470.33,470.50,470.70,470.79,470.60,470.43,470.24,470.05,470.02,469.82,469.51,469.12,468.80,468.86,468.87,468.82,468.70,468.35,468.10,468.36,469.10,469.83,470.36,470.82,471.14,471.02,470.21,468.92,468.80,470.24,471.08,471.55,471.70,471.59,471.32,470.86,470.32,469.57,468.50,467.36,466.51,465.92,465.63,465.73
470.50,469.84,469.28,468.84,468.58,468.54,468.71,468.96,469.28,469.77,470.27,470.84,471.47,472.12,472.75,473.26,473.67,473.97,474.21,474.51,474.86,475.14,475.20,475.43,475.58,475.67,475.78,475.90,476.10,476.37,476.66,476.89,477.03,477.22,477.53,477.94,478.30,478.71,479.23,479.93,480.74,481.56,482.13,482.49,482.89,483.09,483.19,483.34,483.63,483.84,484.06,484.26,484.41,484.53,484.62,484.75,484.94,485.13,485.19,485.34,485.42,485.29,485.44,485.66,485.78,485.77,485.74,485.79,485.82,485.82,485.80,485.66,485.51,485.34,485.16,485.01,484.83,484.63,484.45,484.29,484.11,483.64,482.82,481.60,480.27,479.09,478.38,478.21,478.23,478.20,478.14,478.05,477.90,477.58,477.20,476.81,476.41,475.94,475.45,474.96,474.68,475.03,475.48,475.89,476.16,476.10,475.55,474.99,474.41,473.80,473.25,472.89,472.63,472.39,472.13,471.96,471.89,471.84,471.68,471.14,470.35,469.45,468.55,467.73,466.89,466.03,465.19,464.39,463.62,463.41,463.51,463.74,463.98,464.24,464.44,464.71,465.31,466.25,467.25,468.26,469.28,470.39,471.68,473.03,474.36,475.53,476.73,477.82,478.72,479.33,479.76,480.25,480.97,481.76,481.97,481.37,480.27,479.05,478.12,477.45,477.27,477.34,477.48,477.55,477.31,476.88,476.40,475.93,475.37,474.79,474.21,473.73,473.76,474.02,474.52,475.29,476.28,477.11,477.63,477.85,477.80,477.70,477.56,477.41,477.26,477.15,477.27,477.45,477.58,477.63,477.67,477.73,477.76,477.69,477.60,477.50,477.31,477.01,476.63,476.25,475.84,475.37,474.75,473.94,473.17,472.50,471.96,471.54,471.32,471.24,471.26,471.37,471.45,471.63,471.82,471.89,471.74,471.54,471.29,471.02,470.92,470.75,470.45,470.10,469.88,469.94,469.98,469.96,469.88,469.61,469.49,469.72,470.28,471.00,471.61,472.07,472.16,471.55,470.63,469.43,469.23,470.39,471.22,471.88,472.39,472.60,472.25,471.70,471.09,470.37,469.48,468.42,467.56,466.93,466.57,466.60
471.67,471.15,470.62,470.14,469.85,469.81,469.98,470.19,470.50,471.03,471.52,472.11,472.76,473.38,474.00,474.56,475.02,475.33,475.58,475.79,476.08,476.37,476.39,476.56,476.69,476.76,476.85,477.00,477.19,477.46,477.76,478.00,478.10,478.25,478.51,478.90,479.40,479.90,480.50,481.33,482.30,483.16,483.68,483.95,484.36,484.49,484.51,484.60,484.88,485.11,485.30,485.50,485.73,485.88,485.98,486.10,486.27,486.46,486.50,486.58,486.62,486.49,486.51,486.69,486.81,486.78,486.73,486.77,486.80,486.80,486.77,486.64,486.50,486.35,486.23,486.16,486.03,485.84,485.64,485.47,485.27,484.59,483.45,481.96,480.64,479.71,479.33,479.40,479.44,479.40,479.33,479.21,478.99,478.63,478.23,477.82,477.36,476.81,476.25,475.68,475.29,475.56,476.00,476.41,476.72,476.78,476.26,475.70,475.13,474.53,474.05,473.77,473.53,473.27,472.99,472.81,472.76,472.70,472.47,471.73,470.79,469.84,468.95,468.11,467.26,466.38,465.53,464.76,464.04,464.01,464.23,464.48,464.71,465.00,465.22,465.37,465.58,466.36,467.32,468.31,469.28,470.25,471.31,472.48,473.70,474.93,476.18,477.18,477.97,478.57,479.14,479.77,480.54,481.41,482.14,482.11,481.10,479.62,478.52,478.12,478.16,478.34,478.50,478.59,478.47,478.16,477.74,477.31,476.74,476.20,475.71,475.35,475.59,475.97,476.42,477.01,477.87,478.44,478.64,478.63,478.63,478.59,478.47,478.31,478.16,478.09,478.19,478.37,478.58,478.70,478.80,478.87,478.89,478.82,478.68,478.57,478.38,478.06,477.68,477.28,476.82,476.27,475.55,474.76,474.05,473.49,473.13,472.76,472.55,472.47,472.49,472.57,472.65,472.81,472.98,473.02,472.88,472.66,472.35,472.00,471.79,471.64,471.37,471.06,470.92,470.94,470.96,470.95,470.91,470.76,470.81,471.03,471.43,472.06,472.75,473.15,472.98,471.96,470.97,469.96,469.74,470.56,471.33,472.12,472.90,473.42,473.12,472.49,471.80,471.10,470.37,469.45,468.79,468.28,467.94,467.90
473.02,472.60,472.11,471.60,471.23,471.18,471.30,471.50,471.80,472.38,472.93,473.48,474.06,474.68,475.29,475.86,476.34,476.70,477.00,477.14,477.36,477.60,477.62,477.70,477.78,477.87,477.95,478.10,478.26,478.52,478.87,479.11,479.22,479.34,479.55,479.94,480.82,481.49,482.16,483.06,484.00,484.77,485.22,485.43,485.80,485.87,485.88,485.93,486.12,486.34,486.57,486.82,487.09,487.25,487.34,487.46,487.62,487.77,487.79,487.85,487.85,487.70,487.58,487.74,487.82,487.77,487.75,487.76,487.77,487.77,487.75,487.61,487.51,487.42,487.34,487.32,487.19,487.03,486.87,486.69,486.31,485.40,484.13,482.74,481.43,480.81,480.63,480.68,480.63,480.62,480.56,480.40,480.05,479.66,479.23,478.72,478.14,477.53,476.93,476.35,475.97,476.11,476.51,476.92,477.27,477.43,476.96,476.42,475.84,475.28,474.94,474.68,474.41,474.13,473.89,473.66,473.60,473.38,472.77,471.79,470.83,469.93,469.09,468.29,467.46,466.64,465.85,465.11,464.52,464.64,464.97,465.25,465.49,465.73,465.96,466.12,466.19,466.56,467.38,468.34,469.20,470.01,470.89,471.93,473.12,474.36,475.59,476.50,477.17,477.75,478.40,478.94,479.47,480.07,480.95,482.37,482.32,480.93,479.29,478.88,479.02,479.28,479.48,479.63,479.63,479.47,479.14,478.63,478.08,477.66,477.34,477.15,477.46,477.89,478.32,478.75,479.27,479.46,479.47,479.42,479.42,479.47,479.38,479.20,479.01,478.99,479.05,479.22,479.46,479.72,479.88,479.94,479.95,479.92,479.78,479.63,479.41,479.11,478.77,478.30,477.74,477.10,476.35,475.68,475.09,474.62,474.30,473.98,473.79,473.71,473.72,473.80,473.88,474.01,474.15,474.18,474.00,473.72,473.38,473.01,472.67,472.53,472.31,472.03,471.89,471.82,471.80,471.77,471.73,471.75,471.97,472.29,472.68,473.13,473.78,474.01,473.61,472.56,471.61,470.75,470.41,470.79,471.54,472.36,473.16,473.79,473.90,473.34,472.64,471.94,471.24,470.51,470.01,469.63,469.35,469.23
474.49,474.14,473.68,473.15,472.65,472.55,472.63,472.80,473.08,473.62,474.25,474.84,475.40,475.98,476.59,477.18,477.69,478.06,478.37,478.50,478.65,478.84,478.84,478.88,478.92,478.96,479.06,479.24,479.60,480.11,480.69,481.11,481.35,481.60,481.95,482.45,483.21,483.87,484.41,484.94,485.75,486.43,486.80,486.95,487.24,487.29,487.26,487.26,487.37,487.58,487.81,488.07,488.37,488.60,488.71,488.82,488.97,489.08,489.10,489.09,489.05,488.93,488.78,488.80,488.82,488.78,488.75,488.75,488.75,488.75,488.77,488.64,488.54,488.48,488.44,488.44,488.38,488.26,488.08,487.81,487.18,486.16,484.92,483.63,482.47,482.07,481.99,481.96,481.86,481.84,481.77,481.57,481.18,480.73,480.15,479.52,478.87,478.25,477.64,477.05,476.64,476.65,477.03,477.45,477.81,478.00,477.64,477.13,476.59,476.10,475.83,475.55,475.29,475.03,474.79,474.52,474.39,473.98,473.04,471.91,470.88,469.99,469.23,468.49,467.72,466.95,466.18,465.47,465.09,465.29,465.66,465.99,466.26,466.50,466.73,466.89,466.91,467.05,467.61,468.40,469.27,470.01,470.72,471.56,472.58,473.81,474.94,475.75,476.37,477.00,477.68,478.21,478.66,479.19,479.98,481.07,481.76,481.90,481.48,480.70,480.81,481.00,480.74,480.86,480.86,480.68,480.34,479.88,479.41,479.09,478.90,478.85,479.15,479.50,479.85,480.18,480.44,480.49,480.45,480.38,480.36,480.46,480.39,480.20,480.00,479.91,479.93,480.04,480.26,480.55,480.66,480.79,480.92,480.96,480.83,480.68,480.46,480.14,479.78,479.25,478.63,477.96,477.27,476.68,476.21,475.82,475.51,475.21,475.02,474.94,474.96,475.03,475.08,475.19,475.30,475.30,475.10,474.82,474.46,474.04,473.66,473.47,473.24,473.00,472.81,472.68,472.64,472.65,472.72,472.90,473.21,473.56,473.92,474.31,474.83,474.84,474.30,473.34,472.44,471.69,471.34,471.56,472.15,472.76,473.49,474.23,474.65,474.20,473.53,472.84,472.15,471.54,471.24,471.38,471.72,471.52
476.02,475.69,475.24,474.69,474.08,473.93,473.95,474.10,474.37,474.84,475.53,476.18,476.75,477.30,477.90,478.56,479.15,479.58,479.93,480.06,480.16,480.25,480.25,480.25,480.32,480.45,480.63,480.86,481.43,482.21,483.02,483.62,484.00,484.41,484.90,485.48,485.99,486.51,486.85,486.97,487.56,488.09,488.37,488.47,488.65,488.68,488.63,488.59,488.62,488.79,489.00,489.25,489.54,489.84,489.96,490.07,490.20,490.25,490.27,490.21,490.13,490.04,489.91,489.84,489.81,489.80,489.73,489.72,489.73,489.77,489.80,489.69,489.60,489.54,489.53,489.53,489.53,489.46,489.27,488.87,488.00,486.92,485.74,484.55,483.62,483.40,483.35,483.25,483.12,483.08,482.97,482.75,482.34,481.79,481.08,480.33,479.60,478.95,478.34,477.77,477.32,477.19,477.54,477.95,478.31,478.54,478.32,477.85,477.35,476.97,476.71,476.43,476.17,475.93,475.68,475.39,475.10,474.46,473.28,472.04,470.90,470.00,469.31,468.63,467.96,467.23,466.48,465.82,465.67,465.94,466.32,466.70,467.01,467.26,467.50,467.67,467.67,467.67,467.94,468.54,469.38,470.08,470.66,471.30,472.13,473.27,474.27,474.98,475.58,476.27,476.97,477.49,477.98,478.52,479.18,479.58,480.65,482.23,483.44,482.80,482.87,482.83,482.09,482.14,482.09,481.85,481.46,481.07,480.70,480.46,480.36,480.39,480.65,480.90,481.17,481.43,481.53,481.54,481.50,481.43,481.39,481.50,481.45,481.27,481.05,480.86,480.80,480.87,481.05,481.31,481.39,481.61,481.87,481.99,481.87,481.72,481.50,481.17,480.76,480.18,479.53,478.88,478.28,477.73,477.35,477.04,476.74,476.44,476.26,476.18,476.18,476.25,476.26,476.36,476.46,476.42,476.21,475.91,475.53,475.10,474.71,474.41,474.16,473.95,473.73,473.57,473.53,473.60,473.80,474.10,474.46,474.81,475.13,475.51,475.88,475.69,475.03,474.19,473.34,472.67,472.36,472.49,472.93,473.34,473.96,474.73,475.33,475.06,474.45,473.76,473.12,472.70,472.78,473.52,474.45,474.16
