791.75,793.38,794.73,795.53,795.79,795.76,795.63,795.47,795.31,795.11,794.59,793.64,792.58,791.86,791.11,790.34,789.35,787.72,784.83,781.70,778.13,774.85,774.34,777.32,779.78,781.20,782.05,782.69,781.25,777.46,772.15,769.25,772.55,777.55,782.32,786.06,788.65,788.44,785.74,782.75,787.51,791.42,794.13,795.99,797.34,798.15,798.85,799.47,799.96,800.40,800.61,800.78,801.21,802.35,803.84,804.71,804.82,804.29,803.61,802.16,799.48,795.27,790.98,787.79,785.20,782.88,780.68,779.08,777.61,776.13,774.64,773.04,772.45,773.17,775.14,777.14,779.37,781.78,784.27,786.58,787.89,789.02,790.24,791.61,792.97,794.30,795.36,795.83,795.19,794.28,793.29,792.36,791.57,790.90,791.08,791.82,792.94,794.32,795.90,797.58,799.15,800.31,801.24,801.67,801.94,802.38,803.04,803.65,804.01,803.97,803.42,802.68,801.22,798.70,794.94,792.41,790.33,788.28,785.95,782.98,780.03,777.71,776.03,774.58,773.06,771.36,769.14,766.06,762.63,760.09,758.95,759.51,761.50,763.29,763.06,760.87,757.72,756.89,758.35,760.23,761.20,760.85,761.23,763.13,766.20,769.22,772.22,775.81,779.24,781.66,783.61,785.81,788.01,789.88,790.90,790.70,789.39,786.98,783.32,779.94,774.25,770.14,770.59,773.21,776.86,780.67,784.14,786.73,788.69,791.35,794.57,797.64,799.41,799.54,797.85,794.22,789.47,784.51,779.02,775.86,780.13,785.88,791.35,795.89,799.00,800.44,801.31,801.54,801.17,800.43,799.08,797.18,795.15,793.40,791.81,789.65,786.25,781.92,778.99,776.91,774.41,771.27,767.86,765.86,764.63,764.31,764.94,764.95,766.14,769.07,773.43,778.01,783.24,788.45,793.30,797.32,799.86,800.63,800.75,800.58,799.81,798.48,797.18,796.08,795.00,792.78,790.16,790.06,794.20,798.01,799.78,799.62,797.72,794.49,790.95,787.84,785.02,782.41,781.52,782.84,784.65,786.10,787.49,788.98,790.47,791.94,793.50,795.00,795.77,794.58,790.46,785.41,781.17,776.77,773.71,776.74
794.34,795.07,795.58,795.86,795.97,795.88,795.74,795.50,795.05,794.29,793.51,792.51,791.47,790.73,789.89,789.04,788.15,786.93,784.55,781.72,778.40,775.29,774.48,776.88,779.08,780.35,780.99,782.23,782.22,779.62,774.44,770.04,771.85,776.08,781.01,786.02,790.05,791.21,789.72,786.79,787.21,789.84,792.18,793.62,794.95,796.09,797.44,798.86,799.94,800.52,800.82,801.09,801.53,802.51,803.82,804.62,804.72,804.20,803.50,802.00,799.30,795.15,790.55,787.08,784.09,781.46,779.66,778.33,776.98,775.54,774.06,772.56,772.77,774.15,776.24,778.35,780.84,783.56,786.27,788.46,789.40,790.09,790.87,791.88,793.20,794.55,795.81,796.71,796.63,795.89,794.99,794.14,793.48,792.83,792.83,793.18,793.74,794.78,795.91,797.27,798.67,799.63,800.56,801.14,801.52,801.89,802.41,803.01,803.50,803.70,803.32,802.69,800.87,797.63,793.15,790.39,788.30,786.43,784.57,782.33,779.97,777.88,776.05,774.22,772.60,770.71,768.25,764.98,761.44,759.53,759.48,761.08,763.14,764.45,763.54,760.72,757.31,757.25,758.94,761.00,762.57,762.89,763.63,765.51,768.37,771.60,775.39,779.12,782.40,784.89,786.61,788.42,790.12,791.53,792.53,792.31,791.07,788.94,785.77,782.50,777.60,773.79,773.28,775.03,777.45,780.76,784.59,787.80,790.74,794.04,797.18,799.29,800.49,800.53,799.15,796.02,791.21,785.68,779.82,776.46,780.33,785.59,791.09,795.75,798.79,800.39,801.38,801.79,801.57,800.73,799.54,797.64,795.40,793.30,791.62,789.11,785.04,779.90,776.58,774.07,771.82,769.36,766.49,765.77,765.77,766.81,768.81,768.55,767.23,768.39,772.44,776.89,781.62,786.44,791.23,795.74,799.51,800.95,801.48,801.73,801.39,800.56,799.81,799.13,798.09,795.61,792.18,791.23,794.99,798.79,800.82,800.87,799.13,796.24,792.62,789.39,786.82,785.03,784.16,785.02,786.52,787.99,789.16,790.25,791.25,792.33,793.85,795.83,796.15,794.44,790.46,785.26,781.62,779.88,780.27,782.64
795.79,795.91,796.04,796.12,796.05,795.84,795.50,794.98,794.14,792.78,791.62,790.59,789.68,789.02,788.20,787.33,786.54,785.64,783.82,781.39,778.53,775.71,774.38,775.88,777.74,779.03,779.70,781.53,782.76,781.26,776.37,770.89,771.91,775.74,780.57,785.75,790.21,792.54,792.89,791.19,787.92,788.83,790.47,791.61,793.19,794.88,796.88,798.84,800.20,800.75,801.11,801.46,801.91,802.72,803.81,804.51,804.65,804.21,803.54,802.21,799.71,795.54,790.66,786.84,783.34,780.27,778.83,777.60,776.29,774.90,773.50,772.35,773.27,775.12,777.19,779.43,782.29,785.34,788.19,790.22,791.13,791.56,791.89,792.45,793.54,794.86,796.21,797.37,797.95,797.58,796.90,796.20,795.58,794.89,794.79,794.86,795.00,795.68,796.38,797.33,798.34,798.93,799.80,800.49,800.95,801.25,801.71,802.31,802.88,803.25,803.06,802.46,800.17,796.24,791.36,788.42,786.21,784.30,782.61,781.02,779.05,777.01,775.03,773.04,771.33,769.09,766.24,762.94,759.98,759.62,760.88,763.03,765.02,765.41,763.79,760.66,757.23,757.41,759.16,761.32,763.37,764.96,766.40,768.34,771.00,774.48,778.76,782.46,785.51,787.96,789.42,790.82,792.02,792.97,793.88,793.47,792.11,790.06,787.32,783.96,780.33,777.54,776.63,777.73,778.62,781.12,785.18,788.97,792.93,796.74,799.60,800.68,801.27,800.97,799.74,797.19,792.57,786.90,780.85,777.15,780.31,785.14,790.73,795.59,798.68,800.43,801.51,802.05,801.93,800.99,799.84,797.88,795.46,793.15,791.36,788.36,783.74,778.12,774.25,771.56,769.67,767.85,765.55,766.11,767.48,770.13,773.71,773.13,769.37,768.20,770.89,774.95,779.29,783.81,788.49,793.38,798.67,800.88,801.77,802.34,802.39,802.17,802.09,801.92,800.81,798.04,794.46,793.18,796.23,799.64,801.80,802.00,800.38,797.88,794.21,791.03,788.87,787.93,787.17,787.75,789.18,790.88,791.85,792.48,792.80,793.19,794.49,796.92,796.79,794.56,790.95,786.34,783.65,784.23,787.14,788.16
796.11,796.19,796.24,796.20,795.96,795.41,794.35,793.08,791.69,790.21,788.99,788.13,787.54,787.04,786.25,785.36,784.53,783.71,782.30,780.37,778.22,776.09,774.47,775.05,776.29,777.63,779.16,781.63,783.31,781.93,776.80,771.20,773.42,778.19,782.89,786.42,789.87,792.64,794.37,794.35,791.88,790.39,790.04,790.96,793.59,796.30,798.54,800.08,800.72,801.04,801.44,801.83,802.21,802.87,803.69,804.28,804.50,804.26,803.84,803.00,800.89,796.74,791.67,787.38,783.31,779.77,778.30,776.95,775.61,774.28,773.12,773.00,774.28,776.07,777.96,780.12,783.28,786.62,789.48,791.04,792.13,792.79,793.22,793.58,794.08,795.21,796.53,797.79,798.77,799.09,798.95,798.45,797.62,796.90,796.73,796.74,796.78,797.01,797.61,798.08,798.27,798.31,799.09,799.65,799.91,800.10,800.90,801.63,802.19,802.52,802.48,801.68,798.88,794.55,789.85,786.98,784.47,782.13,780.22,779.16,777.50,775.66,773.78,771.71,769.61,766.76,763.51,760.62,759.34,761.36,763.98,766.04,767.51,766.23,763.82,760.90,757.89,757.46,759.17,761.51,763.68,765.87,767.77,770.13,773.27,777.26,781.30,785.08,788.29,790.53,791.69,792.91,794.03,794.92,795.58,794.72,792.86,790.35,787.31,783.89,780.51,778.81,779.81,781.54,780.85,782.41,786.71,790.68,794.63,798.02,800.36,801.22,801.74,801.28,800.07,797.79,793.38,788.63,783.08,778.87,780.27,784.97,790.39,795.19,798.58,800.62,801.81,802.32,802.11,801.12,799.83,797.75,795.35,793.20,791.08,787.12,782.33,777.27,772.25,769.95,768.58,767.17,765.63,766.35,768.49,772.78,778.58,778.69,774.66,770.55,768.78,771.57,775.89,780.63,785.48,790.64,797.14,800.08,801.26,801.97,802.75,803.51,804.07,804.02,802.55,799.72,797.08,796.37,798.56,800.83,802.86,803.32,801.91,799.32,795.68,793.27,792.02,791.19,790.32,790.43,791.43,793.03,794.33,795.25,795.32,795.03,795.77,798.19,797.85,795.86,793.71,791.58,790.79,791.05,791.67,791.27
796.16,796.23,796.10,795.62,794.59,793.23,791.78,790.31,788.85,787.47,786.50,785.76,785.22,784.77,783.96,783.09,782.31,781.61,780.72,779.38,777.87,776.28,774.78,775.19,776.30,777.66,779.42,782.38,783.88,782.32,777.42,772.35,773.83,777.76,781.81,784.79,788.72,792.13,794.94,796.80,796.11,794.77,793.56,793.14,794.65,797.31,799.36,800.53,800.93,801.18,801.56,801.93,802.28,802.79,803.40,803.87,804.11,803.96,803.65,803.20,801.62,798.03,793.62,789.53,785.20,781.02,778.70,777.07,775.62,774.23,773.15,773.36,774.78,776.55,778.36,780.63,784.21,787.68,790.34,791.67,792.83,793.77,794.48,794.91,795.24,795.83,796.85,798.20,799.37,799.97,800.06,799.76,799.17,798.70,798.58,798.58,798.58,798.63,798.94,799.06,798.88,798.49,798.49,798.29,797.94,797.92,799.30,800.50,801.19,801.38,801.28,799.86,796.49,792.21,788.62,785.92,783.56,781.35,779.33,777.83,775.99,774.16,772.37,770.21,767.43,764.20,761.34,760.00,761.09,764.61,767.54,768.85,769.43,767.84,765.11,761.88,758.75,757.39,759.01,761.58,763.90,766.29,768.63,771.56,775.20,779.28,783.18,786.90,790.12,792.35,793.74,794.93,796.04,796.96,797.31,795.59,793.00,790.12,787.24,784.57,782.49,782.22,784.18,785.31,783.21,784.00,788.21,791.69,795.51,798.58,800.62,801.53,802.24,801.65,800.37,798.26,794.25,790.10,784.46,779.51,780.14,785.16,790.92,795.92,799.38,801.14,802.30,802.63,802.08,800.84,799.18,797.03,794.72,792.56,790.17,786.62,782.60,778.03,771.87,769.43,768.16,766.95,765.91,767.23,771.04,776.45,781.72,781.88,778.58,773.84,769.76,769.95,773.59,778.40,783.40,788.29,793.67,796.54,798.59,800.66,802.13,803.86,804.89,804.96,803.91,801.50,799.76,799.48,800.90,802.59,804.02,804.41,803.24,800.10,797.30,795.99,795.51,794.92,794.31,794.24,794.95,796.35,797.43,798.13,798.11,797.72,797.99,799.27,798.84,797.46,796.17,795.02,794.58,794.27,793.74,792.63
795.86,795.77,795.31,794.24,792.32,790.20,788.69,787.41,786.17,785.08,784.38,783.71,783.05,782.54,781.72,780.95,780.29,779.75,779.30,778.47,777.44,776.31,775.26,775.83,776.97,778.36,780.24,783.62,784.50,782.55,778.21,773.92,773.78,776.17,779.48,782.45,787.27,791.39,795.16,798.66,799.69,799.37,798.03,796.38,796.24,798.04,799.63,800.57,800.95,801.21,801.46,801.73,802.05,802.52,802.98,803.35,803.52,803.26,802.90,802.75,801.74,798.94,795.47,791.84,787.48,782.74,779.41,777.49,775.92,774.45,773.34,773.59,775.07,776.84,778.68,781.30,785.34,788.76,791.00,792.23,793.41,794.61,795.63,796.27,796.65,796.72,797.31,798.57,799.80,800.48,800.69,800.61,800.37,800.21,800.16,800.17,800.19,800.19,800.18,800.04,799.65,798.82,797.85,796.75,795.74,795.38,797.02,798.64,799.51,799.60,799.31,797.19,793.48,789.61,787.24,784.89,782.92,781.01,778.94,776.72,774.55,772.67,770.93,768.65,765.23,761.94,760.00,760.76,764.18,768.40,771.03,771.45,771.10,769.68,766.87,763.24,759.78,757.48,758.75,761.38,763.89,766.41,769.18,772.69,776.79,780.78,784.60,788.22,791.40,793.76,795.60,796.88,797.96,798.83,798.86,796.38,793.14,790.03,787.60,786.03,785.48,786.43,788.59,788.64,785.49,785.70,789.61,792.48,795.99,798.77,800.66,801.78,802.78,802.12,800.77,798.85,795.35,791.46,785.37,779.74,780.41,785.88,792.13,797.32,800.47,801.76,802.85,802.98,802.04,800.58,798.71,796.69,794.57,792.27,789.62,786.77,783.62,779.38,772.50,769.63,768.17,767.00,766.33,768.56,774.19,780.32,784.21,784.33,781.90,777.58,772.48,769.54,771.96,776.61,781.63,785.98,789.52,791.96,794.84,798.49,801.08,803.78,805.19,805.37,804.94,803.26,802.35,802.35,803.10,804.34,805.04,805.26,804.34,800.86,799.11,798.76,798.86,798.52,798.28,798.17,798.62,799.67,800.33,800.62,800.53,800.26,800.16,800.11,799.54,798.65,797.69,796.83,796.03,795.09,793.91,792.43
794.68,793.84,792.65,790.99,788.72,786.73,785.87,785.32,784.71,784.20,783.49,782.63,781.74,780.95,780.25,779.74,779.35,779.00,778.56,777.78,776.81,775.97,776.01,776.82,777.90,779.39,781.86,785.62,785.23,782.70,779.34,775.75,773.75,774.76,777.84,781.10,785.94,790.76,795.43,799.43,800.43,800.42,799.89,799.15,798.70,798.34,799.14,800.36,800.83,801.09,800.88,800.76,801.09,801.93,802.39,802.69,802.62,801.65,800.94,800.86,800.31,798.29,795.50,792.26,788.12,783.43,779.76,777.80,776.25,774.72,773.49,773.78,775.30,777.16,779.30,782.85,787.27,790.22,791.64,792.82,794.03,795.26,796.45,797.45,798.08,798.21,798.35,798.84,799.91,800.61,801.04,801.20,801.00,800.93,800.92,800.97,801.07,801.07,800.93,800.63,799.97,798.51,796.86,795.45,794.15,793.11,793.50,794.81,795.83,796.07,795.51,793.06,789.94,786.99,784.94,783.46,781.95,780.18,778.04,775.60,773.33,771.45,769.68,767.14,763.73,761.13,760.79,763.92,768.48,771.84,773.58,773.68,772.70,771.11,768.39,764.86,761.18,758.29,758.42,760.36,763.17,766.20,769.44,773.33,777.66,781.60,785.37,788.91,792.13,794.85,797.12,798.62,799.57,800.00,799.76,797.49,794.30,791.26,789.62,789.17,789.40,790.22,791.24,790.42,787.29,787.29,790.70,793.53,796.25,798.70,800.70,802.12,803.46,802.88,801.61,800.00,797.18,792.85,785.92,780.11,782.31,787.92,794.54,799.45,801.20,802.29,803.37,803.39,802.31,800.98,799.83,798.69,797.07,794.38,791.34,788.22,784.77,780.41,774.30,770.76,768.72,767.37,766.89,770.56,777.06,783.34,787.01,787.72,785.25,781.54,776.84,770.82,771.07,774.89,779.58,783.14,785.87,787.86,790.46,794.53,799.99,803.71,805.38,805.65,805.43,804.84,804.52,804.49,804.71,805.17,805.42,805.49,804.88,802.59,801.36,801.07,801.13,800.98,800.86,800.77,800.87,801.18,801.46,801.48,801.28,800.97,800.66,800.30,799.33,797.88,796.28,795.39,794.14,792.60,790.90,789.20
792.26,790.82,789.28,787.72,786.22,784.98,784.55,784.28,783.88,783.53,782.88,782.01,781.07,780.24,779.67,779.21,778.78,778.36,777.89,777.35,776.81,776.54,777.01,777.82,779.11,781.22,784.47,787.44,786.24,783.48,780.56,777.34,774.57,774.62,777.09,780.55,785.44,790.56,795.52,799.58,800.73,800.93,800.79,800.44,799.91,798.65,798.37,798.87,799.47,799.91,799.09,798.55,799.11,800.05,800.64,800.88,800.56,799.33,798.49,798.58,798.34,796.65,794.34,791.56,787.76,783.25,779.72,777.85,776.37,774.88,773.66,774.15,775.79,777.87,780.49,784.81,788.79,791.18,792.32,793.49,794.68,795.91,797.13,798.28,799.16,799.48,799.54,799.65,800.29,800.82,801.35,801.70,801.61,801.60,801.62,801.69,801.78,801.74,801.31,800.78,799.87,797.82,796.04,794.69,793.16,791.16,790.08,790.73,791.58,791.86,791.31,789.22,786.59,784.01,781.98,780.89,779.86,778.49,776.58,774.25,772.03,770.03,768.01,765.42,762.46,761.61,763.33,767.67,772.23,774.90,775.87,775.31,773.70,771.80,769.11,765.68,761.88,758.88,758.18,759.26,761.75,764.85,768.33,772.40,776.97,781.56,785.25,788.72,792.08,795.20,798.16,799.75,800.54,800.74,800.15,798.08,795.28,792.83,792.09,792.15,792.64,793.12,793.07,791.50,788.79,788.95,792.22,795.58,798.00,799.90,801.52,802.93,804.15,803.59,802.26,800.48,797.59,793.25,786.09,780.32,783.63,789.35,795.91,800.58,801.91,803.00,803.91,803.93,803.03,801.86,801.01,800.26,798.89,796.11,792.71,789.18,785.38,781.00,775.71,771.46,768.66,767.30,767.91,772.27,778.90,785.10,788.78,789.68,787.46,784.14,779.80,773.40,771.48,774.01,778.14,781.22,784.77,787.13,789.96,794.35,799.92,803.77,805.52,805.81,805.68,805.53,805.43,805.38,805.39,805.48,805.56,805.56,805.19,803.89,803.01,802.63,802.48,802.22,802.01,801.82,801.62,801.48,801.49,801.43,801.31,801.11,800.63,799.90,798.25,796.13,794.24,793.39,791.69,789.15,786.33,784.55
789.15,787.46,785.98,784.98,784.68,784.35,784.16,783.86,783.40,782.94,782.41,781.66,780.79,780.11,779.69,779.14,778.51,777.90,777.48,777.25,777.31,777.65,778.14,778.94,780.72,783.68,787.53,789.03,787.35,784.59,781.72,778.64,775.75,775.24,777.13,780.79,785.77,790.77,795.47,799.34,800.77,801.18,801.13,800.79,800.24,798.96,797.47,796.57,797.02,797.52,796.27,795.58,796.48,797.35,798.11,798.31,797.78,796.48,795.69,796.05,796.08,794.52,792.53,790.09,786.61,782.44,779.43,777.75,776.36,774.94,773.82,774.61,776.43,778.78,781.91,786.66,789.81,791.68,792.89,794.07,795.26,796.47,797.68,798.83,799.88,800.45,800.67,800.73,800.89,801.19,801.70,802.17,802.24,802.25,802.31,802.38,802.41,802.24,801.45,800.63,799.54,797.35,795.94,794.96,793.29,790.22,787.56,786.96,787.08,787.19,786.84,785.43,783.24,780.78,778.68,777.61,777.01,776.16,774.69,772.68,770.59,768.41,766.09,763.63,761.76,763.09,766.77,771.48,775.52,777.63,777.91,776.56,774.35,772.05,769.25,765.87,762.11,759.34,758.12,758.34,760.03,762.80,766.35,770.49,775.28,780.80,784.47,787.88,791.37,794.87,798.58,800.29,801.06,801.22,800.30,798.41,796.25,794.71,794.81,794.96,795.38,795.44,794.51,792.45,790.30,790.72,793.90,797.98,800.41,801.78,802.84,803.99,804.78,804.11,802.58,800.26,796.76,792.71,785.92,780.59,784.70,790.60,796.74,801.10,802.63,803.83,804.51,804.58,804.02,802.99,802.12,801.30,799.95,797.24,793.54,789.57,785.45,781.10,776.44,771.68,768.32,767.09,769.04,773.56,779.95,786.02,789.81,790.61,788.79,785.70,781.66,776.54,772.67,773.86,777.59,780.72,785.75,789.01,792.36,796.70,800.61,803.91,805.55,805.85,805.77,805.62,805.52,805.46,805.45,805.48,805.53,805.51,805.30,804.62,803.87,803.32,802.89,802.38,801.96,801.54,801.09,800.67,800.57,800.76,800.96,800.95,800.33,799.05,796.55,793.77,791.75,790.89,789.05,785.71,781.73,779.77
786.39,785.48,784.83,784.38,784.17,783.94,783.77,783.45,782.95,782.48,781.99,781.32,780.62,780.24,779.99,779.43,778.75,778.25,778.12,778.07,778.23,778.64,779.20,780.70,783.43,786.84,789.84,790.26,788.25,785.39,782.37,779.28,776.10,775.84,778.41,782.48,787.50,791.63,795.34,798.82,800.43,801.13,801.25,800.91,800.30,799.12,796.74,794.21,793.02,792.54,792.23,792.56,793.65,794.51,795.25,795.53,794.93,793.03,792.52,793.36,793.86,792.71,790.87,787.97,784.47,781.06,779.05,777.64,776.33,774.97,773.92,774.99,777.00,779.55,782.79,787.00,789.84,791.57,792.74,794.07,795.39,796.61,797.81,798.99,800.03,800.82,801.29,801.49,801.69,801.98,802.36,802.71,802.88,802.95,802.98,803.02,802.98,802.39,801.42,800.31,799.33,798.90,798.70,798.46,796.98,793.19,788.73,784.96,782.68,781.99,781.92,780.74,779.24,777.53,775.51,774.31,773.82,773.35,772.38,770.72,768.70,766.53,764.24,762.21,763.11,765.86,769.73,774.36,778.44,779.88,779.52,777.79,775.15,772.26,769.05,765.62,762.28,759.82,758.60,758.30,758.92,760.67,764.21,768.53,773.42,779.07,783.03,786.43,789.82,793.46,797.42,799.90,801.32,801.70,800.65,799.04,797.80,797.27,797.62,797.80,797.90,797.52,796.27,794.54,792.73,792.73,795.05,799.10,801.37,802.99,804.17,804.74,805.06,804.05,802.02,798.90,794.42,790.66,785.26,781.56,786.47,793.06,798.34,801.77,803.42,804.75,805.30,805.35,804.97,804.09,802.95,801.66,799.88,797.02,793.18,788.99,784.64,780.15,775.39,771.13,768.37,767.54,769.46,773.81,780.39,786.66,790.38,791.12,789.37,786.42,782.78,778.63,773.77,774.72,779.38,784.01,789.17,793.33,796.75,799.58,801.86,803.98,805.25,805.70,805.71,805.53,805.41,805.32,805.26,805.39,805.37,805.26,804.93,803.93,802.87,802.05,801.41,800.81,800.16,799.47,798.68,798.00,798.17,799.61,800.61,800.76,800.00,797.68,794.42,791.07,788.41,787.16,786.50,784.49,781.03,778.02
784.91,784.50,784.27,784.05,783.82,783.59,783.38,783.03,782.53,782.07,781.67,781.20,780.75,780.54,780.31,779.71,779.09,778.79,778.88,778.95,779.54,780.75,782.30,784.23,786.84,789.74,791.89,791.12,788.53,785.34,782.10,779.23,776.47,776.63,779.60,783.96,788.74,792.18,795.04,797.85,799.70,800.68,801.00,800.80,800.30,799.40,796.56,792.99,790.63,789.53,789.51,790.12,791.09,791.82,792.43,792.69,792.13,790.25,789.97,790.93,791.62,790.84,789.12,786.01,782.74,780.08,778.65,777.41,776.17,774.92,774.04,775.16,777.21,779.79,782.89,786.50,789.35,791.22,792.48,793.89,795.29,796.54,797.77,799.01,800.07,801.12,801.87,802.25,802.51,802.77,803.02,803.26,803.43,803.54,803.59,803.64,803.54,802.72,801.65,800.55,799.83,800.24,800.59,800.54,799.12,795.34,790.17,785.30,781.78,779.93,779.17,777.50,775.98,774.54,772.76,771.72,771.02,770.38,769.63,768.65,766.93,764.82,763.14,763.51,765.84,768.87,772.61,777.11,780.53,781.38,780.50,778.32,775.36,772.23,768.97,765.72,762.75,760.54,759.33,758.72,758.64,759.63,763.35,768.24,773.70,779.53,783.59,786.76,789.89,793.57,797.50,799.96,801.50,802.18,801.68,800.57,799.96,800.02,800.48,800.46,800.08,799.33,798.19,797.16,795.79,794.91,795.67,799.66,801.87,803.65,804.92,805.13,805.09,803.42,801.21,798.57,794.40,790.63,785.89,783.23,788.61,795.49,799.81,802.30,803.94,805.36,805.88,805.94,805.65,804.79,803.40,801.80,799.53,795.94,791.89,787.52,783.05,778.49,773.83,770.44,768.44,767.96,769.85,774.60,781.20,787.30,790.95,791.76,790.00,787.08,783.63,779.83,774.66,775.43,780.37,785.73,790.70,795.05,798.48,800.77,802.22,803.67,804.70,805.24,805.38,805.28,805.10,804.93,804.81,804.94,804.75,804.42,803.89,802.69,801.33,800.07,798.96,798.01,797.05,796.24,795.29,794.35,794.75,797.76,799.93,800.50,799.80,796.77,792.76,788.41,784.48,783.03,782.90,782.09,780.07,777.53
784.57,784.31,784.03,783.76,783.53,783.29,783.01,782.64,782.19,781.76,781.48,781.30,781.16,780.98,780.62,779.99,779.55,779.64,779.96,780.25,781.56,784.08,787.10,789.06,790.65,792.29,793.59,791.59,788.24,784.55,781.08,778.63,776.92,777.49,780.29,784.65,789.06,792.14,794.41,796.39,798.36,799.61,800.23,800.37,800.25,799.77,796.89,792.88,789.99,788.71,788.19,788.29,788.91,789.37,789.78,789.90,789.45,788.15,787.98,788.73,789.32,788.85,787.29,784.35,781.55,779.52,778.25,777.09,775.95,774.86,774.19,775.14,777.11,779.59,782.41,785.54,788.60,790.77,792.22,793.69,795.10,796.39,797.66,798.97,800.11,801.46,802.49,803.01,803.31,803.50,803.66,803.80,803.90,804.04,804.14,804.21,804.11,803.27,802.21,801.37,800.97,801.14,801.29,800.85,799.29,795.97,791.14,787.16,783.63,780.57,778.50,775.99,773.95,772.34,770.91,770.24,769.11,767.87,766.98,766.70,765.35,763.54,763.12,767.10,769.46,771.98,775.43,779.73,781.99,782.26,780.91,778.22,775.06,772.00,769.05,766.21,763.55,761.52,760.30,759.48,759.03,759.57,763.60,769.33,775.72,781.86,785.93,788.78,791.58,795.19,798.79,800.53,801.64,802.63,803.12,802.67,802.44,802.68,803.19,802.82,801.91,800.91,800.14,799.90,799.06,797.15,796.02,799.85,802.07,803.88,805.13,805.22,804.87,802.54,800.52,799.29,796.41,792.38,787.65,785.44,790.96,797.60,801.02,802.76,804.29,805.67,806.22,806.33,806.05,805.08,803.53,801.79,799.07,794.41,789.99,785.49,780.99,776.55,772.32,769.85,768.50,768.27,770.27,775.95,782.40,788.00,791.58,792.55,790.77,787.79,784.27,780.31,775.40,775.88,780.30,785.47,790.10,793.99,797.47,800.35,801.74,803.03,803.94,804.48,804.79,804.82,804.59,804.29,804.12,804.13,803.69,803.09,802.34,801.16,799.63,797.89,796.13,794.55,793.20,792.39,791.42,790.32,790.84,795.16,798.58,799.93,799.55,796.35,791.80,786.36,780.92,779.35,778.85,778.54,778.17,777.37
784.54,784.24,783.94,783.66,783.42,783.14,782.84,782.51,782.17,781.95,781.80,781.70,781.62,781.46,780.94,780.40,780.55,781.81,783.12,784.41,786.21,788.55,790.94,792.61,793.87,794.62,794.16,791.39,787.65,783.75,780.26,778.14,777.22,777.53,779.13,782.46,787.19,790.40,792.49,794.05,795.19,796.63,798.08,799.29,799.97,799.93,797.36,793.46,790.26,788.62,787.48,787.09,787.48,787.58,787.87,787.76,787.11,786.03,785.84,786.33,786.79,786.63,785.59,783.18,780.83,779.11,777.92,776.92,775.99,775.10,774.49,775.09,777.03,779.59,782.43,785.46,788.54,790.78,792.31,793.88,795.41,796.70,797.87,799.13,800.45,802.00,803.13,803.66,803.88,804.05,804.17,804.27,804.36,804.50,804.63,804.72,804.63,804.03,803.25,802.66,802.27,801.84,801.26,800.23,798.06,794.18,789.97,786.58,783.26,780.08,778.25,776.76,775.21,773.68,772.51,771.81,770.47,768.75,767.06,765.78,764.09,763.79,765.66,769.79,772.41,775.06,778.20,781.63,783.75,783.08,780.97,778.12,775.00,771.97,769.24,766.79,764.58,762.86,761.61,760.49,759.50,759.60,763.59,769.68,776.60,783.00,787.91,791.03,793.72,797.06,799.68,800.99,801.88,802.71,803.37,803.63,803.92,804.34,804.64,804.33,803.37,802.30,801.55,801.20,800.58,798.87,797.45,800.00,802.03,803.89,805.18,805.27,804.51,802.91,801.46,800.05,797.01,792.87,788.91,787.70,792.93,798.66,801.85,803.63,805.03,805.99,806.44,806.55,806.26,805.19,803.56,801.79,798.95,793.88,788.82,784.24,780.07,776.26,772.79,770.24,768.73,768.47,770.53,776.96,783.55,788.88,792.21,793.25,791.52,788.47,784.76,780.64,776.26,776.18,779.51,784.16,788.31,791.76,795.65,799.76,801.39,802.43,803.10,803.52,803.78,803.82,803.66,803.44,803.24,802.92,802.38,801.77,801.07,800.01,798.83,797.18,795.12,792.84,791.01,789.88,788.91,788.13,788.73,791.43,794.86,797.76,798.27,795.97,792.47,787.88,782.55,779.88,777.93,776.06,774.51,774.20
784.70,784.33,784.04,783.76,783.52,783.20,782.88,782.57,782.32,782.25,782.20,782.14,782.09,782.02,781.70,781.47,782.14,784.14,786.12,788.01,790.00,792.07,793.97,795.57,796.70,796.63,794.38,790.97,787.10,783.20,779.76,777.82,777.69,778.38,779.40,780.85,784.27,787.20,789.38,790.85,791.60,793.17,795.23,797.38,798.98,799.34,797.31,793.86,790.52,788.65,787.13,786.26,786.13,785.91,785.98,785.67,784.90,783.95,783.66,783.88,784.20,784.27,783.86,782.08,780.23,778.82,777.73,776.82,775.98,775.20,774.70,775.38,777.59,780.44,783.44,786.39,789.17,791.27,792.86,794.50,796.15,797.42,798.55,799.83,801.31,802.83,803.87,804.29,804.42,804.54,804.64,804.71,804.75,804.87,805.01,805.09,805.01,804.63,804.08,803.50,802.87,801.97,800.88,799.21,796.64,792.95,789.23,786.35,783.53,780.83,779.53,778.34,776.86,775.30,774.08,773.06,771.52,769.50,767.17,765.07,763.60,764.82,768.39,772.08,774.89,777.66,780.52,783.30,785.21,783.83,781.21,778.32,775.24,772.14,769.52,767.36,765.50,763.94,762.58,761.18,759.84,759.61,763.01,769.22,776.82,783.48,788.97,792.38,795.03,798.04,800.05,801.06,801.73,802.37,803.07,803.77,804.46,805.05,805.31,805.18,804.40,803.44,802.69,802.26,801.73,800.32,798.92,800.23,802.05,803.92,805.27,805.45,804.68,803.79,802.63,800.83,797.75,793.58,790.37,790.20,795.54,800.20,802.98,804.68,805.78,806.33,806.62,806.68,806.32,805.06,803.40,801.63,798.73,793.47,787.90,783.21,779.28,776.00,773.08,770.52,768.96,768.75,771.00,778.01,784.67,789.74,792.78,794.01,792.37,789.40,785.85,782.04,778.60,777.32,778.56,782.31,785.84,789.14,793.57,798.77,800.86,801.73,802.19,802.50,802.69,802.76,802.67,802.54,802.42,802.16,801.74,801.24,800.66,799.89,799.09,797.83,795.87,793.18,791.05,789.47,788.16,787.11,786.69,787.89,790.85,794.34,795.78,794.81,792.76,789.48,784.85,781.50,778.47,775.34,772.62,771.74
785.04,784.61,784.33,784.08,783.83,783.47,783.14,782.84,782.60,782.58,782.57,782.56,782.58,782.68,782.98,783.31,784.28,786.30,788.35,790.16,792.02,794.04,796.09,797.97,799.03,798.22,794.45,790.52,786.72,782.99,779.65,777.73,778.43,780.45,782.03,781.04,781.09,783.06,785.46,787.07,788.08,789.72,791.99,794.66,797.13,797.83,796.51,793.79,790.56,788.67,787.15,785.85,784.89,784.43,784.13,783.65,782.91,782.00,781.56,781.53,781.67,781.85,782.05,780.92,779.62,778.60,777.67,776.75,775.85,775.06,774.79,776.14,779.01,782.37,785.61,788.37,790.50,792.28,793.92,795.61,797.29,798.60,799.80,801.20,802.75,803.98,804.70,804.92,804.95,805.02,805.10,805.14,805.09,805.15,805.24,805.28,805.22,804.97,804.48,803.66,802.59,801.47,800.28,798.10,795.62,793.31,789.87,787.36,785.17,783.27,782.40,780.23,778.12,776.34,774.72,773.14,771.43,769.30,766.69,764.42,764.09,766.54,770.73,774.05,776.96,779.66,782.34,784.90,786.25,784.50,781.76,778.89,775.80,772.55,769.90,767.86,766.20,764.59,763.01,761.42,760.03,759.61,761.93,768.04,776.50,783.38,788.85,792.43,795.12,797.76,799.76,800.59,801.06,801.60,802.29,803.14,803.99,804.73,805.20,805.32,804.94,804.28,803.62,803.33,802.82,801.60,800.27,800.66,802.23,804.05,805.43,805.76,805.53,804.96,803.74,801.69,799.05,794.98,792.30,793.04,798.94,802.46,804.51,805.75,806.38,806.68,806.76,806.68,806.19,804.65,802.97,801.19,798.26,792.93,787.13,782.28,778.39,775.34,772.61,770.38,769.13,769.22,771.90,779.19,785.75,790.49,793.26,794.88,793.38,790.71,787.77,784.87,782.67,779.53,777.66,780.04,782.87,786.43,791.47,797.29,799.95,800.81,801.16,801.41,801.59,801.75,801.70,801.63,801.72,801.97,801.94,801.67,801.27,800.94,800.46,799.76,798.35,795.75,793.60,791.52,789.46,787.24,784.51,784.92,787.04,789.75,791.95,792.52,792.01,790.17,786.72,783.43,780.08,776.67,773.50,771.12
785.57,785.03,784.65,784.34,784.05,783.72,783.40,783.13,782.97,783.00,783.00,783.03,783.14,783.47,783.95,784.55,785.75,787.80,789.88,791.66,793.39,795.23,797.35,799.10,799.88,798.86,795.14,791.05,787.18,783.39,779.90,777.99,779.11,782.63,786.05,785.42,784.08,784.53,785.78,786.60,786.65,788.13,790.35,792.88,795.27,796.18,795.09,792.81,790.42,788.79,787.37,786.16,785.26,784.75,784.06,783.21,782.18,781.00,780.52,780.39,780.24,779.93,779.99,779.31,778.49,777.82,777.23,776.45,775.69,775.06,774.98,776.98,780.65,784.57,787.85,790.10,791.81,793.44,795.11,796.76,798.42,799.87,801.27,802.72,804.04,804.84,805.25,805.41,805.46,805.53,805.61,805.63,805.52,805.49,805.51,805.48,805.33,805.09,804.57,803.73,802.66,801.60,800.58,799.28,798.06,796.87,793.95,790.64,787.34,784.42,782.56,780.11,777.87,775.97,774.28,772.70,771.08,768.93,766.17,764.07,765.38,768.61,772.56,776.02,779.06,781.93,784.73,787.15,787.76,785.48,782.42,779.42,776.28,772.96,770.24,768.17,766.55,764.92,763.30,761.69,760.31,759.84,762.29,768.56,776.88,782.88,788.05,791.65,794.32,796.68,798.66,799.60,800.16,800.71,801.40,802.18,803.03,803.90,804.66,805.15,805.19,804.92,804.54,804.45,804.20,803.33,802.12,801.74,802.72,804.22,805.47,805.91,805.99,805.64,804.82,803.35,800.88,797.09,795.16,796.35,801.10,803.86,805.32,806.12,806.54,806.71,806.71,806.36,805.51,803.98,802.35,800.28,797.06,791.86,786.28,781.30,777.27,774.21,771.51,769.80,769.18,770.18,774.18,780.59,786.37,790.72,793.49,795.62,794.83,792.73,790.24,787.88,785.26,781.40,778.21,778.45,780.93,785.44,790.75,795.62,797.89,798.89,799.46,799.91,800.31,800.62,800.73,800.78,800.89,801.21,801.48,801.58,801.57,801.53,801.14,800.60,799.73,798.28,796.80,794.56,791.67,788.18,784.40,782.62,783.23,785.45,787.76,788.96,789.37,788.90,787.20,784.44,781.28,778.31,775.65,772.89
786.17,785.56,785.05,784.64,784.30,784.00,783.69,783.44,783.35,783.44,783.48,783.54,783.74,784.25,784.86,785.64,786.92,788.93,791.01,792.86,794.55,796.29,798.38,799.80,800.27,799.23,795.91,791.76,787.80,783.88,780.25,778.37,780.12,784.78,789.61,790.17,788.64,788.18,788.44,788.46,787.42,788.05,789.56,791.46,793.47,794.58,793.85,792.12,790.49,789.06,787.81,786.88,786.33,785.86,784.90,783.79,782.59,781.30,780.62,780.13,779.52,778.78,778.85,778.51,777.99,777.46,777.06,776.34,775.66,775.15,775.19,777.66,781.94,786.30,789.63,791.51,793.04,794.63,796.31,797.93,799.50,801.02,802.51,803.90,804.92,805.38,805.63,805.79,805.92,806.05,806.13,806.10,805.92,805.82,805.74,805.61,805.37,805.13,804.61,803.84,802.93,802.00,801.21,800.72,800.42,799.84,797.40,793.06,788.42,784.39,781.56,779.19,777.11,775.24,773.58,772.08,770.45,768.21,765.51,764.29,766.77,770.38,774.04,777.61,780.71,783.85,786.83,788.98,789.09,786.61,783.42,780.28,777.10,773.70,770.75,768.45,766.83,765.21,763.57,761.96,760.62,760.43,763.39,769.24,776.36,781.68,786.57,790.25,793.01,795.16,797.08,798.15,798.85,799.48,800.25,801.07,801.96,802.94,804.01,804.91,805.31,805.37,805.26,805.31,805.27,804.76,803.85,803.13,803.53,804.59,805.62,806.07,806.32,806.11,805.61,804.59,802.21,798.89,797.74,799.23,802.69,804.75,805.73,806.24,806.54,806.63,806.45,805.78,804.61,803.17,801.64,799.15,795.47,790.42,785.04,780.12,776.01,772.89,770.49,769.41,769.72,771.85,776.76,782.05,786.90,790.78,793.46,795.90,796.23,795.06,793.08,791.18,788.13,784.06,780.17,778.31,779.77,784.58,789.78,793.57,795.17,796.08,796.77,797.41,798.05,798.73,799.24,799.59,799.88,800.35,800.90,801.38,801.73,801.88,801.51,801.07,800.65,800.18,799.39,797.50,794.32,790.01,785.88,781.94,780.60,781.67,783.55,784.92,785.85,786.35,786.13,784.46,782.24,780.10,777.98,775.23
786.77,786.19,785.61,785.07,784.65,784.32,784.01,783.77,783.69,783.87,783.97,784.08,784.36,784.99,785.82,786.68,787.84,789.60,791.71,793.72,795.61,797.46,799.32,800.27,800.47,799.50,796.55,792.42,788.29,784.25,780.63,778.83,781.74,786.77,791.64,793.70,793.41,793.38,793.54,793.16,791.38,790.10,789.79,790.50,791.93,793.18,793.26,792.37,790.98,789.59,788.56,788.05,788.00,787.59,786.64,785.54,784.48,783.53,782.27,780.87,779.59,778.88,779.56,779.49,778.88,778.09,777.54,776.71,775.94,775.35,775.41,778.03,782.47,787.00,790.50,792.39,794.08,795.77,797.45,799.06,800.50,801.87,803.19,804.38,805.11,805.50,805.77,806.00,806.27,806.54,806.62,806.50,806.23,806.07,805.85,805.60,805.37,805.13,804.64,804.06,803.41,802.63,802.07,801.60,801.13,800.31,798.16,792.88,787.29,782.80,779.72,777.74,776.08,774.49,772.86,771.37,769.42,766.93,764.68,765.45,768.00,771.42,775.12,778.45,781.47,784.99,788.14,789.74,789.84,787.88,785.00,781.79,778.59,775.06,771.62,768.78,767.15,765.53,763.86,762.17,760.91,761.52,765.15,769.43,773.90,779.35,784.10,788.05,791.12,793.14,794.97,796.04,796.85,797.66,798.70,799.83,800.90,802.00,803.35,804.70,805.32,805.53,805.62,805.69,805.66,805.47,805.15,804.78,804.77,805.34,806.04,806.35,806.52,806.38,805.87,804.73,802.42,799.83,799.38,801.08,803.79,805.07,805.77,806.20,806.42,806.48,805.89,804.85,803.52,802.18,800.81,797.79,793.48,788.51,783.12,778.59,774.65,771.45,769.92,769.66,771.25,774.59,779.33,783.56,787.50,790.78,793.10,795.37,797.30,797.61,796.36,794.91,792.14,788.30,784.08,780.56,779.63,783.26,787.81,790.98,791.78,792.18,792.70,793.37,794.15,795.55,796.82,797.82,798.62,799.57,800.45,801.20,801.76,801.98,801.60,801.34,801.19,800.92,800.53,799.75,797.34,793.11,789.45,784.04,780.26,778.92,779.57,780.62,781.57,782.28,782.74,782.94,782.81,781.87,779.98,777.45
786.58,786.49,786.16,785.63,785.07,784.66,784.33,784.07,783.97,784.17,784.38,784.69,785.17,785.94,786.84,787.71,788.75,790.22,792.28,794.38,796.41,798.31,799.88,800.67,800.70,799.66,796.92,792.69,788.47,784.39,780.81,779.19,782.28,787.25,792.25,795.66,797.20,798.02,798.39,798.12,796.99,795.92,795.00,794.32,794.19,794.67,794.34,793.21,791.72,790.35,789.66,789.52,789.64,789.15,788.09,786.69,785.13,783.55,781.73,780.35,779.70,780.04,781.12,780.89,779.96,778.85,778.09,777.26,776.51,775.85,775.71,777.83,782.14,786.79,790.48,792.40,794.24,796.13,797.97,799.59,800.88,802.11,803.33,804.44,805.10,805.36,805.51,805.68,805.90,806.13,806.20,806.12,805.94,805.82,805.68,805.51,805.32,805.08,804.57,804.00,803.44,802.81,802.31,801.82,801.29,800.59,799.22,793.14,787.07,782.99,779.99,778.14,776.21,774.11,772.19,770.66,768.42,766.07,764.75,766.43,769.02,772.06,775.30,778.37,781.66,785.57,788.81,790.01,790.11,789.12,786.91,783.67,780.38,776.56,772.58,769.23,767.53,765.87,764.15,762.39,761.08,761.84,764.95,768.40,771.98,776.86,781.35,785.25,788.52,790.98,792.84,793.92,794.99,796.36,797.82,799.03,800.28,801.72,803.39,804.79,805.39,805.63,805.80,805.89,805.87,805.80,805.68,805.60,805.72,806.20,806.69,806.85,806.86,806.60,806.06,805.12,803.50,801.49,801.15,802.51,804.54,805.36,805.90,806.28,806.37,805.98,804.67,803.27,802.05,800.77,798.81,795.54,791.23,786.21,781.25,777.49,773.99,770.90,770.25,771.67,774.52,778.04,781.45,785.10,788.43,791.22,793.45,795.62,797.90,798.97,798.67,797.82,795.17,790.91,786.03,781.83,779.89,782.63,786.83,790.16,790.81,791.05,791.32,791.83,792.92,794.49,796.02,797.43,798.73,800.03,800.90,801.55,802.00,802.01,801.63,801.33,801.16,801.06,801.02,800.57,799.07,796.39,793.54,789.00,784.15,780.19,778.66,778.16,777.77,777.63,778.09,778.98,779.94,779.98,778.75,776.47
786.05,786.43,786.48,786.14,785.55,785.04,784.67,784.39,784.27,784.46,784.76,785.28,786.00,786.85,787.75,788.61,789.61,790.98,793.01,795.15,797.25,799.12,800.38,801.05,800.90,799.74,797.08,792.79,788.53,784.42,780.88,779.54,782.60,787.42,792.57,797.03,800.08,801.75,802.47,802.45,802.07,801.50,800.36,798.72,797.29,796.76,795.71,794.14,792.55,791.39,791.06,791.13,791.15,790.29,788.97,787.23,785.14,782.86,780.72,779.78,780.07,781.47,782.88,782.39,781.05,779.60,778.63,777.82,777.07,776.36,775.98,777.48,781.42,785.99,789.84,791.98,794.01,796.09,798.13,799.85,801.02,802.13,803.26,804.27,804.85,804.98,805.00,805.07,805.21,805.37,805.46,805.49,805.48,805.43,805.41,805.36,805.20,804.94,804.42,803.85,803.30,802.79,802.31,801.80,801.28,800.74,800.08,793.58,787.43,783.91,780.93,778.91,776.54,773.87,771.56,769.80,767.34,765.42,765.31,767.44,769.99,772.65,775.37,778.17,781.71,785.95,789.26,790.12,790.23,790.05,788.44,785.23,781.85,777.82,773.52,769.85,767.99,766.21,764.43,762.60,761.23,762.10,764.39,767.11,770.22,774.33,778.52,782.36,785.81,788.73,790.83,792.22,793.84,795.93,797.73,798.86,800.17,801.84,803.72,804.95,805.46,805.69,805.90,806.01,806.05,806.03,805.99,806.09,806.40,806.89,807.32,807.44,807.27,806.86,806.29,805.60,804.81,803.38,803.01,803.84,805.21,805.76,806.16,806.44,806.36,805.39,803.24,801.35,800.06,798.69,796.16,792.72,788.50,783.62,779.43,776.45,773.64,771.25,771.67,774.56,778.22,781.47,783.46,786.71,789.49,791.82,794.00,796.15,798.39,799.83,800.27,800.00,797.74,793.05,787.47,783.00,780.49,782.67,786.75,790.48,791.65,792.21,792.34,792.51,793.52,794.91,796.40,797.96,799.61,801.09,801.83,802.18,802.24,801.87,801.45,801.03,800.76,800.86,801.13,800.84,800.15,799.09,797.26,794.43,789.51,783.72,780.15,778.19,776.47,775.21,774.89,775.05,775.86,776.22,775.54,773.53
785.21,785.68,786.17,786.38,786.08,785.52,785.05,784.76,784.70,784.81,785.13,785.78,786.64,787.49,788.30,789.13,790.34,792.17,794.30,796.40,798.40,800.08,801.00,801.41,801.04,799.69,796.92,792.70,788.50,784.38,780.86,779.97,783.21,788.04,793.26,798.08,801.18,803.35,804.63,804.80,804.29,803.27,802.02,800.74,799.58,798.14,796.50,794.82,793.43,793.04,793.01,792.90,792.26,790.36,788.50,786.58,784.43,781.97,780.23,780.12,781.15,782.85,784.50,783.79,782.06,780.23,779.11,778.22,777.43,776.65,776.11,777.16,780.32,784.28,788.14,791.09,793.38,795.56,797.77,799.85,800.99,802.04,803.04,803.79,804.08,804.14,804.11,804.10,804.18,804.33,804.54,804.79,805.00,805.08,805.09,805.05,804.92,804.63,804.18,803.63,803.06,802.58,802.12,801.64,801.17,800.68,800.07,794.16,788.64,785.43,782.04,779.22,776.45,773.64,770.98,768.53,766.03,765.04,766.48,768.72,770.99,773.36,775.83,778.40,781.86,786.20,789.56,790.22,790.35,790.14,788.62,785.60,782.20,778.37,774.37,770.84,768.60,766.60,764.68,762.75,761.42,762.83,764.40,766.15,768.42,771.79,775.72,779.70,783.35,786.39,789.21,791.77,794.61,797.55,799.33,800.09,801.06,802.52,804.26,805.09,805.46,805.69,805.92,806.12,806.27,806.28,806.25,806.34,806.57,807.08,807.70,808.09,807.78,807.23,806.65,806.19,806.08,805.35,805.00,805.25,805.97,806.46,806.70,806.75,806.39,804.86,801.83,799.04,796.96,795.05,792.63,789.01,784.68,780.53,777.74,775.26,773.59,773.40,775.41,778.47,781.71,784.31,785.55,788.48,790.66,792.46,794.50,796.81,798.99,800.30,800.73,800.84,799.84,795.18,789.07,784.66,781.72,784.07,788.37,792.51,795.62,797.43,797.82,797.34,797.08,797.77,798.71,799.95,801.51,802.77,803.37,803.15,802.27,801.31,800.66,800.13,799.87,800.22,800.74,800.77,800.48,800.03,799.50,798.81,795.49,790.23,785.84,783.66,781.78,779.58,776.78,773.22,771.27,770.24,769.41,767.72
784.95,785.24,785.78,786.31,786.47,786.02,785.58,785.38,785.42,785.51,785.83,786.49,787.33,788.14,788.95,789.84,791.20,793.31,795.52,797.64,799.41,800.73,801.48,801.51,800.91,799.20,795.67,791.66,787.78,783.86,780.56,780.42,784.00,788.93,794.19,799.11,802.23,804.42,805.66,805.68,805.18,804.10,802.77,801.40,800.14,798.55,796.96,795.66,794.95,794.85,794.67,794.22,793.28,791.44,789.82,788.26,786.13,782.56,780.45,780.97,782.84,784.83,786.32,785.22,783.07,780.87,779.43,778.48,777.65,776.83,776.24,777.13,779.80,783.31,787.04,790.31,792.85,795.21,797.59,799.80,800.94,801.77,802.43,802.80,802.98,802.96,802.83,802.71,802.78,802.95,803.25,803.63,803.95,804.12,804.16,804.25,804.40,804.27,803.91,803.40,802.85,802.38,801.92,801.46,800.99,800.40,799.14,793.56,787.73,783.47,780.28,777.70,775.28,772.76,770.06,767.36,765.73,765.83,767.83,770.17,772.21,774.32,776.57,778.96,782.47,786.72,789.87,790.35,790.47,790.23,788.73,785.75,782.21,778.69,775.08,771.76,769.42,767.36,765.28,763.11,761.77,764.23,766.15,767.39,768.36,769.94,773.15,777.34,781.51,784.92,788.33,791.73,795.30,798.62,800.29,801.03,801.86,802.95,804.08,804.68,805.09,805.47,805.82,806.10,806.31,806.43,806.52,806.66,806.79,807.21,807.81,808.30,808.11,807.65,807.27,807.13,807.24,806.84,806.50,806.40,806.67,807.02,807.13,806.88,806.01,804.22,801.21,797.47,793.72,791.14,788.24,784.87,781.48,778.69,776.79,774.86,774.17,775.42,777.83,781.49,785.10,787.77,788.62,789.79,791.28,793.01,795.00,797.21,799.23,800.54,801.15,801.48,800.88,797.71,792.65,787.18,783.98,785.21,788.59,792.74,796.70,799.27,800.19,800.00,799.70,800.14,800.88,801.97,803.38,804.13,804.11,803.34,802.04,800.82,799.45,798.33,798.24,799.88,800.63,800.77,800.66,800.46,800.27,800.12,797.78,793.67,790.02,788.14,786.65,784.65,781.53,777.52,774.48,771.93,769.86,768.82
784.91,784.98,785.48,786.24,786.85,786.51,786.18,786.10,786.25,786.38,786.68,787.27,788.04,788.83,789.68,790.62,792.09,794.35,796.68,798.78,800.30,801.25,801.88,801.53,800.70,798.56,794.07,790.24,786.75,783.20,780.35,781.10,784.99,790.04,795.33,800.12,803.21,805.21,806.16,805.95,805.49,804.53,803.23,801.72,800.19,798.77,797.54,796.76,796.71,796.60,796.03,795.13,793.93,792.48,791.31,790.21,788.15,783.64,781.32,782.39,784.90,787.10,788.24,786.75,784.20,781.57,779.69,778.66,777.81,776.98,776.38,777.20,779.51,782.65,786.23,789.60,792.32,794.87,797.38,799.63,800.75,801.34,801.62,801.64,801.75,801.61,801.30,801.02,801.13,801.43,801.86,802.32,802.68,802.91,802.96,803.17,803.67,803.88,803.62,803.16,802.65,802.19,801.73,801.26,800.80,800.02,797.66,792.13,785.82,780.39,777.49,775.28,773.35,771.34,768.88,766.38,765.99,767.16,769.37,771.87,773.85,775.76,777.80,780.06,783.69,787.54,790.16,790.50,790.60,790.32,788.79,785.73,781.91,778.83,775.79,772.81,770.34,768.20,765.91,763.48,762.14,765.68,768.42,769.59,769.50,769.26,771.26,775.36,779.99,783.90,787.89,791.85,795.78,799.19,800.75,801.53,802.26,802.99,803.49,803.99,804.57,805.16,805.68,806.00,806.25,806.48,806.70,806.90,806.96,807.24,807.75,808.29,808.34,808.09,807.99,808.15,808.27,808.04,807.68,807.38,807.35,807.50,807.49,806.91,805.48,803.41,800.36,795.75,790.51,787.31,783.98,781.15,778.98,777.49,776.12,774.80,774.98,777.10,779.65,784.16,788.39,791.31,792.05,791.37,791.97,793.53,795.50,797.56,799.36,800.70,801.55,802.05,801.48,799.99,796.46,790.08,786.58,786.28,788.35,792.29,796.58,799.63,801.14,801.57,801.75,802.18,802.85,803.83,804.93,805.04,804.33,803.11,801.63,800.17,797.89,796.24,796.56,799.66,800.62,800.78,800.73,800.62,800.39,800.12,798.45,795.69,793.23,791.75,790.65,789.14,786.58,783.20,779.85,776.19,772.94,772.26
784.90,784.97,785.62,786.59,787.34,787.03,786.81,786.83,787.05,787.30,787.52,788.05,788.82,789.61,790.50,791.43,792.88,795.17,797.67,799.60,800.94,801.79,802.22,801.62,800.55,797.97,792.78,788.83,785.62,782.70,780.79,782.53,786.43,791.52,796.83,801.05,804.02,805.70,806.35,806.08,805.58,804.84,803.92,802.68,800.84,799.68,798.97,798.59,798.45,797.87,796.73,795.22,793.50,792.04,790.93,789.84,788.01,784.50,783.53,785.08,787.52,789.50,790.23,788.69,785.85,782.51,779.96,778.79,777.98,777.17,776.55,777.25,779.26,782.13,785.58,788.95,791.72,794.33,796.88,799.11,800.11,800.51,800.64,800.59,800.55,800.08,799.40,798.88,799.09,799.85,800.58,801.14,801.50,801.65,801.60,801.83,802.58,803.41,803.30,802.89,802.46,801.99,801.53,801.07,800.61,799.54,795.55,789.41,783.22,778.16,775.11,772.19,770.24,768.85,767.27,765.97,766.81,768.80,771.29,774.17,776.59,778.56,780.33,782.61,786.44,789.07,790.34,790.63,790.73,790.41,788.75,785.35,780.98,778.61,776.67,774.35,771.29,768.82,766.21,763.59,762.42,766.43,770.13,772.13,772.44,771.69,771.48,774.28,778.76,783.28,788.00,792.02,795.67,798.77,800.36,800.94,801.40,801.95,802.49,803.11,803.97,804.83,805.47,805.81,806.06,806.29,806.51,806.68,806.81,807.03,807.46,808.13,808.46,808.55,808.68,808.93,809.06,808.79,808.38,808.04,807.97,807.96,807.75,806.89,804.98,802.15,797.64,792.46,787.56,784.15,781.35,779.50,778.16,776.85,775.38,774.93,775.69,777.80,781.17,786.85,791.45,794.25,795.39,794.53,793.70,794.07,796.07,798.08,799.63,800.87,801.88,802.63,802.00,800.88,798.34,793.18,789.00,787.39,788.42,791.94,796.26,799.46,801.30,802.26,803.10,803.68,804.37,805.07,805.44,804.82,803.76,802.49,800.97,798.83,795.68,794.37,795.70,799.46,800.60,800.67,800.56,800.49,800.21,799.73,798.59,796.90,795.16,793.65,792.13,790.57,788.70,785.31,782.00,778.89,776.21,774.51
785.04,785.35,786.05,786.98,787.79,787.57,787.48,787.61,787.88,788.14,788.35,788.87,789.65,790.51,791.51,792.53,793.79,795.60,798.16,800.11,801.56,802.50,802.61,801.61,800.35,797.56,791.89,787.89,784.66,782.79,782.99,785.38,789.18,793.93,798.73,802.16,804.76,806.05,806.40,806.11,805.71,805.22,804.72,804.02,802.73,801.87,801.24,800.65,799.84,798.12,795.94,793.74,791.85,790.73,790.06,789.05,787.46,785.53,785.60,787.27,789.65,791.77,792.09,790.45,787.39,783.52,780.20,778.91,778.10,777.32,776.74,776.95,778.58,781.21,784.54,787.98,791.13,793.94,796.38,798.17,798.75,798.66,798.28,797.86,797.71,797.19,796.55,796.14,796.52,797.58,798.61,799.39,799.82,799.92,800.16,800.79,801.87,802.99,802.96,802.56,802.13,801.75,801.30,800.85,800.27,798.77,794.28,788.69,783.44,779.11,775.77,772.27,769.65,767.77,766.38,766.63,768.38,770.71,773.28,776.36,778.92,781.08,783.09,785.43,788.39,789.98,790.58,790.87,790.85,790.49,788.89,785.80,782.22,780.42,778.87,776.57,772.83,769.52,766.36,763.81,763.29,767.54,771.45,774.30,775.93,775.99,775.08,775.63,778.10,782.50,787.28,791.25,794.64,797.43,799.10,799.71,800.29,801.03,801.76,802.49,803.48,804.46,805.15,805.50,805.77,806.00,806.18,806.30,806.37,806.56,806.96,807.63,808.27,808.60,808.87,809.19,809.41,809.20,808.87,808.62,808.55,808.34,807.89,806.68,804.15,800.46,795.39,790.26,785.67,781.99,779.82,778.52,777.48,776.38,775.53,775.60,776.37,777.95,780.97,787.41,792.94,796.53,798.33,797.70,796.23,795.61,796.84,798.92,800.38,801.49,802.43,803.18,802.43,801.35,799.39,795.39,790.66,788.52,789.29,792.72,796.76,799.61,801.38,802.54,803.67,804.63,805.34,805.55,804.97,803.92,802.79,801.44,799.54,796.49,792.90,791.72,793.36,797.20,798.85,799.40,799.67,799.75,799.16,798.27,797.19,796.00,794.76,793.32,791.54,789.38,786.68,783.38,780.34,777.61,775.16,772.70
785.34,786.00,786.67,787.41,788.21,788.13,788.19,788.41,788.69,788.95,789.17,789.75,790.62,791.61,792.73,793.88,794.90,795.97,798.26,800.29,802.01,803.16,802.88,801.44,799.87,796.92,791.23,787.34,784.06,783.39,785.93,788.77,792.39,796.59,800.60,803.22,805.38,806.28,806.35,806.03,805.76,805.53,805.41,805.32,804.97,804.43,803.68,802.61,800.86,797.85,794.54,791.82,790.23,789.76,789.57,788.57,787.17,786.86,787.68,789.46,791.85,794.12,793.90,792.03,788.81,784.56,780.43,779.02,778.23,777.51,776.97,776.62,777.72,779.99,783.22,786.90,790.60,793.64,795.80,796.82,796.87,796.20,795.22,794.33,794.02,793.57,793.16,793.09,793.68,794.91,796.22,797.32,798.02,798.31,799.04,800.15,801.47,802.60,802.60,802.16,801.70,801.46,801.04,800.62,799.77,797.66,793.37,788.85,784.76,781.12,777.40,773.58,770.22,767.53,766.19,767.94,770.28,772.65,775.17,778.23,780.75,783.14,785.59,788.00,789.63,790.43,790.84,791.13,790.96,790.55,789.22,786.88,784.59,783.06,781.38,778.74,774.35,770.09,766.31,763.99,764.47,768.78,772.51,776.05,779.22,780.73,780.22,778.54,778.26,781.63,785.91,789.75,792.97,795.45,797.17,798.06,799.09,800.27,801.22,802.01,803.00,803.97,804.66,805.06,805.42,805.70,805.84,805.90,805.85,805.99,806.35,806.94,807.87,808.40,808.79,809.17,809.51,809.40,809.20,809.08,809.01,808.62,807.88,806.25,803.19,798.89,793.89,789.06,784.62,780.65,779.05,777.98,776.97,776.23,776.29,776.63,777.12,777.95,779.99,786.56,793.20,798.21,800.73,800.65,799.03,797.59,797.74,799.94,801.41,802.40,803.17,803.74,802.94,801.78,800.14,797.12,792.03,789.92,790.92,794.40,797.86,800.06,801.51,802.64,803.81,805.21,805.92,805.55,804.01,802.70,801.52,799.95,797.50,793.69,790.01,788.74,790.13,793.72,795.96,797.21,798.00,798.27,797.35,795.99,794.77,793.81,793.01,791.60,789.50,786.47,782.51,779.36,776.58,773.95,771.34,768.24
786.06,786.80,787.43,788.03,788.71,788.78,788.97,789.23,789.49,789.77,790.02,790.79,792.01,793.26,794.43,795.63,796.52,797.02,798.01,799.69,801.69,803.18,802.49,800.79,798.29,794.88,790.54,787.27,784.68,784.69,787.78,790.90,794.31,797.91,801.27,803.67,805.58,806.27,806.18,805.72,805.33,805.26,805.37,805.51,805.56,805.38,804.86,803.63,801.15,797.90,794.23,791.94,791.81,792.34,791.76,790.27,788.81,789.03,790.45,793.05,795.72,797.11,795.74,793.35,789.98,785.60,780.71,779.15,778.53,777.98,777.41,777.00,777.13,778.50,781.64,786.15,790.30,793.30,794.87,794.74,794.41,793.59,792.54,791.58,790.90,790.14,789.82,790.13,790.96,792.25,793.74,795.33,796.95,798.40,799.52,800.49,801.40,802.22,802.15,801.69,801.22,801.12,800.76,800.33,798.95,795.71,791.81,787.63,783.60,779.67,775.38,772.00,769.19,767.23,767.18,769.42,771.80,774.09,776.44,779.05,781.57,784.05,786.51,788.81,790.00,790.63,791.04,791.32,791.05,790.62,789.92,788.63,786.22,783.97,781.84,778.99,774.29,769.82,765.73,763.81,765.47,769.57,773.35,777.00,780.46,783.02,783.64,782.24,780.62,780.88,783.86,787.55,790.67,792.85,794.49,796.12,798.01,799.77,800.70,801.50,802.27,803.03,803.73,804.38,805.10,805.59,805.79,805.75,805.64,805.65,805.83,806.30,807.24,808.17,808.84,809.22,809.53,809.49,809.35,809.21,809.06,808.64,807.38,805.33,802.46,798.85,794.14,789.25,784.56,780.48,778.91,777.89,777.14,777.05,777.48,777.93,778.23,778.59,780.00,784.94,792.04,798.83,801.72,802.85,801.09,798.94,798.68,800.90,802.46,803.48,804.16,804.43,804.00,802.97,801.44,799.00,794.06,792.45,793.85,797.16,799.56,800.93,801.95,802.91,803.97,805.51,806.10,805.36,803.37,801.66,799.88,797.60,794.71,791.35,788.11,786.36,786.91,790.21,792.51,793.90,794.76,795.02,794.30,792.85,791.70,791.19,791.17,789.28,786.04,782.44,779.14,776.01,773.06,769.96,766.50,762.44
786.87,787.64,788.31,788.88,789.38,789.56,789.80,790.06,790.31,790.61,790.86,791.68,793.02,794.54,795.93,797.30,798.40,798.97,799.11,800.10,802.04,803.55,801.37,799.28,796.66,793.60,790.41,787.51,785.45,785.85,789.04,792.33,795.60,798.74,801.56,803.75,805.49,806.06,805.92,805.47,804.92,805.00,805.24,805.48,805.68,805.66,805.23,803.88,800.90,797.66,794.84,793.87,794.96,795.42,794.05,792.35,791.49,792.74,794.54,796.85,798.73,799.01,796.95,794.15,790.71,786.42,781.43,779.63,779.01,778.61,778.06,777.58,777.17,777.92,780.73,785.53,789.87,792.62,793.55,792.65,791.98,791.12,790.17,789.27,788.44,787.70,788.00,789.38,790.63,792.08,793.73,795.58,797.57,799.18,800.17,800.83,801.34,801.75,801.59,801.15,800.69,800.55,800.13,799.25,797.13,793.23,789.60,786.08,782.36,778.16,773.44,770.34,768.16,767.18,768.34,770.50,772.62,774.70,776.82,779.03,781.46,784.06,786.74,789.22,790.23,790.77,791.20,791.47,791.16,790.70,790.27,789.40,786.76,783.93,781.33,778.19,773.32,768.80,765.21,764.14,766.55,770.12,773.80,777.44,781.01,784.32,786.37,786.18,784.51,782.63,783.26,786.20,789.17,791.27,792.86,794.65,796.59,798.41,799.69,800.68,801.42,802.21,803.20,804.04,804.95,805.57,805.81,805.73,805.57,805.47,805.54,805.98,806.94,808.13,808.97,809.31,809.55,809.61,809.52,809.31,808.85,807.83,806.16,804.17,801.92,799.05,794.73,789.89,784.99,780.55,778.99,778.07,777.51,777.79,778.44,779.38,780.13,780.62,781.69,785.30,792.21,799.62,802.43,804.39,803.16,800.97,800.17,802.22,803.72,804.62,805.08,805.20,804.93,803.96,802.45,800.13,795.45,795.02,796.92,799.39,800.92,801.85,802.65,803.49,804.46,805.88,806.58,806.00,803.91,801.65,799.62,797.29,794.47,791.41,788.57,785.47,783.78,785.68,787.99,789.83,791.00,791.41,791.18,790.21,789.35,789.01,789.22,787.31,783.65,779.76,776.67,773.46,770.15,766.54,762.47,758.01
787.71,788.46,789.26,789.90,790.26,790.49,790.72,790.96,791.20,791.48,791.73,792.43,793.67,795.43,797.16,798.88,800.49,801.66,801.51,801.69,803.21,804.30,800.16,797.66,795.53,793.30,790.82,788.00,786.24,786.80,789.88,793.16,796.32,799.12,801.52,803.48,805.09,805.65,805.59,805.25,804.54,804.76,805.13,805.35,805.55,805.53,805.09,803.60,800.38,797.34,796.25,797.05,798.82,798.33,796.00,794.47,794.77,797.30,799.21,800.32,800.61,799.78,797.45,794.41,790.97,787.07,782.73,780.67,779.86,779.43,778.83,778.18,777.69,778.17,780.47,785.05,789.30,791.67,792.00,790.71,789.73,788.88,788.07,787.27,786.50,786.13,787.43,790.15,791.94,793.69,795.52,797.45,799.31,800.21,800.67,800.97,801.16,801.15,800.87,800.41,799.90,799.56,799.00,797.41,794.57,790.52,786.98,784.23,781.06,776.88,771.98,768.99,767.45,767.44,769.45,771.19,772.92,774.72,776.59,778.49,780.77,783.51,786.57,789.43,790.40,790.92,791.36,791.61,791.27,790.76,790.18,789.06,786.17,783.08,780.10,776.63,771.78,767.34,764.81,764.86,767.57,770.46,773.95,777.58,781.24,785.05,788.48,789.82,789.00,786.29,784.01,785.87,788.73,791.00,792.69,794.22,795.54,796.92,798.70,799.92,800.76,801.79,803.18,804.10,804.97,805.58,805.85,805.77,805.57,805.40,805.44,805.93,806.93,808.24,809.13,809.42,809.57,809.67,809.61,809.23,808.15,806.14,804.18,802.51,800.99,798.79,795.12,790.65,785.71,780.82,779.23,778.42,777.99,778.34,779.09,780.80,782.58,783.93,784.91,787.79,793.92,800.65,803.07,805.38,805.17,803.52,802.19,803.88,805.14,805.77,805.97,805.99,805.59,804.60,803.02,800.51,796.19,797.28,799.69,800.98,801.95,802.76,803.54,804.34,805.22,806.37,807.37,807.29,805.38,802.64,800.72,798.81,796.41,793.35,790.71,785.92,781.42,781.17,783.08,785.27,786.89,787.71,788.22,788.14,787.68,787.24,787.21,785.76,782.50,778.68,775.25,771.76,767.86,763.75,759.46,755.32
788.56,789.18,790.05,790.92,791.51,791.75,791.97,792.18,792.36,792.57,792.80,793.31,794.34,796.16,797.99,800.32,802.80,804.67,804.61,804.89,805.42,805.10,801.86,799.38,796.94,794.36,791.63,788.75,787.01,787.58,790.51,793.31,796.04,798.60,800.85,802.58,804.11,804.94,805.14,804.74,803.87,804.46,805.09,805.27,805.44,805.45,805.01,803.57,800.59,798.17,798.38,799.74,800.82,799.67,796.83,796.08,797.62,799.67,801.14,801.44,800.88,799.49,796.86,793.73,790.68,787.87,785.20,783.32,781.94,780.70,779.36,778.17,778.06,778.75,780.60,784.94,788.84,790.77,790.73,789.36,788.15,787.14,786.25,785.44,784.68,784.94,786.49,788.96,791.11,793.34,795.62,797.83,799.62,800.13,800.29,800.34,800.32,800.22,799.73,798.79,797.75,797.22,796.53,795.07,792.51,788.69,784.77,781.47,778.50,775.29,771.01,768.47,767.61,768.19,770.12,771.70,773.35,775.07,776.81,778.54,780.71,783.45,786.59,789.48,790.55,791.19,791.67,791.78,791.27,790.69,789.48,787.25,783.92,781.13,778.29,774.92,770.63,766.49,764.68,765.21,767.77,770.52,774.08,777.89,781.86,786.06,789.38,790.92,790.70,788.59,785.22,787.04,790.26,793.00,795.51,797.45,798.56,799.29,800.28,801.01,801.81,802.85,804.04,804.67,805.13,805.48,805.70,805.65,805.46,805.31,805.38,805.92,806.97,808.34,809.27,809.52,809.58,809.39,809.11,808.22,805.75,803.28,800.94,798.78,796.92,795.42,793.57,790.47,786.12,781.58,779.70,778.80,778.40,778.63,779.23,781.38,784.69,788.14,789.37,792.62,797.29,801.81,804.00,806.11,806.30,805.37,804.54,805.73,806.47,806.91,807.05,806.46,805.68,804.37,802.59,800.25,796.57,798.02,800.55,801.84,802.89,803.72,804.50,805.28,806.12,807.22,808.17,808.13,806.51,804.56,802.64,800.55,798.01,794.63,791.48,787.22,783.33,781.95,780.80,781.15,782.51,784.38,785.99,786.49,786.11,785.43,785.27,784.59,782.63,779.75,776.07,771.45,766.26,761.59,757.87,755.40
789.42,790.03,790.93,791.90,792.71,793.05,793.27,793.47,793.64,793.82,793.97,794.23,794.99,796.83,798.56,801.46,804.78,807.33,807.43,807.66,807.39,806.13,803.64,801.07,798.18,795.08,791.98,788.97,787.34,787.80,790.25,792.50,794.54,796.88,799.35,801.32,802.87,803.82,804.13,803.73,803.33,804.19,804.97,805.22,805.35,805.37,805.06,804.05,802.04,800.56,801.18,802.26,802.41,800.52,797.87,797.82,799.89,801.49,802.29,801.79,800.49,798.63,795.86,792.73,790.04,788.03,786.37,784.63,782.88,781.07,779.24,778.17,778.46,779.42,781.21,785.16,788.41,789.82,789.54,788.23,786.91,785.69,784.61,783.70,782.96,783.79,785.49,787.62,789.90,792.35,794.56,796.48,797.93,798.19,798.21,798.15,798.02,797.90,797.41,796.37,795.15,794.57,793.85,792.63,790.65,787.64,783.98,780.73,777.96,775.16,771.07,768.45,767.88,768.85,770.64,772.17,773.81,775.47,777.11,778.75,780.86,783.52,786.59,789.46,790.62,791.38,791.95,792.07,791.45,790.75,789.20,786.37,782.60,780.05,777.47,774.43,770.81,766.92,764.82,764.99,767.42,770.20,773.98,778.18,782.57,787.02,790.06,791.64,791.81,790.21,786.84,788.36,791.50,794.58,797.62,799.78,800.91,801.52,802.25,802.69,803.27,804.00,804.76,805.10,805.27,805.42,805.53,805.47,805.31,805.22,805.35,805.88,806.91,808.29,809.26,809.54,809.58,809.17,808.41,806.76,803.20,799.74,796.46,793.40,790.84,789.49,789.04,787.86,785.36,781.81,779.96,779.03,778.68,778.90,779.38,782.61,787.28,791.81,793.78,797.71,801.69,804.68,806.09,807.50,807.80,807.44,807.10,807.71,807.88,807.89,807.67,806.69,805.67,804.05,802.03,799.93,797.70,799.15,801.35,802.72,803.88,804.72,805.51,806.30,807.10,808.09,808.91,808.86,807.46,805.85,803.65,801.18,798.49,795.38,792.38,789.38,786.80,784.88,781.25,779.14,779.48,782.07,784.11,784.94,784.63,783.80,783.46,783.19,782.12,779.97,776.38,771.35,765.02,759.89,756.98,756.28
790.30,791.06,791.94,792.86,793.77,794.34,794.60,794.79,795.02,795.23,795.21,795.16,795.63,797.41,798.90,802.21,806.24,809.35,809.63,809.47,808.83,807.43,804.89,801.96,798.60,795.07,791.63,788.49,787.22,787.57,789.13,790.74,791.88,793.99,796.96,799.69,801.40,802.31,802.50,802.25,802.94,803.88,804.67,805.14,805.26,805.29,805.22,805.00,804.63,804.27,804.39,804.48,803.83,801.27,799.58,799.90,801.62,803.03,803.02,801.67,799.64,797.31,794.61,791.56,789.13,787.42,785.73,784.03,782.25,780.32,778.46,778.32,778.90,780.14,782.33,785.66,787.99,788.83,788.44,787.24,785.95,784.54,783.19,782.11,781.40,782.59,784.46,786.45,788.55,790.81,792.32,793.29,794.13,794.26,794.26,794.23,794.15,794.00,793.79,793.15,792.29,791.86,791.22,790.20,788.90,787.23,784.71,782.44,779.97,776.76,772.18,768.83,768.12,769.29,771.04,772.65,774.28,775.87,777.39,779.03,781.14,783.69,786.56,789.42,790.61,791.45,792.18,792.49,791.84,791.04,789.60,787.01,782.95,780.45,778.12,775.51,772.49,768.70,765.34,764.32,766.60,769.50,773.68,778.41,783.28,787.84,790.70,792.39,792.76,791.29,788.79,789.51,791.94,795.08,798.15,800.22,801.57,802.68,803.96,804.51,804.72,804.89,805.13,805.25,805.34,805.40,805.38,805.25,805.13,805.14,805.33,805.80,806.69,808.06,809.08,809.44,809.60,809.09,807.62,805.03,800.96,795.84,790.95,786.71,783.49,781.73,781.89,782.82,783.23,781.29,779.88,779.08,778.88,779.35,780.02,784.95,790.51,794.66,797.83,802.50,806.69,809.26,809.33,809.62,809.78,809.76,809.64,809.66,809.30,808.62,807.69,806.68,805.63,803.85,801.63,799.82,799.81,801.04,802.51,803.78,804.91,805.76,806.57,807.40,808.16,808.89,809.55,809.53,808.27,806.21,803.46,800.59,797.93,795.76,793.79,792.26,790.94,788.99,784.24,779.58,778.23,780.80,782.44,783.41,783.24,782.36,781.82,781.46,780.52,778.67,775.53,771.12,764.08,758.68,756.67,757.57
791.28,792.10,793.00,793.92,794.85,795.59,795.96,796.20,796.43,796.63,796.36,795.99,796.15,797.70,799.00,802.46,806.74,810.00,810.38,810.17,809.71,808.55,805.51,801.82,798.03,794.29,790.74,787.96,788.17,789.09,789.49,789.68,790.21,791.74,794.23,797.26,799.56,800.84,801.38,801.49,802.07,802.93,803.79,804.50,804.89,805.11,805.19,805.19,805.16,805.14,805.19,805.14,804.70,803.44,802.73,802.95,803.77,804.24,803.46,801.48,798.94,796.23,793.40,790.66,788.46,786.80,785.13,783.44,781.68,779.89,778.44,778.63,779.27,780.79,783.32,785.69,787.54,788.10,787.49,786.32,785.11,783.79,782.44,781.19,780.42,781.30,782.95,784.71,785.94,787.64,788.87,789.65,790.27,790.36,790.36,790.42,790.51,790.33,790.17,789.93,789.63,789.40,788.94,788.09,786.99,785.73,784.33,782.68,780.63,777.62,772.57,768.86,768.32,769.83,771.56,773.55,774.97,776.29,777.87,779.50,781.65,784.17,786.92,789.56,790.76,791.68,792.48,792.83,792.18,791.38,790.37,788.72,785.67,782.93,780.19,777.25,773.90,770.28,766.75,765.02,766.27,769.13,773.76,778.79,783.72,788.25,791.01,792.92,793.70,792.57,790.30,790.12,791.81,794.85,797.85,799.95,801.42,802.60,803.72,804.53,804.89,805.04,805.14,805.23,805.30,805.34,805.30,805.14,804.86,804.94,805.27,805.72,806.51,807.74,808.80,809.38,809.42,808.83,806.92,803.93,800.03,793.92,787.43,782.65,780.79,779.91,780.03,780.62,781.06,780.29,779.60,779.31,779.71,781.25,784.04,788.79,793.59,797.57,801.36,805.90,809.16,810.67,810.58,810.54,810.45,810.35,810.25,810.04,809.50,808.67,807.65,806.68,805.66,804.03,802.22,801.11,801.73,802.88,804.04,805.06,805.99,806.76,807.58,808.45,809.18,809.65,810.08,810.14,809.18,806.53,803.85,801.47,799.44,797.66,795.54,793.69,792.04,789.91,785.43,780.49,777.80,778.49,780.44,781.58,781.57,780.84,780.28,779.77,778.48,776.53,773.88,769.83,763.20,758.13,756.58,758.71
792.28,793.15,794.06,794.95,795.84,796.75,797.28,797.61,797.84,797.92,797.45,796.86,796.75,797.92,799.09,802.70,807.07,810.19,810.60,810.44,810.20,809.11,805.24,800.89,796.85,793.13,789.84,787.97,789.73,791.36,790.98,789.80,790.35,791.96,794.19,796.74,798.90,800.12,800.76,801.09,801.23,801.84,802.64,803.41,803.96,804.35,804.58,804.75,804.93,805.16,805.32,805.36,805.25,805.08,805.00,805.08,805.20,804.95,803.64,801.33,798.47,795.33,792.20,789.72,787.73,786.06,784.45,782.80,781.11,779.57,778.61,778.96,779.73,781.37,783.90,785.63,787.27,787.64,786.82,785.66,784.50,783.30,782.01,780.69,779.89,780.15,781.18,782.44,782.90,783.95,784.90,785.67,786.32,786.58,786.69,786.88,787.11,786.87,786.69,786.76,786.99,787.02,786.75,786.04,785.02,783.93,783.31,782.15,780.31,777.31,772.33,768.86,768.73,770.69,772.73,775.11,776.34,777.27,778.53,780.06,782.15,784.65,787.35,789.80,790.99,791.98,792.83,793.15,792.52,791.76,791.02,789.99,787.69,784.68,781.54,778.30,774.77,771.37,767.80,765.65,766.20,768.91,773.79,779.04,784.02,788.48,791.13,793.12,794.35,794.03,791.87,790.83,791.59,794.05,796.85,798.99,800.52,801.64,802.58,803.52,804.13,804.51,804.79,805.07,805.19,805.23,805.18,804.96,804.47,804.60,805.12,805.63,806.34,807.39,808.43,809.11,809.03,808.43,806.35,803.14,799.25,792.54,785.15,780.32,779.73,779.60,779.59,779.63,779.66,779.58,779.50,780.06,781.43,784.01,788.39,792.69,796.63,800.33,804.28,808.25,810.47,811.10,811.08,810.93,810.68,810.43,810.21,809.84,809.23,808.42,807.50,806.58,805.61,804.25,802.95,802.52,803.35,804.42,805.39,806.22,807.01,807.75,808.56,809.37,809.97,810.25,810.46,810.49,809.67,806.45,803.86,801.98,800.47,798.63,796.22,793.88,791.67,789.21,785.19,780.67,777.30,776.28,777.89,779.04,779.33,779.03,778.72,778.05,776.44,774.43,772.15,768.23,762.34,757.88,756.71,759.48
793.28,794.22,795.09,795.88,796.72,797.74,798.50,799.01,799.23,799.04,798.49,797.83,797.50,798.16,799.30,803.15,807.51,810.16,810.44,810.40,810.20,808.72,803.59,798.94,795.01,791.64,789.15,788.98,791.98,794.29,793.88,791.79,793.30,796.22,798.87,799.79,800.45,800.71,800.86,801.02,800.66,800.77,801.19,801.72,802.15,802.59,803.03,803.50,804.12,804.79,805.19,805.39,805.40,805.22,805.17,805.21,805.24,804.92,803.47,801.24,798.29,794.61,790.98,788.60,786.78,785.16,783.60,782.04,780.52,779.29,778.81,779.27,780.34,781.92,783.89,785.64,787.34,787.59,786.59,785.43,784.26,783.10,781.87,780.64,779.88,779.33,779.25,779.58,779.72,780.10,780.64,781.36,782.28,783.02,783.43,783.77,784.04,783.67,783.47,783.73,784.30,784.71,784.63,783.96,783.00,782.06,781.58,780.85,778.83,775.29,771.30,768.93,769.52,772.09,775.00,777.60,778.82,779.26,779.58,780.80,782.63,785.02,787.73,790.13,791.32,792.36,793.21,793.48,792.88,792.11,791.28,790.06,787.54,784.33,781.06,777.88,774.78,771.65,767.85,765.59,766.38,768.85,773.59,778.97,784.17,788.50,791.00,792.78,794.45,795.64,793.69,791.98,791.54,792.66,795.03,797.12,798.61,799.67,800.59,801.42,802.25,803.08,803.88,804.68,804.93,804.98,804.92,804.60,803.90,804.08,804.81,805.52,806.17,807.05,807.90,808.47,808.39,807.83,805.86,802.58,798.13,791.29,784.28,779.95,779.70,779.55,779.57,779.63,779.63,779.57,779.84,781.62,784.40,787.68,791.98,796.07,799.63,802.79,806.32,809.25,810.72,811.06,811.03,810.85,810.62,810.29,809.79,809.22,808.61,807.93,807.16,806.31,805.39,804.35,803.54,803.53,804.46,805.40,806.26,807.06,807.90,808.73,809.50,810.10,810.39,810.57,810.61,810.40,809.32,805.62,802.95,801.21,799.73,797.27,794.79,792.36,789.81,786.85,783.16,779.49,776.53,774.84,774.76,775.57,776.29,776.75,777.06,776.29,774.63,772.72,770.56,766.54,761.49,757.92,757.16,759.68
794.29,795.16,795.98,796.75,797.57,798.65,799.80,800.74,801.17,800.63,799.52,798.71,798.44,798.89,800.04,803.88,807.96,810.12,810.46,810.37,809.50,806.80,800.64,796.20,792.67,790.08,789.36,791.46,795.31,797.88,797.77,796.27,797.96,800.55,802.50,802.57,802.56,802.37,802.00,801.42,800.54,799.72,799.21,799.15,799.59,800.21,800.91,801.63,802.39,803.30,804.05,804.67,805.13,805.27,805.27,805.21,804.99,804.26,802.73,800.46,797.31,793.29,789.95,787.70,785.84,784.11,782.56,781.12,780.02,779.27,778.99,779.49,781.11,783.12,785.02,786.43,787.93,788.02,786.87,785.67,784.44,783.23,782.05,781.00,780.41,780.04,779.79,779.55,779.11,778.70,778.52,778.74,779.51,780.17,780.75,781.13,781.16,780.75,780.66,780.97,781.57,782.17,782.36,781.89,781.01,780.03,779.49,778.70,776.88,773.89,770.60,769.18,770.50,773.60,777.02,780.02,781.75,782.58,782.97,783.85,784.34,785.78,788.20,790.54,791.96,793.19,793.92,793.57,792.63,791.73,790.86,789.50,786.44,782.95,779.79,776.96,774.21,771.31,767.40,765.30,766.68,768.94,773.66,779.02,783.96,787.51,789.71,791.27,793.19,795.72,795.47,794.25,793.46,793.52,794.09,794.88,795.85,796.91,798.03,799.07,800.02,800.92,801.78,802.68,803.27,803.61,803.70,803.40,803.12,803.61,804.52,805.33,805.94,806.65,807.35,807.82,807.66,806.58,804.30,800.64,795.19,789.19,783.71,780.31,779.77,779.59,779.65,780.00,780.31,779.93,781.05,783.54,786.88,790.71,795.04,798.89,802.06,804.69,807.50,809.29,809.99,810.04,810.03,810.05,809.92,809.59,809.00,808.38,807.77,807.15,806.51,805.78,804.99,804.17,803.61,803.78,804.63,805.66,806.72,807.75,808.64,809.40,809.98,810.35,810.49,810.61,810.51,809.61,807.28,803.76,801.06,798.69,796.29,793.61,791.07,787.98,784.87,782.56,780.25,779.13,778.35,777.41,776.40,775.25,774.44,774.24,774.84,774.65,773.42,771.65,769.29,765.02,760.67,758.11,758.16,760.73
795.26,796.05,796.82,797.59,798.44,799.66,801.25,802.65,803.31,802.58,800.98,800.06,799.90,800.07,801.34,804.97,808.53,810.10,810.48,810.31,808.35,803.96,797.33,793.34,790.86,789.82,791.10,794.76,798.61,800.98,801.32,800.90,802.37,804.11,805.14,804.79,804.50,804.06,803.22,801.81,800.40,798.55,796.98,796.16,796.47,797.23,798.04,798.91,800.00,801.47,802.65,803.64,804.43,804.77,804.73,804.56,804.18,803.15,801.65,799.17,795.73,791.70,788.92,786.83,784.91,783.07,781.51,780.28,779.61,779.28,779.20,779.81,782.28,784.99,786.85,787.84,788.79,788.54,787.28,786.02,784.73,783.44,782.35,781.65,781.32,781.29,781.08,780.50,779.61,778.63,777.80,777.36,777.60,777.83,778.40,778.74,778.53,778.09,778.07,778.33,778.82,779.52,779.86,779.57,778.79,777.76,777.12,776.19,774.69,772.50,769.95,769.48,771.53,775.11,778.92,782.30,784.67,786.13,786.82,787.21,786.25,786.74,788.90,791.13,792.81,794.13,794.54,793.44,792.15,791.04,789.92,788.22,784.76,781.19,778.20,775.67,773.22,770.42,766.85,765.25,767.09,769.16,774.03,779.23,783.53,786.37,788.39,790.03,792.33,795.77,797.21,796.83,796.10,795.49,794.52,794.09,794.41,795.27,796.33,797.32,798.13,798.85,799.57,800.45,801.32,801.93,802.24,802.26,802.36,803.10,804.16,805.07,805.67,806.25,806.80,807.18,806.98,805.52,803.11,799.47,793.98,788.88,784.65,781.66,780.23,779.72,779.74,780.54,781.47,781.01,782.81,785.73,789.37,793.70,797.82,801.32,804.07,806.11,807.97,808.72,808.82,808.71,808.78,809.01,809.01,808.69,808.07,807.46,806.84,806.27,805.75,805.16,804.54,803.90,803.53,803.79,804.53,805.62,806.88,808.16,809.19,809.86,810.23,810.39,810.43,810.50,810.35,808.91,805.46,801.88,799.04,796.11,792.95,790.09,787.11,783.67,780.72,779.54,778.82,779.70,780.61,780.48,779.08,776.40,773.80,772.22,772.68,773.05,772.18,770.22,767.25,763.21,759.84,758.43,759.39,762.20
796.10,796.88,797.66,798.43,799.34,800.97,803.09,804.81,805.57,805.10,803.48,802.69,802.53,802.06,803.75,806.81,809.35,810.14,810.32,810.16,806.57,799.84,794.05,790.76,790.75,792.94,796.18,799.14,801.04,802.32,803.25,804.05,804.89,805.61,806.01,805.76,805.57,805.06,803.88,801.83,799.86,797.08,794.45,792.69,792.49,793.15,793.66,794.46,796.55,799.54,801.31,802.37,802.98,802.86,802.55,802.38,802.14,801.29,800.16,797.08,793.19,789.83,787.77,785.90,784.03,782.19,780.54,779.78,779.38,779.20,779.46,780.47,784.43,788.10,789.65,790.29,789.95,788.94,787.59,786.29,784.98,783.63,782.77,782.80,782.86,782.83,782.52,781.88,781.08,780.17,779.11,777.99,776.94,776.26,776.40,776.61,776.38,775.89,775.70,775.76,776.08,776.67,776.87,776.59,775.93,775.00,774.24,773.39,772.20,770.66,769.22,769.78,772.54,776.56,780.66,784.30,787.24,789.30,790.18,789.72,787.85,787.96,790.12,792.12,793.99,794.98,794.67,792.93,791.57,790.12,788.17,785.54,782.28,779.17,776.32,773.80,771.53,768.56,766.36,765.97,767.65,769.61,774.99,779.72,782.82,785.57,787.83,790.38,793.46,796.91,798.88,799.31,799.15,798.69,797.85,797.29,797.07,797.10,797.25,797.34,797.39,797.56,798.03,798.79,799.63,800.28,800.88,801.85,801.79,802.45,803.63,804.67,805.33,805.85,806.31,806.62,806.49,805.48,803.67,801.34,798.55,793.87,789.26,785.06,781.60,780.01,779.80,781.23,783.34,783.69,785.38,788.28,792.25,797.02,800.25,803.17,805.42,806.71,807.24,807.23,807.21,807.33,807.54,807.88,807.98,807.72,807.11,806.49,805.87,805.35,804.93,804.51,804.07,803.63,803.42,803.76,804.38,805.32,806.53,807.97,809.36,809.99,810.24,810.29,810.19,810.24,810.19,808.93,805.48,800.70,797.39,794.61,791.79,788.64,784.26,781.66,780.89,781.27,781.84,782.05,782.08,781.87,780.90,778.99,775.39,771.63,771.11,771.44,770.36,767.39,763.01,760.52,758.97,758.97,760.83,764.13
796.80,797.58,798.38,799.26,800.44,802.40,804.74,806.72,807.85,807.81,806.49,805.40,804.69,804.10,805.56,807.98,809.80,810.16,810.12,808.37,803.61,796.83,791.98,790.97,793.16,796.64,799.58,801.70,802.86,803.78,804.81,805.85,806.29,806.61,806.81,806.56,806.14,805.47,804.22,802.17,800.13,797.05,793.66,790.94,790.49,790.63,790.69,791.11,792.82,795.91,798.97,800.78,800.88,800.22,799.48,799.03,798.79,798.25,797.01,794.06,790.76,788.36,786.64,784.93,783.12,781.35,780.07,779.61,779.47,780.16,782.65,785.80,789.41,791.96,792.64,792.44,791.00,789.33,787.80,786.38,784.98,784.25,784.08,784.29,784.45,784.37,783.96,783.22,782.31,781.32,780.27,779.12,777.89,776.99,776.57,776.31,775.98,775.57,775.30,775.06,774.82,774.64,774.59,774.37,773.90,773.12,772.12,771.36,770.55,769.68,769.41,770.77,773.80,777.91,782.46,786.64,789.55,791.60,792.55,791.28,789.10,789.04,791.13,793.33,795.27,795.65,794.63,792.60,790.84,788.25,785.32,782.47,780.12,777.39,774.34,771.49,769.47,767.01,766.10,766.67,768.57,771.21,775.88,780.02,783.13,786.21,788.99,791.98,795.26,798.50,800.49,801.47,801.90,801.86,801.30,800.72,800.25,799.89,799.60,799.30,798.92,798.63,798.63,799.04,799.66,800.24,800.95,802.18,801.75,801.77,802.49,803.65,804.85,805.45,805.84,806.13,806.04,805.45,804.19,802.50,800.57,797.04,792.25,786.98,782.27,780.14,779.82,781.64,784.65,786.26,788.28,791.68,795.78,799.50,801.85,804.00,805.57,806.20,806.03,805.71,805.68,806.00,806.53,807.16,807.17,806.72,806.07,805.58,805.13,804.76,804.42,803.97,803.53,803.13,802.91,803.13,803.82,804.84,806.09,807.51,808.83,809.41,809.58,809.58,809.59,809.96,810.13,809.37,806.90,802.76,798.88,795.52,792.45,789.01,785.60,784.17,784.21,784.55,784.54,783.92,783.12,782.30,781.27,779.57,776.05,771.81,769.60,768.74,766.87,763.96,760.81,759.60,759.55,760.86,763.44,766.56
797.46,798.24,799.12,800.19,801.69,803.91,806.40,808.51,809.80,810.03,809.09,807.71,806.39,805.81,806.92,808.75,810.04,810.05,809.40,805.78,800.32,794.51,791.28,792.76,796.44,800.12,802.17,803.66,804.66,805.55,806.45,807.22,807.38,807.49,807.54,807.13,806.42,805.60,804.38,802.55,800.64,797.57,793.86,790.64,790.06,789.66,789.19,788.93,789.61,792.06,796.00,798.47,798.18,797.10,795.95,795.19,794.87,794.73,793.37,790.92,788.54,787.03,785.50,783.91,782.19,780.61,779.93,779.99,780.67,782.90,787.81,792.47,794.92,795.76,795.35,793.99,791.66,789.54,787.87,786.36,785.13,785.17,785.69,785.92,786.07,785.89,785.35,784.46,783.39,782.32,781.34,780.38,779.38,778.55,777.72,777.05,776.65,776.34,776.06,775.59,774.84,773.93,773.71,773.62,773.32,772.51,771.11,770.16,769.53,769.31,770.08,772.03,775.08,779.11,784.11,788.75,791.53,793.45,794.57,792.84,790.65,790.46,792.31,794.66,796.51,796.21,794.53,792.35,790.15,786.42,782.60,779.63,777.93,775.54,772.56,769.70,767.89,765.92,766.05,767.45,769.62,772.87,776.50,780.09,783.60,787.21,790.55,793.82,797.05,800.01,801.86,803.24,804.17,804.54,804.35,803.88,803.40,802.96,802.50,802.08,801.52,800.96,800.58,800.65,800.93,801.31,801.90,802.83,802.01,801.30,801.33,802.35,803.91,804.62,805.04,805.42,805.43,805.18,804.31,802.89,801.04,798.38,793.22,787.23,782.23,780.15,779.91,782.03,785.74,788.65,791.20,795.04,798.97,801.25,802.86,804.23,805.10,805.21,804.67,804.22,804.31,804.89,805.75,806.56,806.41,805.78,805.15,804.81,804.55,804.31,804.00,803.47,802.99,802.56,802.25,802.27,803.03,804.20,805.52,806.84,807.91,808.42,808.56,808.58,808.87,809.63,810.09,809.92,808.70,805.86,801.56,797.49,794.03,790.66,788.79,788.34,788.33,787.65,786.18,784.70,783.33,782.06,780.83,778.99,775.90,771.95,768.29,765.90,763.37,761.16,760.14,760.35,761.70,764.05,767.04,769.71
798.16,798.94,800.04,801.44,803.21,805.51,808.31,810.20,810.62,810.36,809.64,808.47,807.14,806.36,807.51,809.05,810.02,809.57,806.97,802.51,797.31,793.20,793.74,796.52,799.58,802.19,804.08,805.78,807.10,808.17,808.89,808.82,808.75,808.56,808.10,807.17,806.32,805.48,804.33,802.71,800.99,798.11,795.27,793.24,792.56,792.03,790.88,789.41,788.49,789.54,792.13,794.08,794.25,793.18,792.02,791.08,790.68,791.07,790.11,788.48,786.90,785.71,784.26,782.76,781.31,780.22,780.30,781.84,785.27,790.36,796.17,798.05,798.69,798.44,796.92,793.86,791.16,789.18,787.67,786.25,786.13,786.67,787.28,787.59,787.70,787.32,786.53,785.44,784.32,783.27,782.34,781.50,780.75,780.17,779.56,779.07,778.79,778.55,778.39,778.02,777.38,776.64,776.68,776.93,776.63,775.17,772.99,770.83,769.67,769.90,771.25,773.38,776.15,779.91,785.12,789.68,792.62,794.91,796.55,795.50,793.68,793.20,794.29,796.12,797.48,796.59,794.45,792.19,789.75,785.80,781.67,778.09,775.26,773.11,771.60,770.25,768.34,765.96,766.50,768.47,770.74,773.28,776.28,779.62,783.37,787.71,791.44,794.86,798.00,800.66,802.47,804.05,805.13,805.62,805.88,805.82,805.77,805.71,805.52,805.30,805.00,804.68,804.45,804.54,804.38,804.19,804.05,803.71,802.69,801.61,800.87,800.85,801.54,802.28,803.07,803.82,804.16,804.07,803.12,801.51,799.43,795.66,789.40,783.59,780.62,779.97,780.31,782.67,786.72,790.47,793.78,797.25,800.18,801.62,802.89,803.65,804.00,803.94,803.42,802.90,803.35,804.51,805.46,805.83,805.54,805.06,804.71,804.40,804.15,803.89,803.55,803.01,802.49,802.01,801.60,801.42,801.94,803.24,804.65,805.82,806.57,806.93,807.11,807.40,808.26,809.22,810.04,810.47,810.11,808.54,804.45,800.05,796.48,794.37,793.12,792.53,791.40,788.27,784.63,782.34,781.21,780.72,779.38,776.97,774.09,770.97,767.58,763.98,761.88,761.28,762.19,764.65,767.40,770.09,772.58,774.73
799.05,799.99,801.31,802.89,804.78,807.29,809.60,810.88,810.90,810.46,809.86,808.80,807.46,806.48,807.13,808.04,808.50,807.69,804.15,799.70,795.97,794.40,796.91,799.62,801.96,803.99,805.84,807.65,809.00,810.05,810.66,810.19,809.70,809.18,808.47,807.33,806.32,805.34,804.16,802.65,801.14,799.09,797.53,796.73,796.10,794.05,791.59,789.31,787.85,788.03,789.03,789.93,790.13,789.27,788.26,787.52,787.16,787.11,786.47,785.73,784.89,783.83,782.64,781.83,781.47,781.64,782.59,785.48,790.19,795.49,799.46,800.00,800.00,799.64,798.13,794.12,790.93,788.91,787.73,786.95,787.45,788.28,789.01,789.41,789.46,788.69,787.60,786.40,785.20,784.24,783.37,782.57,781.94,781.45,780.88,780.46,780.31,780.19,780.12,779.86,779.42,778.94,778.98,779.09,778.53,776.52,773.41,770.92,770.04,770.93,772.78,774.99,777.58,781.02,785.87,790.15,793.28,795.98,798.15,798.00,797.01,796.59,797.01,797.95,798.55,797.25,794.98,792.71,790.16,785.63,781.26,777.95,775.20,772.61,770.71,769.20,767.54,766.52,767.82,770.08,772.35,774.57,777.05,780.12,783.89,788.29,792.00,795.34,798.33,800.81,802.63,804.28,805.39,805.89,806.39,806.91,807.38,807.78,808.02,808.04,807.96,807.84,807.68,807.55,807.07,806.42,805.59,804.31,803.08,802.03,801.15,800.45,799.92,799.63,799.81,800.46,801.10,801.54,800.91,799.19,796.41,791.52,785.62,781.46,780.78,781.28,781.78,783.68,787.17,791.26,794.82,798.06,800.47,801.41,802.20,802.51,802.60,802.48,801.95,801.62,802.34,803.79,804.88,805.08,804.78,804.39,804.15,803.88,803.66,803.44,803.14,802.63,802.10,801.58,801.11,800.74,800.86,801.86,803.10,804.17,804.87,805.40,805.88,806.54,807.68,808.78,809.81,810.54,810.64,809.88,806.70,802.86,799.66,798.44,797.47,796.20,793.75,789.12,783.83,780.76,779.50,779.30,778.46,776.35,773.72,770.77,767.21,763.41,762.54,763.56,765.71,770.09,773.69,776.17,777.96,780.15
800.29,801.42,802.91,804.58,806.50,809.03,810.44,810.99,810.89,810.48,809.91,808.87,807.49,806.31,806.15,806.19,806.02,804.96,801.25,797.42,795.74,796.82,799.96,802.04,803.83,805.64,807.50,809.33,810.61,811.56,812.06,811.43,810.49,809.62,808.73,807.57,806.40,805.25,804.02,802.67,801.40,800.34,799.89,799.85,798.92,794.94,791.35,788.98,787.93,787.81,787.53,787.33,787.22,786.56,785.93,785.62,785.31,784.31,783.74,783.52,783.07,782.02,781.15,781.28,782.29,783.91,785.68,789.69,794.66,798.71,799.85,800.01,800.01,799.97,799.04,794.76,791.04,788.84,788.00,788.02,788.80,789.88,790.85,791.34,791.21,789.94,788.53,787.31,786.10,785.23,784.40,783.63,783.04,782.53,781.90,781.47,781.40,781.37,781.26,781.05,780.77,780.53,780.40,780.05,779.00,776.61,772.83,770.84,770.78,772.36,774.58,776.79,779.13,782.13,786.36,790.19,793.47,796.55,799.20,800.00,799.99,799.83,799.75,799.79,799.59,798.08,795.90,793.71,791.16,786.41,782.24,779.64,777.21,773.74,770.33,767.63,766.47,767.48,769.54,771.82,773.99,776.11,778.15,780.98,784.71,788.87,792.37,795.49,798.29,800.63,802.44,804.01,805.05,805.57,806.21,807.31,808.32,809.17,809.89,810.15,810.26,810.28,810.13,809.75,809.10,808.12,806.69,804.78,803.49,802.75,802.13,801.13,799.57,798.02,797.18,797.26,797.64,798.12,797.75,796.15,792.77,787.25,782.53,780.58,782.11,783.55,784.05,785.02,787.25,791.19,794.65,797.72,799.95,800.67,801.05,801.06,801.00,800.87,800.35,800.38,801.36,802.89,804.07,804.26,804.03,803.73,803.48,803.25,803.07,802.93,802.75,802.31,801.79,801.26,800.74,800.22,799.83,800.34,801.28,802.28,803.10,803.95,804.83,805.83,807.06,808.29,809.41,810.27,810.65,810.41,808.51,805.86,803.41,802.56,801.45,799.26,795.59,790.02,783.81,780.26,778.78,778.68,778.55,777.06,774.60,771.39,767.47,763.64,763.99,766.39,769.33,775.40,779.43,781.56,782.83,785.30
802.54,803.65,805.11,806.84,808.72,810.24,810.88,811.00,810.82,810.55,809.84,808.67,807.21,805.79,804.73,803.72,802.86,801.79,798.79,796.35,796.33,798.59,801.15,803.23,805.20,807.16,809.05,810.81,812.25,813.23,813.48,812.73,811.59,810.32,809.04,807.82,806.56,805.37,804.32,803.45,802.53,801.77,800.94,799.52,796.47,792.14,789.66,789.22,790.20,790.86,790.94,790.53,789.72,788.86,789.21,789.47,788.91,787.10,785.80,784.36,782.95,781.87,781.07,781.82,783.51,785.65,787.82,792.32,796.77,799.67,799.97,800.06,800.03,800.00,799.34,796.03,791.91,789.39,788.60,788.66,789.58,791.30,792.86,793.30,792.62,790.75,789.09,788.05,787.12,786.28,785.47,784.75,784.17,783.55,782.88,782.46,782.36,781.91,781.49,781.06,780.66,780.41,780.03,778.89,777.10,774.66,771.63,771.46,772.71,774.58,776.75,778.71,780.36,782.52,786.25,789.39,792.58,795.84,798.75,800.23,800.91,801.06,800.93,800.81,800.19,798.83,797.08,795.16,792.87,790.35,788.14,785.88,781.90,777.25,771.98,767.73,767.25,769.04,770.96,772.79,774.64,776.48,778.32,781.10,784.97,789.32,792.57,795.41,798.00,800.19,801.77,802.87,803.65,804.32,805.36,806.74,808.03,809.21,810.28,810.75,811.00,811.09,810.97,810.68,810.27,809.23,807.44,805.29,804.68,804.52,804.33,803.81,802.70,801.38,800.15,798.84,796.61,794.08,792.80,792.03,789.63,785.38,781.78,781.11,784.13,786.43,787.27,786.95,786.85,789.84,792.82,795.63,797.85,798.94,799.52,799.44,799.22,799.04,798.68,799.36,800.63,802.04,803.03,803.18,803.15,802.98,802.67,802.48,802.28,802.26,802.33,802.02,801.57,801.08,800.59,799.98,799.00,799.19,799.92,800.80,801.79,802.85,803.93,805.06,806.29,807.53,808.66,809.64,810.34,810.55,809.96,809.05,807.92,806.23,803.90,801.01,796.82,790.49,785.09,782.16,781.18,781.51,781.59,780.04,777.21,773.62,769.63,764.19,764.03,766.71,770.28,777.87,781.84,784.14,786.14,788.57
804.78,805.85,807.27,808.81,810.16,810.88,811.03,810.94,810.73,810.45,809.59,808.40,807.02,805.50,804.01,802.53,801.22,799.97,797.88,797.02,797.92,800.10,802.11,804.17,806.24,808.27,810.24,812.10,813.52,814.34,814.43,813.86,812.58,810.98,809.37,808.02,806.68,805.44,804.37,803.49,802.53,801.61,800.11,797.55,793.63,790.41,790.32,792.32,794.51,795.38,795.60,795.33,794.63,794.04,794.24,793.63,791.87,789.35,787.36,785.34,783.60,782.50,781.57,782.11,783.75,786.10,788.77,793.94,797.98,800.01,800.04,800.09,800.06,800.03,799.51,797.04,793.48,790.85,789.54,789.38,790.77,793.08,795.00,795.33,794.16,792.00,790.15,789.01,788.17,787.32,786.52,785.77,785.04,784.25,783.44,782.87,782.52,781.81,781.13,780.35,779.50,778.85,778.15,776.54,774.65,773.21,772.07,773.14,774.99,776.90,778.74,780.35,781.68,783.24,785.77,788.40,791.45,794.66,797.65,799.72,800.92,801.61,801.86,801.47,800.47,798.51,796.25,794.29,792.49,791.34,790.28,788.47,784.36,779.09,772.87,767.97,767.97,770.08,772.06,773.78,775.41,777.04,778.76,781.70,785.77,789.80,792.50,794.96,797.36,799.42,800.63,801.29,801.86,802.64,804.03,805.63,807.22,808.80,810.37,811.02,811.33,811.44,811.33,811.08,810.79,809.96,808.37,806.19,805.88,805.97,805.96,805.72,805.03,804.14,802.97,801.06,797.48,793.47,790.95,789.41,787.13,783.90,781.28,781.64,785.87,788.95,790.44,789.69,788.00,789.10,791.01,793.06,794.84,796.08,796.80,797.10,797.37,797.65,797.63,798.57,799.88,801.13,801.93,802.08,802.13,802.10,801.88,801.67,801.51,801.59,801.82,801.73,801.33,800.87,800.30,799.47,798.41,798.95,799.99,800.92,801.81,802.66,803.44,804.28,805.52,806.70,807.87,809.01,810.00,810.49,810.54,810.48,810.01,808.02,804.82,801.47,797.25,791.22,787.25,785.14,784.18,783.80,782.74,780.77,777.59,773.69,769.95,764.95,764.21,766.21,769.74,776.70,781.03,783.83,786.28,789.60
806.84,807.90,809.19,810.32,810.86,811.04,810.98,810.81,810.57,810.17,809.21,808.09,806.86,805.39,803.90,802.42,800.89,799.38,798.33,798.94,800.14,801.49,803.09,805.01,807.01,809.04,811.11,813.17,814.39,814.92,814.92,814.70,813.32,811.48,809.61,808.08,806.64,805.34,804.10,802.87,801.59,800.06,797.77,794.63,791.25,790.43,793.18,797.25,799.68,800.30,800.41,800.43,800.42,800.28,799.45,797.14,793.81,790.67,788.13,786.19,784.71,783.59,782.40,782.12,783.23,785.64,788.86,794.79,798.61,800.02,800.09,800.11,800.10,800.07,799.66,797.90,795.61,793.13,791.02,790.55,792.56,795.23,797.17,797.32,795.78,793.53,791.48,790.00,789.05,788.17,787.34,786.48,785.49,784.51,783.53,782.70,782.04,781.23,780.34,779.12,777.67,776.37,775.35,773.79,772.59,772.81,773.99,775.63,777.45,779.24,780.64,781.91,783.26,784.50,785.43,787.51,790.25,793.23,796.20,798.78,800.42,801.80,802.67,801.83,800.46,797.36,793.79,791.25,789.97,789.26,788.56,787.30,784.38,779.05,772.80,768.15,768.37,770.49,772.74,774.70,776.33,777.88,779.68,782.93,787.17,790.34,792.29,794.31,796.51,798.43,799.12,799.42,799.85,800.75,802.46,804.31,806.20,808.22,810.31,811.11,811.45,811.55,811.43,811.15,810.84,810.37,809.38,807.36,807.01,807.07,807.06,806.84,806.38,805.87,805.00,803.18,799.40,795.37,791.63,788.30,785.42,782.76,781.12,782.47,787.53,791.28,793.55,793.11,790.74,789.60,790.11,791.13,792.30,793.46,794.16,795.06,796.12,797.10,797.45,798.22,799.25,800.29,800.95,801.12,801.19,801.24,801.20,800.91,800.82,800.96,801.25,801.39,801.06,800.59,799.85,798.67,798.02,799.37,801.10,802.24,802.88,803.28,803.45,803.74,804.85,805.96,807.19,808.50,809.70,810.28,810.44,810.44,810.01,808.12,804.52,801.00,797.16,792.43,790.11,788.66,787.19,785.15,782.06,779.55,776.28,772.42,769.14,766.14,764.80,765.38,768.24,773.00,777.83,781.28,784.00,788.90
808.51,809.44,810.22,810.77,810.97,810.98,810.89,810.61,810.11,809.65,808.88,807.78,806.46,805.06,803.80,802.40,800.87,799.53,799.60,800.69,801.93,803.09,804.44,805.85,807.57,809.53,811.62,813.71,814.68,815.00,814.97,814.71,813.19,811.29,809.37,807.59,805.97,804.51,803.25,802.15,800.82,797.80,794.68,792.18,790.86,794.01,797.46,800.01,801.52,802.32,802.58,802.76,802.78,801.77,800.31,798.14,795.21,791.62,788.84,787.07,785.76,784.52,783.24,782.28,782.97,785.50,788.91,795.15,798.88,800.02,800.10,800.15,800.13,800.09,799.93,799.25,798.21,796.33,794.23,793.67,795.69,797.78,799.04,798.89,797.14,794.45,791.90,790.01,788.95,787.95,786.93,785.87,784.73,783.71,782.74,781.93,781.32,780.60,779.34,777.73,775.96,774.39,773.33,773.29,773.95,775.09,776.70,778.30,779.90,781.50,783.01,784.45,785.89,787.01,787.31,787.66,789.32,791.89,794.98,797.89,800.19,802.16,803.22,801.87,800.08,796.29,791.25,786.53,784.96,784.31,783.84,783.22,781.69,776.84,771.63,768.03,767.99,769.92,772.40,774.85,777.01,778.87,781.65,785.38,789.12,790.99,792.53,794.23,795.99,797.37,797.47,797.40,797.84,799.14,801.48,803.69,805.83,808.00,810.07,811.06,811.46,811.55,811.39,811.10,810.78,810.44,809.76,808.32,808.10,808.16,808.13,807.85,807.40,806.66,805.69,803.95,799.90,795.95,792.12,788.54,785.55,782.75,782.77,785.54,790.40,794.36,796.98,797.10,795.25,793.84,793.44,794.31,795.70,796.80,797.15,797.81,798.65,799.39,799.46,799.46,799.63,800.08,800.80,801.07,801.12,801.08,800.92,800.45,800.30,800.43,800.72,800.91,800.69,800.16,799.10,797.54,797.84,799.72,801.84,803.44,804.26,804.55,804.55,804.52,804.89,805.94,807.17,808.45,809.60,810.10,810.18,810.02,809.24,806.79,803.55,800.34,797.39,794.95,793.43,791.57,788.91,785.22,780.80,778.16,776.12,773.87,770.93,768.93,766.53,765.25,766.78,770.08,774.06,777.73,781.60,787.70
809.27,810.22,810.72,810.91,810.91,810.76,810.59,810.22,809.63,809.14,808.57,807.62,806.35,804.98,803.78,802.42,800.95,799.85,800.52,801.92,803.40,804.79,806.08,807.18,808.56,810.22,812.11,814.07,814.84,815.02,814.80,813.77,811.90,809.67,807.50,805.87,804.36,803.09,802.03,800.96,799.09,795.16,792.02,791.08,792.95,797.63,800.67,802.00,802.86,803.74,804.23,804.42,804.10,802.61,800.98,799.12,796.59,792.71,789.63,787.83,786.59,785.28,783.99,782.68,782.84,784.92,788.53,794.95,798.80,800.02,800.10,800.18,800.18,800.15,800.12,800.03,799.74,798.58,797.04,796.72,798.19,799.43,800.02,799.58,797.19,793.97,791.25,789.48,788.42,787.36,786.26,785.09,783.88,782.78,781.81,781.05,780.49,779.78,778.29,776.46,774.63,773.18,772.94,774.15,775.94,777.62,779.25,780.75,782.16,783.63,785.33,786.92,788.50,789.74,789.95,788.91,789.53,791.68,794.89,798.10,800.68,802.85,803.92,802.16,800.10,795.75,789.48,782.84,780.88,779.96,779.38,778.90,777.86,774.09,770.56,768.29,767.76,769.25,771.71,774.45,777.18,779.89,783.54,787.34,790.40,791.56,792.86,794.23,795.44,796.10,795.86,795.46,795.96,797.86,800.73,803.11,805.32,807.47,809.39,810.53,811.09,811.26,811.16,810.97,810.71,810.43,810.02,809.21,809.13,809.23,809.17,808.67,807.91,806.87,805.67,803.79,799.73,795.81,792.01,788.50,785.68,783.52,784.73,788.25,792.96,797.14,799.83,800.48,799.50,798.39,797.97,798.69,799.85,800.60,800.84,801.32,801.92,802.36,802.04,801.45,800.93,800.73,801.11,801.54,801.84,801.94,801.70,800.85,800.03,799.65,799.72,799.88,799.68,799.09,797.88,796.33,797.61,799.88,802.19,804.08,805.10,805.48,805.60,805.59,805.64,806.60,807.63,808.61,809.46,809.69,809.56,809.16,808.19,805.88,803.29,800.70,798.62,797.62,796.70,794.64,791.38,786.97,782.20,779.29,777.91,776.87,774.44,772.43,769.38,766.60,765.93,768.26,772.01,776.20,780.95,787.08
809.00,810.14,810.71,810.85,810.76,810.45,810.09,809.67,809.18,808.71,808.28,807.60,806.58,805.23,803.87,802.48,801.14,800.25,800.96,802.59,804.52,806.42,807.88,809.00,810.05,811.24,812.72,814.35,814.96,815.03,814.41,811.94,809.48,806.64,803.98,802.86,801.77,801.04,800.35,799.11,796.33,792.53,790.50,791.83,797.27,800.54,802.40,803.53,804.28,805.06,805.76,805.81,804.93,803.61,802.24,800.53,798.03,793.97,790.45,788.43,787.13,785.83,784.59,783.31,782.81,783.85,787.62,794.14,798.38,800.03,800.11,800.19,800.25,800.26,800.19,800.11,800.00,799.53,798.98,799.12,799.63,799.96,800.06,799.39,795.89,792.13,789.63,788.52,787.55,786.55,785.49,784.37,783.16,781.94,780.92,780.13,779.54,778.74,777.19,775.39,773.73,772.86,774.26,776.13,778.03,779.89,781.42,782.84,784.20,785.63,787.48,789.18,790.93,792.50,793.10,791.43,791.17,792.82,796.13,799.50,801.92,803.89,804.79,802.77,800.64,795.93,788.83,781.02,778.69,777.22,776.16,775.34,773.83,771.60,770.13,769.13,767.95,768.65,770.81,773.64,776.88,780.90,785.10,788.51,790.81,791.98,793.18,794.17,794.71,794.59,794.27,793.55,794.14,796.64,799.89,802.33,804.47,806.47,808.19,809.42,810.17,810.56,810.65,810.73,810.60,810.41,810.23,810.01,810.04,810.19,810.06,809.15,807.72,806.40,804.89,802.66,798.92,794.97,791.25,787.95,785.56,784.95,786.60,790.04,794.83,799.28,801.81,802.90,802.96,802.58,802.97,803.46,803.78,803.90,804.31,804.81,805.31,805.53,804.86,803.93,802.98,802.14,801.75,802.40,803.23,803.77,803.59,802.22,800.23,798.85,798.41,798.43,798.05,797.32,796.19,795.14,797.26,799.77,802.10,804.05,805.23,805.83,806.25,806.60,806.89,807.73,808.37,808.84,809.16,808.96,808.51,807.87,806.95,805.61,803.87,802.15,800.80,800.11,799.65,797.85,794.82,790.78,786.60,783.27,781.63,780.88,779.06,776.14,772.95,769.24,765.81,767.65,771.99,777.04,782.19,787.13
807.90,809.11,810.00,810.53,810.61,810.33,809.92,809.43,808.88,808.33,807.87,807.33,806.60,805.49,804.15,802.76,801.53,800.91,801.75,803.26,805.02,806.91,808.75,810.17,811.48,812.76,813.95,814.77,815.05,814.76,813.52,810.51,807.41,804.06,801.12,799.90,798.82,798.20,797.44,796.00,794.00,792.65,793.29,796.10,799.98,802.26,803.90,805.21,806.15,806.95,807.42,807.32,806.51,805.22,803.72,801.91,799.22,794.66,790.78,788.65,787.34,786.05,784.89,783.79,782.98,783.24,786.52,792.79,797.66,800.08,800.16,800.24,800.31,800.33,800.25,800.17,800.14,799.96,799.76,799.87,800.05,800.11,800.07,799.29,795.22,791.27,788.78,787.67,786.57,785.59,784.61,783.60,782.53,781.32,780.17,779.20,778.39,777.42,775.92,774.37,773.28,773.65,775.70,777.90,779.84,781.49,782.93,784.36,785.92,787.66,789.55,791.56,793.55,795.37,796.55,795.77,794.55,795.09,798.15,800.87,803.09,804.84,805.42,803.37,801.26,797.00,790.38,782.64,779.98,777.93,776.50,775.78,774.91,773.48,772.27,771.02,769.18,768.33,770.04,773.32,777.42,781.78,786.30,789.49,791.19,792.25,793.14,793.56,793.53,793.12,792.47,791.27,791.35,793.52,797.09,800.42,802.84,804.61,806.24,807.51,808.31,808.87,809.39,810.00,810.29,810.35,810.30,810.29,810.39,810.47,809.96,808.26,806.04,804.23,802.53,800.42,796.93,793.12,790.06,787.76,786.07,786.07,787.64,790.83,795.61,799.91,802.35,803.95,805.21,806.24,807.15,807.56,807.63,807.64,807.83,808.04,808.26,808.27,807.36,805.62,804.12,803.05,802.36,802.95,803.85,804.83,805.51,804.41,802.29,800.43,799.25,798.45,797.12,795.73,794.63,794.53,796.81,799.33,801.62,803.56,804.93,805.42,805.72,806.10,806.69,807.44,808.05,808.37,808.25,807.76,807.18,806.49,805.66,804.78,803.77,802.82,802.01,801.41,800.83,799.67,797.46,794.03,790.26,787.11,784.78,782.89,780.64,777.41,773.85,769.76,766.08,767.86,772.11,777.25,782.45,786.72
806.51,807.77,808.91,809.86,810.35,810.21,809.82,809.30,808.68,808.07,807.55,807.04,806.47,805.64,804.43,803.11,802.05,801.81,803.06,804.59,805.96,807.28,809.07,810.71,812.34,813.82,814.82,815.08,815.11,814.69,813.37,810.64,807.53,803.73,800.07,798.25,797.18,796.70,796.05,794.82,794.00,794.68,796.90,799.94,801.99,803.63,805.26,806.80,807.99,808.68,808.89,808.73,808.16,807.06,805.71,803.64,800.39,795.34,791.04,788.82,787.57,786.36,785.28,784.31,783.34,783.05,785.49,791.19,796.70,800.11,800.22,800.31,800.38,800.40,800.34,800.29,800.26,800.21,800.15,800.15,800.20,800.16,800.07,799.30,795.29,791.48,788.94,787.59,786.28,785.16,784.05,782.92,781.81,780.68,779.60,778.60,777.64,776.50,775.05,773.68,773.12,774.70,777.11,779.33,781.14,782.61,784.08,785.59,787.32,789.29,791.33,793.64,795.88,797.94,799.53,799.53,797.87,797.67,800.31,802.40,804.40,805.86,806.11,804.15,802.17,798.13,791.98,784.82,781.66,779.44,778.18,777.85,777.30,776.01,774.47,772.66,770.37,768.38,769.45,772.81,777.62,782.29,787.11,790.13,791.34,792.16,792.70,792.67,792.29,791.76,790.88,789.16,788.59,790.19,793.51,797.28,800.26,802.43,804.10,805.40,806.24,806.95,807.81,808.86,809.69,810.14,810.29,810.38,810.53,810.50,809.38,806.31,803.13,800.99,799.33,797.47,794.41,791.17,788.86,787.41,786.51,786.87,788.25,791.16,795.81,800.02,802.42,804.38,806.42,808.41,809.65,810.10,810.16,810.22,810.20,810.20,810.21,810.05,809.13,806.74,804.77,803.57,802.93,803.42,804.37,805.78,807.26,806.44,804.55,802.70,801.15,799.53,797.37,795.29,793.83,793.87,796.05,798.52,800.77,802.63,803.93,804.35,804.68,805.25,806.13,806.88,807.50,807.75,807.39,806.79,806.13,805.48,804.82,804.16,803.49,802.86,802.27,801.74,801.07,800.40,798.83,795.93,792.59,789.61,786.64,783.65,780.79,777.46,773.79,769.76,766.49,768.42,772.48,777.39,782.39,786.30
804.91,806.23,807.42,808.65,809.84,809.97,809.69,809.22,808.61,808.00,807.40,806.80,806.21,805.59,804.68,803.51,802.70,803.01,805.04,806.95,807.80,807.94,808.91,810.52,812.34,813.95,814.89,815.14,815.14,815.00,814.53,813.07,810.99,806.84,801.76,798.78,797.93,797.88,797.75,797.34,797.65,798.79,800.28,801.87,803.43,804.87,806.49,808.16,809.52,809.90,809.97,809.84,809.47,808.89,808.29,805.89,801.60,796.15,791.35,789.03,787.95,786.91,785.89,784.89,783.89,783.34,784.63,789.39,795.48,800.01,800.26,800.37,800.45,800.49,800.48,800.46,800.41,800.34,800.28,800.28,800.28,800.19,800.07,799.46,796.33,793.08,790.50,788.66,787.14,785.67,784.09,782.47,781.01,780.03,779.32,778.59,777.63,776.36,774.87,773.54,773.29,775.78,778.42,780.29,781.73,783.21,784.85,786.51,788.24,790.18,792.61,795.13,797.63,799.93,801.55,801.69,800.53,800.44,802.50,804.27,805.98,807.03,806.97,805.27,803.56,799.13,792.93,786.71,782.86,781.13,780.84,781.09,779.90,778.01,775.80,773.47,771.13,768.98,769.07,771.77,776.95,782.24,787.33,790.25,791.09,791.53,791.72,791.50,791.05,790.48,789.58,787.44,786.39,787.40,789.60,792.72,796.47,799.95,801.87,803.25,804.18,804.99,805.96,807.22,808.65,809.69,810.19,810.30,810.50,810.35,808.38,803.30,798.92,796.72,795.33,793.83,791.50,789.46,787.79,786.71,786.70,787.27,788.50,791.11,795.47,799.79,802.26,804.26,806.33,808.33,809.69,810.32,810.58,810.75,810.73,810.72,810.65,810.44,809.79,807.20,804.92,803.65,803.50,803.92,805.04,806.85,808.72,807.88,806.45,805.19,803.92,801.73,799.22,796.61,794.21,792.93,794.83,797.22,799.41,801.11,801.91,802.48,803.29,804.39,805.53,806.41,806.95,807.10,806.82,806.36,805.72,805.21,804.82,804.22,803.27,802.26,801.42,800.96,800.43,799.85,798.40,795.77,792.96,789.91,786.58,783.07,779.67,776.39,773.12,769.69,767.02,769.28,773.23,777.71,782.23,786.12
803.26,803.86,805.14,806.81,808.16,808.74,808.98,808.88,808.43,807.83,807.28,806.75,806.23,805.75,805.11,804.00,803.34,804.14,806.59,808.69,809.53,809.42,809.90,811.34,813.09,814.48,814.96,815.16,815.17,815.12,814.94,814.33,813.24,809.65,804.48,800.89,801.53,802.77,803.26,802.68,802.38,801.99,802.34,803.55,804.96,806.29,807.72,809.12,810.11,810.38,810.30,809.23,807.52,807.93,808.88,807.24,802.76,796.65,791.44,789.06,788.03,787.02,786.02,785.05,784.06,783.41,784.24,788.42,794.10,798.81,800.10,800.41,800.54,800.61,800.60,800.56,800.53,800.47,800.40,800.36,800.31,800.23,800.11,799.70,797.92,795.10,792.27,789.88,788.08,786.52,784.93,783.24,781.57,780.56,779.92,779.13,777.93,776.50,774.95,773.88,774.12,776.92,779.37,781.00,782.25,783.60,785.18,786.83,788.45,790.21,792.66,795.36,798.10,800.60,802.50,803.89,803.85,804.13,805.70,807.17,808.10,808.50,808.23,806.93,805.02,801.10,795.18,788.30,785.62,784.46,783.91,783.31,781.29,778.87,776.39,774.01,771.88,769.83,768.93,770.55,775.44,781.45,786.29,789.26,790.53,790.69,790.50,789.65,788.47,787.28,786.03,785.96,786.85,788.31,789.50,791.11,793.23,795.79,798.63,800.93,802.24,803.14,804.17,805.62,807.30,808.71,809.62,809.98,810.13,809.85,807.78,802.64,797.67,794.02,791.92,791.02,789.70,788.34,787.35,787.04,787.82,788.49,789.24,791.22,795.19,799.53,802.02,803.95,805.86,807.71,809.26,810.12,810.55,810.89,811.16,811.21,811.02,810.62,809.96,807.47,805.10,803.85,804.42,805.12,806.51,808.26,809.61,809.03,807.78,806.44,804.90,802.41,799.60,796.78,794.08,792.11,793.28,795.35,797.38,798.94,799.76,800.84,802.31,803.94,805.27,806.13,806.36,806.27,806.06,805.79,806.10,806.54,806.69,805.93,804.77,803.39,802.03,800.89,799.75,798.59,796.83,794.33,792.00,789.15,785.76,782.12,778.73,775.64,772.63,769.72,767.92,770.57,774.52,778.84,783.11,786.77
