891.83,893.19,893.47,893.22,893.28,893.68,894.57,895.57,896.60,897.89,899.04,900.02,900.88,901.72,902.49,902.60,902.05,900.90,899.71,898.65,898.79,900.18,901.75,902.34,901.33,899.43,897.57,896.24,895.61,895.27,895.08,895.08,894.46,893.03,891.04,888.68,884.62,882.92,882.29,881.08,879.11,879.41,881.03,883.12,884.65,885.26,885.78,886.05,885.50,884.10,882.67,881.83,881.45,880.06,879.57,879.41,879.43,879.93,881.22,882.69,884.19,885.67,887.03,888.42,890.05,891.34,890.80,891.22,892.01,892.62,892.62,892.55,892.81,892.96,892.77,892.49,891.82,891.42,891.42,891.65,892.16,891.60,890.15,888.21,886.55,886.15,886.44,886.97,887.27,887.66,887.99,888.25,888.44,888.32,887.69,886.81,885.91,885.43,885.13,884.85,884.36,883.31,882.25,881.07,879.89,878.76,877.42,876.53,875.93,875.51,875.13,874.15,873.24,872.44,871.56,870.84,869.99,868.65,866.63,864.27,862.08,859.69,857.08,854.54,853.11,852.08,851.47,851.48,851.75,852.01,851.61,850.23,848.24,848.50,852.52,857.81,860.26,860.86,861.26,862.55,865.39,869.48,872.04,875.54,879.66,881.57,882.54,882.77,882.41,881.48,880.13,878.80,877.19,875.38,874.22,873.49,872.99,872.86,873.40,873.78,873.39,872.77,872.25,871.37,870.46,869.64,869.32,870.22,870.99,871.56,871.63,870.94,870.26,867.94,864.95,862.79,864.27,867.04,868.62,868.25,865.58,862.49,860.43,859.81,860.76,862.17,863.74,865.33,866.91,868.36,868.41,867.38,865.97,864.94,865.00,866.24,867.54,868.18,867.70,866.81,865.28,863.31,861.33,859.70,858.56,858.57,860.04,861.36,862.73,864.11,865.44,866.46,866.40,865.96,865.82,866.53,867.59,868.91,870.12,871.07,871.95,872.19,871.81,871.03,870.21,869.89,870.29,870.65,870.27,869.31,867.92,866.41,864.89,863.51,863.52,863.90,864.27,864.61,865.04,865.38,865.39,865.12,865.13,864.89,864.43,863.86,863.26,862.71,862.08,861.47,861.00,860.52,859.39,857.10,854.16,852.69
892.68,893.80,894.47,894.92,895.49,896.08,896.88,897.73,898.56,899.44,900.18,900.88,901.62,902.46,903.28,903.41,902.80,901.53,900.33,899.42,899.43,900.49,902.07,902.71,901.71,899.97,898.64,897.89,897.66,897.54,897.26,896.42,894.68,892.59,890.01,886.68,885.12,885.19,884.50,881.63,879.35,879.48,881.15,883.61,885.78,886.90,887.50,887.46,886.35,884.87,884.39,884.70,885.04,883.67,882.00,880.75,880.03,879.89,880.82,882.12,883.45,884.65,885.70,887.02,889.01,891.01,891.02,891.74,892.40,892.77,892.76,892.48,892.75,893.04,892.88,892.06,891.91,892.02,892.14,892.12,892.04,891.41,890.22,888.67,887.67,887.87,888.45,888.99,889.27,889.60,889.73,889.72,889.72,889.55,888.98,888.18,887.26,886.35,885.55,884.88,884.27,883.58,882.73,881.55,880.21,878.86,877.28,876.18,875.35,874.68,874.12,873.09,872.17,871.37,870.40,868.84,867.38,865.71,863.62,861.57,859.64,857.41,854.87,852.40,850.71,849.24,848.24,848.19,848.53,848.46,847.73,846.29,844.69,846.51,850.72,855.06,856.77,857.25,857.65,858.67,860.88,864.49,868.46,873.22,877.95,880.31,881.14,881.38,881.26,880.67,879.71,878.78,877.69,876.47,875.60,874.94,874.29,873.82,873.87,873.93,873.61,873.27,873.10,872.57,871.75,870.86,870.29,870.76,871.34,871.83,871.87,871.13,870.35,867.84,865.38,864.63,867.21,869.14,869.83,868.97,865.96,862.43,860.37,859.82,860.68,862.28,863.97,865.59,867.16,868.64,868.89,867.89,866.37,865.25,865.67,867.04,868.41,869.15,868.69,867.55,865.95,864.12,862.36,860.92,859.61,859.02,859.73,861.13,862.51,863.88,865.30,866.74,867.52,867.76,867.94,868.50,869.23,870.03,870.80,871.55,872.28,872.04,872.00,872.16,871.78,871.23,870.78,870.21,869.20,867.61,866.26,865.59,865.38,864.66,862.94,862.41,862.78,863.14,863.60,864.04,864.22,864.13,864.25,864.21,864.03,863.69,863.07,862.48,861.77,861.09,860.57,859.92,857.54,854.26,851.03,849.53
892.87,893.74,894.71,895.81,896.92,897.85,898.73,899.59,900.35,900.87,901.25,901.72,902.34,903.16,904.02,904.25,903.70,902.39,901.23,900.47,900.40,901.12,902.53,903.20,902.33,900.88,900.01,899.64,899.49,899.35,898.85,897.09,894.42,891.74,888.88,885.67,886.65,887.72,886.38,882.05,879.52,879.67,881.43,884.09,886.64,888.28,889.00,888.72,887.27,885.73,886.26,887.64,888.61,887.61,885.34,883.31,881.81,880.67,880.42,881.17,882.31,883.37,884.38,886.02,888.32,890.64,891.44,892.31,892.64,892.64,892.63,892.30,892.54,892.87,892.78,891.91,892.19,892.56,892.61,892.25,891.65,891.01,890.21,889.26,888.98,889.53,890.13,890.45,890.53,890.60,890.41,890.13,890.02,889.95,889.54,888.84,887.83,886.51,885.27,884.30,883.63,883.33,882.85,881.77,880.14,878.09,876.17,874.79,873.72,872.84,872.05,870.93,869.86,868.93,867.86,865.72,863.83,862.00,860.05,858.35,856.68,854.65,852.36,850.32,848.43,846.44,844.99,844.86,845.38,845.06,844.01,842.47,841.23,843.76,847.75,851.23,852.39,853.06,853.82,854.88,856.57,859.50,864.76,870.57,875.62,878.23,878.45,878.39,878.52,878.73,878.57,878.05,877.41,876.74,876.12,875.54,874.84,874.18,873.86,873.65,873.35,873.19,873.30,873.25,872.77,872.08,871.50,871.52,871.87,872.18,872.09,871.28,870.43,867.83,866.04,866.63,869.46,870.27,870.22,869.19,866.03,862.16,860.22,859.88,860.74,862.50,864.32,865.99,867.54,869.01,869.38,868.44,866.87,865.65,866.30,867.75,869.12,869.87,869.51,868.34,866.79,865.16,863.67,862.38,860.85,859.61,859.43,860.87,862.28,863.67,865.13,866.74,868.19,869.17,869.79,870.20,870.61,871.01,871.50,872.07,872.52,871.81,871.93,872.68,872.43,871.45,870.14,868.81,867.58,866.31,865.63,866.05,867.12,866.79,863.20,861.39,861.38,861.68,862.17,862.65,862.89,862.88,863.01,863.21,863.44,863.46,862.85,862.20,861.41,860.62,859.86,858.67,855.27,851.44,848.27,846.58
891.46,892.15,893.25,894.68,896.33,897.99,899.32,900.45,901.41,902.06,902.40,902.68,903.09,903.83,904.72,905.17,904.88,903.78,902.85,902.11,901.92,902.33,903.17,903.80,903.32,902.21,901.26,900.93,900.71,900.36,899.41,896.81,893.88,890.77,888.22,887.84,889.53,889.62,887.17,882.55,879.78,880.02,881.94,884.68,887.31,889.34,890.11,889.72,888.36,886.84,887.76,889.43,890.52,890.35,889.54,888.15,886.24,883.74,880.95,880.28,880.93,882.02,883.49,885.63,887.92,890.03,891.64,892.34,892.27,891.88,891.64,891.75,892.40,892.66,892.30,892.58,892.70,892.55,892.21,891.82,891.34,890.88,890.50,890.28,890.38,890.87,891.10,890.87,890.40,889.87,889.36,889.00,889.01,889.27,888.92,888.08,886.85,885.37,883.99,882.91,882.24,882.08,882.17,881.51,879.60,876.37,874.14,872.61,871.46,870.47,869.24,867.41,865.33,863.43,862.12,860.63,859.15,857.69,856.26,854.91,853.39,851.62,849.79,848.29,846.04,843.52,841.70,841.52,842.52,842.11,840.67,838.85,837.91,838.94,841.74,844.91,846.67,848.29,849.87,851.52,853.55,856.77,861.98,867.75,872.76,874.99,874.11,873.57,874.10,875.58,876.85,876.69,876.07,875.44,874.82,874.16,873.53,873.07,872.91,872.60,872.14,871.88,872.05,872.62,873.18,873.21,872.80,872.58,872.72,872.67,872.25,871.35,870.50,868.19,867.03,868.10,869.89,870.50,870.39,869.14,865.61,861.52,859.92,860.00,860.99,862.76,864.65,866.50,868.22,869.60,869.87,868.99,867.48,866.18,866.82,868.31,869.51,869.95,869.87,869.24,868.01,866.55,865.36,864.08,862.06,860.06,859.17,860.54,862.08,863.59,865.13,866.75,868.28,869.86,871.02,871.23,871.44,871.82,872.29,872.67,872.59,871.87,871.59,871.57,870.84,869.91,868.82,867.55,866.39,866.70,867.39,868.58,869.68,868.68,864.47,861.43,860.15,860.14,860.76,861.30,861.45,861.25,861.36,861.95,862.69,863.14,862.56,861.79,860.96,859.99,858.56,855.99,852.69,849.44,846.56,844.18
889.20,890.53,892.02,893.68,895.49,897.27,898.87,900.27,901.52,902.79,903.38,903.69,904.00,904.56,905.39,906.09,906.12,905.23,904.38,903.74,903.50,903.75,904.39,904.63,904.13,903.23,902.39,901.86,901.28,900.52,899.12,896.18,893.04,890.00,888.20,889.73,891.29,890.51,887.77,883.80,880.35,879.95,881.52,884.31,887.54,889.96,890.95,890.70,889.52,888.21,888.77,890.08,891.27,891.82,891.47,890.52,889.12,887.06,883.28,880.96,880.35,881.25,882.71,884.72,886.68,888.41,890.11,891.02,891.20,891.11,891.29,891.97,892.55,892.57,892.14,892.56,892.78,892.66,892.30,891.91,891.52,891.25,891.19,891.34,891.33,891.21,890.81,890.12,889.25,888.43,887.77,887.25,886.97,887.20,887.08,886.63,885.79,884.30,882.82,881.59,880.81,880.88,881.27,881.04,879.35,875.65,871.86,869.37,867.52,865.87,864.15,862.37,860.50,858.78,857.54,856.30,855.01,853.66,852.32,851.17,849.83,848.06,846.26,845.41,844.16,841.75,839.45,838.72,839.40,838.96,837.38,835.28,834.45,835.07,836.85,839.07,840.82,842.19,843.85,846.05,849.25,854.28,860.04,866.08,871.08,872.10,869.70,868.81,870.04,872.81,874.76,875.09,874.72,874.09,873.47,872.80,872.16,871.74,871.70,871.72,871.30,870.74,870.53,871.48,872.40,872.96,873.15,873.13,873.11,872.88,872.34,871.42,870.52,868.56,867.80,868.98,870.21,870.68,870.49,869.13,865.50,861.38,859.92,860.30,861.68,863.46,865.31,867.14,868.80,869.85,870.04,869.25,867.86,866.60,867.28,868.74,869.76,870.00,870.02,869.74,869.05,868.11,867.10,865.34,863.02,860.69,859.25,860.41,861.96,863.54,865.13,866.75,868.31,870.02,871.39,871.78,871.80,871.81,871.99,872.27,872.12,871.53,871.01,870.53,869.71,868.86,868.05,867.33,866.99,867.92,869.11,870.12,870.15,867.41,862.23,857.92,855.62,855.87,857.18,858.11,858.31,858.29,860.06,861.20,862.12,862.66,861.99,861.20,860.16,858.86,857.14,854.76,851.95,848.87,845.57,842.23
887.35,889.47,891.33,893.08,894.81,896.37,898.09,899.72,901.28,903.16,904.19,904.69,904.97,905.34,906.08,906.95,907.30,906.68,905.88,905.35,905.12,905.22,905.65,905.35,904.68,903.91,903.17,902.38,901.43,900.23,898.44,895.39,892.15,889.53,888.74,891.47,892.64,891.25,888.69,885.77,881.76,880.24,881.03,883.79,887.83,890.47,891.66,891.68,890.67,889.65,889.70,890.48,891.70,892.76,892.57,891.89,891.09,889.82,885.63,882.56,881.08,881.10,882.25,883.82,885.25,886.54,888.06,889.25,889.92,890.46,891.34,892.34,892.60,892.36,892.01,892.31,892.71,892.81,892.58,892.21,891.88,891.77,891.86,892.00,891.68,890.92,889.98,888.93,887.75,886.74,885.98,885.33,884.71,884.69,884.75,884.79,884.55,883.26,881.72,880.26,879.31,879.55,880.23,880.23,878.59,874.42,869.04,865.67,863.19,860.98,858.93,857.33,855.92,854.61,853.35,851.99,850.64,849.25,847.92,847.02,846.02,844.23,842.30,842.14,842.15,840.18,837.53,836.04,836.10,835.69,834.15,831.92,830.98,831.42,832.31,833.44,834.81,835.59,837.07,839.78,844.38,851.37,858.19,864.64,869.33,868.88,865.32,864.29,866.28,870.28,872.69,873.47,873.36,872.73,872.10,871.28,870.41,869.75,869.66,870.05,869.87,869.20,868.70,869.98,871.18,872.18,872.92,873.24,873.23,872.96,872.39,871.46,870.52,868.95,868.50,869.62,870.50,870.83,870.56,869.17,865.67,861.64,860.21,860.78,862.54,864.32,866.11,867.86,869.34,870.02,870.11,869.38,868.12,866.97,867.74,869.10,869.94,870.02,870.08,870.03,869.83,869.46,868.64,866.44,863.89,861.34,859.46,860.33,861.85,863.46,865.09,866.69,868.24,869.88,871.29,871.93,871.95,871.74,871.67,871.79,871.61,871.11,870.43,869.68,868.94,868.27,867.83,867.75,868.26,869.46,870.63,870.90,869.40,864.80,858.86,853.63,850.56,851.11,853.03,854.18,854.52,855.17,859.09,860.74,861.64,862.09,861.34,860.50,859.06,857.25,855.41,853.71,851.50,848.43,844.54,840.38
887.90,890.32,892.12,893.68,894.98,895.84,897.41,899.20,901.00,902.92,904.61,905.56,905.94,906.29,906.86,907.64,908.18,908.08,907.41,906.98,906.75,906.60,906.29,905.47,904.61,903.76,902.88,901.94,900.90,899.51,897.45,894.48,891.45,889.86,890.32,893.06,893.92,892.73,890.97,889.24,885.67,882.24,881.38,883.90,888.85,891.13,892.33,892.66,891.75,891.00,890.96,891.48,892.41,893.44,893.55,892.88,891.80,890.36,885.88,885.43,885.31,882.42,882.78,883.50,884.19,884.99,886.29,887.57,888.78,890.22,891.97,892.35,891.93,891.55,891.63,892.09,892.64,892.97,892.97,892.59,892.27,892.16,891.92,891.25,890.58,889.76,888.80,887.65,886.22,885.01,884.16,883.55,882.96,882.36,882.20,882.45,882.79,882.19,880.64,878.86,877.53,877.71,878.95,878.55,875.72,870.28,864.74,861.61,859.54,857.79,855.98,854.13,852.55,851.01,849.05,846.80,844.83,843.22,842.13,841.83,841.70,840.11,838.03,838.57,839.07,837.84,835.47,833.13,832.57,832.23,831.10,829.16,827.67,827.40,827.63,828.01,828.46,828.91,830.26,833.43,839.15,846.80,855.62,862.59,865.97,864.11,861.11,860.50,862.98,868.08,871.05,872.05,872.00,871.38,870.70,869.24,867.43,865.80,865.13,865.52,866.01,866.13,866.16,867.87,869.84,871.20,871.90,872.45,873.00,872.96,872.39,871.46,870.47,869.41,869.23,870.13,870.84,870.98,870.59,869.33,866.37,862.59,861.15,861.67,863.45,865.23,867.05,868.68,869.87,870.25,870.17,869.42,868.25,867.30,868.27,869.38,870.01,870.08,870.10,870.09,870.01,869.87,869.48,867.52,864.72,861.81,859.73,860.23,861.65,863.28,864.88,866.44,867.94,869.38,870.60,871.34,871.91,872.46,872.62,872.21,871.61,870.91,870.16,869.42,868.83,868.63,868.76,869.09,869.72,871.13,871.50,870.28,867.06,861.45,855.90,850.91,847.72,847.93,849.54,849.90,850.55,853.14,858.76,860.67,861.29,861.48,860.82,859.72,857.27,854.58,852.71,851.54,849.82,846.80,842.58,838.37
889.67,892.04,893.82,895.39,896.61,897.16,898.14,899.38,900.84,902.74,904.64,906.06,906.90,907.20,907.62,908.34,909.04,909.32,908.77,908.27,907.79,907.20,906.23,905.14,904.15,903.24,902.30,901.30,900.05,898.45,896.35,893.64,891.25,890.67,892.05,894.83,895.29,894.06,892.35,890.49,886.83,883.02,882.06,884.70,889.38,891.43,892.75,893.47,893.05,892.57,892.55,892.89,893.54,894.43,894.25,893.20,891.72,890.11,887.23,888.05,888.44,885.21,884.38,884.82,885.46,885.98,886.47,886.93,887.87,889.30,890.96,891.39,891.17,891.10,891.49,892.05,892.66,893.14,893.32,892.93,892.55,891.93,891.05,890.01,889.21,888.40,887.49,886.35,884.84,883.44,882.44,881.79,881.25,880.16,879.80,880.17,880.91,880.81,879.12,877.12,875.73,876.03,877.55,876.93,873.84,868.54,862.92,859.70,857.47,855.45,853.38,851.18,849.10,846.93,844.33,841.85,839.69,837.61,835.81,835.34,835.59,834.92,833.77,834.24,834.61,833.95,832.32,830.15,828.90,828.40,827.68,826.37,824.71,823.77,823.26,822.97,822.88,823.36,825.25,828.87,834.85,843.47,853.19,860.20,862.95,860.87,858.18,858.07,860.73,865.56,869.16,869.68,868.83,867.61,866.76,865.36,863.41,861.40,860.20,860.32,861.46,862.64,863.55,865.22,866.98,868.87,870.61,871.49,872.28,872.65,872.53,871.85,870.95,870.27,870.21,870.78,871.25,871.15,870.63,869.40,866.77,863.62,862.44,862.88,864.37,866.06,867.79,869.20,870.13,870.37,870.17,869.38,868.40,867.91,868.97,869.70,870.03,870.10,870.13,870.11,870.07,870.04,869.76,867.87,864.94,861.93,859.87,860.11,861.41,862.96,864.51,866.02,867.50,868.87,870.04,870.89,871.68,872.51,873.01,872.89,872.13,871.32,870.50,869.72,869.18,869.18,869.62,870.23,870.97,872.19,871.76,869.15,864.55,858.98,853.85,849.04,845.47,844.63,845.66,846.45,848.14,852.05,858.58,860.51,860.85,860.72,859.80,858.23,855.41,852.21,849.54,847.80,846.21,843.57,839.76,835.92
891.67,893.86,895.72,897.42,898.86,899.42,899.75,900.17,900.98,902.65,904.48,906.30,907.72,908.11,908.43,909.09,909.90,910.43,909.92,909.22,908.41,907.38,905.92,904.67,903.56,902.54,901.58,900.50,899.03,897.34,895.46,893.40,892.05,892.39,894.27,896.72,896.58,895.03,892.87,890.16,886.13,883.12,882.99,885.76,889.48,891.41,892.88,894.00,894.31,894.23,894.30,894.53,894.95,895.62,894.85,893.30,891.43,889.69,889.04,890.29,890.75,888.43,886.46,886.92,887.88,888.28,887.75,887.11,887.43,888.46,889.59,890.42,890.96,891.40,891.87,892.35,892.83,893.33,893.59,893.15,892.58,891.23,889.67,888.47,887.64,886.86,886.04,885.04,883.60,882.04,880.69,879.77,879.25,877.87,877.46,877.96,878.95,879.10,877.17,875.05,873.81,874.39,876.01,875.57,873.02,868.68,863.34,859.78,857.02,854.46,851.84,849.10,846.45,843.70,840.64,838.20,835.94,833.27,830.35,829.12,829.06,829.14,829.10,829.09,829.16,828.98,828.26,826.77,825.00,824.24,823.88,823.27,821.64,820.02,818.77,817.93,817.62,818.37,821.02,825.17,831.24,840.87,850.73,857.46,860.02,858.40,855.90,856.23,858.98,863.03,866.78,866.46,864.56,862.62,861.59,860.60,858.94,856.87,855.23,855.04,856.83,859.21,861.34,863.48,864.70,866.63,869.07,870.20,871.21,872.07,872.55,872.32,871.68,871.33,871.29,871.50,871.65,871.31,870.66,869.44,867.02,864.71,863.92,864.23,865.28,866.84,868.40,869.58,870.26,870.41,870.11,869.31,868.58,868.67,869.66,869.99,870.04,870.12,870.18,870.13,870.09,870.05,869.69,867.68,864.70,861.79,859.95,860.04,861.16,862.58,864.04,865.51,866.96,868.32,869.51,870.49,871.28,872.12,872.96,873.47,872.88,872.05,871.17,870.35,869.82,869.96,870.55,871.29,872.00,872.69,871.58,867.96,862.42,857.27,852.38,847.65,843.67,841.61,841.93,843.75,846.79,851.49,858.19,859.98,860.01,859.49,858.15,856.13,853.32,849.94,846.29,843.36,841.38,839.04,835.97,832.80
892.11,894.38,896.47,898.49,900.34,901.47,901.87,901.97,902.10,902.74,904.35,906.20,907.90,909.07,909.47,910.01,910.79,911.39,910.52,909.57,908.62,907.51,905.99,904.54,903.16,901.92,900.81,899.31,897.97,896.74,895.73,895.51,895.91,896.99,898.29,898.72,897.33,894.88,891.89,888.37,884.00,883.25,884.32,886.32,888.94,890.84,892.42,893.79,894.88,895.72,896.05,896.27,896.60,896.91,895.71,893.88,891.87,890.12,890.09,891.67,892.36,890.37,888.15,888.69,889.92,890.47,889.30,888.28,888.48,889.45,890.42,891.55,893.16,894.10,893.88,893.67,893.46,893.56,893.69,893.01,891.72,889.93,888.10,886.69,885.75,884.95,884.29,883.66,882.67,880.92,878.63,876.68,876.02,874.91,874.95,875.84,876.91,876.67,874.41,872.31,871.45,872.51,874.14,875.01,874.20,871.07,867.47,863.36,859.93,857.28,854.08,850.20,847.42,845.19,842.20,839.37,836.50,833.16,829.50,826.94,824.81,823.35,822.54,822.27,822.54,822.90,822.84,821.90,820.34,819.52,819.28,819.03,817.34,814.89,813.04,812.04,811.93,813.16,816.11,821.01,828.47,838.35,847.71,853.99,856.56,855.61,853.43,853.94,857.01,861.25,862.96,861.74,859.69,857.92,856.95,856.22,854.76,852.69,850.83,850.74,853.24,856.82,860.89,866.65,868.22,867.80,867.11,867.84,869.75,871.05,871.73,872.13,872.36,872.31,872.23,872.16,871.98,871.39,870.66,869.50,867.41,865.95,865.47,865.55,866.10,867.51,869.01,870.04,870.45,870.33,869.90,869.18,868.80,869.41,869.94,870.08,870.11,870.17,870.19,870.13,870.07,869.93,869.32,866.91,863.85,861.27,860.04,860.29,861.04,862.14,863.53,864.98,866.36,867.62,868.78,869.80,870.60,871.47,872.40,873.23,873.46,872.75,871.90,871.16,870.65,871.30,872.11,872.62,872.61,872.18,870.92,867.57,862.24,856.69,851.33,846.58,842.67,840.17,839.83,842.32,846.27,851.14,856.61,858.10,857.71,856.55,854.99,853.09,850.48,847.31,843.65,839.47,835.68,832.53,829.99,827.76
892.70,894.92,897.04,899.12,901.07,902.66,903.64,903.97,903.77,903.75,904.50,906.04,908.01,909.78,910.70,911.39,912.01,912.26,911.07,909.92,908.82,907.61,906.08,904.56,903.10,901.73,900.42,899.09,898.40,897.64,896.90,897.75,898.88,900.06,900.79,900.03,897.69,894.23,890.36,886.71,884.20,885.34,886.92,887.89,889.04,890.46,891.98,893.50,895.00,896.37,897.14,897.61,897.94,898.06,896.71,894.86,892.95,891.40,891.51,893.04,893.74,892.00,889.98,890.35,891.65,892.54,891.40,890.24,890.21,891.07,892.37,893.95,895.98,897.06,896.58,895.87,895.40,895.22,894.77,892.93,890.74,888.54,886.55,884.97,883.88,883.07,882.52,882.12,881.37,879.27,876.37,873.79,872.78,872.07,872.42,873.52,874.73,874.45,872.14,869.96,869.03,870.19,871.70,873.19,873.63,872.18,870.44,867.24,864.03,861.15,857.62,852.92,849.90,847.88,844.97,841.85,838.77,835.21,831.03,827.43,823.62,820.72,818.85,817.53,817.44,817.35,816.93,816.04,814.70,813.67,813.06,812.51,810.94,808.64,806.94,806.07,806.24,808.16,811.55,817.35,826.11,835.36,844.05,850.36,853.57,853.21,850.81,850.81,853.45,857.55,859.01,857.72,855.66,853.78,852.33,851.41,850.08,848.54,847.80,849.02,852.45,856.96,862.18,868.52,870.05,869.09,867.67,867.91,868.88,869.71,870.48,871.40,872.06,872.30,872.43,872.46,872.12,871.43,870.71,869.74,868.14,867.30,867.02,867.01,867.27,868.37,869.56,870.34,870.55,870.20,869.69,869.31,869.31,869.87,870.09,870.16,870.19,870.23,870.20,870.11,870.00,869.63,868.36,865.97,863.57,861.75,860.88,860.92,861.41,862.20,863.24,864.40,865.64,866.84,867.97,869.01,869.85,870.82,871.85,872.81,873.53,873.20,872.40,871.64,871.56,872.38,872.71,872.54,872.01,871.15,869.81,866.79,861.97,856.43,850.46,845.23,841.19,838.90,838.30,841.16,845.60,850.43,854.67,855.46,854.47,852.68,850.67,848.73,846.36,843.44,839.72,835.01,830.88,827.63,825.10,822.67
893.38,895.56,897.65,899.62,901.43,903.29,905.05,905.95,905.81,905.56,905.14,906.05,908.08,910.22,911.91,912.98,913.43,913.09,911.70,910.41,909.14,907.79,906.28,904.79,903.38,901.95,900.49,899.88,900.06,899.68,898.79,899.88,900.89,901.69,901.95,900.75,897.81,893.32,888.62,885.42,886.12,888.59,890.16,890.22,889.88,890.51,891.75,893.27,894.87,896.38,897.63,898.51,898.97,899.10,897.82,896.15,894.52,893.26,893.25,894.47,895.03,893.60,892.01,892.08,893.27,894.57,893.96,892.89,892.54,893.22,895.00,896.96,898.80,899.72,899.34,898.44,898.10,897.78,896.60,893.22,890.17,887.61,885.40,883.52,882.09,881.20,880.66,880.28,879.49,876.98,873.88,871.13,869.67,869.27,869.75,870.95,872.42,872.54,870.48,868.12,866.70,867.52,868.82,870.33,871.50,871.83,871.72,870.46,868.23,865.19,861.55,856.59,853.29,851.09,848.16,844.86,841.91,838.45,834.01,829.69,824.81,820.90,817.98,815.09,813.99,812.56,810.92,809.63,808.37,807.07,805.83,804.65,803.33,801.86,800.76,800.29,800.95,803.77,807.78,814.42,824.03,831.98,839.86,846.40,850.57,850.85,847.98,847.01,848.67,852.32,854.84,854.08,852.07,849.83,847.61,846.23,845.27,845.01,846.46,849.71,854.08,859.23,864.78,869.06,870.11,870.06,869.85,869.61,868.63,868.50,869.23,870.36,871.07,871.56,872.06,872.45,872.15,871.49,870.84,870.13,869.12,868.68,868.52,868.50,868.68,869.34,870.06,870.52,870.57,870.08,869.58,869.64,869.96,870.10,870.19,870.26,870.29,870.28,870.21,870.07,869.89,869.20,867.16,865.15,863.90,863.07,862.37,861.93,862.20,862.70,863.26,863.98,865.02,866.12,867.20,868.20,869.07,870.20,871.34,872.31,873.19,873.40,872.72,871.92,872.44,872.98,872.35,871.20,870.25,869.42,868.07,865.49,861.52,856.46,850.10,844.17,839.70,837.69,836.96,839.87,844.41,849.04,852.25,852.19,850.54,848.19,845.61,843.54,841.41,838.66,834.83,830.27,826.95,824.08,821.08,817.64
893.22,896.20,898.74,900.81,902.59,904.41,906.15,907.42,907.99,907.89,907.21,907.10,908.03,910.24,912.19,913.86,914.64,914.02,912.66,911.38,910.02,908.59,907.23,905.69,904.16,902.68,901.56,901.92,902.16,901.81,901.21,901.85,902.69,903.16,902.88,901.23,898.04,892.76,887.59,885.09,887.15,889.86,891.64,892.12,891.73,891.97,892.49,893.41,895.00,896.42,897.70,898.82,899.68,900.05,899.10,897.73,896.31,895.12,895.00,895.97,896.61,895.76,894.53,894.47,895.46,896.82,897.01,896.36,896.03,896.39,897.58,898.86,899.97,900.49,900.23,899.71,899.54,899.37,898.34,895.07,891.99,889.26,886.38,883.11,880.54,879.17,878.30,877.44,876.10,873.57,870.85,868.43,866.73,865.90,866.25,867.75,870.00,871.09,869.72,867.22,864.94,864.73,865.73,867.40,868.93,869.74,870.18,870.12,869.28,867.29,863.69,859.82,856.72,853.97,850.67,847.28,844.23,840.82,836.58,831.97,827.09,823.04,819.66,815.93,812.79,809.18,805.89,803.89,802.14,800.78,799.68,798.69,797.57,796.28,795.38,795.54,797.78,801.72,806.53,813.25,821.97,828.55,835.15,840.96,845.26,846.83,844.51,842.93,843.75,847.23,849.41,848.98,847.19,844.76,842.44,841.10,842.01,844.88,848.95,853.03,857.61,862.81,867.90,869.72,870.11,870.11,869.96,869.52,869.15,869.22,869.44,869.59,870.33,871.00,871.64,872.20,872.31,871.83,871.23,870.63,870.06,869.84,869.70,869.63,869.72,870.08,870.52,870.72,870.60,870.18,869.92,869.98,870.18,870.29,870.38,870.38,870.34,870.29,870.20,870.07,869.68,868.80,867.05,865.56,864.91,864.60,864.14,863.50,863.34,863.56,864.05,864.68,865.41,866.13,866.84,867.57,868.36,869.63,870.85,871.81,872.75,873.22,872.94,872.51,872.94,872.49,871.02,869.00,866.89,865.60,864.55,863.33,861.28,857.10,851.86,846.04,840.59,836.79,834.97,837.28,841.38,845.58,848.22,848.15,846.27,843.44,840.70,839.15,836.99,834.00,830.32,826.52,823.54,820.28,816.39,812.43
892.39,895.93,898.94,901.31,903.15,905.06,906.85,908.44,909.60,909.79,909.06,908.22,908.22,910.33,912.39,914.43,915.60,915.21,913.98,912.74,911.35,909.83,908.45,906.87,905.14,903.70,903.25,904.20,904.59,904.39,903.96,904.19,904.55,904.35,903.41,901.54,898.68,893.49,888.45,886.22,887.58,890.24,892.49,893.69,893.73,893.82,893.88,894.24,895.36,896.56,897.77,899.01,900.18,900.95,900.31,899.15,897.88,896.82,896.67,897.47,898.18,897.95,897.14,897.01,897.68,898.77,899.31,899.09,898.89,899.03,899.60,900.25,900.78,900.97,900.77,900.48,900.34,900.17,899.27,896.33,893.41,890.62,887.36,883.29,879.91,878.38,877.44,876.43,875.00,872.63,870.22,867.99,865.87,863.41,862.98,864.46,867.17,868.75,868.34,866.24,863.51,862.11,862.72,864.50,866.26,867.20,867.80,868.22,868.21,867.34,864.92,862.37,859.77,857.05,853.99,850.45,847.11,843.36,838.77,833.87,829.09,824.89,821.04,816.72,812.25,806.98,802.26,799.44,797.17,795.56,794.46,793.71,792.84,791.79,791.06,791.74,795.47,800.45,805.81,812.25,819.68,825.04,830.43,835.47,839.57,841.54,839.97,838.36,838.64,841.60,843.23,842.83,841.32,839.45,838.43,838.62,841.51,846.29,851.27,855.40,859.66,864.42,868.92,869.89,869.90,869.57,868.99,868.24,868.71,869.49,869.89,869.62,870.11,870.76,871.42,872.00,872.30,872.09,871.63,871.12,870.81,870.68,870.54,870.43,870.43,870.64,870.89,870.93,870.71,870.38,870.26,870.25,870.34,870.47,870.47,870.40,870.31,870.23,870.17,870.06,869.68,868.87,867.45,866.25,865.63,865.41,865.38,865.14,864.76,864.66,864.99,865.55,866.13,866.65,867.13,867.67,868.38,869.44,870.50,871.42,872.35,873.01,873.01,872.71,872.72,871.65,869.42,866.45,863.27,861.03,859.96,859.67,859.32,856.99,853.35,848.48,842.80,837.05,832.94,833.72,836.90,840.56,842.74,843.03,841.70,839.58,838.15,837.86,836.39,833.17,828.35,824.35,820.73,816.71,812.24,808.24
891.10,894.77,898.12,900.95,902.93,905.11,907.13,909.00,910.51,911.11,910.41,909.20,908.72,910.64,912.76,914.88,916.39,916.66,915.64,914.47,913.07,911.44,909.81,908.16,906.28,905.01,905.46,906.51,907.25,907.34,906.92,906.85,906.34,905.14,903.46,901.66,899.54,895.26,890.94,888.54,887.60,890.08,892.98,894.93,895.69,895.84,895.80,895.78,895.99,896.88,897.99,899.21,900.53,901.81,901.40,900.34,899.19,898.35,898.26,898.90,899.66,899.97,899.66,899.48,899.73,900.31,900.71,900.80,900.79,900.82,900.96,901.18,901.36,901.37,901.13,900.83,900.56,900.23,899.28,896.65,893.93,891.17,887.93,883.97,880.40,879.10,878.44,877.72,876.78,874.69,872.38,870.05,867.27,862.22,860.22,861.11,863.84,865.36,866.06,864.97,862.42,859.91,859.92,861.63,863.52,864.44,864.95,865.21,865.34,865.36,865.11,863.87,862.07,860.10,858.01,854.34,850.61,846.16,840.61,835.33,830.49,825.99,821.57,816.86,812.08,806.01,800.25,796.59,793.81,791.67,790.31,789.68,789.08,788.41,787.84,788.86,793.75,799.60,805.23,811.08,817.11,821.38,825.74,830.02,833.55,834.79,834.00,832.95,833.07,835.13,836.34,835.93,835.03,834.63,836.09,839.06,843.57,848.60,852.63,856.20,859.77,863.68,867.57,869.38,869.29,868.37,867.08,865.92,866.99,868.78,870.16,870.40,870.42,870.87,871.43,871.90,872.08,872.18,871.95,871.57,871.35,871.20,871.05,870.90,870.83,871.02,871.19,871.16,870.92,870.63,870.51,870.49,870.54,870.62,870.46,870.29,870.17,870.09,870.07,869.98,869.83,869.36,868.17,867.02,865.94,865.44,865.88,866.58,866.32,865.98,865.99,866.43,867.08,867.62,868.09,868.57,869.18,869.72,870.37,871.22,872.06,872.81,872.87,872.38,871.73,870.56,867.65,863.74,859.61,855.99,854.50,854.51,855.33,855.65,853.92,850.77,845.88,838.52,831.23,829.58,831.24,834.17,836.00,836.89,836.84,836.64,837.87,839.44,839.42,836.12,829.02,823.71,818.61,813.62,809.01,805.37
890.96,894.39,897.60,900.55,902.77,905.04,907.16,909.13,910.91,912.21,911.49,910.15,909.63,911.61,913.78,916.03,917.71,918.17,917.38,916.27,914.82,912.96,910.85,908.83,907.28,906.73,907.71,908.68,909.24,909.36,909.03,908.44,906.99,905.02,902.97,901.21,898.56,894.40,890.59,888.70,888.27,890.76,893.72,896.01,897.38,897.64,897.53,897.37,897.34,897.80,898.69,899.85,901.25,902.70,902.45,901.56,900.60,899.97,899.86,900.25,900.81,901.19,901.04,900.90,901.04,901.45,901.86,902.04,902.03,901.92,901.73,901.38,901.13,900.90,900.68,900.50,900.30,899.84,898.81,896.64,893.98,891.18,888.15,884.87,882.15,881.06,880.56,880.11,879.46,877.50,874.94,872.17,868.90,862.95,858.24,857.21,860.12,862.02,863.22,863.29,862.04,859.44,857.63,858.65,860.59,861.53,861.92,862.12,862.27,862.44,862.63,862.29,861.70,860.90,859.55,856.65,853.03,848.36,842.43,836.54,831.05,826.11,821.52,816.79,812.18,806.33,800.50,796.16,792.38,789.57,787.87,787.15,786.56,785.94,785.36,786.55,792.19,798.63,804.34,809.54,814.21,817.54,820.56,823.15,824.99,825.39,825.02,824.64,825.06,826.88,828.77,830.57,832.34,834.23,836.50,839.72,844.16,848.98,852.82,856.28,859.74,863.35,866.72,868.02,867.06,865.61,864.31,863.37,864.52,866.70,868.94,870.44,870.78,871.08,871.40,871.67,871.78,871.85,871.80,871.70,871.70,871.64,871.52,871.37,871.25,871.32,871.35,871.29,871.13,870.93,870.79,870.75,870.72,870.62,870.40,870.19,869.99,869.78,869.64,869.51,869.42,869.23,868.65,867.74,866.64,865.79,865.66,866.47,866.90,867.14,867.30,867.40,868.06,868.62,869.04,869.46,869.94,870.38,870.96,871.69,872.28,872.41,872.11,871.51,870.67,868.78,865.64,861.34,856.03,851.05,849.09,849.14,850.44,851.97,852.25,850.98,847.24,839.74,831.50,827.49,826.62,827.86,829.71,831.02,832.06,833.25,835.23,837.73,838.48,835.76,828.89,823.05,817.34,812.07,807.55,804.01
890.50,893.82,897.15,900.34,902.85,905.30,907.57,909.58,911.34,913.05,912.86,911.86,911.39,913.15,915.33,917.46,918.96,919.35,918.86,917.83,916.21,914.02,911.53,909.36,908.33,908.46,909.58,910.36,910.71,910.73,910.37,909.37,907.23,904.78,902.47,900.42,896.89,892.70,889.56,888.85,889.77,892.45,895.27,897.52,899.01,899.30,899.15,898.96,898.92,899.12,899.81,900.89,902.27,903.69,903.54,902.83,902.07,901.55,901.35,901.55,901.93,902.25,902.18,902.09,902.19,902.47,902.68,902.65,902.48,902.20,901.74,900.97,900.41,900.04,899.82,899.71,899.60,899.12,898.13,896.46,894.15,891.53,888.88,886.46,884.65,883.61,882.87,882.18,881.30,879.28,876.43,873.16,869.37,863.19,856.47,853.50,855.82,857.92,859.63,860.71,860.68,858.56,855.82,855.91,857.36,858.27,858.60,858.78,858.94,859.13,859.38,859.60,859.84,859.84,859.06,857.05,853.99,849.83,844.43,838.35,832.53,827.43,822.88,818.22,813.43,807.98,802.39,797.29,792.47,788.88,786.42,784.99,784.26,783.68,783.04,784.12,789.77,796.38,802.06,806.71,810.34,812.93,814.75,815.82,816.25,816.23,816.43,817.71,819.94,822.86,825.79,829.28,832.80,835.90,838.08,840.80,844.69,849.08,852.83,856.29,859.84,863.43,866.31,866.26,864.37,862.45,861.11,860.44,861.63,864.04,866.96,869.64,870.69,871.05,871.23,871.32,871.35,871.37,871.43,871.55,871.73,871.84,871.78,871.63,871.48,871.41,871.32,871.24,871.15,871.04,870.90,870.86,870.81,870.61,870.38,870.14,869.78,869.30,868.91,868.68,868.61,868.63,868.61,868.13,867.32,866.34,865.62,866.10,866.96,867.71,868.17,868.32,869.12,869.62,869.90,870.27,870.67,871.07,871.51,871.94,872.15,871.78,871.09,870.14,868.71,866.19,863.11,858.97,853.28,847.22,844.39,844.08,845.49,847.33,849.13,849.79,847.59,840.52,832.43,826.87,823.60,822.53,823.44,824.35,825.66,827.50,829.91,832.66,833.75,832.01,826.82,821.36,815.71,810.62,806.39,802.88
889.41,892.89,896.81,900.47,903.30,906.04,908.64,910.61,911.96,913.57,914.72,914.69,914.33,915.41,917.48,919.03,919.85,919.97,919.86,918.95,917.05,914.40,911.82,909.92,909.52,910.08,910.86,911.35,911.56,911.38,910.72,909.60,907.21,904.62,902.11,899.30,894.84,890.64,888.53,889.73,892.33,895.39,897.98,899.74,900.62,900.83,900.68,900.53,900.67,900.89,901.47,902.42,903.67,904.85,904.73,904.19,903.61,903.03,902.70,902.81,903.10,903.31,903.30,903.22,903.28,903.37,903.01,902.41,901.90,901.38,900.65,899.74,899.17,898.82,898.57,898.43,898.38,898.02,897.27,896.12,894.57,892.51,890.47,888.95,887.77,886.52,885.03,883.31,881.53,879.23,876.14,872.45,868.11,862.21,854.96,850.52,850.95,852.70,855.02,856.79,857.43,856.29,854.40,853.49,853.62,854.44,854.78,854.95,855.15,855.44,855.79,856.16,856.48,856.60,856.15,854.87,852.83,850.17,846.54,841.08,835.69,830.91,826.57,821.90,816.29,811.18,805.99,800.01,794.24,789.78,785.95,782.95,781.93,781.41,780.72,781.33,785.95,792.16,797.59,801.88,804.94,807.08,808.09,808.30,808.22,808.68,809.97,814.41,820.53,826.26,830.45,834.12,837.25,839.55,840.70,842.53,845.61,849.41,853.00,856.49,860.28,864.01,866.33,864.11,861.45,859.17,857.50,856.95,858.22,860.84,864.20,867.66,869.87,870.65,870.86,870.85,870.74,870.75,870.86,871.07,871.37,871.70,871.75,871.60,871.38,871.18,871.02,870.91,870.84,870.82,870.74,870.75,870.77,870.66,870.45,870.17,869.58,868.65,867.89,867.47,867.36,867.48,867.78,867.96,867.75,867.06,866.08,865.85,866.52,867.40,868.25,869.06,870.17,870.55,870.57,870.89,871.31,871.61,871.74,871.63,871.27,870.76,869.74,868.01,865.35,862.62,859.85,856.49,851.73,845.10,840.82,839.62,840.78,842.08,844.53,847.11,846.90,840.67,833.77,827.88,822.84,818.90,817.25,816.53,816.86,818.36,821.21,823.45,824.42,824.02,821.88,817.96,813.14,808.72,804.99,801.42
892.14,894.74,897.90,900.98,903.56,906.46,909.11,911.11,912.47,913.96,915.44,916.30,916.83,917.81,919.02,919.81,920.18,920.19,920.10,919.28,917.48,914.98,912.76,911.29,911.00,911.46,912.06,912.39,912.06,911.42,910.56,909.23,906.71,903.98,901.24,898.05,893.82,890.19,889.00,891.36,894.56,897.63,899.93,901.35,902.12,902.25,902.30,902.44,902.76,903.04,903.53,904.32,905.31,906.01,905.93,905.59,905.14,904.47,904.07,904.07,904.23,904.28,904.10,903.75,903.43,903.09,902.49,901.75,901.09,900.17,898.54,896.90,896.77,897.12,897.22,897.13,897.07,896.83,896.27,895.25,894.07,892.54,890.96,889.64,888.63,887.31,885.62,883.65,881.65,879.41,876.59,873.28,869.36,863.89,856.66,851.06,849.03,848.84,850.09,851.38,851.99,851.32,850.34,849.28,848.71,849.06,849.26,849.06,849.44,850.64,851.87,852.60,852.95,852.92,852.27,850.86,849.18,847.67,845.99,842.19,838.14,833.61,828.59,823.40,817.59,812.34,807.27,801.72,795.63,790.36,785.67,781.82,779.87,779.09,778.31,778.61,782.30,787.51,791.81,795.18,797.81,799.92,801.20,801.95,803.18,806.92,811.73,819.03,826.90,833.26,839.03,842.96,845.38,846.26,845.52,844.96,846.88,850.63,854.44,858.00,861.77,864.39,864.35,861.25,858.28,855.70,853.66,852.82,853.83,856.41,859.83,863.73,868.72,870.38,870.60,870.49,870.29,869.94,870.10,870.64,871.13,871.60,871.61,871.38,871.11,870.88,870.70,870.59,870.53,870.52,870.50,870.52,870.58,870.58,870.48,870.23,869.71,868.90,868.00,866.97,866.37,866.31,866.64,866.96,867.08,866.95,866.51,865.91,866.22,866.98,867.93,868.94,870.07,870.66,870.84,870.91,871.06,871.15,871.10,870.77,869.88,868.31,866.28,864.05,861.91,859.62,856.64,853.23,849.14,842.76,837.85,836.01,836.98,838.52,840.96,844.55,845.91,840.88,835.02,829.22,823.57,818.29,814.24,811.61,810.78,811.44,812.92,814.45,815.48,815.82,815.08,812.78,809.07,805.24,801.49,797.19
896.12,897.94,900.18,902.42,904.38,906.75,909.25,911.30,912.75,914.17,915.74,917.25,918.60,919.59,920.04,920.26,920.35,920.29,920.12,919.43,917.93,915.80,913.97,912.94,912.65,912.79,913.06,913.07,912.21,911.13,909.98,908.16,905.49,902.72,899.89,896.65,892.91,890.21,889.97,892.97,896.29,899.20,901.27,902.57,903.58,903.78,904.04,904.48,904.94,905.31,905.55,905.91,906.39,906.48,906.35,906.14,905.83,905.30,904.96,904.86,904.83,904.68,904.29,903.72,903.08,902.39,901.68,900.80,899.81,898.34,895.92,893.66,894.13,895.29,895.81,895.76,895.66,895.53,895.19,894.22,893.14,891.85,890.43,889.06,888.10,886.86,885.39,883.72,881.92,879.97,877.57,874.75,871.42,866.75,860.00,853.73,849.53,847.02,846.39,846.46,846.51,845.83,844.12,842.40,841.14,840.64,840.65,840.37,841.07,843.05,845.20,846.49,847.16,847.32,846.80,845.58,844.58,844.24,844.20,842.23,839.53,835.01,829.11,823.44,817.58,811.85,806.56,801.76,796.02,790.27,785.02,780.74,778.11,776.86,775.92,776.03,778.97,783.04,786.10,788.54,790.83,793.14,795.39,797.50,800.60,807.37,815.03,824.38,833.45,840.31,847.11,851.24,853.18,852.92,850.30,847.42,848.18,851.87,856.07,859.78,863.12,864.26,861.96,858.50,855.34,852.49,850.13,848.94,849.74,852.38,855.94,860.25,867.53,870.02,870.24,869.77,869.12,869.11,869.66,870.44,871.01,871.51,871.44,871.12,870.82,870.57,870.30,869.94,869.63,869.74,869.97,870.19,870.35,870.42,870.43,870.25,869.93,869.43,868.54,866.95,865.75,865.24,865.43,865.74,866.06,866.37,866.51,865.92,865.95,866.55,867.55,868.64,869.74,870.52,870.87,870.64,870.25,869.98,869.63,868.87,867.30,864.81,862.15,860.02,859.13,857.27,854.17,850.67,846.88,840.73,835.31,832.93,833.70,835.57,838.06,842.25,844.80,841.23,836.26,830.96,825.47,819.69,813.61,808.75,806.30,805.78,805.94,806.79,807.73,808.35,808.25,807.01,803.74,799.89,795.79,790.95
900.62,902.53,904.26,905.75,906.63,906.95,908.97,911.10,912.56,914.04,915.78,917.50,918.98,919.91,920.27,920.46,920.50,920.36,920.14,919.67,918.66,917.09,915.36,914.75,914.46,914.16,913.66,912.84,911.75,910.48,908.73,905.86,902.93,900.26,897.75,894.99,891.63,890.29,891.19,894.08,897.08,899.68,901.68,903.27,905.02,905.61,906.04,906.56,907.08,907.58,907.25,906.62,905.98,905.33,904.97,904.71,904.58,904.70,904.72,904.56,904.26,903.85,903.35,902.75,902.13,901.48,900.73,899.43,897.58,895.30,892.71,890.48,891.65,893.52,894.35,894.28,894.08,894.08,893.99,893.13,891.82,890.06,888.22,886.69,885.75,884.88,884.23,883.69,882.60,881.27,879.29,876.75,873.80,870.64,865.15,859.11,853.75,849.07,845.80,843.65,842.30,840.81,834.58,830.53,828.16,826.18,826.03,826.51,827.71,829.77,832.42,834.61,836.32,837.57,838.28,838.48,839.31,840.42,841.22,840.84,838.85,833.95,827.18,821.49,815.54,808.77,802.69,798.63,794.33,788.77,783.39,779.20,776.86,774.88,773.61,773.74,776.27,779.20,781.33,783.16,785.26,788.08,792.23,796.71,801.86,809.34,816.80,826.50,836.79,845.28,851.57,855.73,857.95,857.58,853.61,849.53,849.34,852.63,857.38,861.39,863.49,863.05,859.86,856.45,853.05,849.98,847.47,846.03,846.99,850.04,854.14,858.98,866.44,869.43,869.58,868.13,866.24,868.38,870.10,870.67,871.13,871.44,871.27,870.92,870.62,870.30,869.71,868.55,867.38,867.85,868.85,869.64,870.07,870.14,870.15,870.16,870.17,870.02,869.32,867.62,865.77,864.42,864.27,864.56,864.89,865.20,865.47,865.60,865.62,866.16,867.29,868.44,869.58,870.33,870.57,870.11,868.67,867.81,866.75,864.88,862.28,859.74,857.77,857.00,857.94,856.05,853.35,850.23,846.09,839.58,833.46,830.52,831.05,832.98,836.09,840.48,843.56,841.83,837.56,833.44,829.15,823.86,816.52,808.85,803.80,801.69,801.74,802.11,802.46,802.68,802.49,800.95,796.39,791.20,786.34,781.82
901.25,903.68,906.00,908.01,909.03,908.55,909.48,910.96,912.43,913.95,915.74,917.55,919.12,920.04,920.38,920.58,920.61,920.38,920.14,919.67,918.90,917.77,916.35,915.62,914.92,914.06,912.99,911.90,910.68,909.07,906.79,903.59,900.62,898.04,895.66,893.15,890.92,891.32,893.41,896.18,898.85,901.34,903.52,905.31,906.58,907.10,907.49,907.77,907.68,907.17,906.21,905.21,904.36,903.54,903.21,903.08,903.13,903.51,903.64,903.51,903.22,902.81,902.32,901.76,901.16,900.46,899.35,896.99,894.29,891.63,889.33,888.30,890.23,892.21,892.65,892.52,892.57,892.70,892.72,892.23,890.98,888.46,885.79,884.08,883.17,882.36,881.79,881.39,880.65,879.72,878.40,876.66,874.47,872.20,867.84,862.24,855.99,849.53,844.80,841.32,838.36,834.40,826.70,821.10,817.43,815.00,814.97,815.91,817.36,819.27,821.64,823.91,826.01,828.07,830.18,831.85,833.63,835.31,836.55,837.00,836.70,833.36,827.07,819.60,812.91,805.38,798.82,795.14,791.39,785.92,780.93,777.45,775.16,773.02,771.52,771.27,773.07,775.45,777.65,780.25,783.71,787.59,792.21,797.14,802.58,809.51,817.95,828.03,838.23,846.80,853.52,857.63,859.62,859.19,855.76,851.80,851.19,853.84,858.24,862.12,863.01,861.46,858.13,854.76,851.28,848.01,845.15,843.32,845.04,848.78,853.28,858.11,864.35,867.00,867.03,865.57,864.88,868.17,870.38,870.87,871.11,871.08,870.82,870.38,869.70,868.53,867.39,865.29,862.98,863.27,864.69,866.55,867.92,868.01,867.95,867.96,868.22,868.82,869.53,868.24,866.23,864.33,863.31,863.38,863.70,864.03,864.34,864.64,864.56,864.99,866.04,867.15,868.52,869.56,869.90,868.98,866.63,864.89,862.91,860.27,857.94,855.38,853.67,853.49,855.33,855.57,854.01,851.32,847.23,839.84,832.85,828.98,828.75,830.87,834.90,839.57,842.90,842.55,839.45,836.01,832.39,827.77,820.28,810.44,802.74,798.08,795.93,795.52,795.37,795.11,794.32,791.57,787.20,782.97,779.38,775.98
901.08,903.86,906.73,909.35,910.98,910.62,910.55,911.23,912.60,913.99,915.67,917.48,919.11,920.07,920.42,920.68,920.72,920.41,920.15,919.56,918.80,917.90,916.75,915.74,914.62,913.30,911.86,910.65,909.28,907.34,904.65,901.53,898.62,896.24,894.26,892.50,891.83,893.62,896.34,898.77,901.11,903.64,905.97,907.65,908.12,908.39,908.57,908.38,907.39,905.79,904.29,903.13,902.31,901.53,901.30,901.35,901.61,902.13,902.28,902.22,902.02,901.69,901.21,900.69,900.15,899.38,897.67,894.34,890.69,887.52,885.72,886.08,888.83,890.81,890.65,890.55,890.92,891.24,891.35,891.18,889.86,886.59,883.13,881.16,880.15,879.45,878.86,878.30,877.69,877.00,876.26,875.35,873.98,872.14,868.39,862.95,856.04,848.61,843.07,838.62,834.19,828.13,820.47,813.97,809.07,806.18,806.08,807.15,808.62,810.30,812.21,814.33,816.64,819.31,822.51,825.21,827.49,829.49,831.15,832.29,833.79,832.48,827.15,817.77,810.01,802.05,795.36,791.61,787.84,782.62,778.20,775.40,773.15,771.17,769.59,768.94,770.08,772.21,775.00,778.73,783.51,788.15,792.60,797.34,802.59,808.85,818.49,828.94,838.76,847.08,854.45,858.50,860.15,859.74,857.45,854.09,853.26,855.22,858.97,862.50,862.36,860.01,856.75,853.43,849.82,846.24,843.00,841.05,843.66,848.04,852.77,857.27,861.82,863.79,863.70,862.74,864.03,868.13,870.55,871.01,870.97,870.52,869.68,868.67,867.49,865.75,864.38,861.80,858.72,858.56,860.21,862.93,865.09,865.17,864.96,864.84,865.31,866.80,869.29,868.63,866.68,864.47,862.64,862.26,862.47,862.83,863.14,863.31,863.11,863.43,864.45,865.64,867.28,868.61,869.03,867.74,864.76,862.14,859.13,855.70,853.61,851.24,849.90,850.24,852.73,855.15,854.68,852.40,848.52,840.23,832.57,827.78,826.65,829.17,833.99,838.83,842.31,843.03,841.23,838.50,835.39,831.31,824.06,812.92,803.12,795.94,791.16,789.46,788.63,787.76,786.02,781.85,778.12,775.38,773.36,771.04
902.39,904.54,906.61,908.85,911.33,912.67,912.64,912.82,913.68,914.36,915.59,917.20,918.84,919.98,920.41,920.78,920.89,920.52,920.16,919.32,918.17,916.89,915.67,914.50,913.28,912.01,910.63,909.13,907.49,905.34,902.64,900.09,897.35,895.57,895.05,895.88,897.38,898.95,900.45,901.97,903.91,906.78,908.83,909.52,909.48,909.42,909.04,907.97,905.92,904.07,902.43,901.10,900.15,899.49,899.29,899.53,900.09,900.75,900.92,900.92,900.81,900.50,899.89,899.37,899.03,898.27,895.51,892.11,887.19,882.67,881.50,882.70,886.40,888.63,887.95,888.21,888.84,889.40,889.73,889.48,887.33,883.60,879.89,877.50,876.03,875.89,875.73,875.08,874.25,873.48,872.82,872.27,871.58,869.38,864.59,858.20,851.15,844.93,839.43,834.20,829.04,823.81,817.80,811.65,805.92,801.56,800.47,800.90,801.93,803.30,805.06,807.15,809.72,812.70,815.81,818.02,820.31,822.76,825.20,827.33,829.96,830.13,826.02,816.06,806.80,799.24,793.18,788.34,783.73,779.34,775.53,772.59,770.68,769.27,767.97,767.25,768.23,770.54,774.54,779.11,783.44,787.25,790.98,795.46,800.86,807.35,817.76,828.49,838.37,846.98,854.70,858.72,860.29,860.10,858.85,856.30,855.42,856.69,859.71,862.63,862.01,859.40,856.16,852.87,848.77,844.54,841.04,840.00,843.28,847.90,852.42,856.11,858.98,860.01,859.90,859.95,863.19,867.97,870.58,871.00,870.62,869.61,866.64,863.56,861.91,861.29,860.98,859.54,857.25,856.27,857.89,860.29,862.03,862.01,861.40,860.94,861.56,863.98,868.25,868.31,866.65,864.56,862.67,861.33,861.10,861.48,861.86,861.46,861.11,861.51,862.78,864.56,866.48,867.68,867.90,866.73,864.01,860.70,856.60,851.96,848.65,847.03,846.95,848.41,851.61,854.14,853.81,851.83,848.25,839.59,832.07,826.79,824.86,828.29,833.11,837.77,841.31,842.65,842.06,840.62,838.12,833.88,827.03,816.75,806.65,798.01,791.40,787.13,784.96,783.09,779.85,774.55,771.33,769.37,767.79,765.57
904.04,906.29,907.98,909.57,911.54,913.34,914.16,914.75,915.38,915.78,916.52,917.50,918.67,919.91,920.46,920.88,921.01,920.64,920.22,919.39,918.08,916.44,914.92,913.57,912.25,910.88,909.38,907.63,905.93,903.96,901.65,899.45,897.25,896.48,897.19,898.85,900.69,902.14,903.36,904.65,906.61,908.85,910.22,910.47,910.19,909.96,909.05,907.33,904.87,902.67,900.79,899.24,898.13,897.41,897.17,897.48,898.18,898.98,899.20,899.17,898.97,898.48,897.45,896.48,896.16,896.22,895.16,891.89,886.17,880.61,878.81,880.12,883.56,885.38,884.42,884.66,885.74,886.80,887.43,887.12,885.21,881.69,877.78,874.55,872.20,872.38,872.72,872.27,871.38,870.23,869.32,868.77,868.43,866.99,862.63,856.26,848.94,842.78,836.03,829.93,824.73,820.00,814.78,808.93,802.91,797.73,795.71,795.47,796.08,797.26,798.86,800.67,802.85,805.29,807.92,811.36,814.32,816.95,819.39,821.54,823.53,823.56,820.16,811.49,803.15,796.52,790.97,785.83,780.90,776.33,772.57,769.86,768.08,766.84,765.75,765.25,766.47,769.49,773.82,778.29,782.20,785.63,789.22,793.76,799.43,806.33,816.45,827.28,837.41,846.00,853.58,858.21,860.34,860.43,859.74,858.04,857.50,858.44,860.45,862.48,861.72,859.27,856.12,852.75,848.25,843.44,839.58,839.17,842.64,847.36,851.51,854.01,856.18,857.15,857.93,859.67,863.99,868.39,870.62,870.93,870.20,867.96,863.96,860.23,858.39,858.09,857.96,856.94,855.11,853.79,855.10,856.99,858.21,857.99,857.26,857.35,858.85,862.05,866.12,866.87,865.71,863.87,862.31,860.52,859.70,859.69,859.96,859.18,859.27,860.27,861.97,863.99,866.01,866.77,866.48,865.49,863.69,860.95,856.94,851.80,847.24,844.30,843.78,845.88,850.54,853.07,852.98,851.28,847.54,838.44,830.56,824.94,822.84,826.60,831.40,835.88,839.46,841.46,841.86,841.36,839.85,836.30,828.85,819.64,809.57,799.91,792.85,787.22,782.67,777.92,772.25,767.25,764.86,763.59,762.55,761.08
905.63,908.28,909.88,910.86,911.82,913.39,915.16,916.50,917.18,917.63,917.99,918.29,918.81,919.96,920.59,920.99,921.04,920.66,920.17,919.40,918.05,916.18,914.36,912.91,911.52,910.08,908.51,906.63,904.90,903.14,901.24,899.27,897.81,898.11,899.73,901.33,902.76,904.19,905.58,906.98,908.97,910.27,910.90,910.94,910.58,910.24,908.97,906.85,904.21,901.58,899.36,897.56,896.20,895.32,895.01,895.31,896.08,896.98,897.26,897.14,896.78,896.06,894.57,893.00,892.64,893.79,895.33,892.57,886.83,880.77,877.50,877.80,880.16,881.35,880.39,880.54,882.19,883.86,884.82,884.53,883.35,880.40,876.47,872.43,869.15,869.20,869.81,869.73,868.92,867.27,865.89,865.10,864.94,864.63,861.41,855.66,848.27,841.82,833.46,826.29,820.93,816.37,811.43,805.92,800.02,794.47,791.54,790.62,790.84,791.86,793.31,794.84,796.47,798.17,800.28,805.04,808.64,811.34,813.62,815.44,816.18,815.30,812.15,805.65,799.52,794.06,788.91,783.73,778.65,773.55,769.63,767.23,765.41,764.15,763.22,763.02,764.63,768.47,772.67,776.65,780.28,783.83,787.68,792.42,798.26,805.48,814.86,825.64,836.00,844.31,851.80,857.23,860.14,860.64,860.36,859.48,859.40,860.13,861.16,862.24,861.51,859.49,856.56,852.95,848.09,842.79,838.55,838.40,841.74,846.30,850.05,851.67,853.68,855.15,857.18,860.56,865.36,868.95,870.64,870.82,869.89,866.57,862.22,858.50,856.45,855.65,855.15,854.15,852.58,851.18,851.97,853.21,853.93,853.57,852.92,854.11,856.93,860.81,863.85,864.93,864.18,862.58,861.43,859.54,858.09,857.50,857.63,856.89,857.85,859.63,861.67,863.70,865.63,865.83,864.95,864.04,863.22,861.54,858.21,852.98,847.29,842.40,840.86,843.32,849.53,852.00,852.20,850.70,846.55,837.21,828.75,822.72,820.48,824.20,828.99,833.42,837.10,839.70,840.94,841.21,840.67,838.01,829.86,821.57,811.68,801.51,794.69,788.14,780.98,772.93,764.77,760.57,758.95,758.21,757.70,757.23
906.40,909.27,910.96,911.89,912.61,913.66,915.25,916.85,918.19,919.21,919.62,919.76,919.92,920.37,920.95,921.13,920.90,920.29,919.60,918.54,917.16,915.54,913.88,912.52,911.34,910.23,909.10,907.54,905.52,903.36,901.23,899.35,898.74,899.55,901.24,902.91,904.47,905.96,907.44,908.93,910.27,911.23,911.54,911.28,910.90,910.43,909.33,907.34,904.26,901.00,898.39,896.21,894.43,893.34,892.91,893.17,893.94,894.86,895.13,894.92,894.42,893.62,892.07,890.21,889.93,891.68,894.06,892.93,889.35,884.29,878.60,874.90,875.32,876.23,875.96,876.43,878.81,881.03,882.28,882.24,881.50,879.35,876.14,872.25,868.62,867.24,867.11,867.41,866.94,864.92,862.86,861.55,861.48,861.54,859.33,854.72,848.26,842.38,833.66,824.84,817.44,812.52,807.66,802.75,797.52,792.05,788.17,786.57,786.41,787.26,788.66,790.30,792.06,793.89,795.99,799.02,801.82,804.71,807.76,809.79,810.25,808.42,804.68,800.39,796.77,792.53,787.51,781.85,776.17,771.20,767.38,764.76,762.69,761.49,760.66,760.57,762.39,766.48,770.44,774.12,777.93,782.70,787.22,792.01,797.49,804.35,813.10,823.72,833.85,841.52,849.99,855.78,859.16,860.50,860.81,860.63,860.68,861.09,861.71,862.12,861.58,860.25,857.89,853.62,848.34,842.79,838.29,837.61,840.37,844.02,847.47,850.20,852.26,854.77,857.73,861.27,865.75,868.99,870.51,870.75,870.09,867.67,863.50,859.44,856.63,853.80,852.45,851.31,849.92,848.58,848.48,848.86,849.22,849.19,848.96,851.69,856.08,860.66,863.04,863.24,862.06,860.45,859.35,857.61,855.70,854.53,854.68,855.36,857.75,860.06,861.79,863.56,865.01,864.78,863.52,862.27,861.31,860.28,857.64,852.62,846.28,840.96,839.39,842.14,848.73,851.09,851.45,849.88,845.20,836.59,827.69,820.60,817.24,820.52,825.42,830.25,834.31,837.14,839.21,840.10,839.77,837.15,829.83,821.52,811.91,802.43,795.93,787.81,779.07,769.70,760.59,756.45,754.73,754.00,753.82,754.05
906.99,909.90,911.60,912.64,913.49,914.29,915.45,916.92,918.55,919.86,920.50,920.77,920.88,921.03,921.42,921.36,920.90,920.15,919.29,918.15,916.86,915.50,914.13,912.95,911.90,910.92,909.82,908.17,906.00,903.66,901.49,900.08,900.21,901.33,902.94,904.60,906.20,907.73,909.19,910.52,911.38,911.67,911.56,911.23,911.00,910.54,909.68,907.87,904.45,900.90,898.01,895.49,893.21,891.46,890.74,890.95,891.78,892.72,893.03,892.76,892.08,890.95,889.15,887.76,888.28,890.68,892.96,892.78,890.70,886.70,880.47,874.68,872.42,871.67,871.41,872.37,875.14,877.87,879.67,879.86,879.36,877.81,875.32,871.83,867.74,865.27,864.57,865.13,865.19,863.34,861.00,859.01,858.04,857.85,856.01,852.14,846.65,841.78,833.88,824.15,814.71,808.88,803.95,799.72,795.40,790.46,785.81,783.05,782.12,782.82,784.41,786.18,788.03,789.87,791.61,793.58,795.72,798.41,801.55,803.56,803.93,802.24,799.18,796.41,793.98,790.23,785.36,779.79,774.10,769.52,765.86,762.97,760.69,759.26,758.57,758.80,760.70,764.45,768.01,771.64,776.00,781.62,786.58,791.32,796.31,802.22,810.03,820.21,830.22,837.92,846.53,852.75,856.97,859.43,860.49,860.79,861.06,861.46,861.83,861.88,861.43,860.58,858.73,854.04,848.16,842.25,837.61,836.70,839.12,842.25,845.54,849.00,851.63,854.77,858.07,861.45,865.31,868.32,869.98,870.56,870.35,869.01,865.67,861.56,857.55,853.40,850.89,849.24,847.95,846.66,845.51,844.77,844.52,844.94,846.16,849.86,854.86,859.69,861.63,861.26,859.75,858.00,856.71,855.16,853.31,852.04,852.35,854.54,857.92,860.49,861.97,863.45,864.23,863.66,862.28,860.73,858.92,857.65,855.38,850.89,844.11,838.90,837.84,841.06,847.47,850.22,850.76,848.75,843.16,835.10,826.27,818.50,813.98,816.35,820.68,825.80,830.63,834.13,836.43,837.43,837.13,834.70,828.33,820.04,811.09,802.69,796.12,787.24,777.73,768.03,758.94,753.56,751.15,750.15,750.03,750.60
907.37,910.18,911.90,913.10,914.22,915.13,915.87,916.97,918.53,919.90,920.83,921.38,921.67,921.80,921.96,921.66,921.05,920.26,919.35,918.31,917.18,916.02,914.93,913.84,912.80,911.70,910.31,908.29,906.10,903.88,902.00,901.37,902.08,903.36,904.86,906.47,908.02,909.53,910.82,911.67,912.09,911.59,911.07,910.86,910.85,910.50,909.91,908.31,904.76,901.19,898.14,895.32,892.57,889.94,888.65,888.64,889.45,890.37,890.68,890.38,889.48,887.91,885.89,885.69,887.51,890.50,892.14,892.26,890.93,887.90,882.56,876.59,871.51,868.16,867.22,868.64,871.50,874.61,877.00,877.35,876.98,875.86,873.98,871.01,866.46,863.16,862.05,862.82,863.47,862.22,859.86,857.08,854.63,853.54,851.34,847.70,843.06,839.40,832.94,823.10,812.26,805.44,800.50,796.94,793.55,789.34,784.20,780.03,778.00,778.38,780.26,782.19,784.14,785.88,787.08,788.62,790.37,792.61,795.24,797.04,797.38,796.57,794.99,793.12,790.83,787.04,782.34,777.36,772.25,768.25,764.79,761.70,759.28,757.45,756.87,757.53,759.44,762.50,765.65,769.40,774.35,780.32,785.38,790.03,794.58,799.43,806.14,815.53,825.38,833.52,841.61,848.38,853.72,857.44,859.45,860.22,860.84,861.41,861.62,861.51,861.08,860.41,858.82,854.04,847.43,841.00,836.41,836.08,838.60,841.62,844.80,848.35,851.69,855.02,858.23,861.30,864.39,867.19,869.18,870.31,870.57,870.18,867.85,863.80,858.55,854.05,850.58,848.38,847.14,845.88,843.80,841.78,840.57,841.17,844.11,848.27,853.19,857.91,859.63,858.96,857.27,855.35,853.73,852.14,850.57,849.73,850.66,854.24,858.17,860.81,862.11,863.31,863.38,862.56,861.20,859.31,856.26,854.09,851.70,847.80,841.14,836.35,836.01,839.71,845.61,848.95,849.57,846.92,840.41,832.81,824.31,816.05,810.26,811.36,814.66,819.89,825.69,830.26,832.62,833.55,833.27,831.12,825.62,817.51,809.46,802.21,795.34,786.52,776.91,767.44,758.89,751.69,748.25,746.70,746.26,746.84
906.96,909.74,911.73,912.87,914.02,915.82,916.81,917.61,918.68,920.07,921.08,921.88,922.41,922.41,922.46,922.07,921.43,920.73,920.13,919.32,918.27,917.05,915.77,914.29,912.77,911.21,909.45,907.39,905.29,903.69,902.97,903.27,904.10,905.44,907.07,908.63,910.09,911.42,912.14,911.85,911.22,910.60,910.24,910.16,910.17,910.06,909.73,908.40,905.14,901.92,898.86,895.85,892.85,889.84,887.21,886.17,886.45,887.00,887.06,886.59,885.47,883.74,882.52,884.47,887.61,890.52,891.72,891.46,890.26,887.85,883.60,879.50,873.25,867.72,865.21,866.49,869.12,872.02,874.29,874.73,874.57,873.62,872.06,869.58,865.07,860.73,859.09,860.26,861.33,860.86,858.26,854.58,851.19,847.92,843.97,839.59,835.41,832.55,826.76,818.07,808.55,802.19,798.11,795.00,791.87,787.98,783.06,777.87,774.38,773.62,775.47,777.77,780.10,782.02,783.07,784.20,785.79,787.74,789.77,791.11,791.46,791.27,790.55,788.81,786.25,782.27,777.78,773.68,770.01,766.78,763.63,760.61,758.32,756.26,755.54,756.25,758.29,760.87,764.11,767.89,772.38,777.82,782.39,786.87,791.58,796.67,802.69,810.63,819.39,827.65,835.23,842.69,849.12,853.98,857.48,859.53,860.62,861.13,861.29,861.00,860.56,859.52,857.22,852.94,845.43,838.23,834.32,837.38,841.34,844.75,847.46,849.73,852.70,855.66,858.55,861.33,863.89,866.30,868.52,870.19,870.53,870.31,867.66,863.16,857.94,854.87,852.61,850.92,849.66,848.43,846.57,843.39,840.26,839.33,841.79,846.09,850.93,855.25,857.06,856.18,854.48,852.63,850.62,847.70,845.80,846.25,849.80,854.30,858.33,860.82,861.93,862.95,862.65,861.83,860.35,857.59,853.59,850.10,846.44,842.20,837.90,833.79,833.48,837.01,842.50,845.56,845.57,842.52,836.38,829.64,821.19,811.78,804.05,803.70,805.95,810.97,817.43,823.43,827.04,828.74,828.84,826.83,821.78,814.33,806.92,800.09,793.28,785.59,776.52,767.25,758.84,751.21,747.03,744.35,742.64,742.68
907.93,909.64,911.27,912.34,913.64,915.96,917.51,918.49,919.30,920.49,921.47,922.38,923.04,922.94,922.69,922.17,921.54,920.94,920.48,919.69,918.56,917.18,915.69,913.96,912.17,910.32,908.38,906.68,905.28,904.48,904.50,905.14,906.00,907.31,908.96,910.63,911.96,912.52,912.24,911.15,909.99,909.30,908.95,908.84,908.84,908.84,908.77,907.99,905.65,902.79,899.98,896.99,893.71,890.34,886.85,884.46,883.38,883.35,883.24,882.78,881.79,880.51,880.82,884.02,887.53,890.02,890.82,890.03,888.46,886.28,883.36,880.65,874.08,867.26,863.45,864.58,867.13,869.66,871.50,871.94,871.78,870.83,869.26,866.92,862.91,858.02,855.50,855.85,856.17,855.22,852.31,848.14,843.66,839.33,835.01,831.09,827.96,825.60,820.16,812.73,804.97,799.34,795.80,792.82,789.66,785.87,781.29,775.52,770.81,768.71,770.24,773.09,775.80,777.82,778.88,779.95,781.59,783.49,785.25,786.25,786.47,786.40,785.88,784.00,781.03,776.91,772.66,769.26,766.69,764.35,761.84,759.19,756.90,754.75,754.03,754.82,756.91,759.22,762.39,766.01,769.87,774.21,778.71,783.59,788.80,794.11,799.51,806.31,814.00,821.77,828.94,837.77,845.83,851.88,856.28,859.15,860.53,860.91,860.88,860.46,859.61,857.93,854.94,850.51,842.38,834.74,831.60,838.15,844.19,848.01,850.20,851.73,854.03,856.33,858.58,860.82,863.04,865.62,868.19,870.14,870.42,869.99,866.95,862.56,858.48,857.12,856.19,855.17,853.91,852.19,850.08,846.30,841.94,839.08,839.83,843.74,848.61,852.86,854.55,853.50,851.39,848.91,846.25,843.16,842.21,844.17,849.11,853.88,858.14,860.67,861.61,862.35,861.89,861.12,859.52,856.00,851.39,846.60,841.86,837.53,834.45,830.94,830.52,833.51,838.49,840.95,840.44,837.12,830.97,824.06,815.56,806.45,798.94,797.62,799.01,802.97,808.65,815.03,819.84,822.88,823.86,822.12,817.43,810.97,804.32,797.78,791.04,784.17,775.76,766.86,758.58,750.87,746.34,742.93,740.13,739.02
910.28,909.91,910.51,911.59,913.21,915.56,917.82,919.43,920.31,921.17,922.03,922.93,923.56,923.34,922.64,921.92,921.30,920.80,920.24,919.23,917.88,916.29,914.68,912.93,911.12,909.26,907.50,906.55,906.29,906.34,906.56,906.95,907.81,908.99,910.51,912.35,913.35,912.62,911.13,909.74,908.62,907.84,907.27,906.93,906.88,906.88,907.03,907.00,906.09,903.68,901.38,898.63,895.10,891.35,887.55,883.78,880.78,880.01,879.75,879.40,878.83,878.60,880.78,884.08,887.01,888.86,889.20,887.84,885.54,883.20,881.53,879.35,873.14,866.10,861.50,862.70,865.30,867.39,868.56,868.86,868.37,867.12,865.22,862.63,859.43,854.66,851.13,849.51,847.93,845.20,841.82,837.54,831.99,828.01,824.95,822.69,821.07,818.90,813.76,807.60,801.58,796.68,793.16,789.98,786.61,782.76,778.57,772.76,767.27,763.88,764.79,768.11,771.14,773.21,774.43,775.81,777.67,779.72,781.54,782.35,782.21,781.76,780.86,778.69,775.37,771.29,767.35,764.41,762.44,760.96,759.33,757.27,754.85,752.77,752.26,753.24,755.31,757.57,760.50,763.77,767.02,769.97,774.88,780.68,786.61,791.93,796.73,802.74,809.54,816.43,823.33,833.93,844.01,851.32,855.93,859.07,860.54,860.79,860.45,859.93,858.28,855.76,852.27,846.88,838.46,830.77,828.27,837.49,845.81,850.15,852.08,853.64,855.25,856.74,858.20,859.80,861.86,865.13,868.17,870.16,870.27,869.48,866.30,862.68,860.56,860.71,860.70,860.19,858.89,856.25,853.35,849.51,844.83,840.06,838.27,841.34,846.27,850.76,852.11,850.83,847.92,844.27,840.92,838.96,840.20,843.68,848.42,852.86,857.47,860.30,861.14,861.50,861.04,860.33,858.63,854.72,849.91,844.17,838.88,834.73,831.34,828.21,827.37,829.28,833.58,835.25,834.33,830.71,824.02,816.17,807.84,800.53,795.33,793.54,794.31,796.56,800.24,805.77,811.29,815.90,818.14,816.92,812.67,807.38,801.59,795.40,788.76,782.21,774.48,766.18,758.06,750.48,745.98,742.36,738.87,736.22
911.81,909.62,909.42,910.64,912.69,915.03,917.54,919.56,920.87,921.89,922.81,923.70,924.13,923.31,922.30,921.50,920.85,920.26,919.53,918.32,916.86,915.28,913.64,911.94,910.22,908.85,908.27,908.06,908.16,908.38,908.65,909.07,909.87,911.01,912.34,913.46,912.92,911.41,909.79,908.52,907.42,906.49,905.76,905.26,904.94,904.88,905.07,905.33,905.30,904.26,902.45,900.10,897.07,893.06,888.80,884.80,881.52,879.75,878.83,877.74,877.13,878.02,880.55,883.10,885.30,886.76,886.46,884.49,881.76,879.04,876.79,873.90,868.81,862.86,858.53,860.82,863.25,864.63,865.01,864.65,863.10,860.74,857.94,854.87,851.69,848.10,845.03,842.45,838.98,834.42,829.68,824.90,820.24,817.44,815.75,814.25,812.46,810.23,806.54,802.18,797.50,792.66,788.66,785.10,781.52,777.72,774.27,769.33,764.20,760.39,760.25,762.45,765.50,768.30,769.97,771.90,773.94,775.95,777.58,778.05,777.08,775.90,774.61,772.41,769.60,766.46,763.34,760.66,759.03,757.46,755.91,754.25,752.14,750.38,750.24,751.59,753.91,756.41,759.35,762.41,765.36,768.21,773.22,779.46,785.88,791.02,795.31,800.27,806.33,813.48,820.31,830.90,841.90,850.70,855.11,858.66,860.36,860.60,860.34,859.68,857.04,853.75,850.03,843.12,834.70,827.21,824.26,832.09,841.01,847.21,850.79,852.59,854.18,855.56,857.09,858.97,861.25,864.78,868.05,870.15,870.25,869.79,867.56,865.06,863.71,863.75,863.03,861.78,859.95,857.01,854.02,850.28,845.64,840.36,836.66,839.01,843.68,847.96,849.20,846.96,843.54,840.17,837.78,836.63,839.03,843.14,847.41,851.34,855.74,858.92,860.36,860.52,859.92,859.02,857.40,854.27,850.39,845.57,840.72,836.31,832.17,828.33,825.19,824.15,827.37,828.47,826.42,821.59,814.55,808.33,802.10,796.45,791.99,789.61,790.14,791.99,794.76,798.66,802.90,807.42,810.42,810.51,807.55,802.63,797.45,792.17,786.05,779.73,772.79,765.19,757.15,750.11,745.79,742.24,738.72,735.53
912.68,909.60,909.38,911.09,913.33,915.39,917.35,919.26,921.02,922.38,923.52,924.37,924.50,923.20,922.00,921.05,920.25,919.49,918.61,917.28,915.78,914.25,912.69,911.32,910.10,909.46,909.90,910.36,910.80,911.18,911.50,911.85,912.26,912.83,913.39,913.38,911.75,909.93,908.43,907.34,906.29,905.25,904.36,903.68,903.15,902.95,903.06,903.44,903.96,904.06,902.96,901.21,898.79,894.86,890.44,886.59,883.48,881.08,879.39,877.41,876.25,877.16,879.63,881.71,883.54,884.80,884.20,882.03,878.86,875.37,872.08,868.45,864.20,859.12,854.88,857.24,859.80,860.84,860.40,859.00,856.50,853.32,849.86,846.28,842.70,839.39,836.12,832.49,827.81,822.83,818.03,813.69,810.25,808.29,807.35,806.28,804.54,802.63,800.40,797.59,793.95,789.16,784.55,780.22,776.15,772.51,769.77,765.76,761.37,757.67,756.52,757.74,760.42,763.34,765.30,767.55,769.79,771.83,773.30,773.49,771.92,770.06,768.25,766.16,764.17,762.15,759.94,757.58,756.07,754.36,752.66,751.05,749.28,747.78,748.13,750.01,752.57,755.38,758.63,761.77,764.57,767.49,772.51,778.89,785.50,790.53,794.39,798.40,803.90,811.67,818.64,828.87,840.16,849.93,854.35,858.20,860.08,860.40,860.26,859.70,856.67,852.72,848.29,840.78,832.75,825.47,821.73,827.17,835.69,843.09,848.32,851.14,853.06,854.67,856.51,858.74,861.24,864.56,867.68,869.84,870.17,870.08,868.93,867.51,866.48,865.74,864.04,861.97,859.58,856.44,853.46,849.50,844.75,839.76,835.41,837.07,841.23,845.07,845.75,842.83,839.21,836.22,834.86,835.15,838.35,842.55,846.32,849.83,853.77,856.90,858.58,858.63,858.02,857.05,855.69,853.65,850.96,847.04,842.56,837.87,833.07,828.36,823.33,819.67,820.72,820.69,817.64,812.34,806.02,801.56,797.16,792.68,788.50,785.71,786.02,787.68,789.94,792.62,795.45,798.93,801.66,802.44,800.73,796.74,792.44,788.07,782.84,777.13,770.85,763.78,756.06,749.65,745.43,741.89,738.42,735.07
912.84,910.10,910.91,913.52,915.65,917.10,917.60,918.67,920.76,922.52,924.04,924.82,924.58,923.10,921.82,920.62,919.50,918.49,917.53,916.21,914.78,913.35,912.00,911.37,911.15,911.40,912.32,913.28,914.12,914.74,915.06,915.04,914.64,914.00,913.10,911.73,910.02,908.42,907.11,906.15,905.20,904.11,903.07,902.18,901.52,901.03,900.97,901.35,902.12,902.82,902.70,901.81,899.92,896.56,892.51,889.00,886.19,883.75,881.26,878.46,876.13,875.54,877.76,880.05,882.01,883.29,882.94,881.17,877.48,872.78,868.30,864.23,860.16,855.30,850.71,851.38,854.40,855.61,854.34,851.53,848.41,844.99,841.29,837.25,832.88,828.36,823.66,818.79,814.02,810.61,807.82,805.29,802.99,801.17,800.09,799.21,798.23,797.25,796.09,794.24,791.30,786.69,781.51,776.02,771.12,767.71,765.45,762.21,758.74,755.64,753.71,754.56,756.42,758.45,760.37,762.56,765.00,767.19,768.59,768.67,767.01,764.66,762.26,760.44,759.42,758.44,757.07,755.16,753.50,751.81,749.90,747.90,746.37,745.01,745.93,748.49,751.24,754.46,758.33,761.92,764.73,767.64,772.64,778.84,785.23,790.32,793.88,797.19,802.38,810.89,818.28,828.16,839.14,849.01,853.81,857.65,859.59,860.02,859.91,859.79,857.30,852.97,847.21,840.46,833.25,826.16,821.50,824.36,831.69,839.05,845.33,850.10,852.58,854.71,856.93,859.33,861.89,864.46,866.99,869.07,869.93,870.05,869.83,869.32,868.29,866.35,863.84,861.17,858.33,854.98,851.83,847.15,842.04,838.12,834.66,835.68,838.98,842.23,841.69,838.75,835.26,832.41,831.78,834.41,838.13,841.86,845.23,848.50,851.78,854.24,855.49,855.49,855.05,854.23,853.26,852.27,850.76,847.16,842.63,837.79,832.60,827.22,821.44,816.31,813.89,811.91,808.28,803.83,799.61,796.30,792.74,788.68,784.55,781.70,781.75,783.21,785.29,787.61,789.46,791.13,792.36,792.72,791.86,789.73,786.68,783.05,779.09,774.50,768.66,761.90,754.84,749.05,744.78,741.09,737.61,734.34
913.28,910.47,911.73,915.13,918.10,919.40,919.47,919.90,921.28,922.89,924.38,925.12,924.77,923.12,921.60,920.22,918.94,917.74,916.55,915.59,914.73,913.96,913.43,913.19,913.22,913.69,914.79,915.72,915.40,914.61,913.72,912.57,911.94,911.37,910.63,909.59,908.34,906.95,905.66,904.63,903.69,902.68,901.69,900.61,899.16,897.87,897.67,898.43,899.84,901.19,901.70,901.48,900.39,898.02,894.59,891.31,888.39,885.53,882.35,878.92,875.63,873.61,875.68,878.13,880.26,881.64,881.39,879.85,876.28,871.17,865.37,860.47,856.24,852.05,848.34,847.54,848.97,849.02,846.91,843.12,838.65,834.02,829.46,824.98,820.17,815.80,811.52,807.43,804.36,802.48,800.96,799.44,797.84,796.46,795.50,794.71,793.95,793.21,792.30,790.70,787.93,783.23,778.38,773.35,768.51,764.45,761.47,758.74,755.92,753.10,750.92,751.08,752.41,754.23,756.19,758.28,760.39,762.27,763.61,763.92,762.49,760.52,758.66,757.42,756.59,755.77,754.62,752.82,750.64,748.81,746.88,744.83,743.32,742.18,743.33,746.31,749.93,754.03,758.38,762.30,765.49,768.76,773.53,779.27,785.33,790.61,794.14,797.36,802.55,811.33,819.39,829.08,839.36,848.46,853.20,855.88,857.11,857.32,856.87,856.58,854.95,851.88,847.00,839.81,832.70,825.88,821.08,822.95,831.23,839.46,846.06,850.67,853.13,855.31,857.52,859.76,862.06,864.20,866.26,868.05,869.07,869.37,869.61,869.51,868.60,866.71,864.05,861.15,858.04,854.22,849.96,844.69,839.79,836.82,834.03,833.95,836.02,838.77,838.15,835.51,832.21,829.86,830.86,834.17,837.82,841.20,844.21,847.15,849.93,851.83,852.62,852.44,851.88,850.58,848.98,847.54,845.91,842.72,838.19,832.83,828.08,823.19,817.42,811.62,807.76,804.52,801.09,797.60,794.29,790.84,786.94,782.59,778.44,776.25,776.66,778.56,781.13,783.82,785.63,786.83,787.46,787.40,786.65,784.83,782.17,779.01,775.71,771.90,766.54,760.27,753.95,748.56,744.15,740.31,736.82,733.57
914.83,911.67,913.04,916.84,920.11,921.41,921.46,921.55,922.27,923.61,925.00,925.51,924.88,923.14,921.44,919.94,918.57,917.34,916.24,915.71,915.38,915.19,915.34,915.38,915.53,915.93,916.66,917.02,915.60,913.59,911.48,908.94,907.92,907.59,907.47,907.25,906.46,905.33,904.12,903.01,902.07,900.94,899.79,898.46,896.36,894.27,893.96,895.18,897.23,899.03,900.07,900.42,899.92,898.15,895.25,892.32,889.49,886.32,882.69,878.83,874.86,871.83,873.35,875.56,877.60,879.07,879.22,878.05,874.96,869.89,862.99,857.29,852.70,848.90,845.98,844.22,843.07,840.95,837.53,832.91,827.49,822.18,817.26,812.79,808.43,804.91,801.65,798.74,797.15,796.25,795.45,794.51,793.39,792.24,791.34,790.52,789.73,789.07,788.29,786.83,784.21,779.77,775.50,771.10,766.47,761.87,758.31,755.80,753.26,750.44,748.04,747.61,748.64,750.44,752.42,754.35,756.04,757.55,758.79,759.39,758.39,756.93,755.65,754.97,754.22,753.40,752.18,750.17,747.61,745.58,743.69,741.82,740.39,739.71,741.23,744.56,748.91,753.96,758.95,763.35,767.01,770.66,775.04,780.24,785.96,791.35,795.05,798.66,804.09,812.73,821.32,830.13,838.82,846.38,850.56,852.29,852.82,852.65,851.89,851.25,849.90,847.76,844.13,837.17,830.52,824.07,819.48,821.61,830.64,839.98,847.19,851.25,853.53,855.62,857.68,859.73,861.77,863.61,865.34,866.88,867.91,868.40,868.91,869.05,868.32,866.80,864.40,861.65,858.57,854.68,849.57,844.03,839.44,836.93,834.35,832.68,832.99,834.87,834.67,832.40,829.53,828.02,830.59,833.82,836.91,839.78,842.36,844.48,846.41,847.76,848.25,847.70,846.70,844.72,842.41,840.54,838.66,835.96,831.75,826.24,821.70,816.92,811.26,805.48,801.24,797.57,794.40,791.41,788.19,784.13,779.78,775.38,771.66,770.47,771.41,773.77,776.85,779.99,782.15,783.40,783.80,783.36,782.44,780.58,778.15,775.42,772.51,769.08,764.24,758.67,753.12,748.04,743.48,739.48,735.97,732.67
918.49,914.64,915.74,919.20,921.11,922.50,922.85,923.13,923.83,924.90,926.26,926.17,924.77,923.08,921.43,919.88,918.51,917.56,917.28,917.17,917.02,916.88,917.10,917.38,917.75,917.85,917.24,916.17,914.62,912.65,909.97,905.94,903.88,903.47,904.04,904.71,904.15,903.35,902.43,901.36,900.40,898.67,896.86,895.13,893.05,890.40,890.06,891.72,894.20,896.01,897.54,898.32,897.80,895.62,892.92,890.65,888.54,885.51,881.92,877.90,873.78,870.50,870.61,871.75,873.16,874.63,875.89,875.51,873.30,868.78,861.38,855.13,849.90,845.62,842.56,840.77,836.10,830.47,824.82,819.51,814.38,810.03,806.13,802.62,800.33,798.39,796.36,794.32,792.85,791.86,791.00,790.17,789.29,787.79,786.67,785.63,784.54,784.00,783.52,782.34,780.16,776.85,773.23,768.95,764.33,759.91,756.67,753.94,751.03,747.83,744.96,744.36,745.37,747.19,749.10,750.81,752.17,753.36,754.45,755.28,754.96,753.84,752.60,752.24,751.74,751.00,749.50,746.83,744.37,742.11,740.28,738.93,737.76,738.02,740.36,744.11,748.53,754.41,760.39,765.64,769.83,773.68,777.46,782.07,787.49,792.79,796.93,801.58,807.57,815.45,824.13,830.51,836.01,840.84,843.64,845.43,845.70,844.98,844.15,843.06,840.65,837.93,835.14,830.46,825.38,819.57,815.50,819.64,827.91,838.30,847.13,850.99,853.11,855.01,856.90,858.80,860.74,862.40,864.05,865.54,866.47,867.15,867.81,868.09,867.60,866.47,864.85,862.76,860.27,857.30,852.40,847.25,842.84,839.78,836.60,832.63,830.25,830.38,830.97,829.12,827.13,826.95,830.45,832.88,834.74,836.68,838.67,839.00,839.32,840.03,840.59,839.36,837.44,834.71,832.11,830.65,828.94,826.81,823.54,818.84,813.51,807.48,801.81,797.00,793.52,790.71,787.64,784.08,779.85,774.91,770.57,766.97,764.65,764.81,766.24,768.76,771.98,775.43,778.21,779.90,780.36,779.58,778.36,776.56,774.47,772.18,769.50,765.79,761.54,757.00,752.22,747.39,742.70,738.54,734.95,731.48
920.18,916.60,917.57,920.69,922.26,923.54,924.23,924.81,925.50,926.28,926.90,926.30,924.79,923.25,921.77,920.33,919.15,918.49,918.50,918.61,918.59,918.49,918.53,918.35,918.13,917.67,916.59,915.10,913.50,911.81,909.34,904.33,901.28,900.28,900.69,901.60,901.59,900.72,899.46,898.15,897.03,895.26,893.62,892.08,889.69,886.69,886.50,888.60,891.39,893.37,895.11,895.98,895.33,893.04,890.30,888.14,886.44,884.42,881.71,877.93,873.83,870.35,868.64,868.33,869.23,871.02,872.71,873.13,871.98,868.23,860.63,853.55,846.68,839.99,833.85,829.14,823.18,817.27,812.04,807.86,804.41,801.69,799.30,797.08,795.42,793.84,792.00,790.09,788.97,788.17,787.44,786.71,785.88,784.20,782.54,780.95,779.57,779.04,778.60,777.65,775.99,773.51,770.30,766.31,762.09,758.21,755.13,752.27,749.09,745.49,742.09,741.39,742.51,744.44,746.29,747.57,748.30,749.02,750.01,750.90,750.79,749.82,748.40,747.29,746.33,745.35,744.00,742.04,740.32,738.66,737.24,736.09,735.16,736.63,739.92,744.14,748.82,755.68,761.63,766.70,771.27,775.68,779.67,784.14,789.24,794.40,799.10,804.11,810.27,818.00,824.74,828.38,830.43,831.67,832.48,832.63,831.43,829.50,827.87,825.94,823.95,822.17,820.54,818.15,815.49,812.56,811.28,816.27,824.16,835.04,845.17,850.41,852.48,854.13,855.84,857.67,859.64,861.34,862.92,864.26,865.06,865.81,866.57,867.01,866.77,865.80,864.58,863.10,861.37,859.39,855.75,851.33,847.15,843.89,840.14,835.28,830.93,828.23,827.61,826.14,824.66,824.68,827.92,828.81,829.50,830.33,831.00,830.79,830.60,830.73,830.86,830.00,828.68,826.74,824.78,823.36,821.35,818.64,814.92,809.63,802.28,796.69,792.41,788.98,786.05,783.18,779.86,776.13,772.00,767.38,763.56,760.71,759.16,759.62,761.13,763.35,766.09,769.17,771.82,773.60,774.39,774.16,773.44,772.23,770.63,768.65,766.07,762.67,759.08,755.22,750.89,746.11,741.46,737.30,733.65,730.24
921.40,918.36,919.06,921.64,923.25,924.50,925.52,926.36,927.04,927.58,927.38,926.42,925.02,923.64,922.31,921.02,920.06,919.70,919.72,919.80,919.79,919.63,919.36,918.60,917.74,916.81,915.67,914.17,912.62,911.25,909.18,903.81,900.09,898.33,897.99,898.38,898.89,897.80,895.95,894.28,893.05,891.52,890.28,889.03,886.34,883.05,883.03,885.50,888.58,890.90,892.83,893.73,893.05,890.78,887.83,885.43,883.86,882.90,881.17,878.03,874.33,870.79,867.59,865.63,865.67,867.49,869.46,870.53,870.13,866.80,858.65,849.68,840.68,831.39,822.17,815.06,809.26,804.56,800.83,798.17,796.35,795.04,793.96,792.89,791.44,789.83,787.83,785.83,785.12,784.68,784.17,783.53,782.62,780.83,778.65,776.53,774.87,774.21,773.74,773.02,771.87,770.04,767.18,763.53,759.75,756.39,753.40,750.47,747.19,743.43,739.71,738.79,739.87,741.82,743.52,744.35,744.50,744.77,745.52,746.23,746.17,745.37,743.97,742.19,740.78,739.59,738.49,737.43,736.39,735.37,734.31,733.30,732.74,735.34,739.53,744.25,749.28,756.94,762.60,767.27,772.11,777.16,781.56,786.09,791.00,796.24,801.32,806.43,812.61,820.14,824.49,825.45,824.12,821.59,820.39,818.81,816.30,813.47,811.32,808.99,807.79,807.12,806.48,805.87,805.31,805.17,806.55,811.84,819.53,830.11,840.78,848.00,850.84,852.67,854.30,856.00,858.15,860.10,861.70,862.91,863.63,864.45,865.33,865.96,865.93,865.02,863.98,862.91,861.78,860.44,858.07,854.61,850.93,847.68,843.38,838.04,832.22,826.96,824.69,823.47,822.21,821.80,823.90,823.27,822.87,822.56,821.95,821.68,821.50,821.35,821.26,821.23,820.87,820.00,818.76,817.17,814.67,810.86,805.90,799.42,790.84,786.28,783.59,781.45,779.02,775.98,772.53,768.90,765.14,761.10,757.82,755.47,754.26,754.56,755.91,757.78,760.00,762.52,764.78,766.54,767.74,768.30,768.35,767.82,766.74,765.06,762.61,759.73,756.69,753.34,749.31,744.56,740.03,735.92,732.25,729.03
923.09,920.50,920.26,921.71,923.56,925.28,926.50,927.42,928.11,928.50,927.99,927.01,925.80,924.47,923.11,921.90,921.19,921.09,920.77,920.35,919.92,919.44,918.62,917.67,916.74,915.88,915.09,913.89,912.64,911.43,909.59,905.25,901.83,899.28,897.16,895.32,896.02,894.61,892.02,889.85,888.85,887.81,886.89,885.74,883.06,879.50,879.46,882.13,885.50,888.60,890.86,892.02,891.70,889.60,886.13,882.99,880.91,880.33,879.12,877.46,875.14,871.95,868.61,864.78,862.77,863.40,865.87,867.09,866.31,862.10,852.00,838.17,826.44,815.86,806.46,801.30,797.96,795.92,794.57,792.85,791.11,789.91,789.12,788.42,787.18,785.54,783.38,781.27,781.00,781.13,780.95,780.34,779.15,777.33,775.04,772.73,770.77,769.64,769.15,768.74,768.05,766.53,764.11,760.75,757.17,753.97,750.96,748.05,745.12,742.01,738.65,737.04,737.53,739.12,740.42,740.89,740.94,740.89,740.90,740.95,740.82,740.51,739.92,738.78,737.64,736.65,735.72,734.73,733.63,732.50,731.42,730.61,730.81,734.10,738.89,744.14,749.61,757.39,762.92,767.45,772.37,778.05,782.73,787.37,792.59,798.63,803.44,808.50,814.57,821.21,823.58,822.52,818.20,812.09,809.54,807.62,805.37,803.23,802.20,801.16,800.49,800.01,799.55,799.07,798.82,798.98,800.46,805.50,813.18,821.62,830.72,840.23,846.30,849.66,851.53,852.89,855.51,858.16,860.09,861.30,862.10,863.13,864.27,865.09,865.14,864.24,863.09,861.92,860.62,858.79,856.75,854.53,852.15,849.25,844.52,838.52,832.10,826.23,822.85,821.43,819.87,818.21,817.58,816.26,814.93,813.62,812.48,812.48,812.80,813.29,814.06,815.25,815.54,815.12,813.99,811.87,808.75,803.34,796.05,787.83,781.67,778.36,776.45,774.98,773.13,770.42,767.60,764.51,760.89,757.12,753.88,751.34,749.74,749.50,750.34,752.14,754.30,756.24,758.08,759.84,761.40,762.65,763.47,763.47,762.83,761.58,759.50,757.09,754.34,751.18,747.43,742.79,738.44,734.43,730.84,727.93
925.11,923.16,922.50,923.00,924.11,925.80,927.30,928.42,929.04,929.07,928.33,927.36,926.31,925.12,923.85,922.75,921.83,920.99,919.97,919.31,918.78,918.20,917.30,916.31,915.33,914.49,913.87,913.05,912.18,911.28,909.91,906.80,903.71,900.95,898.08,894.59,893.73,892.47,890.29,887.54,885.68,884.42,883.52,882.37,879.61,875.97,875.93,878.76,882.45,885.82,888.39,889.81,889.64,887.74,884.28,880.81,878.24,877.39,876.28,875.24,873.90,871.75,868.65,864.19,860.66,859.69,862.41,862.62,859.29,852.28,840.92,827.26,814.79,804.53,797.24,793.21,791.14,790.17,789.52,788.07,785.88,784.55,783.95,783.59,782.60,780.86,778.55,776.49,776.67,777.13,777.15,776.61,775.34,773.45,771.04,768.57,766.53,765.60,765.10,764.83,764.53,763.55,761.42,758.41,755.12,751.91,748.55,745.67,743.00,740.29,737.33,735.09,734.66,735.51,736.67,737.51,737.72,737.46,736.98,736.75,736.88,737.05,736.98,736.27,735.28,734.23,733.18,732.14,731.06,729.94,728.95,728.46,729.41,733.16,738.36,744.08,749.97,757.40,762.97,767.72,772.90,779.10,783.85,788.79,794.49,800.52,805.13,810.46,816.38,821.27,821.01,817.57,812.30,806.46,802.87,799.16,796.25,794.44,793.90,793.43,793.06,792.74,792.48,792.17,792.43,793.64,796.21,800.78,807.25,814.02,821.44,830.07,837.44,841.98,844.93,847.28,850.50,854.10,856.84,858.89,860.90,862.19,863.38,864.25,864.35,863.42,862.25,860.97,859.35,856.93,854.65,852.68,850.56,847.50,842.71,834.80,827.54,822.63,818.86,816.28,813.93,811.65,809.78,808.31,806.80,805.45,804.63,804.76,805.20,805.94,807.07,808.75,809.70,810.02,809.53,807.67,804.59,796.84,787.41,778.82,773.70,770.63,768.90,767.92,766.98,765.40,763.32,760.68,757.36,753.70,749.90,746.61,744.26,743.35,743.75,745.46,747.82,750.11,752.34,754.34,756.06,757.48,758.59,758.83,758.49,757.65,756.10,754.22,751.79,748.79,745.12,740.87,736.76,732.93,729.52,726.82
927.11,925.97,925.27,925.01,925.05,926.37,928.04,929.30,929.77,929.36,928.41,927.37,926.36,925.31,924.19,923.21,922.02,920.35,918.65,917.75,917.12,916.48,915.68,914.73,913.75,912.91,912.37,911.83,911.29,910.72,909.80,907.72,904.95,902.27,899.19,894.61,891.64,890.49,889.11,886.14,883.23,881.25,879.96,878.58,875.59,871.86,872.06,875.33,879.46,883.00,885.72,887.24,887.18,885.70,882.58,879.01,875.94,874.41,873.07,872.12,871.33,870.17,867.45,863.18,858.82,856.29,858.41,856.67,850.40,840.81,829.08,817.49,805.60,796.43,791.47,788.08,786.64,785.93,785.16,783.53,780.79,779.20,778.63,778.48,777.62,775.77,773.41,771.52,772.11,772.74,773.01,772.70,771.46,769.44,766.85,764.27,762.31,761.75,761.23,761.02,761.05,760.70,758.98,756.38,753.34,750.00,746.21,743.29,740.81,738.42,735.79,733.10,731.72,731.72,732.84,734.21,734.68,734.35,733.53,733.15,733.62,734.23,734.53,734.12,733.23,732.01,730.70,729.50,728.45,727.44,726.72,726.74,728.44,732.50,737.98,744.06,750.24,757.13,762.77,767.93,773.52,780.12,784.91,790.23,796.45,802.15,806.68,812.23,817.62,820.20,817.28,811.80,806.46,802.09,797.91,791.97,787.87,786.02,785.67,785.52,785.44,785.38,785.36,785.40,786.36,788.88,792.71,796.87,801.81,807.28,813.19,819.76,827.31,832.73,837.00,840.81,844.64,849.16,852.96,856.26,859.74,861.36,862.53,863.39,863.58,862.65,861.53,860.13,858.15,855.18,852.36,850.01,847.56,843.94,838.37,828.58,820.76,817.16,813.48,809.78,806.63,803.97,801.52,799.88,798.47,797.54,797.44,797.74,798.30,799.15,800.39,802.12,803.56,804.64,804.91,803.58,800.43,790.55,779.47,770.93,766.35,763.35,761.73,761.15,761.05,760.62,759.19,756.97,754.05,750.38,745.91,741.75,738.58,736.99,736.96,738.44,740.89,743.82,746.71,749.09,750.97,752.42,753.73,754.12,754.00,753.53,752.51,751.12,749.00,746.15,742.56,738.78,734.95,731.36,728.22,725.65
928.50,928.52,928.24,927.70,927.10,927.50,928.83,929.86,929.95,929.18,927.85,926.46,925.17,924.02,923.06,922.25,921.36,920.14,918.42,916.86,915.64,914.73,913.95,913.08,912.19,911.41,910.84,910.11,909.60,909.14,908.30,906.13,903.64,901.14,898.13,893.62,889.32,887.38,886.34,884.65,881.77,878.38,875.64,873.32,869.75,865.53,866.79,871.71,876.60,880.78,883.13,884.18,884.33,884.15,881.71,878.23,874.62,871.79,869.68,868.34,867.18,865.63,863.24,860.18,856.60,853.36,852.09,846.87,839.83,831.57,821.70,810.86,801.19,793.33,787.82,784.67,783.45,782.63,781.41,779.06,776.25,774.34,773.32,772.86,771.73,769.84,767.73,766.25,767.00,767.66,768.51,768.94,767.87,765.58,762.64,760.03,758.36,757.76,757.14,756.97,757.24,757.47,756.79,754.73,751.70,748.01,744.08,740.92,738.49,736.42,733.93,731.34,729.40,728.67,729.74,731.05,731.82,731.70,730.70,729.97,730.53,731.43,732.05,731.84,731.11,729.75,728.11,726.57,725.40,724.65,724.65,725.72,728.23,732.46,737.98,744.11,750.19,756.51,762.13,767.78,774.06,780.79,785.77,791.52,798.15,803.67,808.50,813.51,817.04,816.56,812.01,806.34,800.84,796.13,792.52,785.01,779.35,776.69,776.42,776.86,777.56,778.09,778.42,779.30,781.44,784.81,789.00,793.25,797.45,802.28,807.43,812.76,819.57,825.36,830.49,835.23,839.58,844.40,849.38,854.18,858.11,860.33,861.57,862.42,862.87,862.09,861.12,859.63,857.37,854.12,850.53,847.21,843.86,839.11,829.34,819.82,813.00,809.35,806.45,803.33,800.19,797.07,793.92,791.22,789.73,789.38,790.03,790.88,792.15,793.41,794.61,795.98,797.20,798.46,799.20,798.09,793.38,783.35,772.13,763.02,759.32,757.48,756.66,756.41,756.35,755.88,754.63,752.82,750.37,746.62,741.97,737.45,733.76,731.66,731.17,731.82,733.58,736.71,739.95,742.82,745.14,746.98,748.93,749.64,749.70,749.41,748.73,747.54,745.58,742.96,739.76,736.43,732.82,729.55,726.80,724.30
929.27,929.90,929.94,929.53,929.02,929.03,929.71,930.16,929.79,928.37,926.61,924.98,923.57,922.38,921.44,920.50,919.64,918.83,917.50,916.05,914.66,913.42,912.46,911.52,910.34,909.16,908.31,907.43,907.05,906.75,906.01,903.98,901.50,898.83,895.86,892.14,887.46,884.23,882.68,882.17,879.65,875.84,871.93,868.17,864.08,860.75,862.22,867.01,872.36,876.66,878.79,879.73,880.27,881.21,880.03,877.13,873.41,870.13,867.16,864.97,863.01,860.79,858.45,855.77,851.52,846.39,843.32,837.73,830.98,823.44,814.75,805.16,796.99,790.06,784.55,781.42,780.00,778.54,776.45,773.66,770.96,769.08,767.89,767.12,765.86,764.21,762.54,761.47,762.06,762.91,764.17,765.12,764.51,762.38,759.55,756.90,754.93,753.79,752.98,752.83,753.31,754.12,754.26,752.90,750.10,746.07,742.00,738.87,736.47,734.46,732.14,729.76,727.63,726.45,727.18,728.26,729.02,728.94,727.93,727.14,727.70,728.64,729.32,729.08,728.12,726.74,725.16,723.57,722.35,722.28,723.26,725.26,728.24,732.75,738.22,744.12,749.98,756.00,761.87,767.94,774.51,781.53,787.36,793.33,799.42,804.40,808.81,812.25,813.72,811.78,807.15,801.38,795.32,789.80,786.08,778.51,772.31,768.78,767.72,767.97,769.04,770.36,771.83,774.02,777.06,780.76,784.93,789.17,793.83,798.57,803.48,808.85,814.95,820.58,825.89,830.97,835.61,840.35,845.93,851.67,856.04,859.09,860.68,861.57,862.02,861.50,860.64,858.96,856.43,853.45,849.95,845.33,840.08,833.58,820.84,810.68,804.25,801.07,798.52,796.09,793.43,790.41,786.93,783.45,781.67,781.57,782.87,784.39,786.00,787.19,787.98,788.97,790.23,791.43,792.13,791.20,786.45,777.20,766.58,757.37,753.33,751.68,751.25,751.44,751.73,751.26,750.37,749.08,746.98,743.41,738.36,733.68,730.20,728.16,727.38,727.56,728.69,731.05,733.84,736.88,739.63,741.92,744.26,745.46,745.86,745.73,745.16,744.04,742.16,739.74,736.92,733.90,730.64,727.71,725.23,722.81
929.75,930.49,930.71,930.62,930.56,930.56,930.53,930.27,929.38,927.15,924.97,923.18,921.72,920.46,919.39,918.15,917.15,916.65,915.92,915.07,913.86,912.38,911.14,909.87,908.09,906.29,905.08,904.14,903.94,903.85,903.26,901.44,898.78,895.76,892.81,890.09,885.71,881.19,878.55,878.46,876.21,872.56,868.03,863.09,858.91,857.19,858.35,861.88,867.12,871.17,873.21,874.33,875.41,877.25,877.58,875.67,872.30,869.00,865.33,862.05,858.95,855.79,852.66,849.36,843.72,836.68,833.01,828.74,822.84,815.68,807.81,799.87,792.77,786.58,781.56,778.29,776.40,774.09,771.08,768.04,765.40,763.67,762.50,761.50,760.28,759.04,757.90,757.15,757.49,758.60,760.10,761.31,761.24,759.54,757.11,754.42,751.82,749.85,748.82,748.67,749.33,750.64,751.37,750.64,748.18,743.92,739.86,736.93,734.60,732.51,730.43,728.27,726.15,724.71,724.90,725.64,726.23,726.11,725.17,724.49,725.01,725.86,726.42,725.96,724.61,723.33,722.08,720.68,719.43,720.31,722.40,725.17,728.39,733.20,738.58,744.08,749.64,755.53,761.81,768.25,774.87,782.17,789.09,795.14,800.27,804.50,807.81,809.20,808.81,806.55,802.59,796.65,789.93,783.59,779.39,772.68,766.66,762.34,760.06,759.65,760.71,762.71,765.56,769.13,772.69,776.40,780.35,784.74,790.47,795.47,800.41,806.40,811.99,817.24,822.43,827.54,832.29,836.80,842.41,848.59,853.67,857.41,859.46,860.44,860.70,860.43,859.52,857.58,854.88,852.42,849.37,843.56,836.19,827.80,813.65,802.45,795.67,792.82,790.26,788.47,786.40,783.67,780.12,776.26,774.11,773.96,775.77,778.02,779.75,780.62,780.88,781.50,782.85,783.81,784.15,783.39,779.73,772.05,762.77,754.01,748.87,746.38,745.60,745.94,746.88,746.72,746.39,745.63,743.81,740.56,735.14,730.49,727.58,725.83,724.87,724.82,725.41,726.53,728.42,731.38,734.50,737.29,739.83,741.53,742.34,742.40,741.76,740.64,738.80,736.54,734.03,731.18,728.29,725.69,723.39,721.03
930.52,930.95,931.03,930.96,930.91,930.91,930.79,930.22,928.73,925.86,923.48,921.48,919.70,918.09,916.43,914.98,914.08,913.88,913.69,913.11,912.31,911.32,909.88,907.47,904.95,902.86,901.63,900.85,900.71,900.76,900.36,898.32,895.40,892.25,889.25,886.60,883.06,878.60,874.61,871.91,868.56,864.85,861.13,857.71,855.23,854.25,855.42,858.03,861.36,865.06,867.12,868.60,870.37,872.83,874.11,873.63,871.41,867.54,864.14,859.76,855.09,850.38,843.34,837.40,831.78,826.46,822.42,817.58,812.31,806.70,800.57,794.27,788.75,783.73,779.17,775.61,773.09,770.53,767.61,764.31,761.01,758.89,757.63,756.78,755.89,755.02,754.15,753.55,754.07,755.32,756.75,757.78,757.68,756.39,754.28,751.64,748.66,746.03,744.73,744.64,745.47,746.78,747.78,747.05,744.58,740.70,737.22,734.54,732.38,730.54,728.70,726.65,724.52,722.84,722.39,722.83,723.33,723.26,722.42,721.68,722.21,723.03,723.41,722.58,721.36,720.36,719.43,718.30,717.05,718.97,722.03,725.25,728.71,733.52,738.77,744.01,749.14,754.88,761.45,768.25,775.00,782.04,789.17,795.41,800.43,803.94,805.28,805.35,804.46,802.21,797.93,791.56,784.79,778.82,774.76,768.86,763.06,758.33,755.49,754.68,755.24,756.92,759.81,763.55,767.02,770.53,774.58,780.00,786.34,791.55,796.39,802.07,807.80,813.17,818.67,824.23,828.90,833.39,838.27,844.13,851.14,854.30,856.41,857.63,857.61,857.16,855.52,853.38,851.06,848.57,845.00,839.34,831.99,822.83,810.20,799.14,790.87,785.72,782.86,781.56,779.36,776.01,772.32,768.96,766.63,766.13,768.10,771.14,773.06,774.01,774.34,774.65,775.31,775.72,775.79,775.30,773.06,768.26,761.80,754.57,748.53,743.61,740.25,739.04,740.96,742.17,742.64,742.31,740.78,737.61,732.73,728.50,725.67,723.70,722.50,722.11,722.25,722.79,724.09,726.75,730.05,733.44,736.24,738.00,739.01,739.27,738.48,737.41,735.67,733.46,730.94,728.07,725.24,722.85,720.80,718.31
930.98,931.26,931.28,931.24,931.17,931.14,931.00,930.31,928.54,925.09,922.10,919.71,917.72,915.83,913.84,912.07,910.98,910.85,910.92,910.44,909.79,908.91,907.15,904.30,901.66,899.53,898.05,897.16,897.02,897.32,897.29,895.02,891.69,888.08,884.66,881.80,878.27,873.49,868.51,864.25,860.52,857.20,854.18,851.57,849.73,848.94,849.87,852.01,854.84,858.29,860.93,863.10,865.18,867.62,869.16,869.23,867.35,862.72,858.53,852.75,846.42,840.16,831.93,824.92,819.27,814.71,810.48,805.99,801.86,797.89,793.59,788.78,784.60,780.66,776.74,773.12,770.08,767.36,764.55,761.00,757.01,754.52,753.12,752.25,751.48,750.75,749.97,749.50,750.41,752.03,753.37,754.07,753.89,752.98,751.20,748.63,745.38,742.17,740.62,740.43,741.18,742.39,743.50,743.25,741.47,738.20,734.79,732.08,729.97,728.32,726.78,724.94,722.88,721.04,720.14,720.34,720.69,720.64,720.02,719.34,719.62,720.20,720.48,719.75,718.83,718.06,717.26,716.15,714.87,716.90,720.32,724.18,728.54,733.54,738.69,743.73,748.60,754.12,760.73,767.76,774.71,781.36,788.47,794.74,799.50,802.08,802.08,800.99,799.19,796.30,791.83,785.73,779.51,774.16,770.36,765.05,759.74,755.12,751.79,750.08,750.07,751.48,754.31,757.97,761.64,765.41,769.73,775.37,781.49,786.67,791.45,796.79,802.68,808.28,813.94,819.67,824.68,829.50,834.24,839.54,846.00,849.16,851.39,852.63,852.47,852.05,850.42,848.50,846.51,843.92,840.16,834.68,827.50,818.48,808.31,798.23,789.13,781.81,777.08,773.83,770.50,766.99,764.00,761.80,759.90,759.28,760.94,764.02,766.18,767.45,768.03,768.21,768.35,768.31,768.13,767.78,766.62,764.08,760.12,754.85,749.25,742.83,736.84,733.22,734.99,737.07,738.19,738.37,737.48,735.10,730.93,727.01,723.93,721.18,718.69,717.58,717.62,718.41,719.90,722.54,726.01,729.89,733.04,735.00,736.11,736.38,735.49,734.33,732.09,729.20,726.20,723.74,721.51,719.57,717.70,715.10
931.08,931.41,931.52,931.55,931.48,931.40,931.21,930.57,928.82,924.88,921.00,918.17,916.12,914.06,912.02,909.85,908.25,907.76,907.63,907.06,906.30,905.21,903.12,900.63,898.44,896.45,894.50,893.18,893.00,893.60,893.98,891.51,887.69,883.32,879.05,875.46,870.95,865.49,860.10,855.69,852.32,849.66,846.97,844.14,841.75,840.74,841.35,843.55,847.35,850.79,854.42,857.43,859.47,861.30,862.45,862.07,859.63,854.34,848.46,841.18,833.33,825.77,819.13,812.87,807.20,802.25,797.97,794.71,792.04,789.60,787.00,783.56,780.39,777.34,774.15,770.63,767.24,764.36,761.60,757.85,753.35,750.55,748.97,747.87,746.98,746.17,745.36,745.00,746.29,748.31,749.60,750.08,749.93,749.46,747.98,745.48,742.01,738.30,736.49,736.04,736.50,737.58,738.69,739.39,738.96,736.59,732.80,729.76,727.50,725.91,724.63,723.14,721.24,719.32,718.16,718.20,718.35,718.30,717.96,717.43,717.25,717.44,717.70,717.42,716.89,716.31,715.49,714.22,712.85,714.11,717.34,722.11,727.84,733.22,738.32,743.22,747.97,753.17,759.53,766.65,773.93,780.20,787.13,793.18,797.43,798.90,798.19,796.02,792.80,788.56,783.96,778.78,773.69,769.24,765.85,761.10,756.54,752.44,748.62,745.59,744.97,746.29,749.14,752.75,756.96,761.44,766.11,771.13,776.32,781.10,785.73,790.75,796.74,802.56,808.23,813.84,819.47,824.92,830.20,835.03,838.84,842.52,844.80,845.74,845.57,845.39,844.50,843.16,841.37,838.74,835.11,829.65,822.64,814.56,807.20,798.67,789.66,780.88,773.18,765.94,760.63,757.33,755.71,754.92,753.88,753.39,754.42,756.83,759.15,760.84,761.80,762.10,762.07,761.81,761.49,761.21,760.70,759.55,757.46,754.25,750.12,743.26,735.21,728.96,729.29,731.40,732.81,733.55,733.76,732.74,729.36,725.57,722.02,718.24,713.88,711.78,711.89,713.57,715.81,718.71,722.33,726.49,730.04,732.37,733.50,733.58,732.54,731.00,727.88,723.94,720.33,718.63,717.37,716.00,714.18,711.41
930.96,931.41,931.61,931.72,931.67,931.56,931.32,930.76,929.17,925.10,921.31,918.63,916.69,914.59,912.40,910.02,907.64,905.49,903.72,902.59,901.79,900.95,899.45,897.87,895.92,893.84,891.84,889.68,889.53,890.06,889.91,887.43,883.24,878.37,872.76,865.74,859.37,854.17,849.76,845.88,842.34,839.17,835.91,832.56,829.68,828.46,829.79,833.15,837.83,841.98,845.96,849.12,851.06,852.19,852.38,850.75,847.42,842.77,836.52,828.90,820.76,813.03,807.24,802.65,798.40,794.14,789.95,786.45,784.14,782.64,781.31,779.20,776.85,774.31,771.35,767.43,763.78,760.88,758.23,754.68,750.46,747.42,745.42,744.11,742.99,741.99,741.15,740.75,741.43,742.51,744.14,745.59,745.95,746.53,745.19,742.50,738.85,734.70,732.43,731.67,731.97,732.93,734.20,735.51,736.27,735.50,732.00,728.54,725.75,723.75,722.29,721.08,719.39,717.51,716.26,716.15,716.23,716.16,715.84,715.37,715.03,715.12,715.37,715.06,714.60,714.28,713.76,712.62,711.19,711.35,714.48,720.45,726.62,732.34,737.58,742.39,746.79,751.31,757.14,764.31,772.27,778.73,785.07,790.32,793.77,794.35,792.81,789.54,784.87,778.93,773.25,768.68,765.30,762.97,760.81,757.60,754.07,750.28,745.96,742.00,740.71,741.89,745.24,749.42,754.24,759.20,764.06,768.66,772.75,776.24,779.78,784.27,790.02,795.97,801.73,807.25,812.78,818.75,825.00,830.60,834.06,837.18,838.37,838.42,838.15,838.19,837.69,836.63,835.04,832.76,828.63,823.09,816.77,810.23,804.43,797.13,789.21,781.11,772.40,762.50,755.11,751.05,750.06,749.07,748.00,747.56,748.43,750.20,752.02,753.65,755.01,756.04,756.60,756.82,756.94,757.11,756.93,756.24,754.88,752.55,748.69,741.44,733.60,727.23,724.86,725.48,725.88,726.90,729.05,728.66,726.08,722.47,718.55,715.04,711.16,708.73,708.29,710.10,712.32,715.40,718.99,722.84,726.55,729.15,730.44,730.30,728.28,725.25,722.32,719.57,717.08,715.56,714.20,712.58,710.29,706.75
930.48,931.21,931.56,931.71,931.67,931.52,931.28,930.70,929.17,925.53,922.13,919.64,917.71,915.56,913.26,910.84,908.07,904.89,901.87,899.72,898.11,896.85,895.87,895.10,893.65,891.68,889.46,886.57,885.98,885.96,885.01,881.81,875.95,869.05,861.64,853.80,847.09,842.23,838.45,835.12,831.77,828.52,825.30,822.19,819.69,818.82,820.52,824.12,828.76,833.34,837.19,840.22,842.31,843.43,842.97,840.56,836.70,832.06,825.37,817.73,810.14,803.50,798.81,795.35,791.98,788.28,784.27,780.43,778.19,777.16,776.46,775.21,773.41,771.22,768.38,764.17,760.29,757.18,754.50,751.38,747.64,744.52,742.19,740.70,739.55,738.49,737.70,737.33,737.52,737.83,739.43,741.49,742.63,743.79,742.86,740.13,735.96,731.39,728.59,727.42,727.49,728.47,730.18,732.12,733.81,734.33,731.74,728.23,724.76,721.81,719.89,718.62,717.03,715.32,714.28,714.11,714.15,714.04,713.70,713.31,712.97,712.97,713.11,712.79,712.46,712.34,712.05,711.10,709.64,709.30,712.40,718.94,725.18,730.96,736.43,741.40,745.48,749.41,754.65,761.47,769.50,776.33,782.35,786.86,789.30,788.74,786.13,781.98,776.35,769.25,762.90,759.05,757.00,756.12,755.06,753.15,750.47,747.01,742.61,738.31,736.92,738.34,742.20,746.68,751.61,756.61,761.34,765.27,768.30,771.00,774.16,778.58,783.96,789.73,795.08,799.97,805.48,811.33,817.76,823.78,827.44,829.89,830.65,830.75,830.89,831.07,830.41,829.03,827.08,824.68,820.45,815.62,810.59,805.48,800.84,794.73,788.05,780.95,772.17,760.90,752.18,747.11,745.23,743.33,742.17,741.99,742.93,744.38,745.86,747.38,748.93,750.36,751.34,752.19,752.96,753.54,753.56,752.97,751.79,749.69,745.88,739.36,732.55,726.41,721.72,720.69,720.41,721.40,723.94,723.96,722.36,719.56,716.07,712.94,709.46,706.42,705.08,706.75,708.92,712.13,715.69,719.22,722.66,724.92,725.92,725.55,723.25,719.89,717.51,715.83,714.30,712.81,710.77,708.39,705.64,702.33
929.61,930.81,931.36,931.49,931.40,931.23,930.97,930.22,928.64,926.06,923.25,920.85,918.75,916.53,914.22,911.90,909.35,906.36,903.03,899.48,896.03,893.26,892.30,892.00,891.32,889.80,887.10,883.73,882.11,881.03,878.98,873.71,864.61,854.08,844.77,839.93,835.04,830.50,826.66,823.76,821.12,818.63,816.37,814.52,813.46,813.64,815.04,817.48,820.99,825.42,828.72,831.46,833.96,835.88,835.29,832.86,828.93,823.23,815.80,808.46,802.27,797.94,794.77,791.45,787.96,784.33,780.51,776.59,774.33,773.28,772.47,771.44,769.91,767.95,765.27,761.09,757.00,753.47,750.53,747.95,744.74,741.73,739.26,737.60,736.68,735.78,735.13,734.91,735.04,735.11,736.17,738.05,740.09,741.15,740.96,738.48,733.40,728.47,725.10,723.37,723.12,724.26,726.70,729.33,731.62,732.87,731.82,728.73,724.51,720.14,717.52,715.75,714.08,712.70,712.19,712.06,712.05,711.90,711.56,711.30,711.10,710.97,710.86,710.70,710.62,710.59,710.35,709.54,708.12,708.19,711.36,717.49,723.58,729.08,734.78,740.18,744.14,747.67,752.29,758.25,765.43,772.62,778.73,782.73,784.09,782.12,778.26,773.50,767.56,760.14,754.06,751.06,749.62,748.93,748.51,747.34,745.21,742.16,738.24,734.29,733.54,735.62,739.84,744.13,748.55,753.07,757.29,760.22,762.35,765.21,769.15,774.17,779.09,784.28,788.59,792.22,797.76,802.60,808.10,813.75,817.75,819.76,821.32,822.80,824.00,824.24,822.90,820.52,817.51,814.32,810.65,807.48,804.28,800.31,796.53,791.66,786.16,779.93,771.81,760.63,751.66,745.57,741.13,737.74,736.52,736.77,737.94,739.52,741.05,742.53,743.95,745.18,746.19,747.60,749.03,749.83,749.94,749.25,747.87,745.57,741.88,737.45,732.14,726.07,719.99,717.49,717.24,717.91,718.71,719.03,718.56,717.28,715.21,712.30,708.45,704.40,701.97,703.26,705.49,708.77,712.36,715.72,718.43,719.61,719.79,719.20,717.68,715.65,714.00,712.66,711.40,709.91,706.78,703.29,700.29,698.49
928.79,930.40,931.09,931.16,930.95,930.51,929.73,928.65,927.25,925.47,923.64,921.63,919.51,917.38,915.05,912.87,910.80,908.60,905.70,901.99,896.83,891.25,888.50,887.57,886.87,885.60,883.14,879.61,877.58,875.30,870.33,859.30,848.70,839.66,832.57,828.08,824.49,821.23,818.33,815.89,813.50,811.17,809.28,808.06,807.75,808.48,810.08,812.46,815.72,819.48,822.89,825.77,827.93,829.08,828.02,824.93,820.18,814.09,807.60,802.13,797.72,794.25,791.19,787.82,784.26,780.46,776.16,772.45,770.41,769.33,768.13,767.07,765.87,764.41,762.36,759.10,755.19,751.43,748.05,745.08,741.92,738.94,736.41,734.61,733.73,733.00,732.55,732.43,732.48,732.50,733.30,734.85,736.76,738.27,738.28,735.97,731.18,726.33,722.57,720.25,719.51,720.73,723.35,726.21,728.87,730.83,730.85,727.95,723.56,718.92,715.88,713.46,711.64,710.51,710.26,710.15,710.10,709.99,709.78,709.59,709.43,709.25,709.08,708.98,708.97,708.82,708.38,707.47,706.25,707.01,710.34,716.00,722.08,727.17,732.62,738.14,742.62,746.03,749.72,754.58,760.89,767.35,772.67,776.52,778.19,776.06,771.87,766.51,760.17,753.22,748.81,746.10,744.29,743.10,742.21,741.26,739.75,737.40,733.91,730.53,729.98,731.97,735.98,740.33,744.70,749.01,752.75,754.88,756.89,760.66,765.70,771.05,775.90,780.48,784.18,787.02,790.27,793.62,798.09,803.09,807.17,810.29,813.12,815.61,817.43,818.09,817.08,814.32,810.42,806.97,803.67,800.94,798.36,795.36,792.24,788.47,783.86,777.93,769.96,760.01,751.75,745.49,740.02,734.74,732.32,732.00,733.01,734.82,736.69,738.25,739.42,740.34,741.11,742.03,742.92,743.43,743.69,743.31,742.45,741.00,738.50,735.26,730.65,724.79,718.49,714.97,714.36,714.93,715.50,715.88,715.72,714.90,713.40,711.02,706.12,701.89,699.70,700.40,701.94,705.16,708.96,712.48,714.88,715.84,715.82,715.09,713.69,711.94,710.31,708.90,707.64,706.04,702.86,699.56,696.96,695.35
