485.00,484.77,484.59,484.41,484.26,484.13,484.06,484.04,484.08,484.08,484.08,484.08,484.08,484.07,484.03,484.00,483.98,483.97,483.90,483.86,483.82,483.77,483.75,483.77,483.81,483.84,483.85,483.89,483.92,483.94,483.96,484.02,484.04,484.08,484.14,484.15,484.22,484.27,484.31,484.35,484.43,484.48,484.54,484.61,484.64,484.68,484.75,484.80,484.81,484.88,484.94,484.97,485.00,485.00,485.00,485.00,485.00,485.00,485.00,484.98,484.96,484.96,484.96,484.96,484.94,484.90,484.90,484.90,484.90,484.90,484.90,484.90,484.88,484.86,484.86,484.86,484.82,484.80,484.80,484.80,484.80,484.80,484.81,484.84,484.84,484.84,484.84,484.84,484.84,484.84,484.87,484.90,484.90,484.90,484.96,485.01,485.02,484.92,484.90,484.87,484.84,484.86,484.86,484.88,484.90,484.90,484.90,484.90,484.90,484.90,484.90,484.90,484.90,484.90,484.90,484.90,484.90,484.90,484.90,484.90,484.90,484.90,484.90,484.90,484.90,484.90,484.90,484.90,484.90,484.90,484.90,484.90,484.90,484.90,484.90,484.90,484.90,484.90,484.90,484.90,484.90,484.90,484.90,484.90,484.90,484.90,484.90,484.90,484.90,484.90,484.90,484.90,484.90,484.90,484.90,484.90,484.90,484.90,484.97,485.46,486.69,488.19,490.41,495.74,499.55,502.15,504.09,505.97,508.08,509.93,511.30,512.19,513.59,514.90,515.97,516.67,516.83,517.15,517.54,517.96,518.38,518.79,518.61,517.75,516.07,513.53,509.66,503.49,496.19,491.64,489.59,488.53,487.74,486.92,485.94,484.97,484.54,484.77,484.96,485.00,485.04,485.10,485.10,485.10,485.13,485.17,485.20,485.20,485.20,485.22,485.26,485.30,485.34,485.38,485.40,485.41,485.45,485.48,485.52,485.57,485.63,485.66,485.72,485.81,485.93,485.97,485.98,485.98,485.98,486.00,486.04,486.07,486.12,486.19,486.27,486.33,486.37,486.41,486.48,486.50,486.53,486.60,486.61,486.67,486.70,486.72,486.79,486.80,486.85,486.93,487.00,487.00,487.06,487.10,487.12,487.19
484.99,484.78,484.63,484.48,484.32,484.16,484.01,483.94,483.95,483.95,483.95,483.94,483.93,483.92,483.87,483.85,483.85,483.84,483.77,483.75,483.72,483.68,483.68,483.69,483.74,483.78,483.81,483.86,483.88,483.88,483.91,483.96,483.99,484.03,484.08,484.11,484.16,484.23,484.28,484.31,484.38,484.45,484.51,484.57,484.60,484.67,484.74,484.78,484.81,484.88,484.94,484.98,485.00,485.00,485.00,485.01,485.02,485.02,485.02,485.02,485.02,485.02,485.02,485.02,485.00,484.95,484.95,484.93,484.91,484.90,484.90,484.90,484.90,484.90,484.90,484.90,484.85,484.82,484.82,484.82,484.81,484.80,484.80,484.80,484.80,484.80,484.80,484.80,484.80,484.80,484.83,484.88,484.88,484.89,484.96,485.00,484.99,484.91,484.90,484.87,484.84,484.89,484.90,484.90,484.90,484.90,484.90,484.90,484.90,484.90,484.90,484.90,484.90,484.90,484.90,484.90,484.90,484.90,484.90,484.90,484.90,484.90,484.90,484.90,484.90,484.90,484.90,484.90,484.90,484.90,484.90,484.90,484.90,484.90,484.90,484.90,484.90,484.90,484.90,484.90,484.90,484.90,484.90,484.90,484.90,484.90,484.90,484.90,484.90,484.90,484.90,484.90,484.90,484.90,484.90,484.90,484.90,484.90,484.95,485.30,486.36,487.86,490.38,496.17,500.06,502.59,504.27,505.53,507.38,508.95,509.90,510.23,510.93,511.74,512.52,513.17,513.61,514.25,514.91,515.56,516.25,516.88,516.84,516.15,514.79,512.73,508.84,502.17,494.36,490.28,488.92,488.10,487.29,486.54,485.70,484.85,484.47,484.69,484.94,485.00,485.03,485.08,485.10,485.10,485.14,485.18,485.20,485.20,485.22,485.25,485.30,485.31,485.37,485.40,485.40,485.43,485.49,485.51,485.55,485.60,485.60,485.62,485.66,485.73,485.86,485.88,485.89,485.90,485.92,485.98,486.06,486.11,486.14,486.19,486.27,486.35,486.40,486.43,486.49,486.51,486.55,486.60,486.63,486.68,486.71,486.74,486.79,486.82,486.86,486.93,487.00,487.00,487.06,487.10,487.12,487.19
485.04,484.84,484.69,484.53,484.38,484.23,484.07,483.93,483.83,483.82,483.82,483.78,483.74,483.73,483.72,483.72,483.72,483.71,483.64,483.62,483.62,483.61,483.62,483.67,483.70,483.73,483.79,483.81,483.81,483.84,483.90,483.92,483.97,484.01,484.03,484.08,484.11,484.17,484.24,484.31,484.38,484.41,484.45,484.52,484.59,484.67,484.71,484.73,484.80,484.88,484.91,484.94,485.00,485.00,485.00,485.04,485.08,485.08,485.08,485.09,485.09,485.09,485.09,485.09,485.09,485.08,485.08,485.02,484.95,484.91,484.91,484.91,484.90,484.90,484.90,484.90,484.89,484.88,484.88,484.88,484.82,484.81,484.81,484.80,484.80,484.80,484.81,484.81,484.81,484.81,484.81,484.82,484.82,484.88,484.95,485.00,484.98,484.91,484.90,484.89,484.89,484.90,484.90,484.90,484.90,484.90,484.90,484.90,484.90,484.90,484.90,484.90,484.90,484.90,484.90,484.90,484.90,484.90,484.90,484.90,484.90,484.90,484.90,484.90,484.90,484.90,484.90,484.90,484.90,484.90,484.90,484.90,484.90,484.90,484.90,484.90,484.90,484.90,484.90,484.90,484.90,484.90,484.90,484.90,484.90,484.90,484.90,484.90,484.90,484.90,484.91,484.91,484.91,484.91,484.91,484.90,484.90,484.90,484.91,484.97,485.58,486.94,489.63,494.59,498.56,500.96,502.07,502.82,504.21,505.48,506.33,506.70,507.36,508.13,508.91,509.69,510.54,511.44,512.34,513.29,514.31,515.00,515.03,514.50,513.40,511.70,507.24,500.62,493.63,490.01,488.73,487.90,487.06,486.23,485.38,484.68,484.38,484.58,484.92,485.00,485.01,485.03,485.08,485.10,485.11,485.14,485.19,485.20,485.25,485.29,485.30,485.31,485.37,485.40,485.42,485.48,485.50,485.55,485.59,485.60,485.61,485.66,485.69,485.72,485.80,485.81,485.86,485.90,485.92,485.98,486.06,486.13,486.19,486.20,486.27,486.35,486.42,486.48,486.50,486.55,486.59,486.61,486.68,486.70,486.74,486.79,486.81,486.86,486.89,486.93,487.00,487.00,487.06,487.10,487.12,487.19
485.02,484.81,484.67,484.55,484.39,484.24,484.08,483.93,483.79,483.71,483.69,483.65,483.59,483.59,483.59,483.59,483.59,483.58,483.55,483.55,483.55,483.56,483.60,483.63,483.64,483.67,483.74,483.75,483.78,483.81,483.85,483.89,483.93,483.97,484.01,484.04,484.09,484.15,484.21,484.25,484.33,484.38,484.44,484.51,484.54,484.62,484.67,484.71,484.75,484.82,484.88,484.93,485.00,485.00,485.00,485.02,485.05,485.05,485.05,485.07,485.10,485.11,485.14,485.16,485.16,485.16,485.15,485.13,485.06,485.01,485.00,484.96,484.93,484.90,484.90,484.90,484.90,484.90,484.90,484.90,484.87,484.86,484.86,484.85,484.81,484.84,484.86,484.86,484.86,484.86,484.86,484.86,484.85,484.85,484.87,484.91,484.94,484.91,484.90,484.90,484.90,484.90,484.90,484.90,484.90,484.90,484.90,484.90,484.90,484.90,484.90,484.90,484.90,484.90,484.90,484.90,484.90,484.90,484.90,484.90,484.90,484.90,484.90,484.90,484.90,484.90,484.90,484.90,484.90,484.90,484.90,484.90,484.90,484.90,484.90,484.90,484.90,484.90,484.90,484.90,484.90,484.90,484.90,484.90,484.90,484.90,484.90,484.90,484.90,484.91,484.99,485.08,485.10,485.05,484.97,484.92,484.90,484.90,484.90,484.90,485.14,485.77,487.37,491.28,494.76,497.20,498.63,499.47,500.51,501.48,502.28,502.86,503.54,504.39,505.27,506.18,507.28,508.61,509.95,511.23,512.38,513.15,513.24,512.79,511.74,509.64,504.46,498.41,493.01,489.83,488.60,487.76,486.93,486.11,485.27,484.59,484.26,484.37,484.75,484.94,485.00,485.01,485.04,485.09,485.10,485.13,485.19,485.20,485.23,485.26,485.30,485.31,485.37,485.40,485.41,485.45,485.49,485.52,485.56,485.60,485.61,485.67,485.70,485.72,485.79,485.80,485.85,485.92,485.95,485.99,486.06,486.14,486.21,486.25,486.29,486.35,486.42,486.49,486.50,486.56,486.60,486.62,486.69,486.70,486.74,486.80,486.81,486.87,486.90,486.93,487.00,487.00,487.06,487.12,487.16,487.19
484.99,484.76,484.64,484.53,484.37,484.22,484.06,483.91,483.75,483.61,483.57,483.52,483.48,483.48,483.46,483.46,483.47,483.48,483.48,483.48,483.49,483.51,483.57,483.58,483.59,483.62,483.68,483.70,483.75,483.78,483.79,483.87,483.88,483.93,483.99,484.00,484.06,484.13,484.19,484.21,484.27,484.34,484.42,484.48,484.50,484.56,484.63,484.69,484.71,484.78,484.85,484.91,484.96,484.98,484.98,484.98,484.98,484.98,485.00,485.04,485.08,485.09,485.16,485.18,485.18,485.19,485.20,485.21,485.18,485.14,485.13,485.06,484.99,484.94,484.94,484.92,484.91,484.90,484.90,484.90,484.90,484.90,484.90,484.89,484.83,484.87,484.90,484.90,484.90,484.90,484.90,484.90,484.89,484.85,484.85,484.89,484.96,484.97,484.99,485.00,485.00,485.00,485.00,485.00,485.00,485.00,484.98,484.96,484.94,484.92,484.90,484.90,484.90,484.90,484.90,484.90,484.90,484.90,484.90,484.90,484.90,484.90,484.90,484.90,484.90,484.90,484.90,484.90,484.90,484.90,484.90,484.90,484.90,484.90,484.90,484.90,484.90,484.90,484.90,484.90,484.90,484.90,484.90,484.90,484.90,484.90,484.90,484.90,484.90,484.92,485.04,485.19,485.27,485.23,485.22,485.19,485.15,485.12,485.05,484.94,484.90,484.90,485.40,488.00,490.81,493.15,494.80,495.64,496.37,497.10,497.85,498.64,499.45,500.46,501.53,502.65,504.02,505.75,507.46,509.01,510.29,511.19,511.20,510.49,508.99,506.20,501.11,496.12,492.24,489.68,488.53,487.70,486.89,486.11,485.29,484.66,484.27,484.21,484.50,484.77,484.94,485.00,485.01,485.06,485.09,485.13,485.18,485.20,485.20,485.24,485.30,485.31,485.36,485.39,485.40,485.41,485.48,485.50,485.53,485.60,485.61,485.67,485.71,485.74,485.79,485.81,485.86,485.93,486.00,486.02,486.07,486.14,486.22,486.28,486.31,486.36,486.42,486.49,486.51,486.56,486.60,486.62,486.69,486.70,486.74,486.80,486.81,486.87,486.90,486.93,487.00,487.00,487.06,487.14,487.20,487.20
484.96,484.76,484.61,484.47,484.31,484.15,484.00,483.85,483.69,483.54,483.46,483.42,483.41,483.41,483.35,483.33,483.36,483.41,483.41,483.41,483.45,483.50,483.51,483.51,483.56,483.60,483.63,483.68,483.71,483.72,483.73,483.80,483.81,483.86,483.93,484.00,484.01,484.06,484.14,484.20,484.21,484.27,484.36,484.43,484.49,484.51,484.56,484.64,484.70,484.78,484.81,484.82,484.84,484.90,484.91,484.91,484.91,484.92,484.98,485.01,485.01,485.03,485.10,485.12,485.12,485.13,485.19,485.26,485.28,485.27,485.26,485.19,485.11,485.07,485.06,484.99,484.93,484.90,484.90,484.90,484.90,484.90,484.90,484.90,484.89,484.89,484.90,484.90,484.90,484.90,484.90,484.90,484.91,484.95,485.02,485.09,485.16,485.23,485.29,485.32,485.32,485.32,485.32,485.32,485.32,485.31,485.25,485.19,485.09,484.98,484.91,484.90,484.90,484.90,484.90,484.90,484.90,484.90,484.90,484.90,484.90,484.90,484.90,484.90,484.90,484.90,484.90,484.90,484.90,484.90,484.90,484.90,484.90,484.90,484.90,484.90,484.90,484.90,484.90,484.90,484.90,484.90,484.90,484.90,484.90,484.90,484.90,484.90,484.90,484.91,484.99,485.13,485.27,485.45,485.85,486.02,486.00,485.84,485.55,485.07,484.91,484.91,485.06,485.90,487.97,489.79,490.80,491.13,491.61,492.16,492.82,493.71,494.88,496.18,497.59,499.15,500.91,502.84,504.62,506.25,507.87,508.99,508.54,506.79,503.89,500.22,497.19,494.06,491.05,489.50,488.58,487.79,487.02,486.25,485.53,485.02,484.61,484.25,484.08,484.33,484.71,485.00,485.00,485.01,485.06,485.11,485.13,485.19,485.20,485.24,485.30,485.30,485.31,485.36,485.40,485.41,485.48,485.50,485.53,485.60,485.61,485.67,485.74,485.79,485.81,485.86,485.89,485.93,486.01,486.07,486.09,486.14,486.22,486.29,486.36,486.39,486.42,486.50,486.57,486.59,486.60,486.62,486.69,486.70,486.74,486.80,486.81,486.87,486.90,486.93,487.00,487.00,487.06,487.14,487.20,487.20
484.91,484.71,484.56,484.40,484.25,484.09,483.94,483.78,483.63,483.48,483.38,483.33,483.30,483.30,483.26,483.28,483.31,483.35,483.35,483.38,483.42,483.45,483.45,483.49,483.52,483.55,483.56,483.63,483.65,483.67,483.71,483.75,483.78,483.82,483.87,483.95,483.99,484.02,484.08,484.15,484.19,484.26,484.32,484.37,484.44,484.49,484.55,484.61,484.66,484.73,484.75,484.75,484.76,484.83,484.85,484.85,484.85,484.86,484.93,484.95,484.95,484.96,485.00,485.03,485.05,485.07,485.14,485.19,485.23,485.26,485.30,485.30,485.24,485.20,485.19,485.11,485.06,485.03,484.99,484.95,484.91,484.90,484.90,484.90,484.90,484.90,484.90,484.90,484.90,484.94,485.00,485.07,485.14,485.22,485.30,485.38,485.45,485.53,485.61,485.64,485.64,485.65,485.68,485.69,485.68,485.64,485.56,485.49,485.39,485.27,485.16,485.11,485.05,484.99,484.95,484.91,484.90,484.90,484.90,484.90,484.90,484.90,484.90,484.90,484.90,484.90,484.90,484.90,484.90,484.90,484.90,484.90,484.90,484.90,484.90,484.90,484.90,484.90,484.90,484.90,484.90,484.90,484.90,484.90,484.90,484.90,484.90,484.90,484.90,484.91,484.94,485.01,485.09,485.21,485.47,485.68,485.83,485.95,486.08,486.15,486.07,485.89,485.75,485.99,487.34,488.71,489.55,489.62,489.75,489.96,490.29,490.84,491.59,492.46,493.82,495.77,497.82,499.99,501.99,503.83,505.45,505.78,504.63,502.37,499.24,495.95,493.64,491.72,490.11,489.29,488.66,487.99,487.25,486.54,485.90,485.43,485.00,484.57,484.14,484.12,484.39,484.77,484.97,485.00,485.02,485.06,485.11,485.14,485.18,485.22,485.26,485.29,485.30,485.35,485.40,485.41,485.48,485.52,485.56,485.61,485.64,485.68,485.74,485.80,485.81,485.88,485.93,485.97,486.01,486.08,486.13,486.17,486.22,486.29,486.37,486.42,486.46,486.50,486.58,486.60,486.62,486.66,486.69,486.73,486.77,486.81,486.85,486.89,486.93,486.96,487.00,487.04,487.08,487.14,487.20,487.20
484.89,484.67,484.51,484.35,484.20,484.03,483.87,483.72,483.57,483.42,483.33,483.25,483.19,483.19,483.20,483.24,483.28,483.29,483.30,483.35,483.38,483.39,483.40,483.46,483.49,483.49,483.51,483.57,483.59,483.63,483.68,483.70,483.76,483.79,483.82,483.88,483.96,483.99,484.03,484.11,484.17,484.25,484.29,484.31,484.38,484.46,484.53,484.58,484.59,484.67,484.69,484.69,484.70,484.77,484.78,484.78,484.78,484.79,484.85,484.88,484.88,484.88,484.89,484.95,484.99,485.00,485.06,485.08,485.13,485.19,485.27,485.35,485.33,485.31,485.30,485.24,485.22,485.19,485.11,485.03,484.96,484.92,484.91,484.90,484.90,484.91,484.92,484.94,484.96,485.04,485.16,485.31,485.44,485.51,485.56,485.62,485.68,485.74,485.79,485.82,485.82,485.82,485.89,485.93,485.92,485.86,485.82,485.77,485.71,485.64,485.50,485.41,485.29,485.16,485.08,484.99,484.96,484.94,484.92,484.90,484.90,484.90,484.90,484.90,484.90,484.90,484.90,484.90,484.90,484.90,484.90,484.90,484.90,484.90,484.90,484.90,484.90,484.90,484.90,484.90,484.90,484.90,484.90,484.90,484.90,484.90,484.90,484.90,484.90,484.90,484.90,484.90,484.90,484.91,484.93,485.08,485.35,485.73,486.26,486.88,486.92,486.67,486.48,486.68,487.50,488.39,488.99,488.99,488.87,488.78,488.79,488.97,489.22,489.60,490.71,492.73,494.92,497.26,499.50,501.56,503.12,502.54,500.61,497.95,494.97,492.58,490.74,489.68,489.29,488.96,488.60,488.06,487.43,486.81,486.27,485.79,485.34,484.89,484.34,484.02,484.11,484.46,484.80,484.96,485.00,485.03,485.10,485.10,485.16,485.20,485.22,485.28,485.30,485.35,485.40,485.42,485.48,485.56,485.60,485.62,485.69,485.71,485.75,485.80,485.82,485.88,485.95,486.00,486.03,486.08,486.16,486.21,486.23,486.29,486.37,486.45,486.50,486.51,486.58,486.60,486.63,486.69,486.70,486.76,486.80,486.82,486.89,486.90,486.95,487.00,487.01,487.08,487.10,487.14,487.20,487.20
484.97,484.74,484.55,484.35,484.18,483.98,483.81,483.65,483.51,483.41,483.28,483.17,483.13,483.13,483.18,483.21,483.23,483.23,483.29,483.31,483.32,483.34,483.39,483.41,483.43,483.44,483.50,483.52,483.56,483.61,483.63,483.69,483.71,483.75,483.80,483.82,483.89,483.96,484.03,484.10,484.12,484.19,484.25,484.30,484.32,484.39,484.47,484.53,484.54,484.60,484.63,484.63,484.64,484.71,484.73,484.73,484.73,484.73,484.74,484.79,484.82,484.82,484.82,484.88,484.93,484.93,484.94,485.00,485.03,485.06,485.14,485.22,485.27,485.33,485.37,485.36,485.36,485.31,485.24,485.16,485.08,485.02,484.96,484.90,484.90,484.95,485.01,485.08,485.20,485.34,485.45,485.56,485.69,485.67,485.63,485.58,485.55,485.56,485.53,485.51,485.51,485.52,485.58,485.64,485.70,485.75,485.86,485.91,485.95,485.97,485.88,485.75,485.64,485.53,485.40,485.32,485.21,485.08,484.98,484.91,484.90,484.90,484.90,484.90,484.90,484.90,484.90,484.90,484.90,484.90,484.90,484.90,484.90,484.90,484.90,484.90,484.90,484.90,484.90,484.90,484.90,484.90,484.90,484.90,484.90,484.90,484.90,484.90,484.90,484.90,484.90,484.90,484.90,484.90,484.90,484.94,485.01,485.11,485.24,485.40,485.50,485.73,486.29,487.07,487.89,488.07,487.80,488.04,488.01,487.93,487.95,488.18,488.46,488.87,489.52,490.64,492.61,494.88,497.21,499.46,501.12,500.28,497.61,494.33,491.49,490.28,489.49,488.94,488.57,488.26,487.99,487.65,487.26,486.86,486.44,485.95,485.43,484.94,484.50,484.08,484.01,484.16,484.21,484.79,485.00,485.03,485.10,485.10,485.16,485.20,485.22,485.28,485.30,485.35,485.42,485.48,485.50,485.56,485.60,485.62,485.69,485.75,485.79,485.81,485.87,485.89,485.95,486.02,486.08,486.10,486.16,486.23,486.28,486.30,486.37,486.45,486.50,486.51,486.58,486.60,486.63,486.69,486.70,486.76,486.80,486.82,486.89,486.90,486.95,487.00,487.01,487.08,487.10,487.14,487.20,487.20
484.88,484.67,484.47,484.26,484.09,483.87,483.67,483.52,483.40,483.29,483.17,483.11,483.10,483.11,483.14,483.15,483.17,483.21,483.25,483.25,483.27,483.31,483.35,483.35,483.38,483.41,483.46,483.49,483.53,483.56,483.57,483.64,483.65,483.70,483.76,483.80,483.84,483.91,483.99,484.06,484.09,484.13,484.20,484.26,484.30,484.37,484.43,484.46,484.47,484.53,484.56,484.56,484.56,484.60,484.64,484.65,484.65,484.65,484.65,484.71,484.75,484.75,484.76,484.81,484.85,484.85,484.86,484.93,484.96,484.97,485.02,485.09,485.17,485.25,485.31,485.35,485.35,485.37,485.38,485.33,485.26,485.18,485.12,485.08,485.07,485.13,485.21,485.31,485.45,485.52,485.55,485.56,485.57,485.50,485.43,485.35,485.29,485.28,485.22,485.18,485.18,485.19,485.26,485.33,485.41,485.50,485.61,485.73,485.83,485.92,485.91,485.90,485.90,485.88,485.76,485.65,485.51,485.35,485.21,485.10,485.02,484.95,484.90,484.90,484.90,484.90,484.90,484.90,484.90,484.90,484.90,484.90,484.90,484.90,484.90,484.90,484.90,484.90,484.90,484.90,484.90,484.90,484.90,484.90,484.90,484.90,484.90,484.90,484.90,484.90,484.90,484.90,484.90,484.90,484.90,484.90,484.90,484.90,484.90,484.90,484.96,485.19,485.65,486.20,486.66,486.72,486.59,486.99,487.11,487.11,487.17,487.45,487.78,488.16,488.62,489.36,490.88,492.96,495.21,497.24,498.31,497.16,494.42,491.58,489.75,489.04,488.61,488.25,487.90,487.60,487.35,487.10,486.80,486.46,486.14,485.68,485.19,484.74,484.41,484.00,483.90,484.05,484.25,484.80,485.00,485.03,485.10,485.10,485.16,485.22,485.25,485.29,485.33,485.37,485.43,485.50,485.54,485.57,485.61,485.65,485.70,485.76,485.82,485.86,485.90,485.94,485.97,486.03,486.10,486.14,486.18,486.24,486.31,486.34,486.38,486.45,486.51,486.54,486.59,486.62,486.67,486.70,486.74,486.78,486.82,486.86,486.89,486.90,486.95,487.00,487.01,487.08,487.10,487.14,487.20,487.20
484.69,484.53,484.33,484.13,483.97,483.74,483.52,483.35,483.25,483.11,483.03,483.05,483.09,483.09,483.09,483.10,483.13,483.19,483.19,483.20,483.24,483.29,483.30,483.30,483.34,483.39,483.40,483.47,483.49,483.50,483.52,483.58,483.60,483.64,483.71,483.78,483.80,483.86,483.93,484.00,484.07,484.10,484.15,484.22,484.28,484.36,484.39,484.39,484.40,484.46,484.49,484.50,484.50,484.50,484.56,484.59,484.59,484.59,484.59,484.64,484.69,484.69,484.69,484.75,484.79,484.79,484.80,484.86,484.89,484.89,484.91,484.97,485.04,485.12,485.19,485.25,485.28,485.36,485.46,485.46,485.40,485.35,485.31,485.31,485.32,485.37,485.44,485.51,485.61,485.57,485.50,485.40,485.28,485.20,485.13,485.07,485.01,485.00,484.95,484.92,484.92,484.93,484.98,485.05,485.12,485.19,485.26,485.38,485.53,485.66,485.74,485.87,486.02,486.11,486.04,485.94,485.82,485.68,485.54,485.38,485.24,485.09,484.97,484.95,484.93,484.91,484.90,484.90,484.90,484.90,484.90,484.90,484.90,484.90,484.90,484.90,484.90,484.90,484.90,484.90,484.90,484.90,484.90,484.90,484.90,484.90,484.90,484.90,484.90,484.90,484.90,484.90,484.90,484.90,484.90,484.90,484.90,484.90,484.90,484.90,484.90,484.92,484.95,484.99,485.02,485.19,485.52,485.96,486.19,486.28,486.40,486.72,487.09,487.42,487.84,488.51,489.57,491.32,493.25,494.80,495.06,493.74,491.45,489.58,488.90,488.34,487.90,487.55,487.24,486.95,486.71,486.47,486.19,485.85,485.59,485.18,484.75,484.39,484.16,483.88,483.84,484.08,484.49,484.88,485.00,485.03,485.10,485.11,485.17,485.24,485.30,485.31,485.37,485.41,485.44,485.50,485.58,485.60,485.63,485.69,485.72,485.77,485.84,485.90,485.91,485.97,486.00,486.04,486.11,486.18,486.21,486.25,486.31,486.38,486.41,486.46,486.52,486.59,486.60,486.66,486.70,486.72,486.78,486.80,486.84,486.90,486.90,486.91,486.96,487.00,487.02,487.08,487.11,487.15,487.20,487.22
484.49,484.34,484.17,484.00,483.84,483.61,483.38,483.19,483.07,482.98,482.99,483.01,483.03,483.03,483.03,483.06,483.11,483.13,483.13,483.17,483.21,483.23,483.23,483.28,483.31,483.32,483.33,483.41,483.43,483.45,483.50,483.53,483.57,483.61,483.64,483.72,483.78,483.85,483.91,483.94,484.01,484.07,484.14,484.20,484.23,484.30,484.32,484.32,484.33,484.35,484.39,484.43,484.43,484.43,484.50,484.53,484.53,484.53,484.53,484.58,484.63,484.63,484.63,484.64,484.68,484.73,484.73,484.80,484.82,484.82,484.83,484.91,484.94,484.99,485.05,485.08,485.13,485.21,485.30,485.35,485.38,485.42,485.45,485.46,485.50,485.53,485.53,485.49,485.41,485.33,485.23,485.10,485.02,484.99,484.97,484.95,484.93,484.93,484.91,484.90,484.90,484.90,484.92,484.94,484.96,484.98,485.00,485.08,485.21,485.34,485.43,485.57,485.73,485.86,485.95,486.02,486.06,486.03,485.92,485.76,485.61,485.46,485.31,485.20,485.08,484.98,484.90,484.90,484.90,484.90,484.90,484.90,484.90,484.90,484.90,484.90,484.90,484.90,484.90,484.90,484.90,484.90,484.90,484.90,484.90,484.90,484.90,484.90,484.90,484.90,484.90,484.90,484.90,484.90,484.90,484.90,484.90,484.90,484.90,484.90,484.90,484.90,484.90,484.90,484.90,484.95,485.06,485.20,485.28,485.41,485.63,485.94,486.32,486.61,487.07,487.83,488.77,489.82,490.92,491.74,491.61,490.85,489.78,488.85,488.29,487.69,487.22,486.84,486.55,486.29,486.06,485.83,485.58,485.30,485.02,484.64,484.22,483.85,483.78,483.87,484.07,484.26,484.31,484.81,485.00,485.03,485.10,485.16,485.19,485.24,485.30,485.31,485.37,485.44,485.48,485.51,485.58,485.60,485.63,485.71,485.76,485.79,485.84,485.90,485.91,485.98,486.04,486.08,486.11,486.18,486.25,486.28,486.31,486.39,486.45,486.49,486.52,486.59,486.60,486.66,486.70,486.72,486.78,486.80,486.84,486.90,486.91,486.95,486.99,487.02,487.07,487.10,487.14,487.18,487.21,487.26
484.30,484.14,483.99,483.84,483.67,483.45,483.24,483.07,482.96,482.91,482.94,482.97,482.97,483.00,483.00,483.03,483.06,483.07,483.09,483.14,483.16,483.17,483.20,483.24,483.26,483.27,483.31,483.35,483.38,483.42,483.46,483.50,483.54,483.58,483.62,483.69,483.75,483.81,483.87,483.91,483.98,484.04,484.10,484.16,484.17,484.24,484.26,484.26,484.26,484.26,484.32,484.37,484.37,484.37,484.40,484.44,484.47,484.47,484.47,484.51,484.56,484.56,484.56,484.56,484.60,484.66,484.67,484.73,484.76,484.76,484.77,484.84,484.87,484.88,484.93,484.96,485.00,485.05,485.10,485.18,485.23,485.30,485.34,485.36,485.43,485.45,485.40,485.29,485.16,485.10,485.03,484.95,484.90,484.90,484.88,484.87,484.87,484.87,484.87,484.87,484.87,484.87,484.87,484.87,484.87,484.90,484.90,484.94,485.01,485.09,485.15,485.26,485.38,485.52,485.67,485.83,485.97,486.06,486.06,486.02,485.96,485.85,485.69,485.54,485.38,485.23,485.09,484.98,484.91,484.90,484.90,484.90,484.90,484.90,484.90,484.90,484.90,484.90,484.90,484.90,484.90,484.90,484.90,484.90,484.90,484.90,484.90,484.90,484.90,484.90,484.90,484.90,484.90,484.90,484.90,484.90,484.90,484.90,484.90,484.90,484.90,484.90,484.90,484.90,484.90,484.90,484.90,484.90,484.90,484.99,485.15,485.35,485.58,485.80,486.24,487.00,487.82,488.48,489.16,489.66,489.48,489.05,488.55,488.05,487.56,487.03,486.53,486.14,485.87,485.64,485.41,485.19,484.96,484.67,484.37,484.04,483.81,483.75,483.89,484.14,484.42,484.59,484.51,484.86,485.02,485.06,485.11,485.18,485.22,485.26,485.31,485.34,485.38,485.45,485.51,485.54,485.59,485.62,485.66,485.71,485.78,485.83,485.86,485.91,485.94,485.99,486.05,486.10,486.12,486.18,486.26,486.31,486.35,486.40,486.47,486.52,486.55,486.60,486.63,486.67,486.70,486.72,486.78,486.80,486.84,486.90,486.91,486.97,487.00,487.03,487.10,487.10,487.16,487.20,487.22,487.28
484.11,483.95,483.80,483.64,483.48,483.26,483.08,482.96,482.90,482.89,482.89,482.90,482.92,482.98,482.99,483.00,483.00,483.02,483.07,483.09,483.10,483.12,483.18,483.19,483.20,483.23,483.29,483.30,483.36,483.39,483.41,483.48,483.50,483.53,483.61,483.68,483.70,483.75,483.82,483.90,483.97,484.00,484.04,484.09,484.10,484.17,484.19,484.19,484.19,484.19,484.25,484.30,484.30,484.30,484.30,484.34,484.39,484.39,484.39,484.45,484.49,484.50,484.50,484.50,484.53,484.59,484.60,484.67,484.69,484.69,484.71,484.77,484.80,484.80,484.82,484.88,484.90,484.91,484.93,484.99,485.01,485.06,485.10,485.12,485.18,485.19,485.13,485.01,484.94,484.91,484.90,484.89,484.89,484.89,484.84,484.80,484.80,484.80,484.80,484.80,484.81,484.81,484.81,484.81,484.83,484.88,484.89,484.89,484.90,484.91,484.93,484.99,485.07,485.16,485.30,485.45,485.64,485.83,485.97,486.10,486.19,486.16,486.03,485.91,485.77,485.62,485.43,485.16,485.00,484.93,484.91,484.90,484.90,484.90,484.90,484.90,484.90,484.90,484.90,484.90,484.90,484.90,484.90,484.90,484.90,484.90,484.90,484.90,484.90,484.90,484.90,484.90,484.90,484.90,484.90,484.90,484.90,484.90,484.90,484.90,484.90,484.90,484.90,484.90,484.90,484.90,484.90,484.90,484.90,484.91,484.92,484.95,484.98,485.09,485.46,486.10,486.79,487.31,487.92,488.42,488.36,488.00,487.55,487.11,486.71,486.30,485.82,485.45,485.21,484.99,484.76,484.57,484.34,484.00,483.74,483.55,483.63,484.01,484.35,484.59,484.80,484.95,484.95,484.99,485.05,485.10,485.12,485.18,485.26,485.30,485.31,485.38,485.41,485.45,485.52,485.59,485.60,485.66,485.70,485.72,485.79,485.86,485.89,485.92,485.99,486.00,486.06,486.10,486.12,486.18,486.26,486.34,486.40,486.41,486.47,486.54,486.60,486.61,486.67,486.70,486.70,486.72,486.78,486.81,486.85,486.90,486.92,486.97,487.00,487.04,487.10,487.11,487.16,487.20,487.22,487.28
483.92,483.76,483.60,483.45,483.29,483.11,482.95,482.85,482.83,482.83,482.83,482.86,482.91,482.93,482.94,482.97,483.00,483.00,483.03,483.03,483.06,483.11,483.13,483.13,483.16,483.21,483.24,483.29,483.32,483.33,483.35,483.42,483.44,483.48,483.55,483.63,483.68,483.72,483.76,483.84,483.92,483.97,484.01,484.03,484.04,484.11,484.13,484.13,484.13,484.13,484.19,484.24,484.24,484.24,484.24,484.27,484.33,484.33,484.33,484.35,484.38,484.43,484.44,484.44,484.47,484.53,484.54,484.60,484.63,484.63,484.64,484.71,484.74,484.74,484.75,484.82,484.83,484.83,484.84,484.87,484.92,484.95,484.97,484.97,484.99,485.00,484.97,484.93,484.90,484.85,484.83,484.83,484.83,484.83,484.81,484.78,484.74,484.74,484.74,484.76,484.80,484.80,484.80,484.80,484.81,484.83,484.83,484.83,484.83,484.84,484.89,484.92,484.95,484.98,485.04,485.13,485.29,485.46,485.62,485.82,485.97,486.06,486.11,486.16,486.12,486.04,485.87,485.57,485.36,485.15,484.99,484.90,484.90,484.90,484.90,484.90,484.90,484.90,484.90,484.90,484.90,484.90,484.90,484.90,484.90,484.90,484.90,484.90,484.90,484.90,484.90,484.90,484.90,484.90,484.90,484.90,484.90,484.90,484.90,484.90,484.90,484.90,484.90,484.90,484.90,484.90,484.90,484.90,484.90,484.90,484.90,484.90,484.90,484.94,485.07,485.37,485.93,486.47,487.08,487.57,487.47,487.04,486.57,486.14,485.74,485.31,485.00,484.74,484.52,484.34,484.11,483.90,483.67,483.44,483.56,483.78,484.11,484.53,484.77,484.87,484.94,485.00,485.00,485.05,485.09,485.12,485.17,485.19,485.26,485.30,485.31,485.39,485.45,485.48,485.52,485.59,485.60,485.66,485.72,485.77,485.80,485.87,485.90,485.92,486.00,486.05,486.09,486.12,486.17,486.19,486.26,486.34,486.41,486.46,486.49,486.55,486.60,486.61,486.68,486.70,486.72,486.77,486.79,486.84,486.88,486.91,486.96,486.99,487.04,487.08,487.11,487.15,487.19,487.20,487.22,487.28
483.76,483.59,483.43,483.25,483.10,482.94,482.83,482.76,482.77,482.80,482.80,482.83,482.87,482.87,482.89,482.94,482.97,482.97,482.97,482.99,483.03,483.06,483.07,483.09,483.13,483.16,483.18,483.25,483.26,483.28,483.31,483.36,483.39,483.44,483.51,483.57,483.64,483.69,483.73,483.80,483.86,483.93,483.97,483.97,483.97,484.02,484.05,484.06,484.06,484.06,484.10,484.15,484.16,484.16,484.16,484.21,484.26,484.26,484.26,484.26,484.30,484.36,484.37,484.37,484.41,484.47,484.47,484.53,484.56,484.56,484.57,484.64,484.66,484.66,484.68,484.73,484.75,484.76,484.76,484.77,484.82,484.85,484.87,484.87,484.87,484.87,484.87,484.87,484.86,484.82,484.80,484.79,484.77,484.76,484.76,484.74,484.70,484.70,484.70,484.73,484.76,484.76,484.76,484.76,484.76,484.76,484.76,484.79,484.80,484.81,484.86,484.87,484.88,484.90,484.91,484.95,485.04,485.15,485.27,485.47,485.63,485.79,485.94,486.09,486.15,486.17,486.12,485.97,485.77,485.49,485.24,485.08,484.98,484.92,484.90,484.90,484.90,484.90,484.90,484.90,484.90,484.90,484.90,484.90,484.90,484.90,484.90,484.90,484.90,484.90,484.90,484.90,484.90,484.90,484.90,484.90,484.90,484.90,484.90,484.90,484.90,484.90,484.90,484.90,484.90,484.90,484.90,484.90,484.90,484.90,484.90,484.90,484.90,484.90,484.91,485.04,485.58,486.13,486.73,487.17,486.99,486.48,485.95,485.41,484.83,484.28,484.11,484.05,483.96,483.73,483.57,483.47,483.41,483.42,483.75,484.20,484.60,484.87,484.98,485.00,485.01,485.03,485.04,485.11,485.13,485.16,485.23,485.24,485.27,485.31,485.35,485.40,485.47,485.51,485.55,485.60,485.63,485.67,485.73,485.80,485.83,485.88,485.91,485.95,486.00,486.07,486.12,486.15,486.20,486.23,486.27,486.34,486.42,486.49,486.50,486.55,486.60,486.61,486.68,486.70,486.73,486.80,486.81,486.87,486.90,486.92,486.99,487.00,487.05,487.10,487.11,487.18,487.20,487.21,487.25,487.29
483.62,483.46,483.27,483.06,482.91,482.76,482.71,482.71,482.72,482.78,482.80,482.80,482.81,482.81,482.87,482.90,482.90,482.91,482.91,482.96,483.00,483.00,483.01,483.07,483.10,483.10,483.12,483.19,483.21,483.24,483.29,483.31,483.37,483.44,483.50,483.52,483.58,483.66,483.73,483.79,483.80,483.87,483.90,483.90,483.90,483.91,483.95,484.00,484.00,484.00,484.01,484.04,484.10,484.10,484.10,484.14,484.20,484.20,484.21,484.21,484.23,484.30,484.31,484.31,484.34,484.40,484.41,484.48,484.50,484.50,484.51,484.58,484.60,484.60,484.60,484.61,484.67,484.70,484.71,484.71,484.71,484.75,484.79,484.79,484.79,484.80,484.81,484.81,484.81,484.80,484.80,484.77,484.72,484.71,484.71,484.70,484.69,484.69,484.69,484.70,484.71,484.71,484.71,484.71,484.71,484.71,484.71,484.76,484.80,484.80,484.80,484.81,484.85,484.89,484.89,484.90,484.92,484.94,484.97,485.12,485.26,485.40,485.55,485.71,485.84,485.98,486.13,486.26,486.16,485.92,485.68,485.44,485.17,485.00,484.93,484.91,484.90,484.90,484.90,484.90,484.90,484.90,484.90,484.90,484.90,484.90,484.90,484.90,484.90,484.90,484.90,484.90,484.90,484.90,484.90,484.90,484.90,484.90,484.90,484.90,484.90,484.90,484.90,484.90,484.90,484.90,484.90,484.90,484.90,484.90,484.90,484.90,484.90,484.90,484.94,485.13,485.71,486.26,486.81,487.14,486.86,486.31,485.71,484.98,484.09,483.35,483.28,483.44,483.53,483.24,483.19,483.35,483.62,483.90,484.26,484.68,484.94,484.98,485.00,485.00,485.04,485.09,485.11,485.17,485.19,485.23,485.28,485.29,485.30,485.34,485.40,485.41,485.48,485.54,485.60,485.62,485.68,485.70,485.74,485.81,485.88,485.90,485.94,486.00,486.01,486.07,486.15,486.19,486.21,486.27,486.30,486.34,486.42,486.49,486.50,486.55,486.60,486.62,486.68,486.70,486.74,486.80,486.81,486.87,486.90,486.92,486.99,487.00,487.05,487.10,487.11,487.18,487.20,487.24,487.29,487.30
483.50,483.33,483.13,482.93,482.78,482.67,482.63,482.66,482.71,482.73,482.74,482.74,482.75,482.80,482.83,482.83,482.86,482.89,482.90,482.92,482.94,482.95,483.00,483.03,483.03,483.05,483.10,483.13,483.17,483.21,483.25,483.29,483.33,483.38,483.45,483.50,483.57,483.62,483.67,483.73,483.74,483.80,483.83,483.83,483.83,483.83,483.88,483.94,483.94,483.94,483.94,483.97,484.03,484.03,484.03,484.06,484.09,484.13,484.13,484.13,484.17,484.23,484.24,484.24,484.27,484.33,484.34,484.41,484.44,484.44,484.44,484.47,484.51,484.53,484.53,484.54,484.56,484.60,484.63,484.63,484.63,484.66,484.67,484.67,484.68,484.72,484.74,484.74,484.74,484.74,484.74,484.73,484.69,484.65,484.63,484.63,484.63,484.63,484.63,484.63,484.63,484.63,484.63,484.63,484.66,484.69,484.70,484.72,484.74,484.74,484.74,484.78,484.82,484.83,484.83,484.83,484.87,484.90,484.91,484.97,485.03,485.08,485.16,485.31,485.43,485.56,485.75,485.97,486.11,486.19,486.13,485.88,485.58,485.36,485.16,485.00,484.91,484.90,484.90,484.90,484.90,484.90,484.90,484.90,484.90,484.90,484.90,484.90,484.90,484.90,484.90,484.90,484.90,484.90,484.90,484.90,484.90,484.90,484.90,484.90,484.90,484.90,484.90,484.90,484.90,484.90,484.90,484.90,484.90,484.90,484.90,484.90,484.90,484.90,485.00,485.29,485.84,486.39,486.90,487.15,486.70,486.16,485.59,484.92,484.11,483.31,483.25,483.26,483.14,483.08,483.30,483.63,484.00,484.39,484.70,484.90,485.00,485.00,485.00,485.04,485.08,485.11,485.16,485.19,485.24,485.27,485.31,485.35,485.37,485.40,485.46,485.47,485.53,485.58,485.61,485.66,485.69,485.74,485.77,485.81,485.88,485.90,485.94,486.01,486.06,486.09,486.15,486.20,486.22,486.28,486.34,486.38,486.42,486.49,486.54,486.58,486.61,486.66,486.69,486.74,486.77,486.81,486.85,486.89,486.90,486.92,486.99,487.00,487.05,487.10,487.11,487.18,487.20,487.24,487.30,487.31
483.40,483.21,483.00,482.80,482.66,482.61,482.60,482.63,482.67,482.68,482.69,482.70,482.72,482.76,482.78,482.79,482.82,482.87,482.88,482.89,482.90,482.91,482.97,482.98,482.99,483.02,483.07,483.10,483.14,483.18,483.19,483.26,483.29,483.33,483.39,483.47,483.55,483.59,483.62,483.67,483.68,483.72,483.76,483.78,483.78,483.78,483.82,483.88,483.88,483.88,483.88,483.91,483.97,483.98,483.98,483.98,484.00,484.06,484.07,484.07,484.11,484.17,484.18,484.18,484.21,484.27,484.28,484.32,484.36,484.38,484.38,484.38,484.41,484.46,484.47,484.48,484.48,484.50,484.55,484.57,484.57,484.57,484.57,484.57,484.57,484.63,484.68,484.68,484.68,484.68,484.68,484.68,484.67,484.62,484.58,484.57,484.57,484.57,484.57,484.58,484.60,484.60,484.60,484.60,484.62,484.67,484.68,484.68,484.68,484.70,484.70,484.75,484.78,484.78,484.80,484.80,484.84,484.88,484.88,484.90,484.90,484.90,484.93,485.03,485.10,485.19,485.33,485.54,485.82,486.12,486.25,486.15,486.02,485.79,485.51,485.23,485.05,484.97,484.93,484.90,484.90,484.90,484.90,484.90,484.90,484.90,484.90,484.90,484.90,484.90,484.90,484.90,484.90,484.90,484.90,484.90,484.90,484.90,484.90,484.90,484.90,484.90,484.90,484.90,484.90,484.90,484.90,484.90,484.90,484.90,484.90,484.90,484.90,484.90,485.05,485.42,485.93,486.47,486.97,487.15,486.62,486.07,485.53,484.94,484.24,483.46,483.22,483.17,483.14,483.18,483.58,484.00,484.39,484.76,484.95,485.00,485.01,485.02,485.03,485.07,485.11,485.14,485.19,485.22,485.26,485.31,485.34,485.39,485.42,485.45,485.50,485.53,485.58,485.61,485.65,485.69,485.72,485.77,485.81,485.84,485.89,485.92,485.96,486.02,486.09,486.12,486.16,486.21,486.24,486.29,486.36,486.41,486.44,486.50,486.57,486.60,486.62,486.69,486.70,486.76,486.80,486.81,486.88,486.90,486.91,486.94,487.00,487.02,487.06,487.11,487.14,487.19,487.22,487.25,487.30,487.33
483.33,483.10,482.87,482.67,482.55,482.58,482.59,482.60,482.61,482.62,482.67,482.69,482.70,482.71,482.71,482.76,482.80,482.81,482.81,482.87,482.89,482.90,482.91,482.91,482.96,483.00,483.01,483.08,483.10,483.11,483.13,483.20,483.27,483.31,483.33,483.41,483.49,483.55,483.60,483.60,483.61,483.61,483.65,483.71,483.71,483.71,483.75,483.81,483.81,483.81,483.81,483.84,483.90,483.90,483.90,483.90,483.93,484.00,484.00,484.00,484.03,484.10,484.10,484.10,484.14,484.21,484.21,484.22,484.26,484.30,484.31,484.31,484.31,484.35,484.40,484.40,484.40,484.41,484.44,484.50,484.50,484.50,484.50,484.50,484.51,484.57,484.60,484.60,484.60,484.60,484.60,484.60,484.60,484.60,484.55,484.51,484.51,484.50,484.51,484.55,484.59,484.59,484.59,484.59,484.60,484.60,484.61,484.61,484.64,484.69,484.69,484.71,484.71,484.73,484.79,484.80,484.81,484.81,484.82,484.88,484.89,484.89,484.90,484.92,484.93,484.95,484.99,485.11,485.32,485.61,485.88,486.14,486.40,486.23,485.95,485.66,485.38,485.17,485.00,484.91,484.90,484.90,484.90,484.90,484.90,484.90,484.90,484.90,484.90,484.90,484.90,484.90,484.90,484.90,484.90,484.90,484.90,484.90,484.90,484.90,484.90,484.90,484.90,484.90,484.90,484.90,484.90,484.90,484.90,484.90,484.90,484.90,484.90,484.91,485.08,485.48,485.94,486.47,486.96,487.15,486.62,486.07,485.53,484.95,484.31,483.61,483.00,483.08,483.62,483.53,483.95,484.38,484.72,484.94,485.00,485.00,485.03,485.09,485.09,485.10,485.14,485.19,485.21,485.26,485.29,485.33,485.38,485.40,485.45,485.49,485.52,485.58,485.60,485.64,485.69,485.72,485.77,485.79,485.83,485.88,485.91,485.96,485.99,486.02,486.10,486.17,486.19,486.23,486.28,486.30,486.36,486.43,486.49,486.51,486.57,486.60,486.63,486.69,486.70,486.76,486.80,486.81,486.88,486.90,486.94,486.99,487.00,487.06,487.09,487.13,487.18,487.20,487.25,487.29,487.31,487.38
483.22,482.97,482.74,482.56,482.51,482.54,482.55,482.56,482.60,482.60,482.63,482.64,482.66,482.69,482.70,482.72,482.75,482.75,482.79,482.83,482.84,482.85,482.89,482.90,482.92,482.94,482.96,483.02,483.05,483.06,483.11,483.14,483.21,483.26,483.32,483.39,483.44,483.50,483.55,483.55,483.55,483.55,483.58,483.64,483.64,483.64,483.67,483.70,483.74,483.75,483.75,483.76,483.79,483.83,483.84,483.84,483.87,483.94,483.94,483.94,483.98,484.04,484.05,484.05,484.08,484.14,484.14,484.14,484.17,484.20,484.24,484.25,484.25,484.26,484.29,484.33,484.34,484.34,484.37,484.43,484.44,484.44,484.44,484.44,484.44,484.47,484.51,484.54,484.55,484.55,484.55,484.55,484.55,484.55,484.52,484.50,484.49,484.45,484.48,484.52,484.55,484.55,484.55,484.55,484.55,484.55,484.59,484.60,484.62,484.64,484.64,484.68,484.70,484.71,484.74,484.75,484.77,484.80,484.81,484.84,484.84,484.84,484.85,484.89,484.90,484.90,484.91,484.96,485.05,485.21,485.45,485.77,486.13,486.20,486.22,486.16,485.86,485.58,485.29,485.06,484.91,484.90,484.90,484.90,484.90,484.90,484.90,484.90,484.90,484.90,484.90,484.90,484.90,484.90,484.90,484.90,484.90,484.90,484.90,484.90,484.90,484.90,484.90,484.90,484.90,484.90,484.90,484.90,484.90,484.90,484.90,484.90,484.90,485.00,485.24,485.63,486.06,486.50,486.94,487.11,486.61,486.07,485.53,484.95,484.28,483.63,482.98,482.99,483.57,483.88,484.31,484.67,484.90,485.00,485.04,485.06,485.07,485.10,485.10,485.14,485.18,485.21,485.25,485.29,485.33,485.37,485.40,485.45,485.48,485.52,485.56,485.60,485.64,485.68,485.71,485.75,485.79,485.83,485.87,485.90,485.95,485.99,486.02,486.06,486.11,486.18,486.20,486.23,486.30,486.35,486.38,486.44,486.51,486.55,486.59,486.63,486.67,486.70,486.70,486.76,486.80,486.81,486.88,486.90,486.94,487.00,487.01,487.07,487.10,487.13,487.19,487.20,487.26,487.30,487.31,487.38
483.15,482.89,482.64,482.48,482.48,482.48,482.49,482.52,482.58,482.58,482.58,482.59,482.62,482.67,482.68,482.68,482.69,482.71,482.76,482.78,482.79,482.81,482.87,482.88,482.88,482.88,482.91,482.96,482.99,483.02,483.08,483.10,483.17,483.23,483.30,483.37,483.38,483.43,483.48,483.48,483.48,483.48,483.51,483.58,483.58,483.58,483.58,483.61,483.67,483.68,483.68,483.68,483.70,483.76,483.78,483.78,483.79,483.85,483.87,483.88,483.91,483.97,483.98,483.98,484.01,484.08,484.08,484.08,484.08,484.11,484.17,484.18,484.18,484.18,484.19,484.26,484.28,484.28,484.29,484.35,484.36,484.37,484.38,484.38,484.38,484.38,484.41,484.46,484.48,484.48,484.48,484.49,484.50,484.49,484.48,484.48,484.47,484.41,484.45,484.48,484.48,484.48,484.48,484.49,484.50,484.51,484.56,484.58,484.58,484.58,484.60,484.65,484.68,484.69,484.70,484.70,484.74,484.78,484.78,484.78,484.79,484.80,484.81,484.87,484.88,484.88,484.89,484.90,484.90,484.95,485.09,485.35,485.68,485.95,486.23,486.40,486.22,486.03,485.69,485.31,485.02,484.92,484.90,484.90,484.90,484.90,484.90,484.90,484.90,484.90,484.90,484.90,484.90,484.90,484.90,484.90,484.90,484.90,484.90,484.90,484.90,484.90,484.90,484.90,484.90,484.90,484.90,484.90,484.90,484.90,484.90,484.90,484.90,485.10,485.43,485.82,486.21,486.59,486.94,487.05,486.58,486.06,485.53,484.92,484.22,483.57,483.02,483.00,483.53,484.18,484.62,484.88,485.00,485.03,485.09,485.10,485.11,485.12,485.12,485.18,485.21,485.24,485.29,485.31,485.36,485.40,485.43,485.49,485.51,485.55,485.60,485.62,485.68,485.71,485.74,485.79,485.81,485.87,485.91,485.93,485.99,486.01,486.05,486.10,486.13,486.18,486.21,486.24,486.31,486.38,486.40,486.44,486.51,486.59,486.60,486.65,486.70,486.70,486.71,486.76,486.81,486.83,486.89,486.91,486.95,487.00,487.02,487.08,487.11,487.14,487.19,487.20,487.26,487.30,487.31,487.38
483.21,482.91,482.61,482.41,482.41,482.41,482.46,482.50,482.51,482.51,482.51,482.55,482.60,482.61,482.62,482.62,482.64,482.70,482.71,482.72,482.75,482.80,482.81,482.81,482.81,482.83,482.89,482.91,482.96,483.00,483.03,483.09,483.16,483.21,483.24,483.31,483.31,483.37,483.41,483.41,483.41,483.41,483.45,483.51,483.51,483.51,483.51,483.54,483.61,483.62,483.62,483.62,483.63,483.70,483.72,483.72,483.72,483.73,483.79,483.81,483.85,483.91,483.91,483.91,483.95,484.01,484.01,484.01,484.01,484.03,484.11,484.12,484.12,484.12,484.13,484.20,484.22,484.22,484.22,484.23,484.23,484.27,484.31,484.31,484.31,484.31,484.32,484.34,484.40,484.41,484.41,484.43,484.49,484.43,484.41,484.41,484.41,484.40,484.41,484.41,484.41,484.41,484.41,484.46,484.50,484.50,484.51,484.51,484.51,484.53,484.59,484.61,484.62,484.63,484.69,484.70,484.71,484.72,484.72,484.72,484.77,484.80,484.80,484.81,484.81,484.81,484.84,484.89,484.90,484.91,484.94,485.01,485.20,485.48,485.78,486.06,486.27,486.43,486.17,485.72,485.30,484.98,484.90,484.90,484.90,484.90,484.90,484.90,484.90,484.90,484.90,484.90,484.90,484.90,484.90,484.90,484.90,484.90,484.90,484.90,484.90,484.90,484.90,484.90,484.90,484.90,484.90,484.90,484.90,484.90,484.90,484.90,484.90,485.17,485.58,486.02,486.40,486.79,487.02,486.99,486.52,486.05,485.53,484.91,484.15,483.41,483.07,483.23,483.78,484.38,484.81,484.98,485.02,485.08,485.10,485.10,485.13,485.18,485.19,485.19,485.24,485.29,485.31,485.37,485.39,485.43,485.48,485.50,485.55,485.59,485.62,485.67,485.70,485.74,485.79,485.81,485.87,485.89,485.93,485.98,486.00,486.06,486.09,486.12,486.18,486.20,486.24,486.29,486.31,486.38,486.40,486.44,486.51,486.59,486.60,486.65,486.70,486.71,486.77,486.79,486.83,486.88,486.90,486.95,486.99,487.02,487.08,487.10,487.14,487.19,487.20,487.20,487.26,487.30,487.32,487.38
483.18,482.79,482.50,482.36,482.39,482.40,482.43,482.45,482.46,482.49,482.50,482.52,482.55,482.55,482.59,482.60,482.62,482.65,482.65,482.68,482.72,482.75,482.75,482.78,482.80,482.81,482.85,482.89,482.93,482.95,482.97,483.03,483.12,483.17,483.21,483.25,483.25,483.28,483.31,483.34,483.35,483.35,483.37,483.40,483.45,483.45,483.45,483.48,483.54,483.55,483.55,483.55,483.56,483.63,483.65,483.65,483.65,483.66,483.73,483.75,483.77,483.84,483.85,483.85,483.87,483.90,483.94,483.95,483.95,483.96,484.00,484.04,484.05,484.05,484.05,484.09,484.13,484.15,484.15,484.15,484.15,484.18,484.21,484.25,484.25,484.25,484.25,484.27,484.34,484.35,484.35,484.36,484.39,484.40,484.37,484.35,484.35,484.35,484.35,484.35,484.36,484.39,484.40,484.43,484.45,484.45,484.45,484.48,484.50,484.51,484.54,484.55,484.57,484.61,484.64,484.65,484.65,484.67,484.70,484.70,484.73,484.75,484.76,484.79,484.80,484.80,484.81,484.85,484.85,484.88,484.90,484.91,485.00,485.13,485.33,485.60,485.94,486.25,486.32,486.12,485.66,485.24,485.00,484.90,484.90,484.90,484.90,484.90,484.90,484.90,484.90,484.90,484.90,484.90,484.90,484.90,484.90,484.90,484.90,484.90,484.90,484.90,484.90,484.90,484.90,484.90,484.90,484.90,484.90,484.90,484.90,484.91,485.02,485.31,485.71,486.16,486.55,486.93,487.03,486.82,486.37,485.93,485.45,484.86,484.12,483.38,483.17,483.49,484.12,484.67,484.93,485.00,485.02,485.09,485.10,485.13,485.17,485.20,485.24,485.25,485.29,485.35,485.36,485.39,485.43,485.47,485.50,485.54,485.58,485.62,485.66,485.69,485.74,485.77,485.81,485.85,485.89,485.93,485.97,486.00,486.04,486.08,486.12,486.16,486.20,486.24,486.28,486.31,486.36,486.39,486.43,486.47,486.51,486.59,486.60,486.65,486.70,486.71,486.78,486.80,486.83,486.89,486.91,486.97,487.00,487.02,487.09,487.10,487.15,487.20,487.21,487.24,487.28,487.32,487.36,487.40
483.09,482.63,482.38,482.32,482.38,482.38,482.38,482.39,482.41,482.47,482.49,482.49,482.49,482.50,482.56,482.58,482.59,482.60,482.60,482.65,482.69,482.69,482.70,482.76,482.78,482.78,482.79,482.87,482.88,482.89,482.92,482.99,483.06,483.13,483.19,483.19,483.19,483.19,483.22,483.28,483.28,483.28,483.28,483.30,483.37,483.38,483.38,483.40,483.46,483.48,483.49,483.49,483.50,483.56,483.58,483.58,483.58,483.59,483.66,483.69,483.71,483.77,483.78,483.78,483.78,483.80,483.86,483.88,483.88,483.88,483.89,483.95,483.98,483.99,483.99,483.99,484.04,484.07,484.08,484.08,484.08,484.08,484.11,484.16,484.18,484.19,484.19,484.20,484.26,484.28,484.28,484.28,484.29,484.37,484.34,484.30,484.28,484.28,484.28,484.29,484.32,484.38,484.38,484.38,484.39,484.40,484.40,484.45,484.49,484.49,484.50,484.50,484.54,484.58,484.58,484.60,484.60,484.63,484.68,484.69,484.69,484.70,484.72,484.77,484.78,484.79,484.80,484.80,484.80,484.85,484.89,484.90,484.90,484.90,484.98,485.17,485.50,485.88,486.28,486.39,486.05,485.59,485.18,484.95,484.90,484.90,484.90,484.90,484.90,484.90,484.90,484.90,484.90,484.90,484.90,484.90,484.90,484.90,484.90,484.90,484.90,484.90,484.90,484.90,484.90,484.90,484.90,484.90,484.90,484.90,484.90,484.94,485.17,485.46,485.83,486.27,486.66,487.03,487.00,486.65,486.20,485.81,485.37,484.81,484.10,483.35,483.29,483.75,484.46,484.92,485.00,485.01,485.04,485.10,485.11,485.17,485.20,485.23,485.29,485.31,485.35,485.40,485.41,485.42,485.47,485.51,485.53,485.60,485.62,485.65,485.72,485.72,485.77,485.81,485.84,485.90,485.91,485.97,486.00,486.03,486.09,486.11,486.15,486.20,486.22,486.28,486.31,486.34,486.40,486.41,486.47,486.51,486.53,486.59,486.61,486.66,486.70,486.73,486.78,486.81,486.84,486.90,486.92,486.97,487.00,487.02,487.09,487.10,487.15,487.20,487.21,487.28,487.30,487.34,487.40,487.41
482.88,482.44,482.28,482.31,482.32,482.32,482.32,482.35,482.40,482.41,482.42,482.42,482.44,482.50,482.51,482.52,482.54,482.60,482.60,482.61,482.62,482.63,482.69,482.71,482.72,482.72,482.73,482.80,482.82,482.85,482.91,482.99,483.01,483.06,483.12,483.12,483.12,483.12,483.15,483.21,483.22,483.22,483.22,483.24,483.31,483.32,483.32,483.32,483.35,483.40,483.42,483.42,483.42,483.44,483.49,483.52,483.52,483.53,483.60,483.62,483.63,483.65,483.71,483.72,483.72,483.72,483.74,483.79,483.82,483.82,483.82,483.84,483.88,483.92,483.92,483.92,483.94,483.98,484.02,484.02,484.02,484.02,484.03,484.05,484.11,484.12,484.12,484.12,484.14,484.19,484.22,484.22,484.23,484.30,484.31,484.27,484.22,484.22,484.22,484.25,484.30,484.32,484.32,484.32,484.34,484.39,484.40,484.41,484.42,484.44,484.49,484.50,484.51,484.52,484.53,484.58,484.60,484.61,484.62,484.62,484.67,484.70,484.70,484.72,484.72,484.76,484.80,484.80,484.80,484.81,484.85,484.90,484.90,484.90,484.92,484.96,485.08,485.48,485.93,486.31,486.46,486.05,485.55,485.14,484.90,484.90,484.90,484.90,484.90,484.90,484.90,484.90,484.90,484.90,484.90,484.90,484.90,484.90,484.90,484.90,484.90,484.90,484.90,484.90,484.90,484.90,484.90,484.90,484.90,484.90,484.90,484.95,485.27,485.59,485.94,486.34,486.72,487.00,486.91,486.53,486.13,485.74,485.30,484.75,484.03,483.24,483.40,484.01,484.68,484.95,485.00,485.04,485.09,485.11,485.17,485.19,485.23,485.28,485.30,485.35,485.39,485.42,485.47,485.48,485.53,485.58,485.59,485.66,485.68,485.72,485.78,485.78,485.79,485.84,485.89,485.90,485.96,485.99,486.02,486.08,486.10,486.15,486.19,486.22,486.27,486.29,486.34,486.39,486.41,486.47,486.49,486.53,486.58,486.60,486.66,486.69,486.72,486.77,486.80,486.85,486.89,486.91,486.97,486.99,487.00,487.02,487.09,487.10,487.15,487.20,487.21,487.28,487.30,487.34,487.40,487.41
482.70,482.33,482.23,482.25,482.26,482.29,482.30,482.32,482.35,482.35,482.38,482.40,482.41,482.45,482.46,482.48,482.51,482.55,482.56,482.56,482.57,482.61,482.65,482.65,482.68,482.70,482.71,482.74,482.78,482.82,482.87,482.94,482.96,483.00,483.06,483.06,483.06,483.06,483.08,483.15,483.15,483.15,483.15,483.17,483.24,483.25,483.25,483.25,483.26,483.33,483.35,483.35,483.35,483.36,483.42,483.46,483.46,483.46,483.53,483.56,483.56,483.56,483.60,483.64,483.65,483.65,483.66,483.69,483.73,483.75,483.75,483.75,483.78,483.83,483.85,483.85,483.85,483.88,483.92,483.95,483.96,483.96,483.96,483.97,484.03,484.06,484.06,484.06,484.06,484.13,484.15,484.15,484.16,484.20,484.23,484.24,484.20,484.20,484.20,484.22,484.25,484.26,484.29,484.30,484.31,484.35,484.35,484.35,484.37,484.41,484.45,484.46,484.48,484.50,484.50,484.54,484.56,484.57,484.60,484.60,484.63,484.65,484.66,484.69,484.70,484.73,484.75,484.76,484.79,484.80,484.82,484.85,484.85,484.89,484.90,484.90,484.93,485.15,485.53,485.98,486.39,486.37,485.96,485.50,485.13,484.93,484.90,484.90,484.90,484.90,484.90,484.90,484.90,484.90,484.90,484.90,484.90,484.90,484.90,484.90,484.90,484.90,484.90,484.90,484.90,484.90,484.90,484.90,484.90,484.90,484.91,485.00,485.35,485.70,486.06,486.45,486.82,487.00,486.84,486.45,486.06,485.64,485.22,484.66,483.90,483.19,483.54,484.25,484.85,484.98,485.03,485.07,485.11,485.14,485.19,485.23,485.26,485.31,485.34,485.38,485.42,485.46,485.50,485.53,485.57,485.61,485.65,485.69,485.73,485.76,485.80,485.80,485.83,485.87,485.91,485.94,485.99,486.02,486.06,486.11,486.14,486.18,486.22,486.26,486.29,486.34,486.37,486.41,486.45,486.49,486.53,486.56,486.60,486.61,486.67,486.70,486.72,486.79,486.80,486.86,486.90,486.92,486.99,487.00,487.02,487.06,487.10,487.14,487.17,487.21,487.25,487.29,487.33,487.37,487.40,487.41
482.55,482.28,482.19,482.20,482.22,482.27,482.28,482.28,482.29,482.31,482.36,482.38,482.39,482.40,482.40,482.45,482.49,482.49,482.50,482.50,482.53,482.58,482.59,482.60,482.64,482.69,482.69,482.69,482.75,482.79,482.82,482.88,482.89,482.93,482.98,482.99,482.99,482.99,483.01,483.07,483.09,483.09,483.09,483.11,483.17,483.19,483.19,483.19,483.20,483.27,483.29,483.29,483.29,483.29,483.36,483.39,483.39,483.40,483.45,483.49,483.49,483.49,483.49,483.54,483.58,483.59,483.59,483.59,483.63,483.68,483.69,483.69,483.69,483.72,483.78,483.79,483.79,483.79,483.81,483.87,483.89,483.89,483.89,483.90,483.96,483.99,483.99,483.99,484.00,484.05,484.08,484.09,484.09,484.09,484.14,484.18,484.19,484.19,484.19,484.19,484.19,484.21,484.26,484.28,484.28,484.29,484.30,484.31,484.33,484.38,484.39,484.40,484.44,484.49,484.49,484.50,484.50,484.53,484.58,484.59,484.60,484.61,484.62,484.68,484.69,484.69,484.70,484.72,484.77,484.79,484.80,484.81,484.81,484.86,484.89,484.90,484.90,484.91,485.16,485.57,486.07,486.49,486.31,485.92,485.47,485.05,484.92,484.90,484.90,484.90,484.90,484.90,484.90,484.90,484.90,484.90,484.93,484.95,484.91,484.90,484.90,484.90,484.90,484.90,484.90,484.90,484.90,484.90,484.90,484.90,484.93,485.07,485.43,485.80,486.18,486.56,486.93,486.99,486.76,486.37,485.98,485.53,485.12,484.54,483.76,483.22,483.75,484.49,484.98,485.00,485.07,485.10,485.13,485.19,485.21,485.26,485.30,485.33,485.38,485.41,485.45,485.50,485.52,485.58,485.61,485.64,485.69,485.71,485.77,485.80,485.80,485.82,485.87,485.91,485.94,486.00,486.01,486.06,486.10,486.13,486.18,486.21,486.25,486.30,486.32,486.38,486.41,486.44,486.50,486.51,486.56,486.60,486.60,486.62,486.67,486.70,486.72,486.79,486.80,486.86,486.90,486.92,486.99,487.00,487.04,487.10,487.11,487.17,487.20,487.23,487.29,487.30,487.36,487.40,487.40,487.42
482.51,482.21,482.13,482.14,482.19,482.22,482.23,482.23,482.24,482.29,482.32,482.32,482.34,482.39,482.40,482.41,482.43,482.44,482.49,482.50,482.51,482.53,482.53,482.58,482.61,482.63,482.63,482.63,482.69,482.75,482.80,482.82,482.82,482.83,482.87,482.92,482.93,482.93,482.93,482.96,483.01,483.03,483.03,483.03,483.05,483.10,483.13,483.13,483.13,483.21,483.23,483.23,483.23,483.23,483.29,483.32,483.32,483.33,483.34,483.39,483.43,483.43,483.43,483.44,483.48,483.53,483.53,483.53,483.54,483.57,483.62,483.63,483.63,483.63,483.66,483.71,483.73,483.73,483.73,483.75,483.81,483.82,483.82,483.83,483.84,483.89,483.93,483.93,483.93,483.94,483.99,484.03,484.03,484.03,484.04,484.07,484.12,484.13,484.13,484.13,484.14,484.19,484.22,484.23,484.23,484.24,484.29,484.30,484.31,484.32,484.33,484.38,484.41,484.43,484.43,484.49,484.50,484.51,484.53,484.53,484.57,484.60,484.61,484.62,484.63,484.66,484.70,484.70,484.72,484.77,484.80,484.80,484.80,484.82,484.86,484.90,484.90,484.90,484.97,485.20,485.63,486.08,486.41,486.34,485.90,485.40,485.03,484.90,484.90,484.90,484.90,484.90,484.90,484.90,484.90,484.90,485.06,485.19,484.94,484.90,484.90,484.90,484.90,484.90,484.90,484.90,484.90,484.90,484.90,484.90,484.97,485.18,485.55,485.90,486.25,486.63,486.99,486.93,486.63,486.25,485.86,485.45,484.98,484.39,483.75,483.52,484.13,484.73,484.99,485.00,485.07,485.10,485.13,485.20,485.26,485.29,485.33,485.37,485.40,485.45,485.49,485.51,485.57,485.60,485.64,485.68,485.71,485.76,485.79,485.80,485.81,485.87,485.89,485.94,485.98,486.00,486.06,486.09,486.13,486.17,486.20,486.25,486.28,486.31,486.37,486.39,486.44,486.48,486.50,486.56,486.59,486.60,486.61,486.67,486.69,486.70,486.72,486.79,486.80,486.86,486.90,486.92,486.99,487.00,487.04,487.10,487.11,487.17,487.20,487.23,487.30,487.30,487.36,487.40,487.41,487.46
482.38,482.14,482.10,482.11,482.15,482.16,482.19,482.20,482.21,482.25,482.26,482.28,482.31,482.35,482.36,482.36,482.37,482.41,482.45,482.46,482.48,482.50,482.50,482.54,482.56,482.57,482.60,482.60,482.63,482.70,482.76,482.76,482.76,482.76,482.78,482.85,482.86,482.86,482.86,482.87,482.94,482.96,482.96,482.96,482.97,483.03,483.06,483.06,483.06,483.11,483.14,483.16,483.16,483.16,483.20,483.24,483.26,483.26,483.26,483.31,483.36,483.36,483.36,483.36,483.39,483.46,483.46,483.46,483.46,483.49,483.55,483.56,483.56,483.56,483.57,483.64,483.66,483.66,483.67,483.70,483.74,483.76,483.76,483.76,483.79,483.84,483.86,483.87,483.89,483.90,483.93,483.96,483.97,483.99,484.00,484.02,484.06,484.06,484.09,484.10,484.11,484.15,484.16,484.18,484.20,484.21,484.25,484.28,484.30,484.30,484.30,484.34,484.38,484.40,484.41,484.45,484.48,484.50,484.50,484.50,484.54,484.58,484.60,484.60,484.60,484.65,484.70,484.70,484.70,484.74,484.77,484.80,484.80,484.80,484.83,484.87,484.90,484.90,484.90,485.00,485.26,485.69,486.18,486.42,486.28,485.77,485.28,485.00,484.94,485.03,484.93,484.90,484.90,484.90,484.91,484.98,485.44,485.73,485.01,484.90,484.90,484.90,484.90,484.90,484.90,484.90,484.90,484.90,484.90,484.90,485.00,485.30,485.68,486.03,486.38,486.72,486.99,486.81,486.48,486.12,485.73,485.34,484.83,484.19,483.61,483.80,484.44,484.89,485.00,485.04,485.08,485.12,485.16,485.21,485.28,485.32,485.36,485.40,485.44,485.48,485.51,485.55,485.60,485.63,485.67,485.71,485.75,485.79,485.80,485.81,485.85,485.90,485.93,485.97,486.01,486.04,486.09,486.12,486.16,486.20,486.24,486.28,486.31,486.35,486.40,486.43,486.47,486.51,486.54,486.59,486.60,486.61,486.65,486.69,486.70,486.72,486.75,486.80,486.83,486.87,486.91,486.95,486.99,487.03,487.06,487.10,487.11,487.17,487.20,487.23,487.30,487.30,487.36,487.40,487.42,487.49
482.22,482.07,482.09,482.09,482.09,482.10,482.16,482.19,482.19,482.20,482.20,482.24,482.29,482.30,482.30,482.31,482.33,482.38,482.39,482.40,482.44,482.49,482.49,482.50,482.50,482.53,482.58,482.59,482.60,482.64,482.69,482.69,482.69,482.70,482.72,482.79,482.80,482.80,482.80,482.82,482.88,482.89,482.90,482.90,482.91,482.97,483.00,483.00,483.00,483.01,483.06,483.09,483.10,483.10,483.11,483.15,483.20,483.20,483.20,483.25,483.30,483.30,483.30,483.31,483.34,483.39,483.39,483.40,483.40,483.43,483.49,483.50,483.50,483.50,483.52,483.58,483.60,483.61,483.62,483.68,483.70,483.70,483.70,483.72,483.77,483.80,483.81,483.82,483.88,483.89,483.89,483.90,483.92,483.97,484.00,484.00,484.00,484.01,484.06,484.09,484.10,484.11,484.11,484.15,484.20,484.20,484.20,484.25,484.29,484.30,484.30,484.31,484.35,484.40,484.40,484.40,484.45,484.49,484.50,484.50,484.50,484.54,484.60,484.60,484.60,484.64,484.69,484.70,484.70,484.70,484.74,484.79,484.80,484.80,484.80,484.82,484.88,484.90,484.90,484.91,484.99,485.32,485.75,486.22,486.50,486.14,485.63,485.23,485.12,485.34,485.08,484.94,484.90,484.90,484.92,485.16,485.88,486.24,485.08,484.90,484.90,484.90,484.90,484.90,484.90,484.90,484.90,484.90,484.90,484.91,485.04,485.43,485.82,486.19,486.55,486.83,486.93,486.65,486.31,485.98,485.59,485.20,484.65,483.97,483.47,484.08,484.69,484.99,485.02,485.08,485.11,485.15,485.20,485.22,485.29,485.36,485.40,485.42,485.48,485.50,485.55,485.60,485.62,485.67,485.70,485.74,485.79,485.81,485.81,485.85,485.90,485.92,485.97,486.00,486.03,486.09,486.11,486.16,486.20,486.22,486.28,486.31,486.35,486.40,486.42,486.47,486.50,486.53,486.59,486.60,486.61,486.64,486.69,486.70,486.71,486.75,486.80,486.82,486.88,486.90,486.93,486.99,487.00,487.06,487.10,487.10,487.12,487.17,487.20,487.24,487.30,487.31,487.36,487.40,487.43,487.49
482.18,482.02,482.03,482.03,482.04,482.09,482.12,482.13,482.14,482.19,482.20,482.21,482.23,482.24,482.28,482.30,482.31,482.33,482.33,482.37,482.41,482.43,482.43,482.43,482.46,482.51,482.53,482.53,482.57,482.61,482.63,482.63,482.63,482.66,482.71,482.73,482.73,482.73,482.75,482.80,482.82,482.83,482.86,482.90,482.90,482.92,482.93,482.95,482.99,483.00,483.02,483.03,483.04,483.09,483.10,483.11,483.14,483.19,483.20,483.22,483.23,483.24,483.29,483.30,483.31,483.33,483.33,483.38,483.40,483.41,483.44,483.49,483.50,483.50,483.50,483.53,483.57,483.60,483.61,483.63,483.68,483.70,483.70,483.70,483.73,483.77,483.80,483.81,483.82,483.83,483.86,483.90,483.90,483.93,483.97,484.00,484.00,484.00,484.02,484.06,484.10,484.10,484.10,484.15,484.20,484.20,484.20,484.22,484.26,484.30,484.30,484.30,484.35,484.40,484.40,484.40,484.42,484.45,484.50,484.50,484.50,484.54,484.60,484.60,484.60,484.61,484.65,484.69,484.70,484.70,484.71,484.74,484.79,484.80,484.80,484.81,484.83,484.88,484.90,484.90,484.92,485.04,485.35,485.80,486.26,486.44,486.06,485.77,485.82,486.14,485.72,485.19,484.90,484.90,484.95,485.61,486.00,485.80,485.02,484.90,484.90,484.90,484.90,484.90,484.90,484.90,484.90,484.90,484.90,484.94,485.12,485.56,486.00,486.35,486.70,486.96,486.81,486.46,486.12,485.79,485.40,485.01,484.40,483.85,483.77,484.45,484.85,485.00,485.02,485.09,485.15,485.19,485.22,485.27,485.35,485.39,485.43,485.47,485.50,485.54,485.58,485.61,485.67,485.69,485.74,485.78,485.81,485.86,485.87,485.88,485.91,485.96,485.99,486.03,486.08,486.11,486.15,486.19,486.23,486.27,486.30,486.34,486.38,486.41,486.46,486.49,486.54,486.58,486.60,486.60,486.64,486.68,486.70,486.70,486.75,486.78,486.81,486.87,486.89,486.90,486.93,487.00,487.00,487.06,487.10,487.11,487.17,487.19,487.24,487.28,487.31,487.36,487.39,487.43,487.47,487.50
482.16,481.99,482.00,482.00,482.01,482.05,482.06,482.08,482.11,482.15,482.16,482.16,482.17,482.20,482.25,482.26,482.26,482.27,482.29,482.34,482.37,482.37,482.40,482.40,482.43,482.47,482.50,482.50,482.54,482.56,482.57,482.59,482.60,482.63,482.66,482.67,482.69,482.70,482.72,482.76,482.76,482.79,482.83,482.87,482.87,482.89,482.90,482.91,482.96,482.97,482.99,483.00,483.01,483.06,483.09,483.10,483.11,483.16,483.19,483.20,483.20,483.21,483.25,483.29,483.30,483.30,483.31,483.34,483.38,483.40,483.41,483.45,483.47,483.48,483.50,483.50,483.54,483.58,483.60,483.61,483.65,483.69,483.70,483.70,483.70,483.74,483.78,483.80,483.80,483.80,483.83,483.87,483.90,483.90,483.94,483.98,484.00,484.00,484.00,484.03,484.07,484.10,484.10,484.13,484.17,484.20,484.20,484.20,484.24,484.30,484.30,484.30,484.33,484.37,484.40,484.40,484.40,484.42,484.47,484.49,484.50,484.53,484.57,484.60,484.60,484.60,484.62,484.67,484.69,484.70,484.70,484.71,484.76,484.79,484.80,484.80,484.81,484.88,484.90,484.90,484.90,484.91,485.06,485.39,485.86,486.33,486.32,486.22,486.26,486.43,485.99,485.42,485.07,485.01,485.12,485.94,486.07,485.52,484.98,484.90,484.90,484.90,484.90,484.90,484.90,484.90,484.90,484.90,484.90,485.05,485.33,485.72,486.16,486.54,486.82,486.89,486.61,486.25,485.92,485.59,485.20,484.77,484.14,483.78,484.07,484.71,484.95,485.01,485.05,485.10,485.17,485.21,485.25,485.31,485.38,485.42,485.46,485.50,485.53,485.58,485.61,485.65,485.69,485.73,485.77,485.81,485.84,485.89,485.90,485.91,485.95,486.00,486.02,486.06,486.11,486.14,486.19,486.22,486.26,486.31,486.33,486.38,486.41,486.45,486.50,486.53,486.57,486.60,486.60,486.63,486.67,486.70,486.71,486.74,486.78,486.81,486.85,486.89,486.90,486.92,486.96,487.00,487.00,487.06,487.10,487.12,487.19,487.20,487.25,487.30,487.31,487.38,487.40,487.44,487.50,487.50
482.15,481.97,482.00,482.00,482.00,482.01,482.01,482.04,482.09,482.10,482.11,482.11,482.13,482.19,482.20,482.21,482.21,482.22,482.28,482.30,482.31,482.32,482.38,482.39,482.40,482.43,482.49,482.50,482.50,482.51,482.52,482.58,482.59,482.60,482.61,482.62,482.67,482.69,482.70,482.71,482.71,482.76,482.80,482.81,482.81,482.87,482.89,482.90,482.91,482.91,482.96,483.00,483.00,483.01,483.06,483.09,483.10,483.11,483.17,483.19,483.19,483.20,483.21,483.26,483.30,483.30,483.30,483.31,483.35,483.39,483.40,483.41,483.41,483.44,483.49,483.50,483.50,483.55,483.59,483.60,483.61,483.65,483.69,483.70,483.70,483.70,483.74,483.79,483.80,483.80,483.80,483.83,483.88,483.90,483.90,483.94,483.99,484.00,484.00,484.00,484.02,484.08,484.10,484.11,484.13,484.19,484.20,484.20,484.24,484.29,484.30,484.30,484.30,484.33,484.38,484.40,484.40,484.40,484.42,484.49,484.50,484.50,484.52,484.58,484.60,484.60,484.60,484.62,484.68,484.70,484.70,484.70,484.71,484.77,484.80,484.80,484.81,484.87,484.90,484.90,484.90,484.90,484.92,485.06,485.37,485.87,486.33,486.46,486.39,486.24,485.95,485.65,485.41,485.28,485.45,486.12,486.12,485.53,485.02,484.93,484.91,484.90,484.90,484.90,484.90,484.90,484.90,484.90,484.91,485.24,485.67,485.96,486.32,486.73,486.87,486.66,486.35,486.03,485.72,485.39,484.99,484.48,483.92,483.79,484.34,484.87,485.00,485.04,485.10,485.11,485.18,485.25,485.29,485.32,485.39,485.45,485.50,485.52,485.58,485.60,485.64,485.69,485.71,485.77,485.80,485.83,485.89,485.90,485.91,485.94,486.00,486.01,486.06,486.10,486.13,486.19,486.20,486.25,486.30,486.32,486.38,486.40,486.44,486.50,486.51,486.57,486.60,486.60,486.62,486.68,486.70,486.70,486.72,486.78,486.80,486.85,486.89,486.90,486.91,486.95,486.99,487.00,487.01,487.07,487.10,487.13,487.19,487.20,487.25,487.30,487.31,487.38,487.40,487.44,487.50,487.50
482.17,481.93,481.94,481.96,482.00,482.00,482.00,482.01,482.03,482.04,482.08,482.10,482.11,482.13,482.13,482.17,482.20,482.20,482.23,482.24,482.26,482.31,482.33,482.33,482.37,482.41,482.43,482.44,482.47,482.50,482.51,482.53,482.53,482.56,482.60,482.60,482.63,482.63,482.66,482.69,482.70,482.72,482.76,482.80,482.80,482.83,482.83,482.85,482.89,482.90,482.92,482.94,482.95,482.99,483.02,483.06,483.10,483.10,483.13,483.13,483.16,483.19,483.20,483.22,483.24,483.25,483.29,483.30,483.31,483.35,483.39,483.40,483.40,483.41,483.45,483.49,483.50,483.51,483.55,483.59,483.60,483.62,483.66,483.69,483.70,483.70,483.71,483.75,483.79,483.80,483.80,483.81,483.84,483.89,483.90,483.91,483.95,483.99,484.00,484.00,484.01,484.04,484.08,484.10,484.11,484.14,484.19,484.20,484.21,484.25,484.29,484.30,484.30,484.31,484.34,484.39,484.40,484.40,484.42,484.49,484.50,484.50,484.51,484.54,484.58,484.60,484.60,484.60,484.63,484.67,484.70,484.70,484.70,484.77,484.80,484.80,484.80,484.83,484.87,484.90,484.90,484.90,484.90,484.94,485.08,485.39,485.85,486.17,486.35,486.43,486.34,486.06,485.84,485.82,486.01,486.22,486.01,485.57,485.35,485.15,484.99,484.90,484.90,484.90,484.90,484.90,484.90,484.91,484.94,485.43,486.05,486.40,486.66,486.80,486.75,486.45,486.10,485.78,485.47,485.13,484.69,484.20,483.96,484.12,484.68,484.94,485.04,485.08,485.11,485.16,485.24,485.28,485.31,485.37,485.44,485.49,485.52,485.56,485.60,485.64,485.68,485.71,485.76,485.79,485.84,485.87,485.90,485.90,485.94,485.98,486.01,486.05,486.09,486.13,486.17,486.20,486.25,486.29,486.32,486.37,486.40,486.44,486.48,486.51,486.56,486.59,486.60,486.62,486.66,486.69,486.70,486.73,486.77,486.80,486.84,486.88,486.90,486.91,486.95,486.99,487.00,487.01,487.05,487.09,487.13,487.17,487.20,487.25,487.28,487.30,487.31,487.38,487.40,487.44,487.50,487.50
482.36,481.95,481.90,481.92,481.97,481.98,481.98,481.98,481.98,482.00,482.05,482.07,482.07,482.07,482.09,482.14,482.18,482.18,482.19,482.20,482.23,482.27,482.28,482.29,482.33,482.38,482.40,482.40,482.44,482.48,482.48,482.50,482.50,482.53,482.57,482.57,482.59,482.60,482.62,482.67,482.68,482.69,482.73,482.77,482.78,482.79,482.80,482.81,482.87,482.88,482.89,482.90,482.91,482.96,482.99,483.03,483.07,483.07,483.09,483.10,483.12,483.17,483.19,483.20,483.20,483.21,483.26,483.29,483.30,483.31,483.37,483.38,483.39,483.40,483.41,483.46,483.49,483.50,483.51,483.56,483.59,483.60,483.62,483.67,483.69,483.70,483.70,483.71,483.76,483.79,483.80,483.80,483.81,483.86,483.89,483.90,483.91,483.96,483.99,484.00,484.00,484.00,484.05,484.09,484.10,484.11,484.16,484.19,484.20,484.21,484.26,484.29,484.30,484.30,484.31,484.35,484.39,484.40,484.41,484.46,484.49,484.50,484.50,484.50,484.55,484.59,484.60,484.60,484.60,484.66,484.70,484.70,484.70,484.75,484.79,484.80,484.80,484.80,484.84,484.88,484.90,484.90,484.90,484.90,484.92,485.05,485.35,485.72,486.09,486.38,486.52,486.37,486.26,486.32,486.40,486.33,486.09,485.86,485.83,485.63,485.39,485.24,485.21,485.05,484.94,484.90,484.90,484.91,485.07,485.66,486.32,486.62,486.74,486.69,486.49,486.18,485.84,485.52,485.20,484.83,484.39,484.03,484.09,484.45,484.90,485.01,485.07,485.11,485.15,485.22,485.28,485.31,485.35,485.40,485.48,485.51,485.55,485.60,485.63,485.68,485.71,485.75,485.79,485.82,485.86,485.90,485.90,485.93,485.97,486.01,486.04,486.10,486.12,486.16,486.21,486.24,486.28,486.31,486.35,486.40,486.43,486.48,486.51,486.54,486.59,486.60,486.61,486.65,486.69,486.70,486.72,486.75,486.81,486.83,486.88,486.90,486.91,486.94,486.99,487.00,487.01,487.04,487.09,487.10,487.14,487.20,487.21,487.27,487.30,487.31,487.34,487.39,487.42,487.45,487.50,487.53
482.77,482.06,481.89,481.90,481.90,481.90,481.91,481.91,481.93,481.98,482.00,482.01,482.01,482.02,482.08,482.10,482.11,482.12,482.18,482.19,482.20,482.21,482.22,482.27,482.31,482.33,482.39,482.39,482.40,482.41,482.43,482.48,482.50,482.50,482.51,482.52,482.58,482.59,482.60,482.61,482.61,482.66,482.70,482.71,482.72,482.77,482.80,482.80,482.81,482.81,482.86,482.90,482.90,482.92,482.97,483.00,483.01,483.02,483.07,483.10,483.10,483.12,483.18,483.19,483.20,483.20,483.22,483.27,483.30,483.30,483.31,483.31,483.36,483.40,483.40,483.42,483.47,483.50,483.50,483.52,483.57,483.60,483.60,483.62,483.68,483.70,483.70,483.70,483.72,483.77,483.80,483.80,483.80,483.81,483.86,483.90,483.90,483.92,483.97,484.00,484.00,484.00,484.01,484.05,484.10,484.10,484.11,484.16,484.20,484.20,484.22,484.27,484.30,484.30,484.30,484.31,484.36,484.40,484.40,484.41,484.47,484.50,484.50,484.50,484.51,484.55,484.60,484.60,484.60,484.66,484.70,484.70,484.70,484.71,484.75,484.80,484.80,484.80,484.81,484.84,484.89,484.90,484.90,484.90,484.90,484.93,484.97,485.23,485.60,485.97,486.31,486.47,486.58,486.65,486.50,486.46,486.43,486.39,486.40,486.37,486.15,485.97,485.87,485.39,485.06,484.93,484.94,484.99,485.34,485.98,486.48,486.49,486.44,486.31,486.10,485.80,485.55,485.25,484.91,484.52,484.12,484.02,484.30,484.69,484.98,485.07,485.10,485.14,485.20,485.27,485.30,485.35,485.39,485.42,485.49,485.55,485.59,485.62,485.68,485.70,485.74,485.79,485.81,485.87,485.89,485.90,485.92,485.98,486.00,486.03,486.09,486.11,486.17,486.19,486.22,486.28,486.30,486.35,486.39,486.42,486.48,486.50,486.54,486.59,486.60,486.61,486.64,486.69,486.70,486.70,486.75,486.79,486.82,486.88,486.90,486.90,486.92,486.98,487.00,487.00,487.03,487.09,487.10,487.10,487.14,487.20,487.21,487.27,487.30,487.33,487.38,487.40,487.45,487.49,487.51,487.58
483.37,482.24,481.84,481.84,481.84,481.84,481.87,481.90,481.91,481.94,481.94,481.97,482.00,482.00,482.03,482.05,482.06,482.10,482.14,482.14,482.14,482.15,482.19,482.23,482.27,482.31,482.34,482.34,482.37,482.40,482.41,482.44,482.44,482.47,482.50,482.50,482.53,482.55,482.56,482.60,482.60,482.63,482.64,482.65,482.69,482.73,482.75,482.76,482.80,482.80,482.82,482.86,482.90,482.90,482.93,482.97,483.00,483.00,483.03,483.07,483.10,483.11,483.14,483.14,483.17,483.20,483.20,483.23,483.27,483.30,483.30,483.30,483.32,483.36,483.40,483.40,483.43,483.47,483.50,483.50,483.53,483.57,483.60,483.61,483.64,483.68,483.70,483.70,483.70,483.73,483.77,483.80,483.80,483.80,483.82,483.86,483.90,483.90,483.93,483.94,483.95,483.99,484.00,484.02,484.06,484.10,484.10,484.16,484.20,484.20,484.20,484.23,484.27,484.30,484.30,484.30,484.36,484.40,484.40,484.40,484.43,484.47,484.50,484.50,484.50,484.52,484.56,484.60,484.60,484.63,484.67,484.70,484.70,484.70,484.72,484.76,484.80,484.80,484.80,484.81,484.85,484.89,484.90,484.90,484.90,484.90,484.90,485.00,485.23,485.57,485.91,486.14,486.32,486.42,486.35,486.36,486.38,486.43,486.59,486.62,486.43,486.20,486.01,485.75,485.35,485.25,485.46,485.66,486.04,486.49,486.63,486.17,485.93,485.79,485.64,485.42,485.19,484.93,484.62,484.31,484.11,484.24,484.58,484.88,485.00,485.09,485.14,485.18,485.22,485.29,485.34,485.38,485.41,485.46,485.53,485.58,485.62,485.66,485.69,485.74,485.78,485.81,485.86,485.89,485.90,485.92,485.96,485.99,486.03,486.07,486.11,486.15,486.19,486.23,486.27,486.31,486.34,486.38,486.42,486.46,486.50,486.54,486.58,486.60,486.61,486.64,486.68,486.70,486.71,486.75,486.78,486.82,486.86,486.89,486.90,486.93,486.97,487.00,487.00,487.03,487.07,487.10,487.10,487.14,487.18,487.20,487.21,487.27,487.30,487.33,487.39,487.40,487.46,487.50,487.51,487.59
483.69,482.40,481.86,481.80,481.80,481.80,481.85,481.88,481.88,481.88,481.89,481.93,481.98,481.98,481.98,481.99,482.02,482.07,482.07,482.07,482.08,482.11,482.17,482.19,482.24,482.28,482.28,482.30,482.34,482.38,482.38,482.40,482.40,482.43,482.48,482.48,482.50,482.50,482.52,482.57,482.57,482.59,482.60,482.61,482.67,482.69,482.70,482.72,482.77,482.80,482.80,482.82,482.88,482.90,482.90,482.93,482.98,483.00,483.00,483.04,483.08,483.10,483.10,483.10,483.13,483.18,483.20,483.20,483.24,483.28,483.28,483.30,483.30,483.32,483.38,483.40,483.40,483.43,483.48,483.50,483.50,483.54,483.58,483.60,483.60,483.64,483.68,483.68,483.70,483.70,483.74,483.78,483.80,483.80,483.80,483.82,483.88,483.90,483.90,483.90,483.92,483.99,484.00,484.00,484.03,484.10,484.10,484.14,484.19,484.20,484.20,484.20,484.25,484.30,484.30,484.30,484.34,484.38,484.40,484.40,484.40,484.43,484.48,484.50,484.50,484.50,484.53,484.59,484.60,484.60,484.63,484.68,484.70,484.70,484.70,484.72,484.77,484.80,484.80,484.80,484.81,484.88,484.90,484.90,484.90,484.90,484.90,484.90,484.98,485.24,485.53,485.76,485.94,486.09,486.17,486.29,486.38,486.47,486.62,486.58,486.40,486.14,485.87,485.74,485.39,485.34,485.62,485.87,486.16,486.38,486.28,485.69,485.40,485.28,485.19,485.05,484.84,484.59,484.36,484.20,484.25,484.51,484.82,485.00,485.03,485.11,485.17,485.21,485.24,485.31,485.38,485.41,485.44,485.50,485.58,485.61,485.65,485.70,485.72,485.77,485.81,485.84,485.90,485.92,485.93,485.95,486.00,486.02,486.07,486.11,486.14,486.19,486.22,486.26,486.31,486.33,486.38,486.41,486.45,486.50,486.52,486.57,486.60,486.61,486.63,486.68,486.71,486.72,486.73,486.79,486.81,486.85,486.90,486.90,486.92,486.96,487.00,487.00,487.02,487.06,487.10,487.10,487.12,487.18,487.20,487.20,487.23,487.28,487.31,487.34,487.39,487.40,487.46,487.50,487.51,487.59
483.45,482.56,482.03,481.81,481.80,481.80,481.81,481.81,481.81,481.82,481.87,481.91,481.91,481.91,481.91,481.96,482.00,482.01,482.01,482.01,482.05,482.10,482.12,482.18,482.21,482.22,482.22,482.28,482.31,482.31,482.33,482.39,482.40,482.41,482.41,482.42,482.48,482.50,482.50,482.51,482.51,482.57,482.60,482.60,482.62,482.67,482.70,482.70,482.72,482.78,482.80,482.81,482.83,482.89,482.90,482.91,482.93,482.99,483.00,483.01,483.04,483.09,483.10,483.10,483.11,483.13,483.19,483.20,483.21,483.22,483.22,483.28,483.30,483.30,483.33,483.39,483.40,483.41,483.43,483.49,483.50,483.51,483.54,483.59,483.60,483.61,483.62,483.63,483.69,483.70,483.71,483.73,483.79,483.80,483.80,483.80,483.83,483.88,483.90,483.90,483.92,483.99,484.00,484.00,484.03,484.09,484.10,484.11,484.14,484.20,484.20,484.20,484.25,484.30,484.30,484.30,484.31,484.34,484.39,484.40,484.40,484.41,484.43,484.49,484.50,484.50,484.53,484.59,484.60,484.60,484.61,484.63,484.69,484.70,484.70,484.70,484.72,484.78,484.80,484.80,484.81,484.88,484.90,484.90,484.90,484.90,484.90,484.91,484.93,485.01,485.29,485.45,485.60,485.83,486.09,486.36,486.59,486.68,486.51,486.27,486.02,485.76,485.44,485.06,484.91,484.90,484.95,484.99,485.05,485.09,485.07,484.96,484.91,484.84,484.79,484.73,484.57,484.30,484.19,484.28,484.54,484.83,484.96,485.03,485.10,485.17,485.19,485.23,485.30,485.37,485.40,485.44,485.49,485.51,485.58,485.65,485.69,485.71,485.77,485.79,485.84,485.89,485.90,485.97,485.99,485.99,486.01,486.07,486.09,486.13,486.19,486.20,486.26,486.29,486.32,486.38,486.40,486.45,486.49,486.51,486.57,486.60,486.60,486.62,486.68,486.70,486.74,486.78,486.79,486.80,486.85,486.89,486.90,486.91,486.96,486.99,487.00,487.01,487.07,487.09,487.10,487.11,487.17,487.19,487.20,487.22,487.28,487.30,487.34,487.39,487.40,487.40,487.46,487.50,487.52,487.59
483.43,482.79,482.30,481.94,481.77,481.75,481.75,481.76,481.80,481.80,481.83,481.84,481.86,481.89,481.90,481.93,481.94,481.94,481.95,481.98,482.02,482.06,482.10,482.13,482.14,482.16,482.20,482.24,482.28,482.30,482.31,482.34,482.34,482.37,482.40,482.41,482.44,482.44,482.46,482.50,482.50,482.53,482.55,482.56,482.60,482.63,482.64,482.66,482.70,482.74,482.75,482.76,482.81,482.84,482.84,482.87,482.91,482.94,482.94,482.98,483.01,483.05,483.05,483.08,483.10,483.11,483.14,483.19,483.20,483.20,483.20,483.24,483.28,483.30,483.31,483.34,483.34,483.37,483.41,483.45,483.49,483.50,483.51,483.55,483.59,483.60,483.60,483.61,483.64,483.69,483.70,483.71,483.75,483.79,483.80,483.80,483.81,483.84,483.88,483.90,483.91,483.95,483.99,484.00,484.01,484.05,484.09,484.10,484.12,484.15,484.19,484.20,484.22,484.26,484.30,484.30,484.30,484.31,484.35,484.39,484.40,484.40,484.42,484.49,484.50,484.50,484.51,484.55,484.59,484.60,484.60,484.61,484.64,484.68,484.70,484.70,484.71,484.78,484.80,484.80,484.81,484.84,484.84,484.84,484.86,484.89,484.90,485.02,485.22,485.37,485.48,485.63,485.82,486.05,486.28,486.51,486.64,486.63,486.39,486.09,485.84,485.57,485.26,484.92,484.82,484.78,484.74,484.70,484.70,484.67,484.66,484.69,484.70,484.61,484.52,484.47,484.36,484.28,484.35,484.54,484.79,484.95,485.03,485.06,485.11,485.19,485.24,485.27,485.32,485.39,485.44,485.48,485.51,485.56,485.63,485.68,485.72,485.76,485.84,485.86,485.88,485.91,485.95,485.99,486.00,486.01,486.05,486.09,486.14,486.17,486.21,486.25,486.28,486.33,486.36,486.40,486.44,486.48,486.52,486.56,486.59,486.60,486.62,486.66,486.70,486.74,486.78,486.80,486.81,486.84,486.88,486.90,486.91,486.95,486.99,487.00,487.01,487.05,487.09,487.10,487.12,487.16,487.19,487.20,487.22,487.26,487.30,487.34,487.38,487.40,487.41,487.44,487.48,487.52,487.56,487.60
483.49,483.01,482.54,482.09,481.77,481.71,481.70,481.73,481.78,481.78,481.78,481.79,481.82,481.88,481.88,481.88,481.88,481.89,481.90,481.95,481.99,482.01,482.07,482.08,482.09,482.12,482.18,482.20,482.25,482.28,482.29,482.30,482.30,482.33,482.38,482.38,482.40,482.40,482.43,482.48,482.49,482.49,482.50,482.51,482.57,482.60,482.60,482.62,482.68,482.70,482.70,482.73,482.78,482.80,482.80,482.83,482.89,482.90,482.90,482.94,482.99,483.00,483.00,483.05,483.09,483.10,483.11,483.16,483.19,483.19,483.20,483.20,483.25,483.29,483.30,483.30,483.30,483.33,483.39,483.41,483.46,483.49,483.50,483.51,483.57,483.59,483.60,483.60,483.61,483.66,483.69,483.70,483.71,483.76,483.79,483.80,483.80,483.80,483.85,483.89,483.90,483.91,483.96,483.99,484.00,484.01,484.07,484.09,484.10,484.11,484.17,484.19,484.20,484.22,484.27,484.30,484.30,484.30,484.31,484.37,484.39,484.40,484.41,484.48,484.50,484.50,484.50,484.51,484.57,484.59,484.60,484.60,484.61,484.67,484.70,484.70,484.71,484.76,484.79,484.80,484.80,484.80,484.80,484.80,484.82,484.89,484.90,485.11,485.46,485.82,485.84,485.99,486.18,486.34,486.47,486.63,486.65,486.52,486.28,485.98,485.72,485.47,485.19,484.96,484.87,484.80,484.74,484.67,484.64,484.58,484.55,484.58,484.58,484.50,484.41,484.36,484.31,484.40,484.58,484.80,484.98,485.01,485.06,485.11,485.13,485.20,485.27,485.31,485.34,485.41,485.48,485.51,485.54,485.60,485.68,485.71,485.75,485.81,485.88,485.90,485.91,485.93,486.00,486.01,486.01,486.04,486.10,486.12,486.17,486.21,486.23,486.29,486.31,486.36,486.40,486.43,486.48,486.51,486.54,486.60,486.60,486.61,486.65,486.70,486.72,486.78,486.80,486.81,486.83,486.88,486.90,486.91,486.93,486.99,487.00,487.01,487.04,487.09,487.10,487.11,487.14,487.19,487.20,487.21,487.25,487.30,487.32,487.38,487.40,487.40,487.43,487.49,487.50,487.54,487.60,487.61
483.61,483.14,482.63,482.17,481.88,481.73,481.70,481.71,481.72,481.72,481.72,481.75,481.80,481.81,481.81,481.81,481.81,481.83,481.89,481.91,481.95,482.00,482.01,482.01,482.06,482.11,482.13,482.18,482.21,482.22,482.23,482.29,482.30,482.31,482.31,482.32,482.38,482.40,482.40,482.41,482.42,482.47,482.50,482.50,482.52,482.57,482.60,482.60,482.63,482.68,482.70,482.71,482.73,482.79,482.80,482.81,482.83,482.89,482.90,482.91,482.94,483.00,483.00,483.01,483.05,483.10,483.10,483.11,483.12,483.14,483.19,483.20,483.21,483.25,483.30,483.30,483.30,483.31,483.33,483.39,483.41,483.46,483.50,483.50,483.51,483.57,483.60,483.60,483.60,483.61,483.66,483.70,483.70,483.71,483.76,483.80,483.80,483.80,483.81,483.85,483.90,483.90,483.91,483.96,484.00,484.00,484.01,484.07,484.10,484.10,484.12,484.18,484.20,484.20,484.23,484.28,484.30,484.30,484.30,484.32,484.37,484.40,484.40,484.42,484.48,484.50,484.50,484.50,484.51,484.57,484.60,484.60,484.61,484.67,484.70,484.70,484.70,484.71,484.76,484.80,484.80,484.80,484.80,484.80,484.82,484.89,484.90,484.94,485.29,486.06,486.31,486.44,486.45,486.39,486.43,486.61,486.62,486.46,486.21,485.91,485.66,485.42,485.19,485.02,484.97,484.96,484.93,484.85,484.79,484.72,484.63,484.53,484.51,484.54,484.59,484.62,484.61,484.63,484.78,484.96,485.00,485.06,485.09,485.13,485.19,485.26,485.29,485.33,485.40,485.47,485.50,485.54,485.59,485.61,485.68,485.75,485.79,485.81,485.88,485.90,485.94,485.99,486.00,486.06,486.09,486.09,486.11,486.17,486.19,486.23,486.28,486.30,486.36,486.39,486.42,486.48,486.50,486.54,486.59,486.60,486.60,486.66,486.69,486.72,486.77,486.79,486.80,486.83,486.88,486.90,486.90,486.93,486.98,487.00,487.00,487.04,487.09,487.10,487.10,487.14,487.19,487.20,487.20,487.25,487.29,487.32,487.38,487.39,487.40,487.43,487.48,487.50,487.50,487.54,487.60,487.61
483.68,483.19,482.69,482.26,482.00,481.83,481.74,481.69,481.66,481.69,481.70,481.72,481.75,481.75,481.75,481.75,481.76,481.81,481.84,481.88,481.92,481.96,481.96,481.99,482.02,482.06,482.10,482.14,482.18,482.20,482.21,482.25,482.25,482.27,482.30,482.31,482.34,482.35,482.37,482.40,482.40,482.44,482.47,482.50,482.50,482.54,482.57,482.60,482.61,482.64,482.68,482.70,482.71,482.75,482.78,482.80,482.81,482.85,482.89,482.90,482.92,482.96,482.99,483.00,483.02,483.06,483.09,483.10,483.10,483.11,483.15,483.19,483.20,483.22,483.25,483.25,483.28,483.30,483.31,483.35,483.39,483.43,483.46,483.46,483.49,483.53,483.57,483.60,483.60,483.60,483.63,483.66,483.69,483.70,483.73,483.77,483.80,483.80,483.80,483.82,483.86,483.89,483.90,483.93,483.97,484.00,484.00,484.03,484.07,484.10,484.10,484.13,484.18,484.20,484.20,484.24,484.28,484.30,484.30,484.31,484.36,484.40,484.40,484.41,484.44,484.48,484.50,484.50,484.50,484.53,484.57,484.60,484.60,484.63,484.68,484.70,484.70,484.70,484.73,484.76,484.80,484.80,484.80,484.80,484.82,484.89,484.90,484.90,485.25,486.15,486.30,486.26,486.24,486.28,486.39,486.60,486.61,486.44,486.20,485.93,485.69,485.45,485.23,485.04,485.00,485.00,484.99,484.95,484.91,484.85,484.74,484.60,484.55,484.55,484.58,484.66,484.70,484.76,484.88,485.01,485.04,485.09,485.13,485.16,485.21,485.28,485.33,485.37,485.42,485.49,485.53,485.57,485.61,485.65,485.73,485.78,485.81,485.86,485.93,485.94,485.97,486.01,486.04,486.09,486.10,486.11,486.15,486.19,486.23,486.26,486.31,486.35,486.38,486.42,486.46,486.50,486.54,486.58,486.60,486.61,486.64,486.68,486.72,486.76,486.79,486.80,486.82,486.86,486.90,486.90,486.93,486.97,487.00,487.00,487.03,487.07,487.10,487.11,487.14,487.18,487.20,487.21,487.24,487.28,487.32,487.36,487.39,487.40,487.42,487.46,487.50,487.50,487.53,487.56,487.60,487.61
483.74,483.22,482.72,482.34,482.13,481.96,481.81,481.69,481.63,481.68,481.69,481.69,481.69,481.69,481.69,481.69,481.73,481.78,481.80,481.85,481.88,481.89,481.91,481.96,481.99,482.02,482.08,482.10,482.15,482.19,482.19,482.20,482.20,482.24,482.28,482.29,482.30,482.30,482.32,482.38,482.38,482.39,482.43,482.49,482.49,482.50,482.54,482.58,482.59,482.60,482.65,482.69,482.70,482.70,482.76,482.79,482.80,482.81,482.87,482.89,482.90,482.91,482.97,482.99,483.00,483.01,483.07,483.08,483.09,483.10,483.11,483.17,483.19,483.20,483.20,483.20,483.25,483.29,483.30,483.31,483.37,483.39,483.40,483.41,483.47,483.49,483.53,483.59,483.60,483.60,483.60,483.62,483.68,483.70,483.70,483.73,483.79,483.80,483.80,483.80,483.82,483.88,483.90,483.90,483.93,484.00,484.00,484.00,484.04,484.10,484.10,484.10,484.15,484.20,484.20,484.20,484.25,484.30,484.30,484.30,484.35,484.39,484.40,484.40,484.40,484.44,484.49,484.50,484.50,484.50,484.54,484.60,484.60,484.60,484.64,484.69,484.70,484.70,484.70,484.73,484.78,484.80,484.80,484.80,484.82,484.89,484.90,484.90,485.24,486.07,486.06,485.90,485.91,486.12,486.32,486.53,486.55,486.40,486.20,485.97,485.74,485.51,485.27,485.05,485.00,485.00,485.00,485.00,485.00,484.95,484.86,484.73,484.63,484.56,484.56,484.64,484.71,484.81,484.92,485.01,485.09,485.11,485.16,485.20,485.23,485.30,485.37,485.41,485.43,485.50,485.57,485.61,485.64,485.71,485.78,485.81,485.84,485.91,485.98,486.01,486.01,486.03,486.09,486.11,486.12,486.14,486.19,486.21,486.27,486.31,486.33,486.39,486.41,486.45,486.50,486.52,486.58,486.60,486.60,486.63,486.69,486.71,486.75,486.80,486.80,486.81,486.86,486.90,486.90,486.91,486.97,487.00,487.00,487.02,487.07,487.10,487.10,487.12,487.18,487.20,487.20,487.23,487.29,487.31,487.35,487.40,487.40,487.41,487.46,487.50,487.50,487.51,487.57,487.60,487.60,487.62
483.81,483.28,482.79,482.42,482.25,482.09,481.94,481.79,481.68,481.63,481.63,481.63,481.63,481.63,481.63,481.66,481.71,481.73,481.79,481.81,481.82,481.84,481.89,481.92,481.96,482.00,482.03,482.09,482.11,482.13,482.14,482.19,482.20,482.21,482.23,482.23,482.28,482.30,482.31,482.32,482.32,482.37,482.41,482.43,482.43,482.48,482.51,482.53,482.53,482.59,482.61,482.65,482.69,482.70,482.72,482.75,482.80,482.80,482.82,482.86,482.90,482.90,482.92,482.97,483.00,483.00,483.02,483.03,483.06,483.10,483.10,483.12,483.17,483.20,483.20,483.20,483.22,483.25,483.30,483.30,483.32,483.36,483.40,483.40,483.42,483.47,483.51,483.54,483.59,483.60,483.60,483.61,483.63,483.69,483.70,483.71,483.74,483.79,483.80,483.80,483.81,483.83,483.88,483.90,483.93,484.00,484.00,484.00,484.04,484.10,484.10,484.10,484.15,484.20,484.20,484.20,484.25,484.30,484.30,484.30,484.31,484.36,484.40,484.40,484.40,484.41,484.44,484.50,484.50,484.50,484.54,484.60,484.60,484.60,484.61,484.64,484.69,484.70,484.70,484.71,484.74,484.79,484.80,484.80,484.82,484.89,484.90,484.90,485.11,485.62,485.65,485.73,485.85,485.97,486.08,486.19,486.25,486.25,486.18,485.97,485.74,485.51,485.27,485.05,485.00,485.00,485.00,485.00,485.00,484.99,484.94,484.84,484.71,484.62,484.64,484.75,484.77,484.76,484.82,484.96,485.09,485.16,485.19,485.23,485.28,485.36,485.39,485.43,485.50,485.56,485.60,485.64,485.70,485.77,485.79,485.84,485.88,485.92,485.99,486.05,486.07,486.08,486.11,486.16,486.18,486.18,486.21,486.26,486.29,486.33,486.38,486.40,486.45,486.49,486.52,486.57,486.60,486.60,486.63,486.68,486.70,486.75,486.78,486.80,486.81,486.86,486.89,486.90,486.91,486.96,486.99,487.00,487.01,487.06,487.10,487.10,487.12,487.17,487.19,487.20,487.23,487.27,487.30,487.35,487.38,487.40,487.41,487.46,487.49,487.50,487.51,487.56,487.59,487.60,487.61,487.67
483.82,483.33,482.87,482.53,482.38,482.22,482.07,481.91,481.77,481.70,481.63,481.58,481.57,481.60,481.60,481.63,481.67,481.71,481.75,481.76,481.77,481.81,481.86,481.89,481.93,481.97,482.00,482.05,482.06,482.07,482.11,482.15,482.16,482.18,482.20,482.20,482.24,482.26,482.27,482.30,482.30,482.33,482.38,482.40,482.41,482.44,482.48,482.50,482.51,482.54,482.58,482.62,482.66,482.66,482.69,482.73,482.76,482.76,482.79,482.83,482.86,482.87,482.89,482.94,482.96,482.97,482.99,483.00,483.03,483.07,483.10,483.10,483.13,483.16,483.17,483.19,483.20,483.23,483.26,483.30,483.30,483.33,483.37,483.40,483.40,483.44,483.47,483.51,483.55,483.59,483.60,483.60,483.61,483.64,483.68,483.70,483.71,483.75,483.79,483.80,483.80,483.81,483.87,483.90,483.92,483.96,483.99,484.00,484.02,484.06,484.09,484.10,484.13,484.17,484.20,484.20,484.23,484.27,484.30,484.30,484.30,484.33,484.36,484.39,484.40,484.40,484.43,484.49,484.50,484.50,484.52,484.56,484.59,484.60,484.60,484.61,484.65,484.69,484.70,484.70,484.72,484.78,484.80,484.80,484.82,484.89,484.90,484.90,485.00,485.26,485.30,485.42,485.55,485.63,485.70,485.78,485.86,485.92,485.93,485.85,485.72,485.55,485.32,485.09,485.01,485.00,485.00,485.00,485.00,485.00,484.99,484.92,484.78,484.69,484.68,484.75,484.75,484.70,484.73,484.87,485.04,485.13,485.20,485.26,485.31,485.38,485.43,485.47,485.52,485.59,485.63,485.67,485.73,485.79,485.83,485.87,485.91,485.95,486.03,486.08,486.10,486.11,486.14,486.19,486.22,486.24,486.25,486.29,486.33,486.37,486.41,486.44,486.48,486.52,486.56,486.60,486.60,486.62,486.66,486.70,486.74,486.78,486.80,486.81,486.84,486.89,486.90,486.91,486.94,486.99,487.00,487.01,487.05,487.09,487.10,487.12,487.16,487.19,487.20,487.22,487.26,487.31,487.34,487.38,487.40,487.41,487.44,487.49,487.50,487.51,487.54,487.59,487.60,487.61,487.65,487.69
483.78,483.36,482.96,482.66,482.51,482.35,482.20,482.05,481.91,481.82,481.69,481.58,481.54,481.58,481.59,481.60,481.63,481.69,481.69,481.70,481.74,481.79,481.81,481.87,481.89,481.93,481.98,482.00,482.00,482.03,482.08,482.10,482.11,482.14,482.19,482.19,482.20,482.20,482.23,482.29,482.30,482.30,482.33,482.39,482.40,482.40,482.45,482.49,482.50,482.50,482.55,482.59,482.61,482.61,482.66,482.69,482.70,482.71,482.76,482.79,482.81,482.81,482.88,482.90,482.90,482.92,482.98,483.00,483.00,483.02,483.08,483.10,483.10,483.11,483.12,483.18,483.20,483.20,483.22,483.28,483.30,483.30,483.33,483.38,483.40,483.40,483.44,483.49,483.51,483.56,483.59,483.60,483.60,483.61,483.65,483.69,483.70,483.71,483.76,483.79,483.80,483.81,483.86,483.89,483.90,483.92,483.98,484.00,484.00,484.02,484.08,484.10,484.10,484.12,484.18,484.20,484.20,484.23,484.29,484.30,484.30,484.30,484.32,484.38,484.40,484.40,484.43,484.48,484.50,484.50,484.50,484.52,484.58,484.60,484.60,484.60,484.62,484.68,484.70,484.70,484.72,484.78,484.80,484.80,484.82,484.89,484.90,484.90,484.94,485.01,485.02,485.08,485.16,485.22,485.29,485.36,485.43,485.50,485.56,485.63,485.64,485.55,485.35,485.14,485.04,485.01,485.00,485.00,485.00,485.00,485.00,484.98,484.85,484.76,484.72,484.74,484.73,484.68,484.69,484.79,484.97,485.08,485.21,485.30,485.33,485.40,485.47,485.51,485.53,485.60,485.67,485.70,485.74,485.81,485.88,485.91,485.94,486.00,486.08,486.11,486.11,486.13,486.19,486.21,486.25,486.30,486.30,486.31,486.36,486.40,486.43,486.49,486.50,486.55,486.60,486.60,486.61,486.66,486.70,486.73,486.78,486.80,486.81,486.83,486.88,486.90,486.91,486.94,486.99,487.00,487.01,487.04,487.10,487.10,487.11,487.15,487.19,487.20,487.21,487.26,487.30,487.33,487.38,487.40,487.41,487.43,487.49,487.50,487.51,487.53,487.59,487.60,487.61,487.64,487.69,487.70
483.62,483.31,483.03,482.79,482.64,482.48,482.37,482.24,482.10,481.96,481.81,481.70,481.62,481.54,481.53,481.56,481.61,481.63,481.63,481.67,481.71,481.74,481.80,481.82,481.86,481.91,481.94,481.99,482.00,482.01,482.04,482.09,482.10,482.11,482.13,482.13,482.18,482.20,482.21,482.24,482.29,482.30,482.31,482.34,482.39,482.40,482.41,482.45,482.49,482.50,482.51,482.55,482.60,482.60,482.62,482.66,482.70,482.70,482.72,482.76,482.80,482.80,482.83,482.87,482.90,482.90,482.93,482.98,483.00,483.01,483.04,483.09,483.10,483.10,483.10,483.13,483.18,483.20,483.21,483.23,483.28,483.30,483.31,483.33,483.39,483.40,483.41,483.44,483.49,483.52,483.56,483.60,483.60,483.60,483.62,483.65,483.69,483.70,483.72,483.76,483.80,483.80,483.82,483.86,483.90,483.90,483.93,483.97,484.00,484.00,484.03,484.08,484.10,484.11,484.13,484.19,484.20,484.21,484.24,484.29,484.30,484.30,484.31,484.33,484.38,484.40,484.41,484.44,484.49,484.50,484.50,484.50,484.53,484.58,484.60,484.60,484.61,484.68,484.70,484.70,484.72,484.78,484.80,484.80,484.82,484.89,484.90,484.90,484.93,484.99,485.00,485.02,485.04,485.06,485.08,485.11,485.13,485.15,485.18,485.25,485.28,485.27,485.24,485.13,485.08,485.04,485.00,485.00,485.00,485.00,485.00,484.99,484.95,484.88,484.87,484.91,484.91,484.89,484.87,484.84,484.88,485.04,485.21,485.34,485.44,485.47,485.53,485.57,485.59,485.66,485.69,485.74,485.79,485.87,485.89,485.94,485.98,486.01,486.09,486.15,486.17,486.18,486.20,486.25,486.29,486.30,486.31,486.36,486.39,486.43,486.47,486.50,486.55,486.59,486.60,486.61,486.65,486.69,486.73,486.77,486.80,486.80,486.83,486.88,486.90,486.90,486.94,486.98,487.00,487.00,487.04,487.08,487.10,487.11,487.15,487.19,487.20,487.21,487.25,487.29,487.33,487.37,487.40,487.40,487.43,487.48,487.50,487.50,487.54,487.58,487.60,487.60,487.64,487.68,487.70,487.70
483.49,483.28,483.07,482.88,482.73,482.60,482.50,482.37,482.22,482.09,481.94,481.81,481.70,481.59,481.54,481.53,481.53,481.54,481.56,481.60,481.64,481.68,481.72,481.75,481.79,481.84,481.87,481.95,481.97,481.98,482.01,482.06,482.06,482.08,482.10,482.11,482.15,482.16,482.17,482.21,482.25,482.26,482.28,482.31,482.36,482.39,482.40,482.41,482.46,482.49,482.50,482.52,482.56,482.59,482.60,482.63,482.67,482.70,482.70,482.74,482.77,482.80,482.80,482.84,482.88,482.90,482.91,482.94,482.98,483.00,483.01,483.05,483.06,483.08,483.10,483.10,483.14,483.18,483.20,483.20,483.25,483.28,483.30,483.31,483.35,483.39,483.40,483.41,483.46,483.49,483.53,483.57,483.60,483.60,483.60,483.62,483.67,483.69,483.70,483.73,483.77,483.80,483.80,483.83,483.87,483.90,483.90,483.94,483.98,484.00,484.00,484.04,484.08,484.10,484.11,484.15,484.19,484.20,484.21,484.25,484.29,484.30,484.30,484.31,484.37,484.40,484.40,484.41,484.45,484.49,484.50,484.50,484.50,484.57,484.60,484.60,484.61,484.68,484.70,484.70,484.72,484.78,484.80,484.80,484.82,484.89,484.90,484.90,484.93,484.99,485.00,485.00,485.01,485.03,485.03,485.03,485.03,485.03,485.04,485.09,485.10,485.12,485.15,485.11,485.12,485.11,485.07,485.07,485.07,485.07,485.07,485.06,485.04,485.00,485.00,485.07,485.07,485.10,485.08,485.03,484.97,485.09,485.22,485.36,485.50,485.56,485.61,485.63,485.65,485.72,485.74,485.78,485.85,485.90,485.93,485.97,486.01,486.05,486.13,486.18,486.21,486.24,486.24,486.28,486.32,486.34,486.34,486.39,486.42,486.46,486.51,486.53,486.58,486.60,486.61,486.64,486.69,486.72,486.76,486.80,486.80,486.82,486.86,486.90,486.90,486.93,486.97,487.00,487.00,487.03,487.07,487.10,487.11,487.14,487.18,487.20,487.21,487.24,487.29,487.32,487.36,487.40,487.40,487.42,487.46,487.50,487.50,487.53,487.57,487.60,487.60,487.63,487.67,487.70,487.71,487.74
483.43,483.27,483.11,482.96,482.81,482.71,482.59,482.44,482.30,482.20,482.06,481.91,481.78,481.69,481.62,481.51,481.43,481.43,481.49,481.50,481.54,481.59,481.61,481.67,481.70,481.73,481.80,481.88,481.91,481.94,481.99,482.00,482.01,482.05,482.09,482.09,482.10,482.11,482.13,482.19,482.21,482.21,482.24,482.29,482.31,482.37,482.39,482.39,482.42,482.48,482.49,482.50,482.52,482.58,482.59,482.60,482.63,482.68,482.70,482.70,482.73,482.79,482.80,482.81,482.84,482.89,482.90,482.90,482.95,482.99,483.00,483.01,483.01,483.03,483.09,483.10,483.11,483.14,483.19,483.20,483.20,483.25,483.29,483.30,483.31,483.36,483.39,483.40,483.41,483.47,483.50,483.53,483.58,483.60,483.60,483.60,483.62,483.68,483.70,483.70,483.73,483.78,483.80,483.80,483.83,483.89,483.90,483.90,483.94,483.99,484.00,484.00,484.05,484.10,484.10,484.11,484.16,484.20,484.20,484.21,484.26,484.30,484.30,484.31,484.37,484.39,484.40,484.40,484.41,484.46,484.50,484.50,484.50,484.57,484.60,484.60,484.61,484.68,484.70,484.70,484.72,484.78,484.80,484.80,484.82,484.88,484.90,484.90,484.93,484.99,485.00,485.00,485.03,485.09,485.09,485.09,485.09,485.09,485.09,485.11,485.11,485.11,485.12,485.11,485.17,485.20,485.19,485.19,485.20,485.20,485.20,485.19,485.13,485.11,485.14,485.20,485.21,485.26,485.29,485.27,485.21,485.21,485.27,485.38,485.52,485.66,485.70,485.70,485.72,485.79,485.80,485.85,485.91,485.92,485.98,486.01,486.04,486.11,486.18,486.20,486.25,486.29,486.30,486.31,486.35,486.39,486.40,486.41,486.46,486.50,486.52,486.58,486.60,486.60,486.63,486.69,486.70,486.75,486.80,486.80,486.81,486.87,486.89,486.90,486.91,486.97,487.00,487.00,487.02,487.08,487.10,487.10,487.13,487.18,487.20,487.19,487.20,487.26,487.27,487.33,487.37,487.38,487.38,487.44,487.47,487.49,487.49,487.55,487.58,487.58,487.60,487.67,487.69,487.69,487.72,487.77
483.48,483.32,483.20,483.08,482.93,482.80,482.69,482.56,482.41,482.28,482.13,482.00,481.90,481.77,481.69,481.60,481.51,481.47,481.44,481.44,481.45,481.48,481.53,481.56,481.60,481.66,481.74,481.81,481.87,481.91,481.95,481.99,482.00,482.01,482.03,482.04,482.09,482.10,482.11,482.14,482.19,482.20,482.21,482.25,482.30,482.33,482.33,482.35,482.40,482.43,482.44,482.46,482.50,482.53,482.53,482.56,482.61,482.63,482.68,482.70,482.71,482.74,482.79,482.80,482.81,482.85,482.89,482.90,482.92,482.95,483.00,483.00,483.00,483.01,483.04,483.09,483.10,483.11,483.15,483.19,483.20,483.22,483.25,483.30,483.30,483.32,483.36,483.40,483.40,483.43,483.46,483.51,483.54,483.59,483.60,483.60,483.61,483.63,483.68,483.70,483.71,483.74,483.78,483.80,483.81,483.84,483.89,483.90,483.91,483.95,483.99,484.00,484.04,484.10,484.10,484.10,484.15,484.20,484.20,484.20,484.26,484.30,484.30,484.30,484.33,484.37,484.40,484.40,484.40,484.46,484.50,484.50,484.50,484.57,484.60,484.60,484.61,484.68,484.70,484.70,484.72,484.78,484.80,484.80,484.81,484.83,484.88,484.90,484.93,484.99,485.00,485.00,485.03,485.10,485.10,485.10,485.10,485.10,485.11,485.15,485.17,485.17,485.17,485.17,485.23,485.26,485.26,485.27,485.31,485.33,485.33,485.32,485.25,485.27,485.30,485.34,485.39,485.42,485.43,485.44,485.45,485.41,485.45,485.52,485.59,485.73,485.76,485.79,485.84,485.87,485.91,485.95,485.97,485.98,486.04,486.06,486.10,486.17,486.19,486.24,486.28,486.31,486.36,486.37,486.38,486.42,486.46,486.47,486.49,486.53,486.57,486.60,486.60,486.63,486.67,486.70,486.75,486.79,486.80,486.81,486.86,486.89,486.90,486.91,486.96,486.99,487.00,487.02,487.06,487.09,487.10,487.13,487.17,487.19,487.20,487.14,487.08,487.10,487.10,487.16,487.21,487.22,487.26,487.30,487.33,487.37,487.38,487.44,487.47,487.49,487.54,487.62,487.63,487.66,487.71,487.74
483.57,483.42,483.29,483.18,483.03,482.89,482.78,482.66,482.50,482.35,482.22,482.11,481.99,481.87,481.78,481.71,481.63,481.55,481.45,481.41,481.39,481.39,481.46,481.47,481.51,481.60,481.68,481.77,481.84,481.88,481.91,481.96,481.97,481.98,482.00,482.00,482.05,482.09,482.10,482.11,482.16,482.19,482.20,482.21,482.26,482.29,482.30,482.31,482.37,482.39,482.40,482.43,482.47,482.50,482.50,482.53,482.57,482.60,482.65,482.67,482.68,482.71,482.75,482.77,482.78,482.81,482.86,482.87,482.88,482.91,482.96,482.97,482.99,483.00,483.01,483.06,483.09,483.10,483.11,483.17,483.19,483.20,483.22,483.27,483.29,483.30,483.33,483.37,483.40,483.40,483.43,483.48,483.50,483.55,483.59,483.60,483.60,483.60,483.64,483.68,483.70,483.70,483.75,483.79,483.80,483.81,483.88,483.90,483.90,483.92,483.99,484.00,484.03,484.08,484.10,484.10,484.14,484.18,484.20,484.20,484.24,484.28,484.30,484.30,484.30,484.34,484.38,484.40,484.40,484.46,484.50,484.50,484.50,484.57,484.60,484.60,484.61,484.68,484.70,484.70,484.72,484.78,484.80,484.80,484.81,484.83,484.88,484.90,484.93,484.99,485.00,485.00,485.03,485.10,485.10,485.10,485.11,485.13,485.14,485.19,485.20,485.21,485.23,485.23,485.29,485.33,485.33,485.34,485.40,485.43,485.43,485.42,485.37,485.42,485.46,485.48,485.54,485.56,485.57,485.61,485.65,485.61,485.64,485.69,485.71,485.80,485.85,485.88,485.93,485.94,486.00,486.03,486.03,486.04,486.11,486.13,486.17,486.23,486.23,486.27,486.31,486.35,486.39,486.40,486.42,486.45,486.50,486.50,486.52,486.56,486.60,486.60,486.62,486.66,486.70,486.71,486.78,486.80,486.80,486.81,486.88,486.90,486.90,486.92,486.99,487.00,487.00,487.03,487.10,487.10,487.10,487.14,487.20,487.20,487.18,487.09,487.00,487.00,487.00,487.06,487.10,487.12,487.19,487.22,487.26,487.31,487.33,487.38,487.41,487.45,487.50,487.58,487.60,487.64,487.70,487.70
