482.07,482.05,482.04,482.05,482.07,482.07,482.07,482.07,482.07,482.07,482.07,482.11,482.15,482.15,482.15,482.19,482.24,482.31,482.45,482.34,482.24,482.27,482.45,482.62,482.77,482.92,483.09,483.29,483.46,483.62,483.81,484.01,484.18,484.35,484.51,484.66,484.77,484.84,484.88,484.90,484.90,484.94,484.99,485.00,485.00,485.00,485.00,485.00,485.01,485.06,485.09,485.10,485.10,485.10,485.10,485.10,485.11,485.17,485.18,485.18,485.18,485.18,485.18,485.18,485.18,485.18,485.18,485.18,485.18,485.18,485.20,485.20,485.20,485.20,485.20,485.20,485.20,485.20,485.20,485.20,485.20,485.20,485.20,485.20,485.20,485.20,485.20,485.20,485.20,485.20,485.20,485.20,485.20,485.18,485.18,485.18,485.18,485.18,485.18,485.18,485.18,485.18,485.18,485.18,485.15,485.11,485.10,485.10,485.10,485.10,485.10,485.10,485.09,485.07,485.08,485.10,485.10,485.13,485.18,485.11,485.04,484.99,484.96,484.91,484.90,484.90,484.90,484.93,484.93,484.97,485.00,485.00,485.03,485.07,485.15,485.22,485.30,485.38,485.45,485.54,485.65,485.77,485.86,485.94,486.02,486.10,486.17,486.25,486.33,486.40,486.46,486.49,486.52,486.57,486.60,486.67,486.73,486.78,486.81,486.86,486.89,486.92,486.97,487.00,487.04,487.09,487.12,487.19,487.20,487.25,487.33,487.40,487.46,487.53,487.58,487.62,487.69,487.77,487.84,487.91,487.98,488.05,488.13,488.18,488.21,488.28,488.36,488.44,488.51,488.57,488.65,488.72,488.80,488.87,488.89,488.96,489.03,489.11,489.17,489.24,489.27,489.29,489.37,489.39,489.45,489.56,489.72,489.93,489.99,490.03,490.07,490.07,490.09,490.10,490.13,490.19,490.20,490.26,490.30,490.31,490.38,490.40,490.40,490.40,490.40,490.40,490.40,490.42,490.47,490.50,490.50,490.53,490.56,490.51,490.50,490.49,490.45,490.41,490.40,490.38,490.35,490.30,490.28,490.27,490.24,490.19,490.17,490.12,490.05,489.99,489.96,489.91,489.90,489.90,489.90,489.91
482.13,482.13,482.13,482.13,482.13,482.13,482.13,482.15,482.17,482.18,482.18,482.20,482.24,482.24,482.29,482.37,482.46,482.57,482.71,482.59,482.38,482.26,482.51,482.68,482.85,483.02,483.19,483.39,483.57,483.74,483.91,484.11,484.27,484.44,484.62,484.76,484.82,484.87,484.91,484.94,484.94,484.97,485.00,485.01,485.03,485.03,485.03,485.03,485.04,485.09,485.10,485.10,485.10,485.10,485.13,485.13,485.15,485.19,485.20,485.20,485.20,485.20,485.20,485.20,485.20,485.20,485.20,485.20,485.20,485.20,485.20,485.20,485.20,485.20,485.20,485.20,485.20,485.20,485.20,485.20,485.20,485.20,485.20,485.20,485.20,485.20,485.20,485.20,485.20,485.20,485.20,485.20,485.20,485.20,485.20,485.20,485.20,485.20,485.20,485.20,485.20,485.20,485.20,485.20,485.18,485.14,485.13,485.11,485.10,485.10,485.10,485.10,485.10,485.10,485.10,485.10,485.12,485.16,485.18,485.11,485.04,485.00,484.99,484.94,484.91,484.90,484.90,484.90,484.90,484.94,484.98,485.00,485.00,485.07,485.15,485.22,485.30,485.38,485.45,485.53,485.62,485.74,485.85,485.94,486.02,486.10,486.17,486.25,486.33,486.40,486.48,486.52,486.56,486.61,486.64,486.68,486.75,486.80,486.81,486.88,486.92,486.96,487.00,487.03,487.08,487.11,487.15,487.19,487.23,487.28,487.36,487.40,487.48,487.56,487.61,487.65,487.73,487.80,487.87,487.92,488.00,488.07,488.15,488.21,488.25,488.33,488.40,488.46,488.52,488.59,488.67,488.75,488.82,488.89,488.93,489.00,489.08,489.15,489.23,489.28,489.31,489.35,489.40,489.43,489.49,489.60,489.76,489.95,490.02,490.06,490.11,490.13,490.13,490.13,490.16,490.19,490.20,490.26,490.30,490.31,490.38,490.40,490.42,490.44,490.44,490.44,490.44,490.46,490.50,490.50,490.52,490.56,490.59,490.54,490.53,490.52,490.49,490.44,490.44,490.42,490.38,490.34,490.34,490.31,490.26,490.20,490.19,490.13,490.05,490.00,490.00,489.98,489.95,489.94,489.94,489.94
482.20,482.20,482.20,482.20,482.20,482.21,482.21,482.24,482.29,482.29,482.29,482.31,482.33,482.35,482.47,482.57,482.68,482.82,482.96,482.89,482.60,482.32,482.56,482.73,482.94,483.15,483.31,483.47,483.67,483.87,484.02,484.19,484.35,484.53,484.74,484.87,484.89,484.90,484.94,484.99,485.00,485.01,485.01,485.02,485.08,485.10,485.10,485.10,485.10,485.10,485.10,485.10,485.10,485.11,485.17,485.19,485.19,485.20,485.20,485.20,485.20,485.20,485.20,485.20,485.20,485.20,485.20,485.20,485.20,485.20,485.20,485.20,485.20,485.20,485.20,485.20,485.20,485.20,485.20,485.20,485.20,485.20,485.20,485.20,485.20,485.20,485.20,485.20,485.20,485.20,485.20,485.20,485.20,485.20,485.20,485.20,485.20,485.20,485.20,485.20,485.20,485.20,485.20,485.20,485.20,485.19,485.19,485.14,485.11,485.10,485.10,485.10,485.10,485.10,485.10,485.10,485.15,485.19,485.19,485.11,485.04,485.00,485.00,484.99,484.93,484.90,484.90,484.90,484.90,484.90,484.94,484.99,485.00,485.06,485.15,485.22,485.30,485.38,485.45,485.53,485.61,485.70,485.82,485.94,486.02,486.10,486.17,486.25,486.33,486.40,486.48,486.55,486.60,486.62,486.68,486.70,486.75,486.80,486.82,486.88,486.95,487.00,487.01,487.08,487.11,487.14,487.19,487.21,487.27,487.34,487.40,487.42,487.49,487.56,487.63,487.71,487.78,487.86,487.90,487.93,488.01,488.09,488.16,488.23,488.30,488.38,488.46,488.50,488.53,488.60,488.68,488.76,488.83,488.90,488.98,489.05,489.13,489.21,489.28,489.31,489.35,489.40,489.42,489.48,489.55,489.65,489.81,489.97,490.07,490.11,490.13,490.18,490.20,490.20,490.20,490.21,490.21,490.26,490.30,490.31,490.38,490.40,490.44,490.50,490.50,490.50,490.50,490.50,490.51,490.51,490.56,490.60,490.60,490.60,490.60,490.55,490.50,490.50,490.50,490.45,490.41,490.39,490.39,490.33,490.26,490.21,490.19,490.13,490.06,490.02,490.03,490.08,490.04,490.01,490.01,490.02
482.27,482.26,482.26,482.26,482.27,482.32,482.34,482.35,482.37,482.37,482.37,482.43,482.52,482.58,482.72,482.82,482.93,483.08,483.18,483.17,482.93,482.60,482.56,482.72,482.98,483.24,483.44,483.60,483.77,483.94,484.10,484.30,484.47,484.64,484.79,484.88,484.90,484.94,484.98,485.00,485.05,485.06,485.06,485.07,485.10,485.10,485.10,485.10,485.10,485.10,485.10,485.10,485.11,485.16,485.19,485.20,485.20,485.20,485.20,485.20,485.20,485.20,485.20,485.20,485.20,485.20,485.20,485.20,485.20,485.20,485.20,485.20,485.20,485.20,485.20,485.20,485.20,485.20,485.20,485.20,485.20,485.20,485.20,485.20,485.20,485.20,485.20,485.20,485.20,485.20,485.20,485.20,485.20,485.20,485.20,485.20,485.20,485.20,485.20,485.20,485.20,485.20,485.20,485.20,485.20,485.20,485.20,485.18,485.14,485.10,485.10,485.10,485.10,485.10,485.10,485.10,485.15,485.20,485.19,485.11,485.04,485.00,485.00,485.00,484.93,484.90,484.90,484.90,484.90,484.90,484.91,484.94,484.94,485.04,485.15,485.22,485.30,485.38,485.45,485.53,485.61,485.69,485.78,485.90,486.02,486.10,486.17,486.25,486.33,486.40,486.48,486.56,486.63,486.67,486.70,486.74,486.78,486.81,486.87,486.89,486.95,487.00,487.01,487.09,487.14,487.18,487.21,487.26,487.29,487.35,487.42,487.47,487.54,487.59,487.63,487.71,487.79,487.87,487.93,487.99,488.06,488.15,488.19,488.23,488.31,488.38,488.46,488.53,488.59,488.66,488.74,488.81,488.87,488.91,488.98,489.06,489.13,489.21,489.29,489.34,489.38,489.41,489.47,489.54,489.59,489.68,489.88,490.03,490.13,490.17,490.17,490.20,490.25,490.26,490.26,490.26,490.26,490.29,490.30,490.31,490.38,490.40,490.44,490.50,490.50,490.55,490.56,490.56,490.56,490.56,490.59,490.60,490.60,490.60,490.60,490.59,490.55,490.51,490.50,490.48,490.44,490.40,490.39,490.33,490.29,490.25,490.20,490.18,490.15,490.14,490.14,490.16,490.15,490.14,490.14,490.14
482.37,482.37,482.37,482.37,482.37,482.42,482.44,482.44,482.44,482.49,482.52,482.61,482.75,482.83,482.98,483.09,483.19,483.33,483.42,483.45,483.30,482.94,482.59,482.69,482.94,483.22,483.47,483.68,483.87,484.03,484.20,484.40,484.59,484.74,484.86,484.92,484.94,484.97,485.01,485.04,485.09,485.10,485.10,485.10,485.10,485.10,485.10,485.10,485.10,485.10,485.10,485.11,485.14,485.19,485.20,485.20,485.20,485.20,485.20,485.20,485.20,485.20,485.20,485.20,485.20,485.20,485.20,485.20,485.20,485.20,485.20,485.20,485.20,485.20,485.20,485.20,485.20,485.20,485.20,485.20,485.20,485.20,485.20,485.20,485.20,485.20,485.20,485.20,485.20,485.20,485.20,485.20,485.20,485.20,485.20,485.20,485.20,485.20,485.20,485.20,485.20,485.20,485.20,485.20,485.20,485.20,485.20,485.20,485.18,485.13,485.13,485.11,485.10,485.10,485.10,485.10,485.15,485.20,485.19,485.11,485.04,485.00,485.00,485.00,484.95,484.92,484.90,484.90,484.90,484.90,484.90,484.90,484.91,485.03,485.15,485.22,485.30,485.38,485.45,485.53,485.61,485.69,485.76,485.87,485.99,486.09,486.17,486.25,486.33,486.40,486.48,486.56,486.63,486.69,486.70,486.77,486.81,486.85,486.90,486.93,486.97,487.01,487.04,487.09,487.16,487.20,487.22,487.29,487.32,487.36,487.43,487.50,487.58,487.62,487.67,487.74,487.79,487.87,487.94,488.02,488.10,488.18,488.22,488.26,488.34,488.42,488.47,488.54,488.62,488.69,488.77,488.85,488.91,488.94,489.01,489.09,489.17,489.24,489.29,489.37,489.41,489.45,489.53,489.59,489.62,489.72,489.94,490.07,490.18,490.24,490.24,490.24,490.28,490.31,490.34,490.34,490.34,490.34,490.34,490.34,490.39,490.40,490.44,490.50,490.51,490.57,490.60,490.60,490.60,490.60,490.60,490.61,490.63,490.63,490.63,490.62,490.59,490.54,490.53,490.51,490.48,490.43,490.40,490.36,490.32,490.29,490.24,490.24,490.24,490.24,490.24,490.24,490.25,490.26,490.26,490.24
482.49,482.48,482.48,482.48,482.49,482.49,482.50,482.51,482.54,482.67,482.75,482.88,483.01,483.10,483.24,483.34,483.45,483.59,483.68,483.75,483.67,483.32,482.68,482.65,482.85,483.11,483.41,483.70,483.94,484.15,484.31,484.48,484.69,484.84,484.92,484.98,485.00,485.00,485.03,485.09,485.10,485.11,485.11,485.11,485.11,485.11,485.11,485.11,485.10,485.11,485.11,485.14,485.19,485.20,485.20,485.20,485.20,485.20,485.20,485.20,485.20,485.20,485.20,485.20,485.20,485.20,485.20,485.20,485.20,485.20,485.20,485.20,485.20,485.20,485.20,485.20,485.20,485.20,485.20,485.20,485.20,485.20,485.20,485.20,485.20,485.20,485.20,485.20,485.20,485.20,485.20,485.20,485.20,485.20,485.20,485.20,485.20,485.20,485.20,485.20,485.20,485.20,485.20,485.20,485.20,485.20,485.20,485.20,485.20,485.19,485.19,485.13,485.11,485.11,485.10,485.10,485.15,485.20,485.18,485.11,485.04,485.00,485.00,485.00,484.99,484.95,484.91,484.90,484.90,484.90,484.90,484.91,484.92,485.04,485.15,485.22,485.30,485.38,485.45,485.53,485.61,485.69,485.76,485.84,485.94,486.08,486.17,486.25,486.33,486.40,486.48,486.56,486.63,486.69,486.71,486.77,486.84,486.89,486.91,486.97,487.00,487.03,487.09,487.11,487.16,487.20,487.22,487.29,487.36,487.40,487.44,487.51,487.58,487.65,487.73,487.79,487.81,487.88,487.95,488.03,488.11,488.18,488.25,488.32,488.40,488.48,488.50,488.54,488.63,488.70,488.77,488.85,488.92,488.99,489.07,489.15,489.22,489.29,489.31,489.38,489.45,489.51,489.58,489.60,489.66,489.78,489.99,490.09,490.22,490.29,490.29,490.29,490.30,490.35,490.39,490.40,490.40,490.40,490.40,490.40,490.40,490.41,490.44,490.50,490.51,490.57,490.60,490.60,490.61,490.61,490.61,490.64,490.69,490.69,490.69,490.65,490.60,490.59,490.59,490.54,490.50,490.48,490.41,490.39,490.36,490.30,490.30,490.29,490.30,490.30,490.30,490.30,490.36,490.39,490.37,490.32
482.56,482.56,482.56,482.56,482.56,482.56,482.60,482.67,482.76,482.87,482.99,483.13,483.27,483.35,483.50,483.61,483.70,483.85,483.94,484.05,484.04,483.76,483.04,482.68,482.75,483.04,483.34,483.61,483.88,484.15,484.39,484.59,484.78,484.90,484.97,485.00,485.04,485.06,485.09,485.16,485.17,485.17,485.17,485.17,485.17,485.17,485.17,485.14,485.11,485.15,485.17,485.17,485.20,485.20,485.20,485.20,485.20,485.20,485.20,485.20,485.20,485.20,485.20,485.20,485.20,485.20,485.20,485.20,485.20,485.20,485.20,485.20,485.20,485.20,485.20,485.20,485.20,485.20,485.20,485.20,485.20,485.20,485.20,485.20,485.20,485.20,485.20,485.20,485.20,485.20,485.20,485.20,485.20,485.20,485.20,485.20,485.20,485.20,485.20,485.20,485.20,485.20,485.20,485.20,485.20,485.20,485.20,485.20,485.20,485.20,485.20,485.17,485.17,485.15,485.11,485.10,485.15,485.18,485.14,485.10,485.04,485.00,485.00,485.00,485.00,484.98,484.94,484.90,484.90,484.90,484.92,484.97,485.02,485.12,485.18,485.22,485.30,485.38,485.45,485.53,485.61,485.69,485.76,485.84,485.92,486.03,486.16,486.25,486.33,486.40,486.48,486.56,486.63,486.70,486.75,486.79,486.85,486.90,486.91,486.98,487.03,487.07,487.11,487.15,487.19,487.23,487.27,487.30,487.37,487.43,487.49,487.56,487.59,487.66,487.74,487.80,487.86,487.93,488.00,488.09,488.16,488.19,488.25,488.33,488.41,488.49,488.54,488.60,488.68,488.75,488.84,488.88,488.93,489.00,489.08,489.16,489.23,489.30,489.36,489.43,489.50,489.57,489.60,489.64,489.72,489.83,490.01,490.14,490.25,490.30,490.31,490.36,490.37,490.38,490.41,490.46,490.47,490.47,490.47,490.47,490.47,490.47,490.48,490.50,490.51,490.57,490.60,490.62,490.66,490.67,490.67,490.68,490.70,490.70,490.70,490.68,490.64,490.61,490.60,490.58,490.54,490.49,490.41,490.40,490.39,490.37,490.37,490.37,490.39,490.43,490.43,490.43,490.44,490.47,490.46,490.43
482.63,482.63,482.63,482.64,482.66,482.69,482.76,482.88,483.01,483.10,483.24,483.38,483.51,483.61,483.74,483.85,483.96,484.11,484.19,484.33,484.41,484.24,483.47,482.84,482.72,482.95,483.25,483.51,483.80,484.12,484.43,484.69,484.86,484.96,485.00,485.03,485.08,485.11,485.14,485.18,485.19,485.20,485.20,485.20,485.20,485.20,485.20,485.19,485.14,485.19,485.20,485.20,485.20,485.20,485.20,485.20,485.20,485.20,485.20,485.20,485.20,485.20,485.20,485.20,485.20,485.20,485.20,485.20,485.20,485.20,485.20,485.20,485.20,485.20,485.20,485.20,485.20,485.20,485.20,485.20,485.20,485.20,485.20,485.20,485.20,485.20,485.20,485.20,485.20,485.20,485.20,485.20,485.20,485.20,485.20,485.20,485.20,485.20,485.20,485.20,485.20,485.20,485.20,485.20,485.20,485.20,485.20,485.20,485.20,485.20,485.20,485.20,485.20,485.19,485.13,485.13,485.17,485.17,485.11,485.10,485.05,485.01,485.00,485.00,485.00,485.00,484.98,484.93,484.95,484.95,484.98,485.04,485.12,485.19,485.22,485.25,485.32,485.38,485.45,485.53,485.61,485.69,485.76,485.84,485.92,486.00,486.12,486.23,486.31,486.40,486.48,486.56,486.63,486.71,486.78,486.82,486.86,486.90,486.93,486.99,487.05,487.11,487.14,487.19,487.22,487.25,487.31,487.33,487.38,487.45,487.53,487.59,487.62,487.69,487.75,487.81,487.89,487.97,488.04,488.12,488.19,488.22,488.28,488.36,488.43,488.49,488.56,488.64,488.72,488.79,488.87,488.91,488.95,489.03,489.11,489.19,489.25,489.31,489.39,489.47,489.54,489.61,489.63,489.70,489.78,489.88,490.04,490.17,490.26,490.31,490.34,490.40,490.42,490.43,490.45,490.50,490.52,490.52,490.52,490.52,490.52,490.52,490.52,490.52,490.53,490.58,490.60,490.63,490.69,490.70,490.70,490.70,490.70,490.72,490.72,490.71,490.69,490.63,490.63,490.61,490.57,490.49,490.44,490.43,490.43,490.43,490.45,490.45,490.49,490.52,490.52,490.52,490.52,490.54,490.55,490.55
482.69,482.70,482.70,482.72,482.80,482.93,483.02,483.13,483.27,483.36,483.49,483.61,483.71,483.85,483.95,484.07,484.22,484.36,484.44,484.58,484.75,484.72,483.93,483.19,482.82,482.83,483.13,483.43,483.75,484.09,484.45,484.75,484.93,485.00,485.02,485.08,485.10,485.14,485.16,485.13,485.18,485.19,485.19,485.19,485.19,485.20,485.20,485.20,485.19,485.20,485.20,485.20,485.20,485.20,485.20,485.20,485.20,485.20,485.20,485.20,485.20,485.20,485.20,485.20,485.20,485.20,485.20,485.20,485.20,485.20,485.20,485.20,485.20,485.20,485.20,485.20,485.20,485.20,485.20,485.20,485.20,485.20,485.20,485.20,485.20,485.20,485.20,485.20,485.20,485.20,485.20,485.20,485.20,485.20,485.20,485.20,485.20,485.20,485.20,485.20,485.20,485.20,485.20,485.20,485.20,485.20,485.20,485.20,485.20,485.20,485.20,485.20,485.20,485.20,485.19,485.19,485.19,485.17,485.11,485.10,485.09,485.05,485.00,485.00,485.00,485.00,485.00,485.00,485.06,485.08,485.09,485.11,485.19,485.26,485.29,485.31,485.39,485.40,485.46,485.53,485.61,485.69,485.76,485.84,485.92,486.00,486.08,486.16,486.26,486.39,486.48,486.56,486.63,486.71,486.79,486.86,486.90,486.92,486.98,487.00,487.05,487.13,487.19,487.20,487.25,487.29,487.32,487.38,487.40,487.46,487.53,487.60,487.67,487.75,487.79,487.82,487.89,487.97,488.04,488.13,488.20,488.26,488.34,488.42,488.48,488.50,488.56,488.64,488.72,488.79,488.87,488.94,489.01,489.09,489.17,489.25,489.29,489.32,489.39,489.47,489.54,489.62,489.69,489.76,489.84,489.95,490.09,490.18,490.26,490.33,490.39,490.40,490.46,490.49,490.50,490.51,490.57,490.59,490.59,490.60,490.60,490.60,490.60,490.60,490.60,490.60,490.61,490.63,490.69,490.70,490.70,490.70,490.72,490.78,490.79,490.75,490.70,490.69,490.69,490.64,490.57,490.51,490.50,490.50,490.50,490.51,490.57,490.58,490.59,490.60,490.60,490.60,490.60,490.63,490.68,490.68
482.76,482.80,482.84,482.91,483.03,483.14,483.23,483.34,483.48,483.56,483.70,483.81,483.91,484.06,484.15,484.27,484.41,484.52,484.60,484.74,484.89,484.91,484.53,483.94,483.22,482.80,483.11,483.41,483.79,484.18,484.56,484.90,485.02,485.06,485.06,485.10,485.10,485.12,485.13,485.11,485.14,485.14,485.14,485.14,485.15,485.18,485.20,485.20,485.20,485.20,485.20,485.20,485.20,485.20,485.20,485.20,485.20,485.20,485.20,485.20,485.20,485.20,485.20,485.20,485.20,485.20,485.20,485.20,485.20,485.20,485.20,485.20,485.20,485.20,485.20,485.20,485.20,485.20,485.20,485.20,485.20,485.20,485.20,485.20,485.20,485.20,485.20,485.20,485.20,485.20,485.20,485.20,485.20,485.20,485.20,485.20,485.20,485.20,485.20,485.20,485.20,485.20,485.20,485.20,485.20,485.20,485.20,485.20,485.20,485.20,485.20,485.20,485.20,485.20,485.20,485.20,485.20,485.17,485.11,485.10,485.10,485.08,485.05,485.01,485.00,485.03,485.06,485.07,485.13,485.16,485.18,485.22,485.25,485.33,485.36,485.38,485.44,485.45,485.51,485.57,485.61,485.69,485.76,485.84,485.92,486.00,486.07,486.15,486.24,486.35,486.47,486.56,486.63,486.71,486.79,486.87,486.93,486.96,487.00,487.04,487.08,487.13,487.19,487.20,487.26,487.32,487.36,487.40,487.44,487.50,487.57,487.61,487.68,487.76,487.82,487.87,487.94,488.02,488.10,488.16,488.21,488.27,488.35,488.43,488.50,488.55,488.62,488.69,488.77,488.85,488.89,488.95,489.02,489.10,489.18,489.26,489.32,489.37,489.44,489.52,489.57,489.62,489.70,489.77,489.85,489.96,490.10,490.18,490.26,490.34,490.40,490.41,490.47,490.53,490.56,490.56,490.59,490.60,490.62,490.66,490.66,490.66,490.66,490.66,490.66,490.66,490.66,490.67,490.70,490.70,490.74,490.75,490.76,490.79,490.80,490.78,490.74,490.70,490.70,490.64,490.59,490.57,490.61,490.62,490.62,490.62,490.65,490.66,490.66,490.67,490.71,490.72,490.72,490.73,490.75,490.75
482.83,482.88,482.95,483.05,483.20,483.28,483.37,483.48,483.61,483.70,483.83,483.94,484.04,484.19,484.27,484.39,484.52,484.61,484.69,484.82,484.94,485.00,484.97,484.61,483.76,483.00,483.06,483.33,483.74,484.18,484.60,485.00,485.09,485.10,485.10,485.10,485.10,485.10,485.10,485.10,485.10,485.10,485.10,485.10,485.11,485.16,485.19,485.20,485.20,485.20,485.20,485.20,485.20,485.20,485.20,485.20,485.20,485.20,485.20,485.20,485.20,485.20,485.20,485.20,485.20,485.20,485.20,485.20,485.20,485.20,485.20,485.20,485.20,485.20,485.20,485.20,485.20,485.20,485.20,485.20,485.20,485.20,485.20,485.20,485.20,485.20,485.20,485.20,485.20,485.20,485.20,485.20,485.20,485.20,485.20,485.20,485.20,485.20,485.20,485.20,485.20,485.20,485.20,485.20,485.20,485.20,485.20,485.20,485.20,485.20,485.20,485.20,485.20,485.20,485.20,485.20,485.20,485.17,485.11,485.10,485.10,485.10,485.09,485.03,485.02,485.07,485.13,485.14,485.20,485.24,485.27,485.32,485.33,485.39,485.43,485.44,485.51,485.52,485.58,485.63,485.64,485.70,485.78,485.85,485.92,486.00,486.07,486.15,486.23,486.31,486.44,486.55,486.63,486.71,486.79,486.87,486.94,487.00,487.02,487.08,487.11,487.14,487.20,487.22,487.27,487.34,487.40,487.41,487.47,487.55,487.61,487.63,487.70,487.77,487.84,487.91,487.99,488.07,488.14,488.20,488.23,488.29,488.38,488.45,488.52,488.59,488.66,488.74,488.82,488.88,488.91,488.97,489.04,489.13,489.20,489.27,489.33,489.41,489.49,489.57,489.61,489.64,489.72,489.79,489.88,489.97,490.10,490.17,490.24,490.31,490.38,490.40,490.47,490.55,490.61,490.62,490.63,490.63,490.65,490.69,490.70,490.71,490.72,490.72,490.72,490.72,490.72,490.72,490.72,490.72,490.77,490.80,490.80,490.82,490.82,490.81,490.78,490.73,490.72,490.68,490.65,490.66,490.71,490.72,490.72,490.72,490.72,490.74,490.74,490.76,490.82,490.82,490.82,490.82,490.83,490.84
482.88,482.90,482.95,483.05,483.20,483.28,483.41,483.52,483.61,483.70,483.83,483.94,484.04,484.19,484.27,484.36,484.47,484.61,484.69,484.82,484.94,485.00,484.99,484.93,484.42,483.62,482.92,483.08,483.45,483.89,484.41,484.91,485.06,485.10,485.10,485.10,485.10,485.10,485.10,485.10,485.10,485.10,485.10,485.10,485.10,485.11,485.16,485.20,485.20,485.20,485.20,485.20,485.20,485.20,485.20,485.20,485.20,485.20,485.20,485.20,485.20,485.20,485.20,485.20,485.20,485.20,485.20,485.20,485.20,485.20,485.20,485.20,485.20,485.20,485.20,485.20,485.20,485.20,485.20,485.20,485.20,485.20,485.20,485.20,485.20,485.20,485.20,485.20,485.20,485.20,485.20,485.20,485.20,485.20,485.20,485.20,485.20,485.20,485.20,485.20,485.20,485.20,485.20,485.20,485.20,485.20,485.20,485.20,485.20,485.20,485.20,485.20,485.20,485.20,485.20,485.20,485.20,485.17,485.11,485.10,485.10,485.10,485.10,485.09,485.09,485.13,485.19,485.20,485.27,485.34,485.38,485.39,485.39,485.45,485.49,485.51,485.58,485.59,485.64,485.69,485.70,485.77,485.85,485.89,485.92,486.00,486.07,486.15,486.23,486.30,486.39,486.52,486.63,486.71,486.79,486.87,486.94,487.02,487.08,487.10,487.14,487.19,487.21,487.27,487.29,487.34,487.40,487.41,487.47,487.55,487.62,487.69,487.76,487.79,487.84,487.91,487.99,488.07,488.14,488.22,488.29,488.36,488.44,488.51,488.58,488.60,488.66,488.74,488.82,488.89,488.96,489.03,489.11,489.19,489.26,489.29,489.34,489.41,489.49,489.57,489.64,489.70,489.78,489.86,489.94,490.02,490.10,490.11,490.18,490.25,490.32,490.39,490.47,490.55,490.62,490.68,490.69,490.69,490.69,490.70,490.70,490.76,490.78,490.78,490.78,490.78,490.78,490.78,490.78,490.78,490.79,490.80,490.81,490.87,490.88,490.84,490.80,490.79,490.78,490.78,490.77,490.77,490.78,490.78,490.78,490.78,490.79,490.85,490.87,490.87,490.88,490.88,490.88,490.88,490.90,490.96
482.95,482.95,483.00,483.09,483.20,483.28,483.42,483.53,483.62,483.74,483.85,483.94,484.04,484.19,484.27,484.38,484.50,484.61,484.68,484.79,484.88,484.96,485.00,485.03,484.81,484.25,483.42,483.31,483.33,483.48,483.84,484.44,484.88,485.05,485.05,485.05,485.05,485.05,485.05,485.05,485.05,485.08,485.10,485.10,485.10,485.10,485.12,485.16,485.19,485.20,485.20,485.20,485.20,485.20,485.16,485.15,485.15,485.15,485.15,485.15,485.15,485.15,485.15,485.15,485.15,485.15,485.15,485.19,485.20,485.20,485.20,485.20,485.20,485.20,485.20,485.20,485.20,485.20,485.20,485.20,485.20,485.20,485.20,485.20,485.20,485.20,485.20,485.20,485.20,485.20,485.20,485.20,485.20,485.20,485.20,485.20,485.20,485.20,485.24,485.23,485.20,485.20,485.20,485.20,485.20,485.20,485.20,485.20,485.20,485.20,485.20,485.20,485.20,485.20,485.20,485.20,485.20,485.19,485.14,485.11,485.10,485.10,485.10,485.11,485.14,485.20,485.25,485.27,485.38,485.52,485.59,485.55,485.51,485.53,485.55,485.58,485.64,485.65,485.70,485.77,485.81,485.85,485.92,485.95,485.97,486.04,486.09,486.15,486.23,486.30,486.38,486.49,486.60,486.71,486.79,486.87,486.94,487.02,487.09,487.10,487.15,487.22,487.25,487.29,487.33,487.37,487.41,487.45,487.52,487.57,487.63,487.70,487.78,487.83,487.88,487.97,488.04,488.12,488.18,488.22,488.30,488.38,488.45,488.53,488.60,488.64,488.72,488.79,488.86,488.90,488.97,489.05,489.13,489.20,489.28,489.33,489.38,489.47,489.54,489.62,489.68,489.72,489.80,489.88,489.95,490.01,490.05,490.05,490.11,490.19,490.26,490.35,490.42,490.50,490.57,490.65,490.69,490.73,490.75,490.75,490.75,490.78,490.80,490.80,490.81,490.84,490.85,490.85,490.85,490.85,490.85,490.85,490.86,490.89,490.90,490.88,490.85,490.85,490.85,490.85,490.85,490.85,490.85,490.88,490.90,490.90,490.91,490.94,490.95,490.95,490.95,490.95,490.98,491.00,491.01,491.04
483.01,483.01,483.06,483.13,483.20,483.28,483.42,483.53,483.63,483.77,483.87,483.95,484.05,484.19,484.27,484.40,484.53,484.61,484.68,484.76,484.84,484.91,484.98,485.05,485.05,484.78,484.12,483.78,483.49,483.33,483.46,483.97,484.51,484.74,484.78,484.96,485.00,485.00,485.00,485.00,485.00,485.05,485.08,485.08,485.08,485.10,485.10,485.12,485.18,485.19,485.19,485.20,485.20,485.18,485.13,485.10,485.10,485.10,485.10,485.10,485.10,485.10,485.10,485.10,485.10,485.10,485.11,485.16,485.19,485.19,485.19,485.19,485.19,485.19,485.19,485.19,485.19,485.19,485.19,485.19,485.19,485.19,485.19,485.19,485.19,485.19,485.19,485.19,485.19,485.19,485.20,485.20,485.20,485.20,485.20,485.20,485.20,485.22,485.26,485.25,485.20,485.20,485.20,485.20,485.20,485.20,485.19,485.19,485.20,485.20,485.20,485.20,485.20,485.20,485.20,485.20,485.20,485.20,485.19,485.13,485.11,485.11,485.12,485.12,485.18,485.25,485.31,485.37,485.52,485.73,485.81,485.73,485.66,485.64,485.63,485.65,485.71,485.73,485.77,485.85,485.91,485.92,485.98,486.01,486.03,486.10,486.12,486.17,486.24,486.30,486.38,486.46,486.56,486.70,486.79,486.87,486.94,487.02,487.09,487.11,487.16,487.23,487.30,487.30,487.36,487.41,487.43,487.49,487.57,487.61,487.65,487.72,487.78,487.86,487.94,488.01,488.09,488.17,488.21,488.24,488.31,488.39,488.47,488.54,488.61,488.68,488.76,488.84,488.90,488.92,488.99,489.06,489.14,489.22,489.28,489.36,489.43,489.51,489.59,489.67,489.71,489.73,489.80,489.88,489.94,489.99,489.99,490.00,490.06,490.14,490.22,490.29,490.37,490.45,490.52,490.60,490.68,490.76,490.81,490.81,490.81,490.81,490.81,490.81,490.82,490.88,490.90,490.90,490.90,490.91,490.92,490.92,490.92,490.92,490.92,490.92,490.92,490.92,490.92,490.92,490.92,490.93,490.94,490.99,491.01,491.01,491.01,491.01,491.01,491.02,491.03,491.03,491.08,491.12,491.12,491.12
483.08,483.08,483.09,483.13,483.20,483.28,483.42,483.53,483.63,483.77,483.87,483.98,484.11,484.20,484.27,484.40,484.53,484.61,484.68,484.76,484.84,484.90,484.93,484.99,485.05,485.01,484.79,484.60,484.37,484.13,483.93,483.86,483.76,483.67,483.89,484.79,484.98,485.00,485.00,485.00,485.00,485.01,485.02,485.02,485.02,485.07,485.10,485.11,485.12,485.12,485.17,485.20,485.19,485.13,485.11,485.10,485.10,485.10,485.10,485.10,485.10,485.10,485.10,485.10,485.10,485.10,485.10,485.11,485.12,485.12,485.12,485.12,485.12,485.12,485.12,485.12,485.12,485.12,485.12,485.12,485.12,485.12,485.12,485.12,485.12,485.12,485.12,485.12,485.12,485.18,485.20,485.20,485.20,485.20,485.20,485.20,485.21,485.26,485.24,485.21,485.20,485.20,485.20,485.20,485.20,485.19,485.13,485.17,485.20,485.20,485.20,485.20,485.20,485.20,485.20,485.20,485.20,485.20,485.20,485.18,485.13,485.13,485.18,485.18,485.19,485.25,485.36,485.56,485.77,485.95,486.01,485.93,485.85,485.79,485.76,485.76,485.79,485.84,485.87,485.91,485.98,485.98,486.04,486.08,486.10,486.17,486.18,486.23,486.29,486.31,486.38,486.46,486.54,486.65,486.78,486.87,486.94,487.02,487.10,487.16,487.19,487.23,487.30,487.30,487.36,487.43,487.48,487.50,487.57,487.64,487.70,487.77,487.80,487.86,487.94,488.01,488.09,488.17,488.24,488.30,488.38,488.45,488.53,488.59,488.62,488.69,488.76,488.84,488.91,488.98,489.05,489.13,489.20,489.27,489.30,489.36,489.43,489.51,489.59,489.67,489.74,489.78,489.81,489.88,489.91,489.92,489.93,489.99,490.06,490.14,490.22,490.29,490.37,490.45,490.52,490.60,490.68,490.76,490.83,490.88,490.88,490.88,490.88,490.88,490.88,490.89,490.90,490.90,490.91,490.96,490.98,490.98,490.98,490.98,490.98,490.98,490.98,490.98,490.98,490.98,491.01,491.06,491.06,491.08,491.08,491.08,491.08,491.08,491.08,491.11,491.16,491.16,491.17,491.18,491.18,491.18
483.15,483.15,483.15,483.17,483.25,483.33,483.43,483.53,483.63,483.77,483.87,483.99,484.12,484.20,484.31,484.43,484.53,484.61,484.68,484.74,484.80,484.86,484.89,484.94,485.00,485.05,485.03,484.93,484.80,484.66,484.50,484.36,484.11,483.87,483.84,484.27,484.26,484.49,484.81,484.98,485.00,485.00,485.00,485.00,485.00,485.04,485.08,485.10,485.10,485.10,485.13,485.15,485.15,485.11,485.10,485.10,485.10,485.10,485.10,485.10,485.10,485.10,485.10,485.10,485.10,485.10,485.10,485.10,485.10,485.10,485.10,485.10,485.10,485.10,485.10,485.10,485.10,485.10,485.10,485.10,485.10,485.10,485.10,485.10,485.10,485.10,485.12,485.15,485.15,485.18,485.20,485.20,485.20,485.20,485.23,485.25,485.25,485.25,485.22,485.20,485.20,485.20,485.20,485.20,485.19,485.15,485.11,485.13,485.17,485.20,485.20,485.20,485.20,485.20,485.20,485.20,485.20,485.20,485.20,485.20,485.17,485.17,485.20,485.20,485.24,485.34,485.53,485.79,486.02,486.17,486.20,486.12,486.05,485.97,485.92,485.88,485.86,485.93,485.94,485.98,486.04,486.05,486.11,486.15,486.17,486.23,486.25,486.29,486.35,486.36,486.43,486.50,486.56,486.62,486.74,486.85,486.94,487.02,487.10,487.18,487.22,487.26,487.31,487.34,487.38,487.44,487.51,487.54,487.59,487.65,487.73,487.79,487.84,487.90,487.98,488.05,488.13,488.18,488.24,488.32,488.40,488.48,488.55,488.61,488.66,488.73,488.80,488.87,488.92,488.99,489.07,489.15,489.23,489.29,489.34,489.38,489.43,489.51,489.59,489.67,489.72,489.76,489.81,489.88,489.90,489.90,489.92,489.98,490.03,490.10,490.17,490.25,490.32,490.41,490.48,490.55,490.63,490.71,490.79,490.86,490.89,490.93,490.94,490.94,490.94,490.94,490.94,490.94,490.95,490.99,491.03,491.04,491.04,491.04,491.04,491.04,491.04,491.04,491.04,491.07,491.11,491.14,491.15,491.15,491.15,491.15,491.15,491.15,491.17,491.20,491.24,491.25,491.25,491.25,491.25,491.25
483.21,483.21,483.21,483.24,483.31,483.38,483.46,483.54,483.64,483.78,483.87,483.99,484.12,484.21,484.35,484.45,484.53,484.61,484.67,484.69,484.74,484.82,484.88,484.90,484.95,485.02,485.08,485.03,485.00,485.00,484.99,484.97,484.80,484.52,484.20,483.90,483.60,483.95,484.49,484.77,484.87,484.94,484.99,485.00,485.00,485.00,485.04,485.08,485.09,485.10,485.10,485.11,485.10,485.10,485.10,485.10,485.10,485.10,485.10,485.10,485.10,485.10,485.10,485.10,485.10,485.10,485.10,485.10,485.10,485.10,485.10,485.10,485.10,485.10,485.10,485.10,485.10,485.10,485.10,485.10,485.10,485.10,485.10,485.10,485.11,485.12,485.14,485.19,485.19,485.20,485.20,485.20,485.21,485.22,485.26,485.29,485.27,485.22,485.20,485.20,485.20,485.20,485.20,485.19,485.16,485.11,485.10,485.10,485.13,485.18,485.19,485.20,485.20,485.20,485.20,485.20,485.20,485.20,485.20,485.20,485.20,485.20,485.20,485.23,485.31,485.50,485.75,486.05,486.29,486.39,486.39,486.32,486.24,486.16,486.09,486.01,485.95,485.99,486.01,486.04,486.11,486.11,486.18,486.21,486.23,486.30,486.31,486.36,486.41,486.43,486.50,486.57,486.62,486.63,486.71,486.83,486.93,487.01,487.10,487.18,487.25,487.30,487.33,487.38,487.41,487.45,487.52,487.58,487.61,487.66,487.74,487.81,487.88,487.96,488.03,488.11,488.18,488.21,488.25,488.34,488.41,488.49,488.56,488.63,488.71,488.78,488.86,488.91,488.93,489.00,489.07,489.15,489.23,489.30,489.37,489.39,489.43,489.51,489.59,489.66,489.69,489.72,489.80,489.87,489.89,489.90,489.92,489.98,490.01,490.05,490.13,490.20,490.27,490.35,490.43,490.50,490.58,490.66,490.74,490.81,490.89,490.96,491.00,491.01,491.01,491.01,491.01,491.01,491.01,491.01,491.07,491.10,491.11,491.11,491.11,491.11,491.11,491.11,491.11,491.16,491.21,491.21,491.21,491.21,491.21,491.21,491.21,491.22,491.26,491.31,491.31,491.31,491.31,491.31,491.31,491.31
483.27,483.27,483.27,483.30,483.37,483.39,483.46,483.56,483.69,483.79,483.87,483.99,484.12,484.21,484.35,484.45,484.53,484.60,484.62,484.67,484.74,484.80,484.83,484.88,484.95,485.02,485.10,485.14,485.11,485.07,485.07,485.07,484.98,484.87,484.76,484.58,484.25,484.11,484.01,483.88,484.24,484.69,484.95,485.00,485.00,485.00,485.01,485.03,485.03,485.09,485.10,485.10,485.10,485.10,485.10,485.10,485.10,485.10,485.10,485.10,485.10,485.10,485.10,485.10,485.10,485.10,485.10,485.10,485.10,485.10,485.10,485.10,485.10,485.10,485.10,485.10,485.10,485.10,485.10,485.10,485.10,485.10,485.10,485.11,485.16,485.18,485.19,485.20,485.20,485.20,485.20,485.22,485.27,485.27,485.29,485.27,485.23,485.20,485.20,485.20,485.20,485.20,485.20,485.16,485.12,485.10,485.10,485.10,485.11,485.13,485.13,485.18,485.20,485.20,485.20,485.20,485.20,485.20,485.20,485.20,485.20,485.20,485.23,485.35,485.53,485.75,486.01,486.31,486.54,486.57,486.54,486.51,486.44,486.36,486.28,486.20,486.13,486.09,486.07,486.11,486.17,486.18,486.24,486.27,486.29,486.36,486.38,486.43,486.50,486.55,486.57,486.63,486.68,486.69,486.76,486.81,486.87,486.96,487.09,487.18,487.25,487.33,487.37,487.40,487.45,487.49,487.52,487.59,487.65,487.73,487.80,487.87,487.89,487.96,488.03,488.11,488.19,488.25,488.32,488.40,488.48,488.55,488.59,488.63,488.71,488.78,488.86,488.93,488.99,489.06,489.10,489.15,489.23,489.29,489.32,489.37,489.43,489.51,489.59,489.62,489.66,489.72,489.79,489.82,489.86,489.90,489.92,489.98,490.04,490.12,490.18,490.20,490.27,490.35,490.43,490.50,490.58,490.66,490.73,490.81,490.89,490.97,491.03,491.07,491.07,491.07,491.07,491.07,491.07,491.07,491.09,491.13,491.18,491.18,491.18,491.18,491.18,491.18,491.18,491.23,491.27,491.27,491.27,491.27,491.27,491.27,491.28,491.33,491.37,491.38,491.38,491.38,491.38,491.38,491.38,491.38
483.34,483.34,483.34,483.37,483.43,483.44,483.47,483.57,483.71,483.79,483.89,484.01,484.12,484.21,484.35,484.43,484.49,484.56,484.59,484.64,484.70,484.76,484.80,484.84,484.91,484.99,485.06,485.14,485.15,485.14,485.14,485.14,485.10,485.06,485.03,484.96,484.73,484.51,484.25,483.94,484.03,484.26,484.54,484.83,484.98,485.00,485.00,485.00,485.01,485.05,485.08,485.10,485.10,485.10,485.10,485.10,485.10,485.10,485.10,485.10,485.10,485.10,485.10,485.10,485.10,485.10,485.10,485.10,485.10,485.10,485.10,485.10,485.10,485.10,485.10,485.10,485.10,485.10,485.10,485.10,485.10,485.10,485.11,485.14,485.19,485.20,485.20,485.20,485.20,485.20,485.22,485.25,485.30,485.30,485.28,485.24,485.20,485.20,485.20,485.20,485.20,485.20,485.17,485.13,485.10,485.10,485.10,485.10,485.10,485.10,485.10,485.14,485.16,485.17,485.20,485.20,485.20,485.20,485.20,485.20,485.20,485.25,485.36,485.55,485.77,486.01,486.27,486.56,486.77,486.76,486.72,486.70,486.63,486.55,486.49,486.44,486.36,486.25,486.18,486.17,486.24,486.24,486.30,486.34,486.36,486.43,486.47,486.51,486.56,486.63,486.64,486.69,486.74,486.76,486.83,486.84,486.88,486.97,487.06,487.16,487.25,487.33,487.40,487.44,487.48,487.51,487.55,487.60,487.67,487.75,487.83,487.90,487.93,488.00,488.08,488.15,488.20,488.27,488.34,488.42,488.50,488.57,488.62,488.67,488.74,488.79,488.86,488.94,489.01,489.06,489.09,489.15,489.21,489.26,489.29,489.36,489.43,489.50,489.55,489.59,489.64,489.71,489.75,489.79,489.85,489.91,489.94,489.99,490.06,490.12,490.16,490.20,490.27,490.35,490.43,490.50,490.58,490.66,490.73,490.81,490.89,490.97,491.03,491.07,491.10,491.13,491.14,491.14,491.14,491.14,491.14,491.18,491.24,491.24,491.24,491.24,491.24,491.24,491.24,491.27,491.31,491.34,491.34,491.34,491.34,491.35,491.38,491.43,491.44,491.44,491.44,491.44,491.44,491.46,491.48,491.49
483.41,483.41,483.41,483.43,483.49,483.50,483.51,483.58,483.71,483.79,483.93,484.04,484.12,484.22,484.35,484.40,484.43,484.50,484.57,484.60,484.64,484.71,484.78,484.80,484.85,484.92,485.00,485.07,485.15,485.19,485.19,485.19,485.20,485.16,485.10,485.09,485.01,484.96,484.84,484.54,484.19,483.89,484.03,484.53,484.85,484.96,484.99,485.00,485.00,485.00,485.05,485.09,485.09,485.10,485.09,485.09,485.09,485.09,485.09,485.09,485.09,485.09,485.09,485.09,485.09,485.09,485.09,485.09,485.09,485.09,485.09,485.09,485.09,485.10,485.10,485.10,485.10,485.10,485.10,485.10,485.11,485.11,485.14,485.19,485.20,485.20,485.20,485.20,485.21,485.21,485.25,485.30,485.30,485.29,485.24,485.20,485.20,485.20,485.20,485.20,485.20,485.19,485.13,485.10,485.10,485.10,485.10,485.10,485.10,485.10,485.10,485.11,485.11,485.12,485.18,485.20,485.20,485.20,485.19,485.21,485.23,485.36,485.58,485.81,486.04,486.26,486.53,486.81,486.97,486.96,486.92,486.90,486.82,486.75,486.71,486.69,486.60,486.47,486.32,486.26,486.30,486.31,486.37,486.41,486.43,486.50,486.57,486.60,486.63,486.70,486.70,486.76,486.81,486.82,486.89,486.91,486.95,487.01,487.03,487.15,487.25,487.33,487.41,487.48,487.50,487.54,487.60,487.62,487.68,487.76,487.84,487.90,487.98,488.05,488.13,488.19,488.21,488.28,488.35,488.42,488.50,488.57,488.65,488.72,488.78,488.80,488.86,488.94,488.99,489.01,489.07,489.14,489.19,489.22,489.28,489.36,489.43,489.49,489.51,489.57,489.64,489.69,489.72,489.77,489.85,489.93,489.99,490.01,490.06,490.11,490.13,490.20,490.27,490.35,490.43,490.50,490.58,490.66,490.73,490.81,490.88,490.96,491.00,491.02,491.10,491.17,491.20,491.20,491.20,491.20,491.20,491.25,491.30,491.31,491.31,491.31,491.31,491.31,491.31,491.31,491.34,491.40,491.41,491.41,491.41,491.42,491.49,491.50,491.50,491.50,491.50,491.50,491.51,491.55,491.60,491.60
483.46,483.47,483.47,483.48,483.50,483.55,483.57,483.62,483.71,483.79,483.93,484.04,484.13,484.26,484.31,484.37,484.41,484.44,484.51,484.57,484.61,484.65,484.72,484.78,484.81,484.86,484.94,485.01,485.08,485.16,485.20,485.20,485.25,485.23,485.17,485.16,485.09,485.07,485.01,484.87,484.72,484.37,484.13,484.13,484.36,484.71,484.93,485.00,485.00,485.00,485.02,485.03,485.04,485.08,485.06,485.03,485.03,485.03,485.03,485.03,485.03,485.03,485.03,485.03,485.03,485.03,485.03,485.03,485.03,485.03,485.03,485.03,485.07,485.10,485.10,485.10,485.10,485.10,485.10,485.11,485.15,485.17,485.18,485.20,485.20,485.20,485.20,485.21,485.26,485.27,485.28,485.30,485.29,485.25,485.21,485.20,485.20,485.20,485.20,485.20,485.19,485.13,485.11,485.10,485.10,485.10,485.10,485.10,485.10,485.10,485.10,485.10,485.10,485.11,485.13,485.19,485.20,485.18,485.15,485.25,485.40,485.60,485.83,486.06,486.30,486.52,486.79,487.06,487.18,487.19,487.15,487.09,487.02,486.94,486.91,486.89,486.81,486.71,486.57,486.44,486.38,486.37,486.44,486.47,486.49,486.56,486.64,486.67,486.69,486.76,486.77,486.83,486.87,486.89,486.95,486.97,487.01,487.07,487.08,487.17,487.25,487.33,487.41,487.49,487.50,487.54,487.61,487.67,487.74,487.81,487.88,487.91,487.98,488.06,488.13,488.21,488.26,488.34,488.38,488.42,488.50,488.57,488.65,488.71,488.74,488.79,488.86,488.91,488.94,489.00,489.07,489.11,489.15,489.21,489.28,489.36,489.41,489.44,489.49,489.57,489.61,489.65,489.70,489.77,489.85,489.93,490.00,490.06,490.09,490.13,490.19,490.26,490.29,490.35,490.43,490.50,490.58,490.66,490.73,490.80,490.83,490.89,490.96,491.02,491.10,491.18,491.24,491.27,491.27,491.27,491.27,491.30,491.37,491.37,491.37,491.37,491.37,491.37,491.37,491.37,491.40,491.46,491.47,491.47,491.47,491.49,491.56,491.57,491.57,491.57,491.57,491.57,491.61,491.65,491.67,491.67
483.52,483.53,483.53,483.53,483.54,483.62,483.63,483.66,483.71,483.79,483.93,484.04,484.13,484.25,484.29,484.34,484.37,484.41,484.48,484.54,484.58,484.62,484.69,484.75,484.78,484.82,484.90,484.95,485.02,485.10,485.17,485.20,485.26,485.27,485.24,485.23,485.16,485.13,485.11,485.04,485.03,484.78,484.45,484.20,484.17,484.36,484.64,484.90,484.99,485.00,485.00,485.00,485.01,485.06,485.02,485.00,485.00,485.00,485.00,485.00,485.00,485.00,485.00,485.00,485.00,485.00,485.00,485.00,485.00,485.01,485.03,485.03,485.07,485.10,485.10,485.10,485.10,485.11,485.13,485.14,485.18,485.20,485.20,485.20,485.20,485.22,485.24,485.25,485.29,485.30,485.30,485.29,485.26,485.21,485.20,485.20,485.20,485.20,485.20,485.19,485.15,485.11,485.10,485.10,485.10,485.10,485.10,485.08,485.08,485.10,485.10,485.10,485.10,485.10,485.11,485.15,485.16,485.17,485.21,485.40,485.63,485.86,486.09,486.32,486.56,486.79,487.05,487.31,487.39,487.40,487.37,487.29,487.21,487.16,487.12,487.09,487.03,486.94,486.80,486.64,486.50,486.45,486.50,486.55,486.58,486.63,486.70,486.74,486.76,486.83,486.84,486.90,486.94,486.95,487.02,487.03,487.08,487.13,487.14,487.21,487.28,487.36,487.41,487.49,487.52,487.56,487.62,487.69,487.77,487.85,487.91,487.94,488.01,488.07,488.13,488.21,488.29,488.34,488.38,488.42,488.50,488.57,488.64,488.67,488.71,488.78,488.84,488.88,488.92,488.99,489.07,489.10,489.13,489.20,489.28,489.34,489.38,489.42,489.49,489.54,489.58,489.62,489.70,489.77,489.85,489.93,490.01,490.08,490.10,490.14,490.22,490.29,490.33,490.36,490.43,490.50,490.58,490.64,490.70,490.76,490.80,490.87,490.94,491.02,491.10,491.18,491.25,491.30,491.30,491.33,491.34,491.38,491.43,491.44,491.44,491.44,491.44,491.44,491.44,491.44,491.47,491.53,491.53,491.53,491.53,491.55,491.60,491.63,491.63,491.63,491.63,491.63,491.69,491.74,491.74,491.74
483.59,483.60,483.60,483.60,483.61,483.68,483.70,483.70,483.73,483.80,483.93,484.04,484.12,484.20,484.27,484.30,484.33,484.40,484.48,484.50,484.54,484.61,484.68,484.71,484.75,484.82,484.88,484.90,484.96,485.03,485.11,485.18,485.26,485.29,485.29,485.29,485.23,485.20,485.17,485.11,485.10,485.01,484.87,484.66,484.30,484.03,484.25,484.68,484.91,484.97,484.99,485.00,485.00,485.01,485.00,485.00,485.00,485.00,485.00,485.00,485.00,485.00,485.00,485.00,485.00,485.00,485.00,485.00,485.00,485.03,485.08,485.09,485.10,485.10,485.10,485.10,485.11,485.14,485.19,485.19,485.20,485.20,485.20,485.20,485.21,485.26,485.29,485.29,485.30,485.30,485.30,485.27,485.22,485.20,485.20,485.20,485.20,485.20,485.19,485.16,485.11,485.10,485.10,485.10,485.10,485.10,485.09,485.04,485.04,485.09,485.10,485.10,485.10,485.10,485.10,485.11,485.12,485.19,485.36,485.64,485.88,486.12,486.35,486.58,486.81,487.05,487.31,487.57,487.60,487.60,487.56,487.48,487.41,487.39,487.35,487.30,487.27,487.15,487.00,486.85,486.69,486.55,486.57,486.63,486.69,486.71,486.77,486.80,486.83,486.89,486.90,486.95,487.00,487.01,487.09,487.10,487.15,487.20,487.21,487.27,487.36,487.40,487.42,487.49,487.56,487.60,487.63,487.69,487.77,487.85,487.93,488.00,488.06,488.10,488.13,488.21,488.28,488.30,488.35,488.42,488.50,488.57,488.60,488.64,488.71,488.78,488.80,488.85,488.92,488.99,489.06,489.10,489.13,489.20,489.27,489.30,489.34,489.41,489.48,489.50,489.55,489.62,489.71,489.78,489.86,489.94,490.01,490.08,490.11,490.14,490.22,490.29,490.36,490.39,490.43,490.50,490.58,490.61,490.64,490.72,490.79,490.87,490.94,491.02,491.10,491.18,491.25,491.30,491.31,491.37,491.40,491.44,491.50,491.50,491.50,491.50,491.50,491.50,491.50,491.50,491.53,491.59,491.60,491.60,491.60,491.60,491.62,491.68,491.70,491.70,491.70,491.70,491.76,491.80,491.80,491.80
483.65,483.67,483.67,483.67,483.68,483.75,483.76,483.76,483.78,483.86,483.96,484.04,484.11,484.14,484.21,484.27,484.31,484.35,484.42,484.47,484.51,484.55,484.63,484.68,484.72,484.76,484.83,484.89,484.92,484.97,485.05,485.13,485.20,485.26,485.31,485.36,485.34,485.29,485.24,485.17,485.16,485.11,485.01,484.89,484.71,484.39,484.26,484.33,484.50,484.74,484.92,485.00,485.00,485.00,485.00,485.00,485.00,485.00,485.00,485.00,485.00,485.00,485.00,485.00,485.00,485.00,485.00,485.00,485.03,485.07,485.10,485.10,485.10,485.10,485.10,485.10,485.14,485.18,485.20,485.20,485.20,485.20,485.20,485.21,485.25,485.29,485.30,485.30,485.30,485.30,485.27,485.23,485.20,485.20,485.20,485.20,485.20,485.20,485.16,485.12,485.10,485.10,485.10,485.10,485.10,485.09,485.05,485.01,485.01,485.05,485.09,485.10,485.10,485.10,485.10,485.10,485.20,485.38,485.60,485.90,486.14,486.38,486.61,486.84,487.07,487.31,487.56,487.82,487.80,487.79,487.76,487.68,487.61,487.59,487.58,487.54,487.49,487.39,487.25,487.10,486.94,486.79,486.70,486.70,486.76,486.77,486.84,486.87,486.89,486.95,486.97,487.02,487.06,487.08,487.15,487.17,487.21,487.26,487.27,487.34,487.42,487.47,487.48,487.55,487.59,487.63,487.67,487.70,487.77,487.85,487.93,487.99,488.03,488.07,488.13,488.20,488.24,488.28,488.34,488.42,488.49,488.53,488.57,488.63,488.70,488.73,488.77,488.84,488.92,488.99,489.03,489.06,489.13,489.19,489.23,489.27,489.33,489.40,489.44,489.48,489.54,489.63,489.75,489.84,489.92,489.97,490.01,490.08,490.14,490.18,490.22,490.29,490.37,490.40,490.43,490.50,490.58,490.60,490.63,490.71,490.79,490.87,490.94,491.02,491.10,491.18,491.22,491.26,491.31,491.38,491.44,491.50,491.56,491.56,491.56,491.56,491.56,491.56,491.56,491.56,491.57,491.61,491.65,491.67,491.67,491.67,491.67,491.74,491.76,491.76,491.76,491.76,491.83,491.87,491.87,491.87
483.71,483.72,483.72,483.72,483.74,483.81,483.82,483.82,483.84,483.89,483.97,484.03,484.08,484.11,484.18,484.24,484.28,484.31,484.38,484.44,484.48,484.52,484.59,484.65,484.69,484.73,484.80,484.86,484.89,484.93,485.01,485.06,485.13,485.22,485.29,485.36,485.39,485.36,485.31,485.26,485.23,485.17,485.10,485.05,485.01,484.76,484.49,484.31,484.29,484.47,484.71,484.89,484.97,485.00,485.00,485.00,485.00,485.00,485.00,485.00,485.00,485.00,485.00,485.00,485.00,485.00,485.02,485.02,485.06,485.10,485.10,485.10,485.10,485.11,485.13,485.13,485.18,485.20,485.20,485.20,485.20,485.21,485.22,485.24,485.29,485.30,485.30,485.30,485.30,485.28,485.24,485.20,485.20,485.20,485.20,485.20,485.20,485.17,485.13,485.10,485.10,485.10,485.10,485.10,485.09,485.06,485.01,485.00,485.00,485.01,485.06,485.09,485.09,485.08,485.13,485.19,485.38,485.61,485.86,486.16,486.40,486.63,486.87,487.10,487.33,487.56,487.81,488.05,488.03,488.00,487.95,487.88,487.83,487.80,487.78,487.77,487.71,487.62,487.48,487.32,487.17,487.01,486.86,486.80,486.82,486.84,486.90,486.93,486.95,487.02,487.03,487.09,487.13,487.14,487.21,487.22,487.27,487.32,487.34,487.40,487.49,487.52,487.54,487.61,487.63,487.67,487.73,487.76,487.81,487.88,487.95,488.00,488.02,488.07,488.13,488.19,488.20,488.27,488.34,488.41,488.47,488.49,488.55,488.62,488.67,488.69,488.76,488.84,488.91,488.96,488.99,489.05,489.12,489.17,489.19,489.26,489.32,489.37,489.40,489.49,489.58,489.66,489.79,489.88,489.95,490.01,490.04,490.09,490.16,490.21,490.24,490.30,490.37,490.41,490.45,490.50,490.58,490.62,490.65,490.71,490.79,490.87,490.94,491.02,491.10,491.15,491.19,491.23,491.31,491.38,491.46,491.53,491.57,491.60,491.62,491.63,491.63,491.63,491.63,491.63,491.63,491.64,491.71,491.72,491.72,491.72,491.74,491.80,491.82,491.82,491.82,491.83,491.89,491.93,491.93,491.93
483.78,483.79,483.79,483.79,483.80,483.87,483.89,483.90,483.90,483.91,483.97,484.01,484.03,484.10,484.18,484.21,484.24,484.31,484.38,484.40,484.45,484.51,484.58,484.61,484.65,484.72,484.78,484.80,484.86,484.93,484.99,485.01,485.08,485.15,485.23,485.30,485.38,485.39,485.39,485.37,485.31,485.24,485.19,485.17,485.10,484.99,484.89,484.72,484.42,484.24,484.40,484.67,484.88,484.97,484.99,485.00,485.00,485.00,485.00,485.00,485.00,485.00,485.00,485.00,485.00,485.02,485.08,485.09,485.09,485.10,485.10,485.11,485.11,485.13,485.19,485.19,485.20,485.20,485.20,485.20,485.20,485.25,485.29,485.29,485.30,485.30,485.30,485.30,485.29,485.24,485.21,485.20,485.20,485.20,485.20,485.20,485.18,485.13,485.10,485.10,485.10,485.10,485.10,485.10,485.07,485.01,485.00,485.00,485.00,485.00,485.01,485.07,485.06,485.07,485.22,485.41,485.63,485.87,486.12,486.42,486.67,486.89,487.13,487.36,487.59,487.82,488.06,488.26,488.27,488.22,488.15,488.08,488.07,488.01,487.98,487.98,487.95,487.84,487.68,487.52,487.37,487.21,487.06,486.95,486.90,486.90,486.97,487.00,487.02,487.09,487.10,487.15,487.19,487.21,487.28,487.29,487.34,487.40,487.41,487.47,487.54,487.60,487.61,487.68,487.69,487.74,487.81,487.88,487.90,487.95,488.00,488.02,488.08,488.10,488.14,488.20,488.22,488.27,488.35,488.40,488.43,488.48,488.55,488.60,488.62,488.69,488.76,488.84,488.90,488.92,488.97,489.05,489.10,489.12,489.18,489.26,489.31,489.33,489.40,489.52,489.63,489.71,489.80,489.88,489.95,490.03,490.09,490.10,490.16,490.23,490.29,490.30,490.37,490.44,490.49,490.51,490.58,490.65,490.69,490.72,490.79,490.87,490.94,491.02,491.08,491.11,491.16,491.23,491.31,491.38,491.46,491.50,491.52,491.59,491.66,491.69,491.69,491.69,491.69,491.69,491.69,491.71,491.78,491.79,491.79,491.79,491.80,491.87,491.90,491.90,491.90,491.90,491.96,492.00,492.00,492.00
483.80,483.84,483.86,483.86,483.86,483.89,483.94,483.95,483.95,483.96,483.99,484.03,484.06,484.11,484.18,484.20,484.21,484.25,484.32,484.38,484.41,484.46,484.53,484.58,484.62,484.67,484.74,484.75,484.80,484.88,484.95,485.00,485.06,485.12,485.16,485.24,485.31,485.37,485.42,485.44,485.38,485.33,485.30,485.24,485.17,485.09,485.04,484.95,484.74,484.51,484.44,484.48,484.58,484.74,484.92,485.00,485.00,485.00,485.00,485.00,485.00,485.00,485.00,485.03,485.06,485.06,485.09,485.10,485.10,485.10,485.11,485.14,485.16,485.17,485.20,485.20,485.20,485.20,485.21,485.25,485.25,485.28,485.30,485.30,485.30,485.30,485.30,485.29,485.25,485.21,485.20,485.20,485.20,485.20,485.20,485.18,485.14,485.11,485.10,485.10,485.10,485.10,485.10,485.07,485.03,485.00,485.00,485.00,485.00,485.00,485.00,485.03,485.10,485.23,485.44,485.67,485.89,486.13,486.38,486.68,486.93,487.15,487.38,487.62,487.85,488.08,488.30,488.46,488.48,488.42,488.34,488.28,488.27,488.25,488.21,488.18,488.17,488.16,487.98,487.77,487.62,487.46,487.31,487.17,487.06,486.98,487.03,487.06,487.09,487.15,487.16,487.22,487.25,487.27,487.34,487.36,487.40,487.47,487.51,487.55,487.61,487.66,487.67,487.74,487.75,487.82,487.92,487.96,488.00,488.04,488.07,488.12,488.15,488.19,488.23,488.27,488.31,488.34,488.38,488.41,488.45,488.49,488.55,488.60,488.62,488.69,488.76,488.81,488.85,488.90,488.97,489.02,489.06,489.11,489.18,489.26,489.32,489.37,489.44,489.55,489.64,489.72,489.80,489.92,489.98,490.03,490.10,490.10,490.16,490.24,490.30,490.31,490.37,490.45,490.50,490.51,490.58,490.66,490.72,490.76,490.80,490.87,490.94,491.01,491.04,491.09,491.15,491.23,491.31,491.38,491.43,491.47,491.51,491.59,491.67,491.73,491.75,491.75,491.75,491.75,491.75,491.77,491.84,491.86,491.86,491.86,491.87,491.94,491.95,491.95,491.96,492.01,492.04,492.06,492.07,492.11
483.83,483.88,483.91,483.93,483.93,483.93,483.97,484.01,484.02,484.02,484.02,484.06,484.13,484.13,484.18,484.21,484.22,484.24,484.30,484.37,484.40,484.42,484.49,484.55,484.59,484.63,484.69,484.70,484.74,484.81,484.88,484.97,485.05,485.09,485.12,485.20,485.27,485.34,485.41,485.47,485.44,485.43,485.38,485.30,485.23,485.17,485.13,485.10,485.00,484.82,484.63,484.46,484.40,484.52,484.78,484.94,484.98,485.00,485.00,485.00,485.00,485.00,485.00,485.06,485.10,485.10,485.10,485.10,485.10,485.11,485.13,485.19,485.20,485.20,485.20,485.20,485.20,485.21,485.24,485.29,485.30,485.30,485.30,485.30,485.30,485.30,485.29,485.26,485.21,485.20,485.20,485.20,485.20,485.20,485.19,485.15,485.11,485.10,485.10,485.10,485.10,485.10,485.08,485.04,485.00,485.00,485.00,485.00,485.00,485.00,485.00,485.06,485.23,485.46,485.69,485.93,486.15,486.38,486.63,486.93,487.19,487.42,487.64,487.88,488.11,488.34,488.54,488.66,488.67,488.61,488.54,488.49,488.47,488.47,488.44,488.40,488.42,488.51,488.37,488.16,487.99,487.80,487.62,487.45,487.27,487.10,487.11,487.13,487.15,487.21,487.22,487.28,487.32,487.34,487.41,487.43,487.47,487.54,487.62,487.63,487.68,487.72,487.74,487.81,487.84,487.92,488.02,488.05,488.10,488.13,488.15,488.21,488.22,488.28,488.32,488.34,488.41,488.43,488.43,488.46,488.52,488.54,488.59,488.63,488.65,488.71,488.78,488.82,488.84,488.92,488.98,489.01,489.04,489.10,489.18,489.26,489.33,489.41,489.49,489.58,489.67,489.75,489.83,489.94,489.99,490.02,490.07,490.10,490.16,490.23,490.28,490.30,490.37,490.45,490.50,490.51,490.58,490.66,490.73,490.80,490.82,490.89,490.97,491.02,491.03,491.10,491.18,491.25,491.31,491.38,491.42,491.45,491.51,491.59,491.67,491.74,491.78,491.80,491.82,491.82,491.82,491.84,491.91,491.93,491.93,491.93,491.95,492.00,492.02,492.03,492.05,492.11,492.13,492.13,492.16,492.21
483.89,483.90,483.94,483.99,483.99,483.99,483.99,484.03,484.08,484.09,484.09,484.13,484.19,484.19,484.20,484.25,484.28,484.30,484.37,484.39,484.40,484.42,484.49,484.51,484.56,484.63,484.69,484.70,484.71,484.75,484.83,484.91,484.98,485.05,485.12,485.20,485.27,485.31,485.35,485.42,485.48,485.49,485.45,485.38,485.30,485.28,485.24,485.17,485.08,484.99,484.89,484.74,484.55,484.40,484.55,484.76,484.93,484.99,485.00,485.00,485.00,485.00,485.00,485.06,485.10,485.10,485.10,485.10,485.10,485.12,485.18,485.20,485.20,485.20,485.20,485.20,485.20,485.24,485.29,485.30,485.30,485.30,485.30,485.30,485.30,485.30,485.27,485.22,485.20,485.20,485.20,485.20,485.20,485.20,485.15,485.11,485.10,485.10,485.10,485.10,485.10,485.09,485.04,485.01,485.00,485.00,485.00,485.00,485.00,485.00,485.02,485.24,485.49,485.72,485.95,486.19,486.42,486.64,486.89,487.19,487.44,487.68,487.90,488.13,488.37,488.60,488.78,488.86,488.86,488.80,488.76,488.74,488.68,488.67,488.66,488.67,488.75,488.88,488.90,488.79,488.56,488.28,488.04,487.82,487.58,487.31,487.22,487.19,487.22,487.28,487.28,487.35,487.38,487.40,487.47,487.49,487.53,487.61,487.68,487.69,487.74,487.78,487.80,487.87,487.94,488.02,488.11,488.17,488.19,488.19,488.22,488.28,488.29,488.35,488.39,488.41,488.47,488.49,488.53,488.58,488.60,488.65,488.68,488.72,488.77,488.79,488.85,488.89,488.91,488.98,489.00,489.04,489.09,489.11,489.18,489.26,489.34,489.41,489.49,489.63,489.73,489.80,489.88,489.90,489.96,490.00,490.02,490.08,490.16,490.21,490.23,490.29,490.37,490.45,490.50,490.51,490.58,490.66,490.74,490.81,490.88,490.95,491.03,491.09,491.10,491.17,491.24,491.29,491.31,491.39,491.45,491.49,491.52,491.60,491.67,491.71,491.74,491.80,491.87,491.88,491.88,491.90,491.97,491.99,491.99,492.00,492.06,492.08,492.09,492.11,492.17,492.18,492.19,492.22,492.27,492.28
483.95,483.95,483.98,484.01,484.05,484.06,484.06,484.07,484.11,484.15,484.16,484.19,484.25,484.25,484.25,484.30,484.36,484.36,484.39,484.44,484.45,484.46,484.50,484.54,484.57,484.63,484.69,484.74,484.75,484.78,484.86,484.89,484.93,484.99,485.08,485.19,485.27,485.33,485.38,485.46,485.53,485.56,485.51,485.44,485.37,485.36,485.30,485.23,485.15,485.07,485.00,484.91,484.77,484.56,484.54,484.63,484.78,484.93,484.99,485.00,485.00,485.00,485.00,485.03,485.06,485.10,485.10,485.10,485.10,485.11,485.15,485.19,485.20,485.20,485.20,485.20,485.20,485.22,485.26,485.29,485.30,485.30,485.30,485.30,485.30,485.30,485.28,485.25,485.21,485.20,485.20,485.20,485.20,485.20,485.14,485.10,485.10,485.10,485.10,485.10,485.10,485.09,485.03,485.00,485.00,485.00,485.00,485.00,485.02,485.08,485.21,485.49,485.75,485.98,486.21,486.44,486.68,486.90,487.14,487.41,487.68,487.94,488.17,488.39,488.63,488.86,489.02,489.06,489.06,489.00,488.96,488.95,488.92,488.92,488.94,488.99,489.08,489.26,489.37,489.35,489.14,488.88,488.61,488.31,488.00,487.70,487.48,487.33,487.28,487.35,487.36,487.41,487.45,487.47,487.54,487.56,487.60,487.68,487.75,487.75,487.80,487.86,487.87,487.94,488.01,488.11,488.21,488.25,488.29,488.30,488.32,488.35,488.40,488.43,488.47,488.51,488.55,488.59,488.63,488.67,488.70,488.74,488.78,488.82,488.86,488.90,488.93,488.97,489.01,489.05,489.09,489.13,489.16,489.17,489.24,489.31,489.38,489.47,489.54,489.65,489.74,489.81,489.84,489.89,489.93,489.96,490.01,490.08,490.16,490.20,490.22,490.29,490.37,490.45,490.51,490.56,490.63,490.71,490.78,490.87,490.94,491.02,491.10,491.16,491.16,491.23,491.30,491.36,491.37,491.44,491.48,491.52,491.57,491.64,491.69,491.73,491.77,491.85,491.89,491.93,491.95,491.97,492.04,492.06,492.06,492.08,492.14,492.16,492.16,492.18,492.25,492.25,492.25,492.29,492.35,492.36
484.01,484.01,484.01,484.04,484.10,484.11,484.12,484.12,484.13,484.20,484.22,484.25,484.30,484.31,484.31,484.37,484.42,484.42,484.42,484.48,484.51,484.51,484.52,484.59,484.62,484.65,484.72,484.79,484.81,484.85,484.90,484.92,484.93,484.98,485.07,485.21,485.29,485.38,485.46,485.52,485.59,485.60,485.56,485.49,485.43,485.40,485.36,485.29,485.22,485.14,485.06,485.01,484.98,484.79,484.62,484.57,484.65,484.83,484.95,484.99,485.00,485.00,485.00,485.00,485.03,485.08,485.10,485.10,485.10,485.10,485.11,485.17,485.19,485.20,485.20,485.20,485.20,485.20,485.22,485.27,485.30,485.30,485.30,485.30,485.30,485.30,485.30,485.29,485.23,485.20,485.20,485.20,485.20,485.20,485.15,485.11,485.10,485.10,485.10,485.10,485.10,485.11,485.06,485.03,485.04,485.05,485.05,485.05,485.10,485.24,485.47,485.75,486.00,486.24,486.47,486.70,486.94,487.17,487.39,487.63,487.93,488.19,488.43,488.65,488.88,489.11,489.25,489.27,489.25,489.21,489.18,489.18,489.18,489.18,489.23,489.31,489.42,489.61,489.76,489.78,489.64,489.43,489.13,488.79,488.42,488.11,487.80,487.53,487.38,487.41,487.42,487.48,487.51,487.53,487.60,487.62,487.67,487.74,487.80,487.81,487.87,487.92,487.93,488.00,488.09,488.21,488.32,488.34,488.39,488.43,488.44,488.44,488.50,488.53,488.56,488.62,488.64,488.69,488.72,488.75,488.81,488.83,488.88,488.92,488.94,489.00,489.03,489.07,489.12,489.14,489.19,489.22,489.22,489.23,489.28,489.36,489.43,489.51,489.59,489.67,489.74,489.79,489.81,489.86,489.89,489.93,490.01,490.08,490.16,490.21,490.24,490.31,490.38,490.47,490.54,490.62,490.69,490.77,490.85,490.93,491.00,491.09,491.16,491.22,491.23,491.29,491.36,491.40,491.43,491.50,491.51,491.55,491.63,491.70,491.72,491.76,491.84,491.91,491.92,491.98,492.02,492.04,492.10,492.12,492.12,492.15,492.21,492.22,492.22,492.26,492.31,492.31,492.33,492.37,492.42,492.42
484.07,484.09,484.09,484.09,484.11,484.17,484.19,484.19,484.20,484.27,484.28,484.29,484.32,484.38,484.38,484.44,484.49,484.49,484.49,484.54,484.59,484.59,484.59,484.65,484.69,484.70,484.78,484.86,484.88,484.89,484.91,484.98,485.03,485.11,485.19,485.28,485.36,485.48,485.57,485.58,485.60,485.60,485.56,485.50,485.48,485.43,485.39,485.36,485.28,485.20,485.13,485.09,485.06,484.96,484.82,484.69,484.61,484.67,484.85,484.96,485.00,485.00,485.00,485.00,485.01,485.03,485.09,485.10,485.10,485.10,485.10,485.11,485.17,485.20,485.20,485.20,485.20,485.20,485.20,485.22,485.28,485.30,485.30,485.30,485.30,485.30,485.30,485.30,485.28,485.23,485.20,485.20,485.20,485.20,485.19,485.16,485.11,485.10,485.10,485.10,485.12,485.17,485.17,485.17,485.19,485.24,485.25,485.25,485.35,485.56,485.79,486.03,486.26,486.50,486.73,486.96,487.19,487.43,487.65,487.89,488.19,488.45,488.69,488.92,489.14,489.34,489.47,489.51,489.46,489.44,489.43,489.43,489.43,489.48,489.56,489.66,489.79,489.90,489.95,489.95,489.90,489.74,489.46,489.11,488.74,488.44,488.13,487.82,487.59,487.50,487.49,487.54,487.59,487.60,487.67,487.69,487.73,487.80,487.88,487.88,487.94,487.99,488.00,488.07,488.19,488.31,488.40,488.46,488.48,488.52,488.56,488.57,488.58,488.63,488.67,488.69,488.75,488.78,488.82,488.87,488.89,488.94,488.98,489.01,489.06,489.08,489.13,489.17,489.20,489.26,489.28,489.28,489.28,489.28,489.30,489.36,489.43,489.51,489.59,489.67,489.71,489.73,489.80,489.81,489.86,489.93,490.01,490.08,490.16,490.23,490.30,490.38,490.45,490.53,490.61,490.69,490.76,490.84,490.92,491.00,491.07,491.15,491.23,491.28,491.29,491.36,491.39,491.43,491.49,491.56,491.59,491.62,491.69,491.77,491.78,491.83,491.90,491.98,491.99,492.04,492.11,492.17,492.18,492.19,492.22,492.27,492.28,492.28,492.33,492.37,492.38,492.38,492.43,492.47,492.48,492.49
484.10,484.14,484.15,484.15,484.16,484.23,484.25,484.25,484.25,484.29,484.33,484.35,484.37,484.44,484.44,484.48,484.51,484.54,484.55,484.61,484.65,484.65,484.65,484.72,484.75,484.77,484.85,484.89,484.93,484.97,485.01,485.08,485.16,485.24,485.31,485.39,485.47,485.57,485.65,485.64,485.61,485.60,485.56,485.50,485.50,485.43,485.38,485.34,485.29,485.22,485.17,485.13,485.09,485.01,484.93,484.83,484.72,484.67,484.76,484.88,484.97,485.00,485.00,485.00,485.00,485.01,485.05,485.08,485.10,485.10,485.11,485.14,485.18,485.20,485.21,485.24,485.25,485.25,485.25,485.29,485.34,485.35,485.35,485.34,485.31,485.30,485.30,485.30,485.30,485.26,485.23,485.21,485.24,485.25,485.27,485.28,485.24,485.24,485.27,485.28,485.30,485.33,485.34,485.36,485.41,485.44,485.44,485.47,485.60,485.83,486.06,486.32,486.57,486.81,487.04,487.27,487.50,487.73,487.97,488.24,488.51,488.74,488.94,489.18,489.40,489.59,489.70,489.73,489.70,489.69,489.70,489.73,489.74,489.77,489.81,489.87,489.94,489.99,490.00,490.00,489.99,489.91,489.70,489.41,489.06,488.72,488.44,488.14,487.86,487.65,487.56,487.61,487.65,487.66,487.73,487.75,487.79,487.87,487.94,487.94,488.00,488.04,488.07,488.17,488.29,488.41,488.51,488.58,488.60,488.62,488.66,488.69,488.70,488.73,488.76,488.80,488.84,488.88,488.92,488.95,488.99,489.03,489.07,489.11,489.15,489.19,489.23,489.27,489.30,489.34,489.35,489.35,489.35,489.35,489.35,489.38,489.43,489.51,489.59,489.67,489.70,489.72,489.79,489.80,489.85,489.94,490.05,490.13,490.21,490.28,490.37,490.44,490.51,490.60,490.68,490.75,490.83,490.90,490.98,491.06,491.13,491.22,491.27,491.31,491.35,491.42,491.44,491.48,491.55,491.63,491.65,491.69,491.76,491.83,491.85,491.90,491.97,492.04,492.04,492.11,492.17,492.20,492.24,492.28,492.32,492.35,492.35,492.38,492.42,492.44,492.45,492.48,492.53,492.54,492.55,492.59
484.12,484.18,484.21,484.22,484.22,484.28,484.31,484.31,484.31,484.32,484.38,484.42,484.43,484.49,484.51,484.51,484.54,484.61,484.62,484.67,484.71,484.72,484.72,484.78,484.81,484.84,484.91,484.93,484.98,485.06,485.13,485.20,485.27,485.35,485.43,485.51,485.59,485.66,485.70,485.67,485.62,485.59,485.55,485.50,485.48,485.43,485.35,485.30,485.29,485.22,485.19,485.15,485.09,485.03,485.00,484.96,484.87,484.75,484.71,484.80,484.93,485.01,485.01,485.02,485.03,485.03,485.04,485.10,485.13,485.13,485.14,485.21,485.23,485.23,485.25,485.31,485.33,485.32,485.33,485.38,485.40,485.40,485.40,485.39,485.33,485.31,485.32,485.33,485.33,485.34,485.30,485.27,485.33,485.35,485.40,485.44,485.44,485.45,485.50,485.53,485.53,485.55,485.55,485.59,485.64,485.65,485.65,485.71,485.87,486.10,486.34,486.63,486.88,487.12,487.36,487.59,487.82,488.06,488.30,488.59,488.85,489.05,489.23,489.46,489.66,489.82,489.91,489.91,489.91,489.91,489.94,489.99,489.99,489.99,489.99,490.00,490.00,490.00,490.00,490.00,490.00,489.99,489.88,489.68,489.38,489.00,488.75,488.46,488.15,487.86,487.68,487.68,487.72,487.73,487.80,487.81,487.86,487.94,488.00,488.01,488.06,488.12,488.15,488.28,488.38,488.50,488.63,488.70,488.71,488.72,488.75,488.80,488.81,488.82,488.86,488.91,488.93,488.98,489.02,489.04,489.10,489.12,489.17,489.21,489.24,489.29,489.32,489.36,489.41,489.41,489.42,489.42,489.41,489.40,489.41,489.42,489.44,489.51,489.59,489.66,489.69,489.72,489.79,489.81,489.87,489.98,490.11,490.19,490.27,490.35,490.43,490.50,490.59,490.66,490.74,490.81,490.89,490.97,491.04,491.13,491.20,491.27,491.31,491.34,491.41,491.49,491.51,491.54,491.62,491.69,491.72,491.75,491.82,491.89,491.91,491.96,492.03,492.10,492.11,492.17,492.22,492.23,492.30,492.38,492.41,492.42,492.42,492.49,492.51,492.51,492.52,492.59,492.61,492.62,492.63,492.70
484.18,484.19,484.24,484.27,484.28,484.29,484.35,484.38,484.38,484.38,484.44,484.47,484.48,484.50,484.56,484.57,484.61,484.67,484.68,484.69,484.73,484.77,484.78,484.85,484.88,484.90,484.98,485.04,485.11,485.19,485.25,485.28,485.35,485.42,485.50,485.58,485.65,485.69,485.67,485.63,485.60,485.55,485.51,485.49,485.43,485.40,485.35,485.30,485.29,485.22,485.16,485.12,485.10,485.08,485.02,484.99,484.95,484.86,484.74,484.76,484.89,485.06,485.08,485.13,485.16,485.16,485.16,485.22,485.25,485.25,485.26,485.33,485.36,485.36,485.37,485.44,485.45,485.42,485.38,485.40,485.40,485.40,485.40,485.40,485.38,485.38,485.41,485.45,485.46,485.50,485.52,485.51,485.53,485.59,485.62,485.63,485.64,485.69,485.72,485.73,485.74,485.80,485.80,485.82,485.85,485.90,485.91,486.01,486.19,486.43,486.66,486.90,487.14,487.39,487.68,487.91,488.15,488.38,488.61,488.86,489.15,489.40,489.62,489.83,489.91,489.95,489.97,489.97,489.97,489.97,489.99,490.00,490.00,490.00,490.00,490.00,490.00,490.00,490.00,490.00,490.00,490.00,489.97,489.89,489.69,489.32,489.07,488.79,488.46,488.12,487.88,487.80,487.77,487.79,487.86,487.88,487.92,488.00,488.06,488.07,488.13,488.20,488.27,488.36,488.49,488.60,488.69,488.76,488.77,488.81,488.86,488.87,488.88,488.92,488.96,488.99,489.04,489.07,489.11,489.16,489.18,489.24,489.26,489.30,489.35,489.38,489.43,489.46,489.47,489.47,489.47,489.47,489.46,489.42,489.46,489.47,489.49,489.51,489.59,489.62,489.66,489.72,489.80,489.86,489.93,490.03,490.18,490.26,490.34,490.42,490.50,490.57,490.65,490.73,490.80,490.88,490.95,491.03,491.11,491.19,491.26,491.35,491.38,491.40,491.48,491.55,491.57,491.61,491.69,491.76,491.77,491.81,491.88,491.90,491.95,492.02,492.08,492.11,492.16,492.24,492.27,492.29,492.37,492.44,492.47,492.47,492.49,492.55,492.57,492.57,492.59,492.66,492.68,492.68,492.69,492.76
484.25,484.25,484.29,484.35,484.35,484.35,484.37,484.41,484.44,484.44,484.48,484.52,484.54,484.55,484.62,484.65,484.66,484.70,484.74,484.75,484.78,484.84,484.85,484.92,484.96,485.02,485.13,485.20,485.26,485.32,485.39,485.42,485.49,485.57,485.64,485.68,485.70,485.70,485.67,485.61,485.60,485.54,485.50,485.49,485.41,485.40,485.35,485.29,485.25,485.21,485.17,485.13,485.10,485.10,485.06,485.02,484.99,484.94,484.82,484.79,484.88,485.06,485.16,485.25,485.28,485.28,485.29,485.35,485.39,485.39,485.40,485.46,485.46,485.44,485.45,485.49,485.50,485.49,485.49,485.49,485.51,485.52,485.54,485.56,485.57,485.57,485.61,485.67,485.67,485.71,485.74,485.76,485.77,485.81,485.85,485.87,485.87,485.92,485.95,485.96,485.98,486.02,486.02,486.04,486.08,486.13,486.16,486.28,486.48,486.72,486.98,487.21,487.44,487.69,487.96,488.20,488.46,488.70,488.94,489.17,489.44,489.67,489.86,489.98,490.00,490.00,490.00,490.00,490.00,490.00,490.00,490.00,490.00,490.00,490.00,490.00,490.00,490.00,490.00,490.00,490.00,490.00,490.00,489.98,489.88,489.63,489.36,489.05,488.69,488.33,488.08,487.94,487.87,487.86,487.93,487.94,487.99,488.06,488.13,488.15,488.19,488.27,488.36,488.46,488.58,488.70,488.80,488.87,488.89,488.91,488.95,488.98,488.99,489.02,489.06,489.09,489.14,489.17,489.21,489.25,489.28,489.33,489.36,489.40,489.44,489.48,489.52,489.54,489.54,489.54,489.54,489.54,489.53,489.49,489.53,489.54,489.54,489.56,489.63,489.65,489.67,489.72,489.80,489.88,489.95,490.06,490.20,490.32,490.40,490.48,490.55,490.63,490.71,490.79,490.87,490.94,491.02,491.10,491.18,491.25,491.33,491.40,491.44,491.46,491.53,491.59,491.62,491.67,491.74,491.79,491.83,491.88,491.94,491.95,492.01,492.09,492.15,492.16,492.22,492.29,492.35,492.36,492.43,492.50,492.54,492.55,492.58,492.63,492.65,492.66,492.69,492.73,492.75,492.76,492.79,492.84
484.31,484.31,484.35,484.40,484.41,484.41,484.41,484.44,484.50,484.50,484.51,484.55,484.61,484.62,484.68,484.70,484.71,484.72,484.79,484.81,484.85,484.91,484.92,485.00,485.08,485.17,485.30,485.39,485.42,485.46,485.53,485.60,485.67,485.73,485.78,485.77,485.72,485.69,485.66,485.61,485.60,485.54,485.50,485.48,485.41,485.40,485.35,485.28,485.23,485.20,485.20,485.17,485.12,485.10,485.10,485.05,485.00,484.99,484.92,484.84,484.86,485.01,485.23,485.36,485.42,485.42,485.42,485.47,485.51,485.51,485.52,485.59,485.57,485.53,485.54,485.54,485.55,485.59,485.63,485.64,485.70,485.73,485.75,485.81,485.82,485.82,485.86,485.92,485.92,485.93,485.97,486.01,486.01,486.03,486.08,486.12,486.12,486.13,486.19,486.22,486.22,486.23,486.23,486.27,486.32,486.34,486.41,486.55,486.75,486.99,487.28,487.52,487.76,487.99,488.24,488.47,488.75,489.01,489.25,489.48,489.70,489.88,489.99,490.00,490.00,490.00,490.00,490.00,490.00,490.00,490.00,490.00,490.01,490.01,490.01,490.01,490.00,490.01,490.00,490.00,490.00,490.00,490.00,490.00,489.98,489.88,489.62,489.28,488.89,488.52,488.29,488.12,488.00,487.95,488.00,488.00,488.05,488.13,488.19,488.20,488.26,488.35,488.44,488.57,488.68,488.79,488.92,488.99,489.01,489.02,489.04,489.10,489.11,489.12,489.15,489.20,489.22,489.27,489.30,489.33,489.39,489.41,489.46,489.50,489.52,489.59,489.60,489.61,489.61,489.61,489.61,489.61,489.61,489.60,489.61,489.61,489.61,489.62,489.69,489.70,489.71,489.73,489.80,489.88,489.95,490.06,490.21,490.36,490.46,490.54,490.63,490.70,490.77,490.86,490.93,491.01,491.09,491.17,491.24,491.31,491.40,491.47,491.50,491.52,491.60,491.61,491.66,491.74,491.80,491.81,491.87,491.94,492.00,492.01,492.08,492.15,492.20,492.21,492.28,492.36,492.40,492.42,492.50,492.56,492.60,492.63,492.69,492.70,492.71,492.74,492.79,492.81,492.81,492.85,492.90,492.91
484.37,484.38,484.39,484.42,484.47,484.47,484.47,484.50,484.57,484.57,484.57,484.62,484.68,484.68,484.75,484.77,484.77,484.78,484.86,484.88,484.91,484.98,485.04,485.16,485.26,485.34,485.44,485.52,485.58,485.65,485.72,485.74,485.76,485.78,485.79,485.74,485.71,485.66,485.62,485.60,485.60,485.54,485.47,485.43,485.40,485.40,485.35,485.29,485.26,485.22,485.20,485.19,485.16,485.11,485.10,485.06,485.00,484.99,484.93,484.85,484.84,484.96,485.18,485.42,485.54,485.54,485.55,485.56,485.61,485.65,485.66,485.72,485.73,485.74,485.78,485.79,485.83,485.87,485.88,485.89,485.95,485.99,485.99,486.02,486.07,486.09,486.10,486.12,486.18,486.19,486.20,486.21,486.22,486.27,486.30,486.32,486.32,486.37,486.41,486.42,486.43,486.48,486.49,486.50,486.53,486.59,486.67,486.85,487.06,487.30,487.55,487.79,488.02,488.27,488.55,488.79,489.04,489.28,489.51,489.74,489.89,489.96,490.00,490.00,490.00,490.00,490.00,490.00,490.00,490.00,490.00,490.01,490.06,490.07,490.07,490.05,490.01,490.05,490.03,490.00,490.00,490.00,490.00,490.00,490.00,489.96,489.79,489.47,489.08,488.73,488.53,488.37,488.23,488.12,488.08,488.07,488.12,488.19,488.26,488.27,488.36,488.47,488.55,488.66,488.78,488.89,488.99,489.06,489.12,489.15,489.15,489.18,489.23,489.24,489.25,489.28,489.33,489.36,489.38,489.40,489.46,489.47,489.52,489.57,489.59,489.65,489.68,489.68,489.68,489.68,489.68,489.68,489.68,489.68,489.68,489.68,489.68,489.69,489.76,489.77,489.77,489.78,489.81,489.88,489.95,490.06,490.21,490.37,490.50,490.61,490.69,490.76,490.84,490.92,491.00,491.08,491.15,491.23,491.30,491.38,491.46,491.49,491.53,491.59,491.66,491.68,491.73,491.80,491.87,491.88,491.94,492.01,492.07,492.08,492.14,492.22,492.27,492.28,492.35,492.39,492.43,492.48,492.56,492.59,492.63,492.69,492.76,492.77,492.81,492.85,492.87,492.88,492.92,492.96,492.97,492.98
484.42,484.44,484.44,484.46,484.53,484.53,484.53,484.56,484.61,484.63,484.63,484.68,484.74,484.74,484.78,484.82,484.84,484.85,484.92,484.96,485.02,485.12,485.20,485.32,485.44,485.53,485.61,485.69,485.74,485.79,485.83,485.81,485.80,485.79,485.75,485.71,485.70,485.65,485.60,485.59,485.57,485.53,485.47,485.43,485.40,485.40,485.35,485.30,485.29,485.22,485.20,485.20,485.19,485.12,485.10,485.06,485.00,485.00,484.96,484.88,484.86,484.93,485.12,485.43,485.66,485.74,485.75,485.77,485.81,485.85,485.88,485.93,485.94,485.97,486.04,486.05,486.09,486.12,486.14,486.15,486.19,486.21,486.22,486.25,486.30,486.31,486.32,486.36,486.40,486.41,486.43,486.44,486.45,486.50,486.53,486.55,486.55,486.60,486.63,486.64,486.66,486.70,486.71,486.73,486.76,486.82,486.95,487.16,487.38,487.60,487.85,488.08,488.32,488.56,488.84,489.07,489.31,489.54,489.76,489.90,489.98,490.00,490.00,490.00,490.00,490.00,490.00,490.00,490.03,490.03,490.03,490.05,490.09,490.10,490.10,490.09,490.05,490.09,490.06,490.03,490.00,490.00,490.00,490.00,490.00,489.99,489.91,489.64,489.29,488.95,488.75,488.59,488.44,488.29,488.19,488.15,488.18,488.25,488.33,488.36,488.46,488.56,488.65,488.75,488.88,488.99,489.09,489.16,489.22,489.25,489.27,489.28,489.32,489.36,489.37,489.38,489.43,489.46,489.47,489.49,489.53,489.56,489.61,489.65,489.68,489.73,489.74,489.74,489.74,489.74,489.74,489.74,489.74,489.74,489.74,489.74,489.74,489.75,489.82,489.84,489.84,489.84,489.84,489.88,489.95,490.06,490.22,490.40,490.53,490.65,490.75,490.83,490.90,490.99,491.06,491.13,491.22,491.29,491.37,491.44,491.52,491.53,491.58,491.65,491.73,491.74,491.78,491.87,491.93,491.94,492.00,492.06,492.11,492.14,492.20,492.26,492.31,492.34,492.42,492.44,492.47,492.54,492.62,492.63,492.68,492.75,492.83,492.84,492.88,492.94,492.94,492.94,493.00,493.03,493.03,493.04
484.48,484.50,484.50,484.52,484.59,484.60,484.60,484.61,484.63,484.69,484.70,484.74,484.79,484.80,484.81,484.86,484.90,484.91,484.99,485.06,485.17,485.29,485.38,485.46,485.58,485.70,485.79,485.87,485.88,485.89,485.88,485.82,485.80,485.76,485.72,485.70,485.70,485.65,485.61,485.59,485.53,485.50,485.50,485.48,485.41,485.40,485.35,485.30,485.29,485.23,485.20,485.20,485.19,485.12,485.10,485.06,485.01,485.00,485.00,484.94,484.89,484.93,485.07,485.40,485.75,485.99,486.01,486.06,486.10,486.12,486.18,486.19,486.20,486.23,486.29,486.29,486.31,486.35,486.39,486.39,486.41,486.41,486.44,486.49,486.51,486.51,486.54,486.59,486.61,486.61,486.65,486.69,486.69,486.71,486.76,486.79,486.80,486.81,486.87,486.89,486.90,486.91,486.91,486.95,487.00,487.05,487.25,487.47,487.68,487.87,488.15,488.40,488.63,488.87,489.11,489.35,489.56,489.78,489.96,489.99,490.00,490.00,490.00,490.00,490.00,490.00,490.01,490.02,490.08,490.09,490.09,490.09,490.10,490.10,490.10,490.10,490.10,490.10,490.10,490.06,490.00,490.00,490.00,490.00,490.00,490.00,489.99,489.80,489.49,489.19,488.96,488.79,488.64,488.49,488.34,488.25,488.25,488.33,488.40,488.47,488.55,488.64,488.73,488.86,488.96,489.08,489.21,489.28,489.30,489.35,489.40,489.40,489.41,489.46,489.50,489.50,489.51,489.56,489.60,489.60,489.62,489.67,489.70,489.74,489.79,489.80,489.80,489.80,489.80,489.80,489.80,489.80,489.80,489.80,489.80,489.80,489.80,489.82,489.88,489.90,489.90,489.90,489.91,489.91,489.97,490.08,490.24,490.44,490.56,490.68,490.81,490.90,490.97,491.05,491.13,491.20,491.28,491.36,491.44,491.51,491.59,491.60,491.65,491.72,491.79,491.80,491.86,491.93,491.99,492.00,492.06,492.11,492.13,492.19,492.27,492.31,492.33,492.40,492.48,492.50,492.53,492.61,492.69,492.70,492.75,492.82,492.88,492.90,492.95,493.00,493.00,493.01,493.06,493.10,493.10,493.11
484.50,484.54,484.56,484.57,484.61,484.65,484.67,484.67,484.68,484.75,484.76,484.78,484.81,484.86,484.87,484.92,484.97,484.98,485.05,485.13,485.22,485.33,485.45,485.53,485.63,485.74,485.86,485.94,485.93,485.90,485.89,485.87,485.82,485.79,485.75,485.71,485.70,485.68,485.64,485.60,485.57,485.53,485.50,485.49,485.41,485.40,485.35,485.30,485.30,485.27,485.23,485.20,485.19,485.12,485.10,485.09,485.05,485.01,485.00,484.95,484.90,484.92,485.02,485.42,485.86,486.20,486.25,486.28,486.33,486.37,486.40,486.40,486.44,486.47,486.50,486.50,486.54,486.58,486.60,486.61,486.64,486.67,486.67,486.70,486.75,486.76,486.78,486.81,486.85,486.87,486.88,486.90,486.91,486.95,486.98,487.00,487.01,487.05,487.08,487.10,487.11,487.16,487.17,487.18,487.23,487.35,487.52,487.74,487.96,488.17,488.43,488.67,488.90,489.14,489.43,489.66,489.82,489.93,489.99,490.00,490.00,490.00,490.00,490.00,490.00,490.03,490.06,490.07,490.09,490.10,490.10,490.10,490.10,490.10,490.10,490.10,490.10,490.10,490.10,490.07,490.00,490.00,490.00,490.00,490.00,490.00,490.00,489.90,489.69,489.40,489.21,489.05,488.90,488.73,488.58,488.41,488.35,488.38,488.47,488.54,488.65,488.76,488.85,488.95,489.07,489.19,489.28,489.36,489.41,489.45,489.47,489.47,489.52,489.55,489.56,489.58,489.62,489.65,489.67,489.68,489.73,489.76,489.80,489.84,489.86,489.87,489.87,489.87,489.87,489.87,489.87,489.87,489.87,489.87,489.87,489.87,489.89,489.94,489.96,489.97,489.97,489.98,490.02,490.03,490.08,490.19,490.34,490.47,490.60,490.72,490.83,490.95,491.03,491.12,491.19,491.26,491.35,491.43,491.50,491.58,491.65,491.67,491.71,491.78,491.86,491.87,491.92,491.97,492.00,492.05,492.13,492.17,492.18,492.26,492.34,492.37,492.39,492.47,492.54,492.56,492.60,492.68,492.75,492.76,492.80,492.87,492.90,492.95,493.01,493.06,493.07,493.12,493.15,493.17,493.18,493.23
484.54,484.60,484.63,484.63,484.64,484.69,484.72,484.73,484.74,484.79,484.82,484.83,484.85,484.92,484.93,484.99,485.03,485.04,485.12,485.17,485.25,485.36,485.48,485.57,485.66,485.77,485.89,485.98,485.96,485.92,485.90,485.90,485.86,485.82,485.79,485.74,485.71,485.70,485.68,485.63,485.61,485.56,485.52,485.49,485.44,485.41,485.37,485.32,485.30,485.30,485.24,485.20,485.19,485.12,485.10,485.10,485.08,485.01,485.00,484.95,484.90,484.91,484.96,485.41,485.96,486.40,486.51,486.52,486.55,486.60,486.62,486.63,486.66,486.70,486.72,486.73,486.77,486.79,486.80,486.83,486.88,486.89,486.90,486.93,486.98,486.99,487.00,487.03,487.08,487.09,487.11,487.13,487.13,487.18,487.21,487.23,487.23,487.28,487.31,487.32,487.34,487.38,487.39,487.41,487.47,487.64,487.81,488.03,488.25,488.47,488.72,488.96,489.19,489.44,489.71,489.88,489.97,490.00,490.00,490.00,490.00,490.00,490.01,490.03,490.03,490.06,490.10,490.10,490.10,490.10,490.10,490.10,490.10,490.10,490.10,490.10,490.10,490.10,490.10,490.08,490.03,490.00,490.00,490.00,490.00,490.00,490.00,489.96,489.85,489.62,489.44,489.28,489.12,488.96,488.78,488.58,488.48,488.48,488.54,488.63,488.75,488.86,488.94,489.04,489.17,489.28,489.38,489.45,489.51,489.54,489.56,489.57,489.62,489.65,489.66,489.67,489.72,489.75,489.76,489.77,489.83,489.85,489.90,489.93,489.93,489.93,489.93,489.93,489.93,489.93,489.95,489.96,489.96,489.96,489.96,489.96,489.98,490.03,490.05,490.06,490.06,490.08,490.15,490.16,490.22,490.31,490.44,490.54,490.67,490.77,490.86,491.01,491.10,491.18,491.25,491.34,491.41,491.49,491.56,491.64,491.72,491.73,491.77,491.85,491.90,491.92,491.99,492.03,492.04,492.12,492.19,492.23,492.25,492.33,492.40,492.43,492.45,492.53,492.59,492.62,492.67,492.74,492.79,492.82,492.88,492.93,492.94,493.00,493.08,493.13,493.14,493.21,493.23,493.24,493.27,493.32
484.60,484.66,484.69,484.69,484.69,484.70,484.76,484.79,484.80,484.81,484.87,484.90,484.92,484.99,485.00,485.04,485.10,485.11,485.18,485.20,485.27,485.40,485.49,485.58,485.69,485.82,485.91,485.98,485.99,485.96,485.91,485.90,485.89,485.86,485.80,485.78,485.73,485.70,485.70,485.68,485.62,485.59,485.55,485.50,485.49,485.43,485.39,485.37,485.31,485.30,485.24,485.20,485.19,485.12,485.10,485.10,485.08,485.01,485.00,484.95,484.91,484.90,484.92,485.39,486.03,486.59,486.75,486.78,486.79,486.81,486.87,486.88,486.88,486.92,486.97,486.98,486.99,487.00,487.01,487.07,487.09,487.10,487.11,487.17,487.19,487.19,487.22,487.27,487.28,487.29,487.33,487.38,487.38,487.39,487.44,487.47,487.48,487.49,487.54,487.58,487.58,487.59,487.60,487.64,487.74,487.91,488.12,488.35,488.55,488.75,489.04,489.28,489.50,489.73,489.93,489.98,490.00,490.00,490.00,490.00,490.00,490.00,490.02,490.08,490.09,490.10,490.10,490.10,490.10,490.10,490.10,490.10,490.11,490.11,490.10,490.10,490.10,490.10,490.10,490.10,490.08,490.02,490.00,490.00,490.00,490.00,490.00,490.00,489.96,489.84,489.63,489.46,489.31,489.14,488.92,488.75,488.65,488.60,488.62,488.74,488.85,488.93,489.02,489.16,489.26,489.37,489.50,489.57,489.60,489.64,489.69,489.69,489.70,489.75,489.79,489.79,489.80,489.86,489.89,489.89,489.90,489.96,489.99,489.99,490.00,490.00,490.00,490.00,490.00,490.00,490.06,490.09,490.09,490.09,490.09,490.09,490.09,490.11,490.17,490.19,490.19,490.21,490.28,490.29,490.35,490.42,490.52,490.65,490.76,490.84,490.94,491.07,491.17,491.25,491.32,491.40,491.48,491.55,491.63,491.70,491.77,491.79,491.84,491.90,491.91,491.97,492.04,492.10,492.11,492.18,492.25,492.29,492.31,492.38,492.46,492.49,492.52,492.59,492.60,492.66,492.73,492.79,492.81,492.87,492.94,493.00,493.00,493.07,493.14,493.19,493.21,493.28,493.29,493.33,493.39,493.39
484.66,484.69,484.73,484.76,484.76,484.76,484.81,484.86,484.86,484.86,484.93,484.96,484.98,485.05,485.06,485.12,485.16,485.17,485.24,485.26,485.31,485.42,485.50,485.61,485.73,485.84,485.95,485.99,486.00,485.99,485.95,485.91,485.90,485.88,485.85,485.81,485.77,485.73,485.70,485.69,485.62,485.60,485.56,485.50,485.50,485.43,485.40,485.38,485.31,485.30,485.24,485.20,485.19,485.16,485.12,485.10,485.08,485.01,485.00,484.98,484.94,484.90,484.91,485.38,486.06,486.70,486.99,487.05,487.05,487.05,487.08,487.08,487.08,487.11,487.18,487.18,487.22,487.25,487.25,487.28,487.33,487.35,487.35,487.38,487.43,487.44,487.46,487.48,487.49,487.52,487.56,487.58,487.58,487.63,487.66,487.68,487.69,487.73,487.77,487.78,487.79,487.84,487.85,487.90,488.01,488.21,488.40,488.62,488.84,489.05,489.31,489.55,489.75,489.91,489.99,490.00,490.00,490.00,490.00,490.00,490.04,490.06,490.07,490.10,490.10,490.10,490.10,490.10,490.10,490.10,490.10,490.11,490.15,490.16,490.13,490.10,490.10,490.10,490.10,490.10,490.09,490.06,490.02,490.00,490.00,490.00,490.00,490.00,489.99,489.94,489.77,489.61,489.45,489.28,489.06,488.89,488.80,488.77,488.74,488.83,488.94,489.05,489.13,489.24,489.36,489.48,489.59,489.70,489.72,489.74,489.77,489.81,489.82,489.84,489.88,489.92,489.92,489.94,489.96,489.96,489.96,489.99,490.00,490.02,490.06,490.06,490.06,490.06,490.06,490.07,490.13,490.19,490.22,490.22,490.22,490.22,490.22,490.23,490.26,490.30,490.32,490.34,490.42,490.47,490.50,490.55,490.63,490.74,490.86,490.96,491.03,491.10,491.21,491.30,491.38,491.47,491.54,491.62,491.69,491.76,491.79,491.84,491.90,491.96,491.97,492.03,492.11,492.16,492.17,492.25,492.29,492.32,492.38,492.45,492.49,492.53,492.59,492.65,492.66,492.72,492.79,492.86,492.86,492.93,493.00,493.06,493.07,493.13,493.18,493.22,493.27,493.34,493.36,493.40,493.46,493.46
484.72,484.72,484.76,484.81,484.82,484.82,484.87,484.91,484.93,484.93,484.99,485.02,485.04,485.12,485.13,485.18,485.22,485.24,485.31,485.32,485.37,485.44,485.52,485.65,485.76,485.87,485.99,486.02,486.01,486.00,485.99,485.94,485.91,485.90,485.88,485.81,485.80,485.76,485.72,485.69,485.64,485.61,485.57,485.52,485.50,485.45,485.41,485.38,485.33,485.31,485.26,485.22,485.20,485.19,485.13,485.10,485.09,485.03,485.00,485.00,484.97,484.90,484.91,485.39,486.13,486.87,487.25,487.29,487.26,487.25,487.27,487.29,487.30,487.33,487.37,487.36,487.42,487.46,487.48,487.50,487.55,487.57,487.58,487.61,487.66,487.68,487.69,487.70,487.70,487.75,487.78,487.80,487.81,487.86,487.89,487.90,487.91,487.96,487.99,488.00,488.01,488.06,488.07,488.14,488.29,488.50,488.69,488.90,489.13,489.37,489.59,489.78,489.92,490.00,490.00,490.00,490.00,490.01,490.02,490.02,490.07,490.10,490.10,490.10,490.10,490.10,490.10,490.10,490.12,490.13,490.13,490.14,490.19,490.20,490.17,490.12,490.10,490.10,490.10,490.10,490.10,490.10,490.05,490.01,490.00,490.00,490.00,490.00,490.00,489.98,489.88,489.73,489.57,489.39,489.18,489.04,488.98,488.96,488.91,488.90,489.00,489.12,489.24,489.35,489.48,489.59,489.68,489.80,489.82,489.84,489.87,489.92,489.93,489.93,489.95,490.00,490.00,490.00,490.00,490.00,490.02,490.02,490.02,490.05,490.10,490.10,490.12,490.13,490.13,490.13,490.19,490.27,490.32,490.32,490.32,490.34,490.35,490.35,490.35,490.40,490.44,490.47,490.55,490.63,490.65,490.68,490.75,490.83,490.97,491.08,491.13,491.16,491.27,491.38,491.45,491.52,491.61,491.68,491.76,491.82,491.83,491.89,491.97,492.02,492.03,492.10,492.16,492.20,492.24,492.31,492.32,492.37,492.44,492.51,492.52,492.57,492.65,492.71,492.72,492.78,492.86,492.92,492.93,492.99,493.05,493.11,493.13,493.20,493.22,493.25,493.33,493.39,493.42,493.47,493.52,493.53
484.77,484.79,484.80,484.82,484.88,484.89,484.90,484.93,484.99,484.99,485.05,485.09,485.11,485.18,485.19,485.25,485.29,485.30,485.37,485.39,485.43,485.50,485.58,485.67,485.79,485.92,486.00,486.07,486.04,486.00,486.00,485.99,485.93,485.90,485.88,485.81,485.80,485.79,485.76,485.70,485.69,485.63,485.60,485.57,485.51,485.49,485.44,485.40,485.38,485.32,485.29,485.26,485.20,485.19,485.14,485.10,485.10,485.08,485.02,485.00,484.97,484.90,484.91,485.43,486.25,487.12,487.55,487.53,487.43,487.41,487.47,487.53,487.55,487.56,487.56,487.50,487.55,487.62,487.68,487.74,487.76,487.77,487.80,487.85,487.87,487.87,487.90,487.95,487.96,487.97,488.01,488.05,488.06,488.07,488.12,488.16,488.16,488.17,488.22,488.25,488.26,488.27,488.27,488.37,488.54,488.77,489.00,489.22,489.45,489.68,489.89,489.96,489.99,490.00,490.00,490.00,490.00,490.03,490.08,490.09,490.10,490.10,490.10,490.10,490.10,490.11,490.11,490.12,490.17,490.19,490.19,490.19,490.20,490.20,490.19,490.17,490.11,490.11,490.10,490.10,490.10,490.10,490.09,490.05,490.00,490.00,490.00,490.00,490.00,490.00,489.98,489.86,489.68,489.47,489.31,489.21,489.17,489.17,489.14,488.97,488.97,489.10,489.31,489.51,489.63,489.72,489.80,489.88,489.89,489.93,489.98,489.99,489.99,489.99,489.99,490.00,490.00,490.00,490.00,490.02,490.08,490.09,490.09,490.10,490.11,490.11,490.16,490.19,490.19,490.20,490.26,490.34,490.39,490.39,490.39,490.44,490.48,490.48,490.48,490.49,490.53,490.60,490.68,490.75,490.78,490.81,490.88,490.97,491.10,491.18,491.21,491.27,491.36,491.44,491.51,491.59,491.67,491.75,491.83,491.89,491.89,491.95,492.03,492.09,492.10,492.17,492.20,492.23,492.29,492.37,492.39,492.43,492.50,492.57,492.59,492.63,492.71,492.78,492.78,492.85,492.93,492.98,492.99,493.05,493.09,493.12,493.19,493.26,493.28,493.31,493.38,493.40,493.45,493.52,493.59,493.59
484.79,484.84,484.86,484.87,484.90,484.94,484.95,484.99,485.05,485.06,485.12,485.16,485.18,485.25,485.25,485.30,485.36,485.37,485.44,485.45,485.50,485.56,485.60,485.71,485.83,485.93,486.00,486.08,486.07,486.03,486.00,486.00,485.97,485.93,485.89,485.86,485.81,485.80,485.77,485.70,485.70,485.64,485.60,485.58,485.51,485.50,485.45,485.40,485.39,485.36,485.32,485.28,485.25,485.21,485.17,485.13,485.10,485.09,485.03,485.00,484.97,484.90,484.91,485.34,486.19,487.21,487.80,487.82,487.73,487.67,487.66,487.66,487.69,487.73,487.76,487.77,487.80,487.82,487.82,487.85,487.90,487.94,487.99,488.06,488.11,488.12,488.13,488.16,488.17,488.20,488.24,488.26,488.27,488.31,488.34,488.37,488.37,488.41,488.45,488.46,488.48,488.51,488.51,488.65,488.85,489.08,489.28,489.50,489.71,489.88,489.98,490.00,490.00,490.00,490.00,490.04,490.06,490.07,490.10,490.10,490.10,490.10,490.10,490.11,490.14,490.16,490.16,490.16,490.19,490.20,490.20,490.20,490.20,490.20,490.20,490.19,490.16,490.16,490.13,490.10,490.10,490.10,490.10,490.08,490.04,490.01,490.00,490.00,490.00,490.00,490.00,489.91,489.77,489.60,489.48,489.44,489.42,489.42,489.40,489.23,489.08,489.08,489.27,489.50,489.68,489.82,489.92,489.95,489.95,489.98,490.00,490.00,490.00,490.00,490.00,490.00,490.00,490.03,490.06,490.06,490.10,490.14,490.16,490.16,490.16,490.16,490.18,490.22,490.26,490.30,490.34,490.40,490.47,490.50,490.51,490.53,490.56,490.56,490.60,490.61,490.65,490.73,490.81,490.88,490.91,490.94,491.01,491.10,491.20,491.27,491.33,491.40,491.44,491.50,491.58,491.65,491.74,491.81,491.89,491.95,491.96,492.02,492.07,492.11,492.16,492.23,492.25,492.28,492.36,492.44,492.45,492.50,492.56,492.60,492.64,492.68,492.71,492.75,492.79,492.89,492.97,493.00,493.05,493.09,493.12,493.16,493.21,493.27,493.33,493.37,493.40,493.44,493.48,493.54,493.61,493.65
484.82,484.88,484.91,484.92,484.93,485.00,485.02,485.05,485.12,485.12,485.19,485.22,485.24,485.31,485.32,485.37,485.42,485.43,485.50,485.52,485.55,485.62,485.63,485.75,485.85,485.93,486.02,486.10,486.11,486.07,486.02,486.00,486.00,485.97,485.92,485.89,485.84,485.81,485.77,485.72,485.70,485.65,485.61,485.59,485.53,485.50,485.46,485.41,485.40,485.40,485.34,485.30,485.28,485.22,485.20,485.16,485.10,485.09,485.03,485.00,484.98,484.92,484.91,485.23,486.05,487.21,488.02,488.12,488.05,487.97,487.88,487.80,487.81,487.87,487.93,488.00,488.03,488.01,487.98,487.98,488.04,488.10,488.17,488.24,488.30,488.33,488.35,488.36,488.38,488.43,488.47,488.48,488.49,488.54,488.57,488.57,488.59,488.65,488.66,488.67,488.69,488.75,488.79,488.94,489.16,489.38,489.56,489.74,489.89,490.00,490.00,490.00,490.00,490.00,490.02,490.08,490.10,490.10,490.10,490.10,490.10,490.11,490.12,490.13,490.18,490.20,490.20,490.20,490.20,490.20,490.20,490.20,490.20,490.20,490.20,490.20,490.20,490.20,490.16,490.11,490.10,490.10,490.10,490.10,490.09,490.03,490.00,490.00,490.00,490.00,490.00,489.95,489.86,489.73,489.67,489.66,489.66,489.66,489.64,489.53,489.29,489.14,489.23,489.44,489.67,489.87,490.00,490.00,490.00,490.00,490.00,490.00,490.01,490.02,490.02,490.02,490.02,490.07,490.11,490.12,490.13,490.19,490.22,490.22,490.22,490.22,490.23,490.27,490.34,490.41,490.43,490.48,490.54,490.61,490.64,490.64,490.64,490.66,490.73,490.74,490.78,490.86,490.94,491.01,491.04,491.07,491.15,491.22,491.30,491.38,491.45,491.51,491.53,491.58,491.66,491.72,491.80,491.88,491.94,492.00,492.00,492.05,492.08,492.09,492.16,492.22,492.24,492.26,492.33,492.42,492.47,492.52,492.58,492.58,492.64,492.67,492.68,492.69,492.77,492.91,493.00,493.03,493.09,493.11,493.16,493.20,493.23,493.28,493.35,493.40,493.43,493.49,493.51,493.55,493.62,493.69
484.88,484.89,484.94,484.99,485.00,485.06,485.09,485.12,485.18,485.19,485.25,485.28,485.30,485.38,485.38,485.44,485.49,485.50,485.57,485.59,485.63,485.68,485.69,485.77,485.85,485.95,486.08,486.17,486.13,486.10,486.07,486.01,486.00,485.99,485.97,485.90,485.89,485.84,485.79,485.77,485.72,485.69,485.65,485.60,485.58,485.52,485.49,485.46,485.41,485.40,485.34,485.30,485.28,485.22,485.20,485.16,485.10,485.09,485.03,485.00,485.00,484.97,484.92,485.11,485.88,487.15,488.23,488.43,488.37,488.28,488.14,488.05,488.00,487.97,488.00,488.07,488.14,488.19,488.24,488.24,488.25,488.26,488.29,488.36,488.38,488.44,488.50,488.57,488.63,488.65,488.69,488.74,488.74,488.75,488.80,488.84,488.84,488.85,488.85,488.89,488.94,488.96,489.08,489.23,489.42,489.65,489.87,489.95,489.98,490.00,490.00,490.00,490.00,490.02,490.08,490.10,490.10,490.10,490.10,490.10,490.10,490.13,490.19,490.19,490.20,490.20,490.20,490.20,490.20,490.20,490.20,490.20,490.20,490.20,490.20,490.20,490.20,490.20,490.19,490.16,490.11,490.10,490.10,490.10,490.10,490.08,490.02,490.00,490.00,490.00,490.00,489.99,489.94,489.87,489.85,489.85,489.85,489.85,489.85,489.83,489.65,489.41,489.25,489.38,489.60,489.83,490.00,490.00,490.00,490.00,490.00,490.01,490.07,490.09,490.09,490.09,490.09,490.10,490.14,490.19,490.19,490.26,490.28,490.28,490.28,490.28,490.34,490.37,490.40,490.48,490.54,490.58,490.61,490.68,490.75,490.77,490.77,490.78,490.86,490.87,490.91,490.99,491.06,491.15,491.17,491.20,491.27,491.35,491.43,491.51,491.57,491.59,491.64,491.72,491.77,491.79,491.87,491.94,491.99,492.00,492.00,492.01,492.01,492.02,492.03,492.04,492.05,492.05,492.08,492.22,492.35,492.46,492.51,492.52,492.53,492.57,492.62,492.63,492.76,492.91,493.03,493.08,493.10,493.16,493.19,493.22,493.27,493.30,493.35,493.43,493.48,493.50,493.55,493.59,493.62,493.69
484.94,484.95,485.00,485.05,485.06,485.13,485.15,485.19,485.25,485.25,485.31,485.35,485.37,485.44,485.45,485.50,485.55,485.56,485.63,485.65,485.69,485.75,485.75,485.78,485.87,485.99,486.10,486.18,486.17,486.13,486.09,486.05,486.02,486.00,485.98,485.91,485.90,485.85,485.80,485.78,485.72,485.70,485.66,485.60,485.59,485.53,485.50,485.49,485.45,485.41,485.37,485.33,485.29,485.25,485.22,485.18,485.14,485.10,485.06,485.02,485.00,484.99,484.92,484.99,485.69,487.00,488.24,488.66,488.68,488.56,488.45,488.37,488.26,488.18,488.15,488.15,488.18,488.24,488.31,488.35,488.39,488.43,488.48,488.54,488.55,488.58,488.63,488.71,488.79,488.83,488.87,488.91,488.95,488.99,489.02,489.05,489.06,489.09,489.10,489.12,489.16,489.20,489.34,489.52,489.70,489.85,489.97,490.00,490.00,490.00,490.00,490.03,490.05,490.06,490.10,490.10,490.10,490.10,490.11,490.14,490.15,490.17,490.20,490.20,490.20,490.20,490.20,490.20,490.20,490.20,490.20,490.20,490.20,490.20,490.20,490.20,490.20,490.20,490.20,490.19,490.14,490.11,490.10,490.10,490.10,490.10,490.06,490.05,490.04,490.00,490.00,490.00,489.98,489.95,489.95,489.95,489.95,489.95,489.95,489.95,489.87,489.70,489.49,489.38,489.54,489.75,489.92,489.99,490.00,490.00,490.01,490.05,490.09,490.10,490.10,490.11,490.14,490.15,490.19,490.25,490.25,490.29,490.33,490.35,490.35,490.35,490.41,490.45,490.47,490.54,490.62,490.65,490.68,490.75,490.83,490.88,490.90,490.92,490.99,491.00,491.04,491.12,491.19,491.27,491.30,491.33,491.40,491.44,491.51,491.55,491.55,491.55,491.59,491.62,491.65,491.66,491.69,491.73,491.75,491.75,491.75,491.75,491.75,491.75,491.76,491.79,491.85,491.93,492.01,492.13,492.27,492.37,492.41,492.45,492.45,492.48,492.53,492.61,492.76,492.91,493.03,493.10,493.14,493.18,493.22,493.26,493.30,493.34,493.38,493.43,493.50,493.54,493.58,493.62,493.66,493.70
485.00,485.01,485.06,485.12,485.13,485.19,485.22,485.25,485.31,485.32,485.38,485.42,485.44,485.50,485.51,485.56,485.62,485.63,485.69,485.72,485.75,485.80,485.81,485.81,485.90,486.03,486.12,486.18,486.20,486.17,486.12,486.10,486.04,486.01,485.98,485.93,485.90,485.86,485.81,485.79,485.73,485.71,485.67,485.61,485.60,485.54,485.51,485.50,485.49,485.42,485.40,485.37,485.31,485.30,485.24,485.20,485.18,485.11,485.10,485.05,485.00,484.99,484.92,484.90,485.53,486.86,488.19,488.87,488.98,488.85,488.77,488.69,488.56,488.44,488.36,488.28,488.25,488.27,488.34,488.41,488.49,488.56,488.64,488.71,488.72,488.73,488.78,488.86,488.92,488.98,489.02,489.05,489.13,489.20,489.23,489.24,489.25,489.32,489.34,489.35,489.38,489.46,489.60,489.78,489.94,489.99,490.00,490.00,490.01,490.01,490.02,490.07,490.10,490.10,490.10,490.10,490.11,490.12,490.13,490.19,490.20,490.20,490.20,490.20,490.20,490.21,490.22,490.22,490.22,490.22,490.22,490.22,490.22,490.22,490.22,490.21,490.20,490.20,490.20,490.20,490.19,490.13,490.12,490.11,490.10,490.10,490.10,490.10,490.08,490.02,490.00,490.00,490.00,490.00,490.00,490.00,490.00,490.00,490.00,490.00,490.00,489.94,489.78,489.47,489.51,489.67,489.82,489.96,490.00,490.00,490.03,490.09,490.10,490.10,490.11,490.13,490.20,490.22,490.25,490.30,490.31,490.31,490.36,490.40,490.42,490.42,490.48,490.52,490.54,490.61,490.69,490.72,490.75,490.82,490.90,490.96,491.00,491.03,491.09,491.11,491.15,491.22,491.28,491.36,491.38,491.41,491.48,491.47,491.51,491.50,491.44,491.43,491.42,491.43,491.43,491.43,491.43,491.43,491.43,491.43,491.43,491.43,491.44,491.47,491.50,491.56,491.69,491.85,491.99,492.08,492.22,492.28,492.30,492.36,492.38,492.39,492.45,492.60,492.76,492.91,493.04,493.13,493.20,493.22,493.25,493.30,493.32,493.38,493.41,493.44,493.50,493.58,493.61,493.65,493.70,493.72
485.06,485.07,485.13,485.18,485.19,485.26,485.27,485.31,485.37,485.38,485.44,485.47,485.50,485.56,485.57,485.63,485.68,485.69,485.76,485.77,485.79,485.81,485.87,485.88,485.94,486.04,486.17,486.20,486.20,486.19,486.17,486.11,486.09,486.04,486.00,485.98,485.92,485.89,485.86,485.80,485.78,485.73,485.69,485.67,485.61,485.59,485.54,485.50,485.49,485.42,485.40,485.37,485.31,485.30,485.24,485.20,485.18,485.11,485.10,485.05,485.00,484.99,484.92,484.90,485.51,486.80,488.20,489.09,489.30,489.17,489.09,489.01,488.88,488.76,488.67,488.54,488.46,488.41,488.40,488.48,488.55,488.63,488.70,488.78,488.84,488.90,488.97,489.04,489.05,489.07,489.12,489.18,489.26,489.33,489.40,489.44,489.45,489.52,489.53,489.57,489.63,489.72,489.86,489.94,489.99,490.00,490.00,490.00,490.03,490.07,490.08,490.10,490.10,490.10,490.10,490.10,490.14,490.18,490.18,490.20,490.20,490.20,490.20,490.20,490.20,490.24,490.27,490.27,490.27,490.27,490.27,490.27,490.27,490.27,490.27,490.26,490.21,490.20,490.20,490.20,490.20,490.18,490.18,490.15,490.10,490.10,490.10,490.10,490.10,490.07,490.01,490.00,490.00,490.00,490.00,490.00,490.00,490.00,490.00,490.00,490.00,489.99,489.94,489.80,489.62,489.60,489.75,489.90,489.98,490.00,490.03,490.09,490.10,490.10,490.13,490.19,490.26,490.27,490.29,490.32,490.37,490.38,490.39,490.43,490.47,490.48,490.54,490.61,490.66,490.68,490.75,490.81,490.86,490.89,490.96,490.99,491.02,491.08,491.10,491.15,491.19,491.20,491.23,491.30,491.32,491.35,491.40,491.35,491.31,491.25,491.17,491.12,491.11,491.11,491.11,491.11,491.11,491.11,491.11,491.11,491.11,491.11,491.17,491.30,491.41,491.50,491.63,491.78,491.93,492.07,492.17,492.23,492.23,492.24,492.30,492.36,492.45,492.60,492.76,492.91,493.06,493.19,493.26,493.27,493.29,493.31,493.37,493.39,493.44,493.49,493.51,493.58,493.65,493.69,493.71,493.77
485.13,485.15,485.19,485.25,485.25,485.33,485.35,485.38,485.44,485.45,485.51,485.54,485.56,485.64,485.65,485.69,485.75,485.76,485.83,485.85,485.85,485.86,485.93,485.94,485.99,486.08,486.19,486.24,486.22,486.20,486.19,486.12,486.10,486.06,486.00,485.99,485.93,485.90,485.87,485.81,485.80,485.74,485.70,485.69,485.65,485.61,485.57,485.53,485.50,485.46,485.42,485.38,485.35,485.34,485.28,485.25,485.23,485.19,485.16,485.12,485.07,485.04,485.03,484.98,485.59,486.94,488.27,489.30,489.62,489.53,489.42,489.30,489.19,489.08,489.00,488.85,488.75,488.68,488.61,488.59,488.60,488.65,488.73,488.81,488.88,488.96,489.04,489.10,489.14,489.17,489.23,489.31,489.39,489.43,489.50,489.56,489.60,489.67,489.72,489.77,489.84,489.89,489.97,490.00,490.00,490.00,490.00,490.02,490.06,490.10,490.10,490.10,490.10,490.10,490.11,490.14,490.17,490.20,490.20,490.20,490.20,490.20,490.21,490.24,490.25,490.27,490.30,490.30,490.30,490.30,490.30,490.30,490.30,490.30,490.30,490.29,490.25,490.25,490.22,490.20,490.20,490.20,490.20,490.18,490.14,490.11,490.10,490.10,490.10,490.09,490.06,490.04,490.04,490.04,490.01,490.00,490.00,490.00,490.00,490.00,490.00,490.00,489.99,489.94,489.78,489.67,489.69,489.84,489.96,490.00,490.01,490.06,490.09,490.10,490.13,490.20,490.25,490.29,490.32,490.36,490.40,490.44,490.44,490.46,490.50,490.54,490.58,490.64,490.70,490.70,490.74,490.80,490.85,490.87,490.94,490.96,490.98,491.02,491.05,491.09,491.13,491.15,491.16,491.20,491.23,491.26,491.25,491.19,491.11,491.03,490.95,490.88,490.84,490.80,490.78,490.78,490.78,490.78,490.80,490.84,490.90,490.94,491.04,491.19,491.35,491.46,491.60,491.75,491.87,492.02,492.09,492.13,492.15,492.16,492.23,492.33,492.45,492.60,492.76,492.91,493.06,493.21,493.28,493.33,493.35,493.36,493.40,493.43,493.47,493.51,493.55,493.63,493.68,493.72,493.75,493.79
