497.42,497.10,496.79,496.50,496.25,495.95,495.64,495.35,495.08,495.00,494.99,494.99,494.99,494.99,494.99,494.99,494.99,494.99,494.99,494.99,494.99,494.99,494.99,494.99,494.99,494.99,494.99,494.99,494.99,494.99,494.99,494.99,495.05,495.09,495.11,495.17,495.19,495.24,495.31,495.39,495.47,495.53,495.57,495.60,495.68,495.75,495.83,495.90,495.97,496.04,496.12,496.17,496.20,496.27,496.35,496.43,496.50,496.58,496.65,496.74,496.78,496.79,496.87,496.94,497.02,497.08,497.09,497.15,497.24,497.35,497.50,497.64,497.75,497.86,498.00,498.16,498.26,498.38,498.52,498.66,498.75,498.88,499.01,499.10,499.25,499.35,499.47,499.61,499.75,499.78,499.78,499.80,499.88,499.88,499.89,499.96,500.07,500.14,500.21,500.26,500.26,500.27,500.34,500.38,500.41,500.48,500.55,500.64,500.79,500.99,501.15,501.37,501.56,501.71,501.88,502.08,502.26,502.39,502.49,502.64,502.86,503.05,503.22,503.44,503.61,503.81,504.02,504.16,504.25,504.32,504.37,504.36,504.36,504.37,504.43,504.52,504.66,504.74,504.82,504.90,504.96,504.98,505.04,505.09,505.09,505.09,505.09,505.09,505.09,505.11,505.17,505.19,505.19,505.17,505.09,505.02,504.95,504.84,504.69,504.53,504.38,504.22,504.06,503.91,503.76,503.60,503.43,503.27,503.06,502.94,502.91,502.98,503.05,503.08,503.12,503.19,503.27,503.28,503.33,503.40,503.46,503.47,503.52,503.56,503.56,503.57,503.63,503.67,503.67,503.67,503.73,503.76,503.76,503.76,503.76,503.76,503.76,503.76,503.77,503.82,503.86,503.87,503.87,503.87,503.87,503.89,503.95,503.96,503.97,503.97,503.97,503.97,504.03,504.06,504.02,503.85,503.63,503.62,503.67,503.69,503.76,503.83,503.87,503.90,503.96,504.04,504.12,504.17,504.19,504.25,504.33,504.37,504.39,504.40,504.40,504.44,504.49,504.49,504.49,504.54,504.62,504.71,504.84,504.88,504.93,505.00,505.06,505.14,505.22,505.29,505.37,505.46,505.59,505.71,505.79,505.88
497.54,497.21,496.90,496.61,496.33,496.03,495.72,495.42,495.20,495.15,495.15,495.15,495.13,495.10,495.10,495.10,495.10,495.10,495.10,495.10,495.10,495.10,495.14,495.15,495.15,495.15,495.15,495.15,495.15,495.15,495.15,495.15,495.18,495.20,495.20,495.25,495.28,495.35,495.41,495.46,495.53,495.61,495.67,495.71,495.78,495.83,495.90,495.98,496.05,496.13,496.20,496.26,496.31,496.38,496.43,496.49,496.56,496.65,496.73,496.80,496.85,496.86,496.93,497.01,497.09,497.15,497.15,497.22,497.29,497.38,497.51,497.66,497.78,497.90,498.02,498.17,498.29,498.41,498.54,498.69,498.81,498.95,499.08,499.16,499.31,499.40,499.52,499.67,499.78,499.84,499.85,499.87,499.94,499.98,500.02,500.09,500.20,500.28,500.33,500.37,500.40,500.40,500.44,500.47,500.52,500.60,500.64,500.74,500.90,501.12,501.28,501.50,501.69,501.84,502.00,502.23,502.40,502.54,502.67,502.82,503.00,503.18,503.35,503.57,503.74,503.94,504.15,504.29,504.38,504.45,504.49,504.49,504.49,504.49,504.52,504.59,504.74,504.83,504.90,504.97,505.00,505.04,505.11,505.15,505.15,505.15,505.15,505.15,505.15,505.16,505.23,505.25,505.23,505.19,505.11,505.06,505.00,504.92,504.79,504.64,504.49,504.33,504.18,504.02,503.84,503.67,503.51,503.35,503.13,503.02,503.01,503.05,503.13,503.15,503.19,503.26,503.33,503.35,503.39,503.47,503.54,503.58,503.62,503.67,503.69,503.70,503.76,503.79,503.79,503.80,503.87,503.90,503.90,503.90,503.90,503.90,503.90,503.90,503.94,503.98,503.99,503.99,503.99,503.99,504.02,504.06,504.09,504.10,504.10,504.10,504.10,504.14,504.18,504.20,504.16,504.02,503.77,503.73,503.76,503.81,503.88,503.93,503.97,504.01,504.09,504.17,504.22,504.26,504.30,504.38,504.43,504.44,504.44,504.44,504.44,504.47,504.50,504.50,504.50,504.58,504.68,504.77,504.92,504.98,505.04,505.12,505.19,505.27,505.35,505.43,505.50,505.58,505.71,505.83,505.91,505.99
497.67,497.33,497.02,496.71,496.40,496.09,495.78,495.52,495.36,495.34,495.34,495.34,495.32,495.25,495.24,495.24,495.24,495.24,495.24,495.24,495.24,495.25,495.31,495.33,495.33,495.33,495.33,495.33,495.33,495.33,495.33,495.34,495.34,495.34,495.34,495.35,495.41,495.47,495.51,495.54,495.60,495.68,495.75,495.83,495.90,495.92,495.97,496.03,496.12,496.19,496.27,496.35,496.42,496.50,496.52,496.56,496.63,496.71,496.78,496.87,496.92,496.93,497.00,497.08,497.15,497.21,497.22,497.28,497.36,497.44,497.52,497.66,497.81,497.94,498.04,498.18,498.33,498.45,498.55,498.70,498.85,499.00,499.13,499.23,499.37,499.47,499.59,499.73,499.80,499.89,499.94,499.97,500.05,500.12,500.19,500.25,500.33,500.41,500.43,500.47,500.52,500.52,500.53,500.57,500.64,500.70,500.73,500.84,501.03,501.25,501.41,501.62,501.81,501.97,502.14,502.36,502.53,502.69,502.85,503.01,503.16,503.31,503.48,503.70,503.87,504.07,504.28,504.42,504.51,504.58,504.63,504.64,504.64,504.63,504.64,504.69,504.82,504.90,504.97,505.01,505.03,505.10,505.17,505.21,505.22,505.22,505.22,505.22,505.22,505.24,505.30,505.31,505.26,505.19,505.13,505.11,505.05,504.98,504.90,504.77,504.61,504.45,504.29,504.14,503.93,503.74,503.58,503.42,503.20,503.11,503.11,503.14,503.21,503.24,503.27,503.35,503.42,503.43,503.47,503.55,503.61,503.69,503.71,503.74,503.81,503.83,503.88,503.92,503.93,503.93,504.00,504.02,504.02,504.02,504.02,504.02,504.03,504.05,504.11,504.13,504.13,504.13,504.13,504.13,504.18,504.22,504.22,504.22,504.22,504.23,504.25,504.31,504.33,504.33,504.30,504.19,503.90,503.82,503.86,503.93,504.00,504.02,504.07,504.14,504.21,504.28,504.32,504.36,504.43,504.50,504.51,504.51,504.51,504.51,504.51,504.51,504.51,504.51,504.51,504.63,504.75,504.84,504.99,505.09,505.17,505.25,505.32,505.40,505.47,505.55,505.63,505.71,505.85,505.96,506.04,506.12
497.86,497.44,497.08,496.77,496.47,496.16,495.85,495.65,495.60,495.54,495.53,495.53,495.51,495.44,495.43,495.43,495.43,495.43,495.43,495.43,495.43,495.44,495.45,495.45,495.45,495.45,495.45,495.45,495.45,495.45,495.47,495.52,495.53,495.53,495.53,495.53,495.55,495.57,495.60,495.65,495.68,495.74,495.81,495.90,495.97,496.03,496.06,496.10,496.18,496.25,496.34,496.41,496.49,496.56,496.63,496.67,496.69,496.77,496.85,496.93,496.97,496.99,497.06,497.13,497.22,497.27,497.28,497.35,497.43,497.50,497.58,497.68,497.81,497.96,498.09,498.19,498.33,498.48,498.62,498.76,498.87,499.00,499.15,499.28,499.38,499.51,499.65,499.79,499.87,500.00,500.09,500.17,500.29,500.33,500.35,500.39,500.47,500.54,500.55,500.60,500.66,500.66,500.66,500.67,500.70,500.78,500.84,500.97,501.16,501.38,501.54,501.71,501.90,502.10,502.26,502.49,502.66,502.82,502.98,503.19,503.31,503.44,503.61,503.83,504.00,504.20,504.41,504.55,504.63,504.72,504.78,504.83,504.83,504.78,504.82,504.92,504.96,505.03,505.07,505.07,505.09,505.16,505.19,505.23,505.27,505.27,505.27,505.27,505.30,505.35,505.37,505.33,505.26,505.20,505.18,505.13,505.06,505.00,504.97,504.88,504.71,504.51,504.36,504.20,503.99,503.80,503.64,503.48,503.26,503.18,503.20,503.26,503.33,503.40,503.47,503.53,503.55,503.55,503.60,503.66,503.68,503.75,503.77,503.80,503.88,503.94,503.97,504.01,504.05,504.06,504.13,504.16,504.16,504.16,504.16,504.16,504.18,504.23,504.25,504.25,504.25,504.25,504.26,504.31,504.35,504.36,504.36,504.36,504.36,504.39,504.44,504.45,504.45,504.45,504.43,504.31,503.98,503.92,503.99,504.05,504.08,504.13,504.20,504.26,504.28,504.36,504.42,504.49,504.55,504.57,504.57,504.57,504.57,504.57,504.57,504.57,504.57,504.57,504.57,504.69,504.81,504.90,505.05,505.19,505.30,505.38,505.45,505.53,505.61,505.69,505.76,505.84,505.97,506.09,506.17,506.25
498.02,497.59,497.19,496.84,496.53,496.22,495.96,495.83,495.81,495.75,495.73,495.73,495.71,495.64,495.63,495.63,495.62,495.59,495.59,495.59,495.59,495.59,495.59,495.59,495.59,495.59,495.63,495.63,495.63,495.63,495.64,495.68,495.69,495.70,495.73,495.73,495.73,495.73,495.74,495.78,495.79,495.85,495.91,495.96,496.03,496.12,496.16,496.20,496.25,496.32,496.40,496.48,496.55,496.63,496.70,496.75,496.76,496.84,496.92,497.00,497.04,497.05,497.13,497.20,497.28,497.34,497.35,497.41,497.49,497.56,497.61,497.68,497.81,497.97,498.11,498.19,498.33,498.48,498.63,498.75,498.86,499.00,499.14,499.26,499.37,499.52,499.67,499.81,499.89,500.04,500.15,500.24,500.35,500.42,500.47,500.52,500.60,500.67,500.69,500.71,500.75,500.78,500.78,500.78,500.81,500.89,500.97,501.10,501.29,501.51,501.67,501.82,502.02,502.23,502.39,502.59,502.77,502.95,503.12,503.34,503.48,503.61,503.77,503.97,504.16,504.36,504.54,504.68,504.76,504.85,504.90,504.94,504.94,504.90,504.95,505.04,505.05,505.12,505.15,505.15,505.16,505.23,505.25,505.28,505.34,505.35,505.35,505.35,505.37,505.43,505.41,505.34,505.28,505.24,505.20,505.13,505.07,505.03,505.00,504.96,504.81,504.62,504.47,504.28,504.08,503.89,503.71,503.55,503.33,503.25,503.27,503.35,503.43,503.52,503.62,503.69,503.72,503.73,503.77,503.83,503.84,503.90,503.93,503.94,503.99,504.07,504.09,504.13,504.18,504.19,504.25,504.28,504.28,504.28,504.28,504.31,504.35,504.38,504.39,504.39,504.39,504.39,504.43,504.47,504.49,504.49,504.49,504.49,504.51,504.55,504.59,504.59,504.59,504.59,504.56,504.44,504.09,504.04,504.10,504.15,504.18,504.25,504.31,504.35,504.39,504.46,504.51,504.56,504.60,504.60,504.63,504.65,504.65,504.65,504.65,504.62,504.60,504.61,504.67,504.75,504.83,504.92,505.04,505.27,505.43,505.50,505.58,505.66,505.74,505.81,505.89,505.97,506.11,506.22,506.30,506.38
498.14,497.76,497.33,496.92,496.61,496.30,496.11,496.02,496.00,495.94,495.92,495.92,495.90,495.83,495.82,495.82,495.79,495.73,495.73,495.73,495.72,495.72,495.72,495.73,495.73,495.75,495.80,495.81,495.81,495.81,495.82,495.82,495.82,495.86,495.91,495.91,495.91,495.91,495.92,495.93,495.93,495.98,496.02,496.03,496.10,496.18,496.25,496.30,496.33,496.40,496.47,496.54,496.62,496.69,496.77,496.81,496.83,496.90,496.98,497.06,497.11,497.12,497.19,497.26,497.34,497.40,497.41,497.48,497.55,497.61,497.62,497.69,497.82,497.96,498.10,498.19,498.32,498.47,498.61,498.71,498.84,498.99,499.12,499.22,499.36,499.51,499.66,499.80,499.88,500.03,500.13,500.22,500.31,500.44,500.53,500.61,500.70,500.78,500.81,500.82,500.84,500.90,500.91,500.92,500.94,501.01,501.09,501.23,501.42,501.64,501.80,501.95,502.15,502.36,502.51,502.67,502.88,503.08,503.25,503.47,503.64,503.79,503.94,504.11,504.33,504.51,504.67,504.81,504.90,504.97,505.00,505.00,505.01,505.01,505.06,505.11,505.12,505.19,505.20,505.21,505.23,505.29,505.31,505.35,505.41,505.41,505.41,505.41,505.43,505.48,505.42,505.35,505.31,505.28,505.22,505.14,505.11,505.08,505.02,505.00,504.90,504.75,504.58,504.36,504.19,504.00,503.78,503.63,503.41,503.33,503.36,503.42,503.50,503.62,503.74,503.81,503.89,503.90,503.95,504.01,504.03,504.09,504.11,504.12,504.14,504.21,504.23,504.26,504.32,504.33,504.39,504.42,504.42,504.42,504.42,504.47,504.51,504.51,504.51,504.51,504.52,504.54,504.60,504.62,504.62,504.62,504.62,504.62,504.68,504.71,504.72,504.72,504.72,504.72,504.71,504.59,504.23,504.17,504.21,504.23,504.30,504.37,504.41,504.44,504.51,504.58,504.60,504.61,504.61,504.61,504.66,504.69,504.69,504.69,504.69,504.66,504.61,504.63,504.75,504.80,504.83,504.91,505.00,505.33,505.55,505.63,505.71,505.79,505.87,505.94,506.02,506.10,506.24,506.35,506.43,506.50
498.27,497.89,497.49,497.09,496.74,496.42,496.27,496.21,496.20,496.13,496.12,496.12,496.10,496.03,496.01,496.01,495.99,495.92,495.92,495.92,495.89,495.86,495.91,495.92,495.92,495.93,495.94,495.95,495.95,495.97,496.01,496.01,496.01,496.03,496.04,496.04,496.04,496.08,496.12,496.12,496.12,496.13,496.15,496.15,496.18,496.24,496.32,496.39,496.45,496.52,496.56,496.61,496.69,496.76,496.84,496.88,496.89,496.97,497.04,497.13,497.18,497.19,497.25,497.34,497.38,497.41,497.47,497.54,497.62,497.68,497.69,497.75,497.84,497.95,498.05,498.18,498.28,498.41,498.56,498.69,498.79,498.93,499.08,499.21,499.31,499.45,499.60,499.74,499.82,499.97,500.07,500.17,500.29,500.40,500.49,500.58,500.71,500.85,500.92,500.95,500.95,500.98,501.03,501.04,501.05,501.09,501.21,501.36,501.55,501.77,501.93,502.08,502.28,502.49,502.64,502.80,503.01,503.21,503.38,503.60,503.77,503.93,504.08,504.24,504.46,504.64,504.80,504.94,505.02,505.06,505.07,505.07,505.08,505.12,505.16,505.18,505.18,505.25,505.27,505.29,505.35,505.37,505.38,505.42,505.47,505.47,505.47,505.47,505.48,505.49,505.42,505.38,505.35,505.30,505.27,505.20,505.14,505.10,505.07,505.01,504.97,504.88,504.72,504.49,504.32,504.13,503.91,503.75,503.58,503.51,503.52,503.55,503.63,503.72,503.80,503.88,503.96,504.02,504.09,504.16,504.22,504.24,504.28,504.32,504.33,504.40,504.42,504.45,504.51,504.52,504.54,504.54,504.54,504.55,504.60,504.63,504.65,504.65,504.65,504.65,504.68,504.72,504.74,504.74,504.74,504.74,504.75,504.80,504.83,504.85,504.85,504.85,504.85,504.88,504.91,504.83,504.43,504.29,504.29,504.36,504.43,504.46,504.50,504.56,504.64,504.67,504.68,504.68,504.68,504.68,504.69,504.70,504.70,504.70,504.70,504.69,504.68,504.69,504.77,504.80,504.83,504.91,505.00,505.37,505.64,505.76,505.84,505.92,506.00,506.07,506.15,506.23,506.37,506.48,506.56,506.63
498.33,497.95,497.58,497.21,496.84,496.57,496.45,496.41,496.40,496.36,496.35,496.33,496.30,496.25,496.25,496.23,496.19,496.15,496.14,496.13,496.07,496.02,496.06,496.08,496.08,496.08,496.11,496.11,496.11,496.13,496.17,496.18,496.18,496.19,496.21,496.21,496.21,496.24,496.27,496.27,496.27,496.30,496.31,496.31,496.31,496.35,496.40,496.46,496.54,496.62,496.63,496.67,496.75,496.83,496.88,496.91,496.95,497.03,497.11,497.17,497.21,497.25,497.32,497.40,497.44,497.45,497.53,497.61,497.67,497.71,497.74,497.81,497.90,497.96,498.02,498.14,498.23,498.35,498.50,498.65,498.74,498.87,499.02,499.17,499.27,499.40,499.53,499.68,499.76,499.90,500.01,500.11,500.25,500.34,500.42,500.53,500.68,500.84,500.95,501.03,501.08,501.08,501.12,501.16,501.18,501.19,501.31,501.48,501.67,501.87,502.05,502.21,502.41,502.62,502.77,502.93,503.14,503.34,503.50,503.70,503.88,504.05,504.21,504.40,504.60,504.77,504.92,505.03,505.12,505.13,505.15,505.17,505.18,505.22,505.24,505.24,505.28,505.32,505.34,505.37,505.43,505.44,505.44,505.48,505.53,505.53,505.53,505.53,505.53,505.50,505.45,505.41,505.38,505.33,505.30,505.23,505.17,505.13,505.10,505.05,505.01,504.96,504.84,504.62,504.45,504.27,504.08,503.92,503.72,503.63,503.66,503.75,503.82,503.88,503.94,504.01,504.07,504.14,504.22,504.29,504.37,504.40,504.44,504.48,504.51,504.56,504.58,504.61,504.67,504.68,504.68,504.68,504.68,504.72,504.76,504.77,504.77,504.77,504.77,504.80,504.84,504.88,504.88,504.88,504.88,504.88,504.92,504.96,504.97,504.97,504.97,504.97,505.00,505.02,505.03,504.98,504.59,504.44,504.43,504.48,504.53,504.56,504.60,504.65,504.73,504.74,504.74,504.74,504.74,504.74,504.74,504.74,504.74,504.74,504.74,504.74,504.74,504.74,504.79,504.82,504.86,504.91,504.98,505.40,505.72,505.86,505.97,506.05,506.13,506.20,506.28,506.36,506.49,506.61,506.69,506.76
498.33,497.95,497.60,497.26,496.93,496.75,496.66,496.62,496.61,496.61,496.60,496.56,496.51,496.50,496.50,496.46,496.41,496.41,496.41,496.35,496.26,496.20,496.20,496.21,496.21,496.24,496.29,496.30,496.30,496.30,496.30,496.31,496.31,496.35,496.40,496.40,496.40,496.40,496.41,496.41,496.41,496.47,496.50,496.50,496.50,496.50,496.51,496.53,496.61,496.68,496.70,496.74,496.81,496.89,496.91,496.95,497.02,497.10,497.17,497.20,497.24,497.30,497.38,497.46,497.50,497.52,497.60,497.67,497.71,497.73,497.80,497.88,497.95,498.00,498.02,498.10,498.18,498.29,498.44,498.59,498.68,498.80,498.96,499.11,499.25,499.35,499.47,499.61,499.69,499.84,499.95,500.05,500.19,500.27,500.36,500.47,500.63,500.78,500.93,501.08,501.19,501.20,501.21,501.25,501.30,501.31,501.38,501.57,501.76,501.94,502.16,502.33,502.53,502.73,502.88,503.05,503.25,503.45,503.61,503.77,503.99,504.18,504.35,504.57,504.74,504.89,505.02,505.11,505.18,505.20,505.23,505.29,505.29,505.30,505.31,505.32,505.38,505.40,505.41,505.44,505.50,505.50,505.50,505.54,505.60,505.61,505.61,505.61,505.58,505.51,505.50,505.45,505.40,505.38,505.32,505.24,505.21,505.18,505.12,505.10,505.05,505.00,504.95,504.75,504.59,504.43,504.27,504.10,503.82,503.71,503.76,503.97,504.08,504.11,504.15,504.21,504.22,504.29,504.36,504.43,504.50,504.57,504.61,504.64,504.69,504.70,504.71,504.75,504.80,504.80,504.80,504.80,504.83,504.89,504.91,504.91,504.91,504.91,504.91,504.96,505.00,505.00,505.00,505.00,505.00,505.03,505.09,505.11,505.11,505.11,505.11,505.12,505.17,505.14,505.09,505.04,504.70,504.60,504.60,504.61,504.61,504.67,504.70,504.72,504.78,504.80,504.80,504.81,504.81,504.81,504.81,504.81,504.81,504.81,504.81,504.81,504.81,504.81,504.81,504.87,504.91,504.92,504.95,505.43,505.79,505.95,506.09,506.18,506.25,506.33,506.41,506.49,506.62,506.74,506.82,506.90
498.32,497.95,497.58,497.25,497.05,496.98,496.91,496.87,496.87,496.86,496.82,496.78,496.76,496.76,496.76,496.71,496.67,496.67,496.66,496.56,496.43,496.34,496.34,496.38,496.40,496.41,496.43,496.44,496.44,496.44,496.44,496.49,496.50,496.51,496.53,496.53,496.53,496.53,496.55,496.60,496.60,496.62,496.64,496.64,496.64,496.64,496.64,496.64,496.67,496.75,496.76,496.80,496.88,496.95,496.97,497.01,497.09,497.16,497.19,497.24,497.29,497.38,497.45,497.49,497.53,497.58,497.66,497.74,497.76,497.79,497.87,497.94,498.02,498.06,498.08,498.15,498.19,498.25,498.37,498.52,498.66,498.77,498.89,499.04,499.14,499.27,499.41,499.55,499.63,499.77,499.88,499.98,500.13,500.21,500.32,500.47,500.62,500.77,500.93,501.08,501.23,501.32,501.34,501.35,501.38,501.43,501.46,501.61,501.80,502.00,502.18,502.38,502.57,502.75,502.91,503.10,503.29,503.48,503.68,503.84,504.06,504.25,504.42,504.64,504.81,504.97,505.10,505.17,505.19,505.24,505.30,505.36,505.37,505.37,505.37,505.39,505.45,505.47,505.47,505.50,505.56,505.56,505.56,505.61,505.67,505.67,505.67,505.67,505.64,505.57,505.51,505.48,505.44,505.39,505.37,505.30,505.26,505.25,505.17,505.12,505.08,505.04,504.99,504.91,504.77,504.62,504.45,504.24,503.95,503.77,503.79,504.07,504.31,504.37,504.40,504.46,504.47,504.53,504.58,504.61,504.64,504.71,504.77,504.81,504.83,504.84,504.87,504.91,504.93,504.94,504.94,504.94,504.96,505.02,505.03,505.03,505.03,505.03,505.03,505.05,505.09,505.14,505.14,505.14,505.14,505.16,505.23,505.24,505.24,505.26,505.30,505.30,505.27,505.19,505.09,505.01,504.80,504.74,504.76,504.79,504.75,504.75,504.76,504.77,504.80,504.80,504.84,504.87,504.87,504.87,504.87,504.87,504.87,504.87,504.87,504.87,504.87,504.87,504.92,504.95,504.99,505.03,505.06,505.51,505.88,506.07,506.22,506.31,506.38,506.46,506.54,506.62,506.75,506.87,506.95,507.02
498.29,497.91,497.57,497.32,497.21,497.19,497.15,497.13,497.13,497.12,497.05,497.02,497.02,497.02,497.00,496.96,496.93,496.92,496.87,496.74,496.60,496.50,496.50,496.54,496.56,496.56,496.56,496.56,496.58,496.60,496.61,496.65,496.66,496.66,496.66,496.66,496.69,496.69,496.71,496.76,496.76,496.76,496.76,496.76,496.76,496.74,496.74,496.74,496.75,496.81,496.84,496.87,496.94,497.02,497.03,497.08,497.15,497.22,497.24,497.28,497.36,497.43,497.49,497.52,497.57,497.65,497.72,497.78,497.81,497.86,497.94,498.01,498.09,498.14,498.17,498.22,498.24,498.27,498.36,498.47,498.62,498.72,498.83,498.97,499.05,499.19,499.35,499.48,499.56,499.71,499.81,499.92,500.06,500.14,500.28,500.44,500.59,500.75,500.91,501.08,501.24,501.38,501.45,501.46,501.48,501.53,501.56,501.66,501.83,502.03,502.21,502.41,502.59,502.75,502.94,503.14,503.33,503.52,503.72,503.90,504.10,504.29,504.48,504.69,504.87,505.00,505.10,505.17,505.19,505.26,505.34,505.40,505.43,505.44,505.44,505.48,505.53,505.53,505.55,505.58,505.63,505.63,505.65,505.69,505.73,505.74,505.74,505.71,505.68,505.63,505.55,505.53,505.50,505.44,505.43,505.37,505.32,505.29,505.23,505.15,505.13,505.10,505.03,505.00,504.91,504.81,504.67,504.41,504.13,503.89,503.89,504.26,504.52,504.61,504.66,504.72,504.73,504.77,504.79,504.80,504.83,504.88,504.93,504.96,504.96,504.96,505.02,505.06,505.06,505.06,505.06,505.06,505.09,505.15,505.16,505.16,505.16,505.16,505.16,505.16,505.19,505.24,505.24,505.25,505.26,505.28,505.33,505.34,505.35,505.39,505.43,505.40,505.33,505.22,505.10,505.00,504.87,504.84,504.86,504.88,504.84,504.84,504.84,504.84,504.84,504.84,504.87,504.91,504.93,504.94,504.94,504.94,504.96,504.96,504.99,505.00,505.00,505.03,505.08,505.11,505.15,505.20,505.24,505.62,505.97,506.19,506.32,506.43,506.51,506.59,506.67,506.75,506.87,506.98,507.07,507.16
498.24,497.86,497.61,497.47,497.40,497.39,497.39,497.38,497.38,497.38,497.32,497.28,497.28,497.28,497.21,497.19,497.18,497.16,497.03,496.88,496.75,496.68,496.68,496.69,496.69,496.70,496.70,496.70,496.75,496.78,496.78,496.79,496.79,496.79,496.80,496.80,496.86,496.88,496.88,496.89,496.89,496.89,496.89,496.89,496.88,496.83,496.80,496.80,496.81,496.88,496.90,496.93,497.00,497.08,497.10,497.14,497.22,497.28,497.29,497.35,497.43,497.49,497.50,497.56,497.63,497.71,497.78,497.80,497.85,497.92,498.00,498.07,498.14,498.22,498.28,498.29,498.30,498.34,498.40,498.43,498.56,498.66,498.76,498.90,498.99,499.13,499.28,499.42,499.50,499.64,499.75,499.86,500.00,500.09,500.22,500.38,500.53,500.69,500.89,501.08,501.23,501.38,501.52,501.58,501.59,501.61,501.67,501.75,501.87,502.04,502.26,502.44,502.60,502.77,502.98,503.16,503.36,503.56,503.74,503.95,504.13,504.32,504.53,504.69,504.90,505.00,505.04,505.11,505.18,505.26,505.34,505.41,505.48,505.50,505.54,505.59,505.60,505.60,505.65,505.69,505.69,505.70,505.75,505.79,505.79,505.79,505.79,505.75,505.70,505.69,505.62,505.60,505.56,505.50,505.49,505.43,505.36,505.30,505.28,505.22,505.19,505.17,505.09,505.02,504.99,504.98,504.89,504.62,504.36,504.08,504.07,504.54,504.74,504.83,504.91,504.97,504.97,504.98,504.98,505.00,505.06,505.08,505.09,505.09,505.09,505.09,505.16,505.19,505.19,505.19,505.19,505.19,505.22,505.28,505.29,505.29,505.29,505.29,505.29,505.29,505.29,505.30,505.31,505.37,505.39,505.39,505.40,505.40,505.45,505.49,505.48,505.41,505.33,505.25,505.14,505.01,504.92,504.90,504.90,504.91,504.90,504.90,504.90,504.90,504.91,504.91,504.92,504.95,505.00,505.01,505.01,505.04,505.10,505.11,505.16,505.19,505.21,505.27,505.29,505.34,505.38,505.41,505.48,505.75,506.07,506.31,506.40,506.54,506.64,506.72,506.80,506.88,506.96,507.07,507.20,507.28
498.18,497.91,497.75,497.67,497.65,497.64,497.64,497.64,497.63,497.59,497.56,497.55,497.55,497.54,497.46,497.44,497.43,497.36,497.21,497.06,496.92,496.82,496.82,496.82,496.82,496.84,496.88,496.88,496.91,496.92,496.92,496.92,496.92,496.95,496.98,496.99,497.01,497.02,497.02,497.02,497.02,497.02,497.00,496.96,496.96,496.94,496.89,496.88,496.92,496.95,497.00,497.04,497.08,497.15,497.16,497.20,497.28,497.35,497.36,497.42,497.49,497.55,497.56,497.62,497.70,497.76,497.80,497.84,497.90,497.99,498.06,498.09,498.15,498.23,498.30,498.35,498.40,498.44,498.46,498.47,498.52,498.62,498.74,498.85,498.97,499.08,499.22,499.36,499.49,499.60,499.71,499.83,499.94,500.06,500.21,500.37,500.52,500.67,500.85,501.02,501.18,501.33,501.49,501.60,501.68,501.72,501.75,501.82,501.91,502.04,502.26,502.44,502.62,502.81,503.00,503.20,503.39,503.58,503.78,503.97,504.16,504.36,504.53,504.69,504.87,504.97,505.03,505.10,505.18,505.26,505.34,505.42,505.54,505.60,505.64,505.66,505.66,505.66,505.72,505.76,505.76,505.76,505.83,505.86,505.86,505.86,505.86,505.81,505.76,505.75,505.68,505.66,505.63,505.55,505.50,505.47,505.42,505.36,505.35,505.28,505.26,505.23,505.15,505.08,505.06,505.04,504.97,504.83,504.50,504.19,504.22,504.74,504.90,504.98,505.05,505.12,505.12,505.12,505.15,505.19,505.22,505.22,505.22,505.22,505.22,505.22,505.28,505.32,505.32,505.32,505.32,505.32,505.35,505.41,505.42,505.42,505.42,505.42,505.42,505.42,505.40,505.38,505.42,505.45,505.46,505.48,505.51,505.52,505.54,505.56,505.53,505.42,505.33,505.25,505.16,505.06,504.98,504.96,504.96,504.97,505.01,505.02,505.02,505.03,505.07,505.08,505.08,505.11,505.18,505.18,505.18,505.22,505.29,505.34,505.37,505.41,505.45,505.48,505.53,505.57,505.60,505.65,505.69,505.87,506.16,506.44,506.52,506.62,506.74,506.85,506.93,507.00,507.08,507.18,507.28,507.41
498.18,498.02,497.94,497.91,497.91,497.91,497.91,497.91,497.89,497.82,497.80,497.80,497.80,497.77,497.72,497.69,497.64,497.53,497.38,497.23,497.07,496.96,496.95,496.97,496.98,497.00,497.04,497.05,497.05,497.05,497.05,497.08,497.08,497.11,497.15,497.15,497.15,497.15,497.15,497.15,497.13,497.13,497.10,497.05,497.03,497.02,496.99,496.97,497.02,497.02,497.08,497.13,497.16,497.21,497.24,497.28,497.35,497.42,497.43,497.48,497.55,497.60,497.62,497.69,497.76,497.82,497.83,497.90,497.98,498.04,498.10,498.12,498.18,498.26,498.34,498.42,498.49,498.52,498.52,498.52,498.52,498.61,498.73,498.82,498.97,499.06,499.17,499.32,499.46,499.56,499.68,499.80,499.88,500.01,500.18,500.34,500.50,500.65,500.80,500.96,501.11,501.26,501.42,501.58,501.71,501.79,501.84,501.91,501.98,502.07,502.27,502.45,502.65,502.85,503.03,503.24,503.42,503.61,503.82,503.97,504.17,504.36,504.51,504.67,504.82,504.94,505.03,505.10,505.18,505.26,505.34,505.42,505.56,505.64,505.70,505.72,505.73,505.75,505.79,505.82,505.83,505.85,505.90,505.93,505.93,505.93,505.90,505.86,505.82,505.79,505.74,505.72,505.69,505.62,505.54,505.52,505.48,505.43,505.42,505.35,505.31,505.27,505.22,505.14,505.13,505.08,505.02,504.97,504.59,504.28,504.33,504.87,504.99,505.06,505.13,505.20,505.22,505.22,505.27,505.33,505.35,505.35,505.35,505.35,505.35,505.35,505.40,505.44,505.45,505.45,505.45,505.46,505.50,505.54,505.55,505.55,505.54,505.53,505.52,505.52,505.50,505.47,505.52,505.52,505.54,505.57,505.62,505.63,505.63,505.62,505.57,505.44,505.36,505.28,505.21,505.15,505.09,505.08,505.08,505.09,505.16,505.18,505.18,505.20,505.27,505.28,505.29,505.33,505.38,505.38,505.39,505.43,505.49,505.57,505.58,505.62,505.68,505.71,505.76,505.79,505.83,505.88,505.91,506.00,506.26,506.57,506.65,506.72,506.84,506.95,507.04,507.13,507.21,507.29,507.38,507.51
498.25,498.19,498.17,498.17,498.17,498.17,498.17,498.17,498.15,498.08,498.07,498.07,498.05,497.99,497.96,497.91,497.81,497.67,497.51,497.36,497.20,497.09,497.09,497.15,497.17,497.17,497.18,497.18,497.19,497.19,497.20,497.25,497.26,497.27,497.28,497.28,497.28,497.28,497.28,497.27,497.21,497.19,497.19,497.16,497.10,497.09,497.09,497.08,497.09,497.09,497.15,497.22,497.28,497.29,497.35,497.38,497.41,497.48,497.49,497.54,497.60,497.62,497.68,497.75,497.83,497.88,497.89,497.96,498.03,498.10,498.12,498.17,498.25,498.33,498.40,498.48,498.55,498.59,498.59,498.59,498.59,498.65,498.73,498.82,498.96,499.06,499.17,499.31,499.40,499.54,499.65,499.74,499.81,499.90,500.08,500.27,500.43,500.58,500.73,500.89,501.04,501.20,501.36,501.51,501.66,501.80,501.94,502.03,502.08,502.13,502.29,502.50,502.68,502.87,503.08,503.25,503.45,503.65,503.81,503.97,504.13,504.29,504.44,504.60,504.75,504.90,505.02,505.10,505.18,505.25,505.34,505.41,505.50,505.58,505.69,505.78,505.80,505.86,505.89,505.89,505.90,505.96,505.99,505.99,505.99,505.98,505.93,505.90,505.87,505.81,505.79,505.78,505.75,505.68,505.61,505.59,505.54,505.49,505.48,505.42,505.34,505.30,505.28,505.21,505.19,505.15,505.07,504.98,504.63,504.34,504.39,504.92,505.00,505.06,505.13,505.21,505.27,505.28,505.33,505.40,505.47,505.48,505.48,505.48,505.48,505.48,505.49,505.53,505.58,505.58,505.58,505.62,505.67,505.68,505.68,505.68,505.65,505.60,505.59,505.59,505.59,505.58,505.59,505.59,505.64,505.68,505.69,505.69,505.69,505.66,505.58,505.50,505.42,505.35,505.29,505.28,505.27,505.27,505.27,505.28,505.36,505.37,505.37,505.39,505.46,505.47,505.52,505.56,505.57,505.58,505.63,505.66,505.69,505.76,505.77,505.82,505.90,505.95,505.97,506.02,506.06,506.09,506.15,506.18,506.39,506.70,506.78,506.86,506.94,507.02,507.11,507.25,507.34,507.42,507.49,507.58
498.45,498.43,498.43,498.43,498.43,498.43,498.43,498.43,498.41,498.34,498.32,498.32,498.30,498.23,498.18,498.08,497.97,497.85,497.70,497.54,497.39,497.27,497.27,497.30,497.31,497.31,497.31,497.31,497.34,497.37,497.37,497.40,497.41,497.41,497.41,497.41,497.41,497.38,497.36,497.35,497.32,497.28,497.25,497.25,497.21,497.17,497.16,497.16,497.16,497.20,497.23,497.29,497.35,497.36,497.42,497.45,497.48,497.55,497.60,497.63,497.67,497.71,497.75,497.81,497.87,497.91,497.95,498.02,498.11,498.16,498.17,498.24,498.31,498.39,498.47,498.54,498.62,498.66,498.67,498.70,498.71,498.73,498.77,498.81,498.92,499.04,499.15,499.27,499.39,499.50,499.62,499.72,499.80,499.88,500.00,500.15,500.31,500.46,500.62,500.77,500.93,501.09,501.27,501.44,501.60,501.75,501.91,502.04,502.14,502.23,502.35,502.52,502.72,502.91,503.10,503.25,503.43,503.61,503.76,503.92,504.07,504.23,504.38,504.53,504.69,504.85,504.97,505.05,505.13,505.21,505.30,505.41,505.49,505.57,505.69,505.81,505.86,505.94,505.95,505.95,505.97,506.04,506.06,506.06,506.06,506.05,505.99,505.95,505.93,505.86,505.86,505.82,505.78,505.74,505.67,505.66,505.61,505.56,505.54,505.48,505.40,505.36,505.34,505.27,505.22,505.16,505.08,504.99,504.68,504.38,504.40,504.94,505.00,505.06,505.13,505.21,505.28,505.30,505.34,505.42,505.50,505.54,505.59,505.61,505.61,505.61,505.61,505.65,505.71,505.71,505.71,505.76,505.81,505.80,505.76,505.75,505.74,505.71,505.71,505.71,505.71,505.71,505.71,505.71,505.73,505.75,505.76,505.80,505.78,505.70,505.60,505.56,505.52,505.49,505.46,505.46,505.46,505.46,505.46,505.48,505.55,505.57,505.57,505.59,505.66,505.70,505.75,505.76,505.77,505.81,505.85,505.89,505.93,505.96,506.00,506.04,506.09,506.16,506.17,506.22,506.28,506.32,506.36,506.41,506.56,506.78,506.90,506.99,507.06,507.14,507.22,507.33,507.42,507.50,507.57,507.65
498.69,498.69,498.69,498.69,498.68,498.66,498.66,498.66,498.65,498.60,498.59,498.57,498.54,498.48,498.39,498.26,498.13,498.02,497.87,497.72,497.56,497.44,497.44,497.44,497.44,497.44,497.46,497.46,497.50,497.54,497.54,497.54,497.54,497.54,497.54,497.52,497.52,497.48,497.44,497.42,497.42,497.37,497.34,497.32,497.31,497.26,497.23,497.22,497.23,497.30,497.32,497.36,497.42,497.44,497.49,497.53,497.56,497.62,497.69,497.72,497.75,497.82,497.84,497.89,497.93,497.95,498.02,498.09,498.16,498.20,498.23,498.30,498.38,498.45,498.53,498.61,498.69,498.73,498.75,498.81,498.82,498.82,498.82,498.83,498.90,499.02,499.12,499.23,499.38,499.47,499.58,499.71,499.78,499.86,499.94,500.05,500.20,500.36,500.51,500.66,500.81,500.98,501.18,501.36,501.52,501.69,501.85,502.00,502.16,502.29,502.39,502.54,502.73,502.93,503.08,503.24,503.39,503.55,503.70,503.85,504.00,504.16,504.31,504.47,504.63,504.78,504.91,505.00,505.08,505.16,505.26,505.39,505.47,505.56,505.68,505.81,505.90,505.98,506.01,506.02,506.05,506.11,506.12,506.12,506.12,506.10,506.04,506.01,505.98,505.93,505.92,505.87,505.82,505.80,505.74,505.72,505.68,505.62,505.59,505.52,505.46,505.41,505.38,505.31,505.24,505.16,505.08,504.99,504.73,504.42,504.42,504.94,505.00,505.06,505.13,505.21,505.28,505.30,505.34,505.42,505.50,505.57,505.65,505.70,505.70,505.71,505.74,505.78,505.84,505.84,505.84,505.89,505.94,505.93,505.88,505.85,505.84,505.84,505.84,505.84,505.84,505.84,505.84,505.84,505.84,505.84,505.85,505.90,505.86,505.76,505.66,505.66,505.66,505.66,505.66,505.66,505.66,505.65,505.65,505.68,505.75,505.76,505.76,505.78,505.86,505.94,505.96,505.96,505.97,506.04,506.06,506.10,506.16,506.17,506.23,506.27,506.30,506.36,506.38,506.43,506.49,506.56,506.56,506.63,506.74,506.88,507.01,507.11,507.19,507.27,507.34,507.41,507.48,507.55,507.63,507.72
498.94,498.94,498.94,498.94,498.93,498.87,498.86,498.86,498.86,498.85,498.85,498.80,498.75,498.72,498.60,498.45,498.30,498.16,498.00,497.85,497.69,497.57,497.57,497.57,497.57,497.59,497.65,497.66,497.66,497.67,497.67,497.67,497.67,497.67,497.65,497.59,497.59,497.58,497.54,497.49,497.49,497.48,497.44,497.39,497.38,497.37,497.33,497.28,497.29,497.37,497.38,497.42,497.49,497.56,497.58,497.62,497.67,497.69,497.76,497.78,497.81,497.89,497.95,497.98,498.02,498.07,498.09,498.15,498.19,498.22,498.29,498.37,498.44,498.51,498.60,498.68,498.75,498.82,498.87,498.88,498.88,498.88,498.88,498.90,498.97,499.00,499.09,499.23,499.38,499.47,499.56,499.64,499.72,499.80,499.87,499.98,500.13,500.29,500.44,500.60,500.75,500.91,501.07,501.23,501.41,501.62,501.78,501.94,502.09,502.24,502.38,502.54,502.70,502.86,503.01,503.17,503.33,503.48,503.63,503.78,503.94,504.10,504.25,504.41,504.56,504.72,504.86,505.00,505.08,505.16,505.24,505.32,505.41,505.54,505.65,505.76,505.89,505.98,506.04,506.11,506.17,506.18,506.19,506.19,506.17,506.11,506.09,506.04,506.00,505.99,505.99,505.93,505.88,505.87,505.80,505.78,505.74,505.67,505.60,505.52,505.49,505.46,505.39,505.31,505.24,505.16,505.08,505.00,504.77,504.49,504.47,504.94,505.00,505.06,505.13,505.21,505.28,505.30,505.34,505.42,505.50,505.57,505.65,505.70,505.71,505.77,505.84,505.91,505.97,505.97,505.97,506.02,506.07,506.07,506.06,506.00,505.97,505.97,505.97,505.97,505.97,505.97,505.97,505.97,505.97,505.97,505.97,505.98,505.93,505.87,505.86,505.86,505.86,505.86,505.86,505.86,505.86,505.81,505.80,505.87,505.94,505.96,505.96,505.98,506.05,506.13,506.16,506.16,506.17,506.24,506.25,506.29,506.35,506.36,506.43,506.49,506.54,506.56,506.62,506.65,506.69,506.75,506.76,506.82,506.91,507.00,507.09,507.22,507.32,507.40,507.47,507.49,507.55,507.63,507.70,507.78
499.15,499.15,499.15,499.15,499.15,499.11,499.10,499.10,499.10,499.10,499.10,499.05,498.98,498.89,498.75,498.59,498.44,498.29,498.13,498.01,497.87,497.75,497.71,497.74,497.75,497.76,497.80,497.80,497.80,497.80,497.80,497.80,497.77,497.75,497.74,497.70,497.67,497.65,497.63,497.60,497.56,497.55,497.53,497.49,497.45,497.45,497.43,497.40,497.41,497.44,497.48,497.52,497.56,497.63,497.65,497.69,497.76,497.80,497.84,497.88,497.92,497.96,498.03,498.05,498.09,498.16,498.19,498.24,498.27,498.31,498.36,498.43,498.50,498.59,498.66,498.74,498.81,498.89,498.95,498.95,498.95,498.95,498.97,499.00,499.04,499.05,499.11,499.22,499.34,499.45,499.55,499.62,499.70,499.78,499.83,499.90,500.03,500.22,500.38,500.53,500.69,500.84,501.00,501.15,501.32,501.51,501.70,501.90,502.07,502.24,502.43,502.59,502.74,502.88,503.00,503.12,503.26,503.42,503.57,503.72,503.88,504.03,504.19,504.34,504.50,504.65,504.80,504.95,505.03,505.11,505.19,505.27,505.39,505.53,505.65,505.75,505.89,505.98,506.05,506.13,506.20,506.24,506.25,506.23,506.19,506.16,506.15,506.10,506.05,506.04,506.01,505.97,505.95,505.93,505.86,505.81,505.75,505.68,505.60,505.56,505.52,505.47,505.39,505.31,505.24,505.16,505.08,505.00,504.82,504.53,504.49,504.94,505.00,505.06,505.13,505.21,505.29,505.34,505.37,505.42,505.50,505.57,505.65,505.70,505.72,505.78,505.83,505.89,505.96,506.00,506.03,506.10,506.15,506.15,506.15,506.09,506.05,506.05,506.05,506.05,506.05,506.04,506.00,506.00,506.00,506.01,506.05,506.05,506.05,506.05,506.05,506.05,506.05,506.05,506.05,506.04,506.01,505.97,505.98,506.06,506.14,506.15,506.15,506.17,506.25,506.32,506.35,506.36,506.40,506.44,506.48,506.52,506.56,506.60,506.63,506.70,506.75,506.76,506.83,506.88,506.92,506.96,506.99,507.07,507.15,507.21,507.30,507.41,507.50,507.58,507.65,507.69,507.76,507.82,507.87,507.94
499.35,499.36,499.36,499.36,499.36,499.36,499.36,499.36,499.36,499.36,499.35,499.29,499.19,499.05,498.89,498.74,498.58,498.43,498.28,498.18,498.05,497.92,497.86,497.91,497.93,497.93,497.93,497.93,497.93,497.93,497.92,497.91,497.86,497.82,497.81,497.81,497.75,497.72,497.72,497.70,497.65,497.62,497.62,497.60,497.54,497.52,497.51,497.51,497.51,497.51,497.57,497.62,497.64,497.70,497.73,497.76,497.84,497.90,497.92,497.97,498.02,498.04,498.10,498.13,498.16,498.23,498.30,498.33,498.37,498.42,498.44,498.50,498.56,498.63,498.71,498.79,498.86,498.94,499.00,499.01,499.03,499.03,499.05,499.11,499.12,499.12,499.15,499.21,499.29,499.43,499.53,499.61,499.69,499.76,499.79,499.83,499.94,500.13,500.30,500.46,500.62,500.77,500.94,501.10,501.26,501.44,501.66,501.90,502.09,502.27,502.48,502.65,502.80,502.94,503.01,503.10,503.23,503.38,503.52,503.67,503.82,503.97,504.12,504.27,504.43,504.59,504.74,504.88,504.98,505.06,505.14,505.23,505.38,505.52,505.63,505.75,505.89,505.98,506.05,506.13,506.21,506.30,506.31,506.28,506.23,506.22,506.22,506.17,506.13,506.11,506.05,506.02,506.01,506.00,505.93,505.84,505.77,505.70,505.63,505.60,505.55,505.47,505.39,505.31,505.24,505.16,505.08,505.00,504.87,504.57,504.49,504.94,505.00,505.06,505.13,505.21,505.29,505.36,505.39,505.42,505.50,505.57,505.64,505.69,505.71,505.77,505.79,505.84,505.91,505.98,506.05,506.13,506.19,506.19,506.19,506.13,506.10,506.10,506.10,506.09,506.08,506.07,506.01,506.01,506.01,506.04,506.11,506.12,506.18,506.22,506.23,506.23,506.24,506.24,506.23,506.22,506.16,506.15,506.18,506.25,506.31,506.34,506.35,506.36,506.44,506.52,506.54,506.57,506.63,506.65,506.70,506.74,506.76,506.83,506.86,506.90,506.95,506.97,507.03,507.12,507.16,507.19,507.26,507.34,507.42,507.49,507.57,507.65,507.73,507.80,507.88,507.95,508.01,508.05,508.08,508.15
499.54,499.60,499.62,499.62,499.62,499.62,499.62,499.62,499.62,499.62,499.56,499.46,499.33,499.24,499.09,498.93,498.78,498.62,498.47,498.33,498.18,498.06,498.04,498.05,498.06,498.06,498.06,498.06,498.06,498.03,497.98,497.98,497.96,497.93,497.88,497.88,497.86,497.82,497.78,497.77,497.76,497.71,497.68,497.68,497.66,497.60,497.58,497.58,497.58,497.58,497.63,497.71,497.76,497.78,497.83,497.87,497.90,497.97,497.98,498.03,498.10,498.16,498.18,498.23,498.26,498.30,498.37,498.43,498.47,498.50,498.55,498.58,498.59,498.63,498.71,498.79,498.87,498.94,499.01,499.08,499.14,499.16,499.16,499.18,499.18,499.18,499.19,499.22,499.29,499.38,499.47,499.55,499.62,499.70,499.76,499.83,499.92,500.02,500.17,500.36,500.55,500.72,500.93,501.10,501.27,501.50,501.72,501.96,502.18,502.38,502.56,502.72,502.87,503.00,503.08,503.15,503.29,503.42,503.52,503.67,503.78,503.90,504.05,504.21,504.37,504.52,504.68,504.83,504.97,505.06,505.14,505.23,505.38,505.48,505.60,505.75,505.89,505.98,506.05,506.13,506.22,506.35,506.38,506.37,506.35,506.29,506.28,506.27,506.24,506.18,506.16,506.11,506.08,506.06,505.99,505.92,505.83,505.75,505.68,505.62,505.55,505.47,505.39,505.31,505.24,505.16,505.08,505.01,504.92,504.64,504.54,504.95,505.00,505.06,505.13,505.21,505.28,505.31,505.36,505.42,505.50,505.57,505.61,505.64,505.70,505.72,505.77,505.84,505.90,505.93,505.99,506.07,506.12,506.12,506.12,506.11,506.10,506.10,506.09,506.05,506.02,506.01,506.01,506.06,506.08,506.11,506.17,506.18,506.24,506.31,506.36,506.36,506.42,506.40,506.36,506.36,506.34,506.34,506.37,506.44,506.46,506.51,506.54,506.56,506.64,506.71,506.74,506.77,506.83,506.84,506.90,506.94,506.95,507.03,507.10,507.13,507.16,507.22,507.29,507.38,507.44,507.51,507.59,507.66,507.74,507.82,507.89,507.97,508.05,508.13,508.19,508.22,508.27,508.32,508.34,508.41
499.78,499.82,499.83,499.83,499.83,499.83,499.83,499.83,499.83,499.83,499.77,499.65,499.50,499.39,499.24,499.08,498.93,498.77,498.62,498.47,498.31,498.19,498.19,498.19,498.19,498.19,498.19,498.15,498.15,498.13,498.08,498.05,498.04,498.02,497.98,497.95,497.94,497.92,497.88,497.85,497.85,497.81,497.77,497.75,497.74,497.68,497.65,497.65,497.65,497.68,497.72,497.77,497.85,497.88,497.93,497.96,498.00,498.04,498.08,498.14,498.20,498.25,498.28,498.32,498.36,498.41,498.48,498.53,498.57,498.60,498.64,498.65,498.65,498.68,498.75,498.83,498.91,498.99,499.07,499.18,499.23,499.25,499.25,499.25,499.25,499.27,499.29,499.30,499.34,499.42,499.47,499.52,499.60,499.68,499.75,499.83,499.91,499.99,500.16,500.35,500.55,500.74,500.96,501.17,501.36,501.56,501.79,502.02,502.25,502.47,502.63,502.78,502.92,503.03,503.14,503.22,503.36,503.48,503.57,503.71,503.80,503.90,504.03,504.19,504.31,504.46,504.61,504.76,504.92,505.01,505.11,505.23,505.38,505.47,505.59,505.75,505.89,505.98,506.05,506.15,506.26,506.38,506.45,506.49,506.47,506.40,506.39,506.37,506.33,506.29,506.25,506.19,506.15,506.13,506.05,505.98,505.92,505.87,505.78,505.68,505.59,505.51,505.44,505.36,505.28,505.20,505.13,505.05,504.98,504.72,504.61,504.92,504.99,505.06,505.13,505.21,505.29,505.33,505.37,505.42,505.50,505.57,505.60,505.63,505.69,505.70,505.76,505.82,505.86,505.90,505.97,506.05,506.10,506.10,506.10,506.10,506.08,506.06,506.06,506.02,506.00,506.01,506.05,506.12,506.15,506.18,506.24,506.25,506.30,506.38,506.44,506.45,506.51,506.54,506.53,506.53,506.53,506.53,506.55,506.59,506.63,506.70,506.73,506.75,506.83,506.91,506.95,507.00,507.03,507.07,507.11,507.15,507.19,507.27,507.34,507.40,507.45,507.52,507.56,507.63,507.71,507.78,507.83,507.90,507.98,508.04,508.09,508.13,508.19,508.26,508.30,508.34,508.38,508.42,508.46,508.53
500.01,500.01,500.01,500.01,500.02,500.03,500.03,500.02,500.01,500.01,499.93,499.80,499.65,499.51,499.36,499.20,499.05,498.90,498.75,498.59,498.45,498.33,498.32,498.32,498.31,498.31,498.30,498.23,498.21,498.21,498.19,498.13,498.11,498.11,498.09,498.02,498.01,498.01,497.98,497.92,497.91,497.91,497.87,497.81,497.80,497.75,497.71,497.71,497.72,497.78,497.81,497.86,497.93,498.00,498.02,498.06,498.12,498.13,498.19,498.26,498.31,498.34,498.40,498.42,498.46,498.53,498.60,498.62,498.67,498.72,498.72,498.71,498.71,498.75,498.82,498.90,498.98,499.05,499.16,499.29,499.31,499.31,499.31,499.32,499.32,499.37,499.41,499.41,499.42,499.49,499.52,499.54,499.63,499.70,499.78,499.86,499.94,500.02,500.20,500.40,500.58,500.80,501.03,501.26,501.46,501.64,501.86,502.09,502.31,502.52,502.68,502.84,502.95,503.06,503.20,503.30,503.42,503.54,503.63,503.78,503.88,503.95,504.04,504.19,504.29,504.41,504.57,504.71,504.87,504.96,505.07,505.23,505.38,505.47,505.59,505.75,505.89,505.98,506.05,506.16,506.30,506.39,506.52,506.60,506.59,506.53,506.51,506.46,506.41,506.39,506.33,506.25,506.21,506.19,506.12,506.04,506.01,505.98,505.90,505.77,505.67,505.59,505.50,505.43,505.34,505.27,505.20,505.12,505.03,504.81,504.68,504.89,504.98,505.06,505.13,505.21,505.29,505.37,505.40,505.42,505.50,505.56,505.59,505.63,505.69,505.70,505.75,505.79,505.82,505.88,505.96,506.03,506.09,506.10,506.09,506.08,506.06,506.01,506.00,506.01,506.01,506.03,506.11,506.19,506.21,506.24,506.30,506.32,506.37,506.44,506.51,506.52,506.58,506.65,506.71,506.71,506.71,506.72,506.72,506.75,506.82,506.89,506.92,506.95,507.02,507.09,507.16,507.21,507.24,507.29,507.32,507.36,507.44,507.50,507.58,507.66,507.73,507.80,507.81,507.87,507.94,508.00,508.02,508.08,508.15,508.21,508.21,508.22,508.26,508.31,508.33,508.39,508.42,508.45,508.52,508.59
500.15,500.15,500.15,500.15,500.16,500.21,500.22,500.19,500.15,500.14,499.98,499.81,499.68,499.57,499.42,499.27,499.14,499.03,498.88,498.73,498.60,498.51,498.46,498.45,498.41,498.38,498.37,498.29,498.27,498.27,498.26,498.19,498.18,498.18,498.15,498.08,498.07,498.07,498.04,497.98,497.97,497.97,497.94,497.88,497.87,497.86,497.81,497.77,497.78,497.86,497.92,497.98,498.05,498.07,498.12,498.19,498.25,498.26,498.32,498.36,498.40,498.46,498.53,498.55,498.58,498.65,498.68,498.73,498.79,498.85,498.84,498.79,498.77,498.80,498.88,498.96,499.04,499.14,499.27,499.36,499.38,499.38,499.40,499.45,499.45,499.46,499.47,499.49,499.54,499.62,499.65,499.67,499.75,499.82,499.90,499.98,500.06,500.14,500.29,500.49,500.69,500.87,501.09,501.33,501.55,501.75,501.93,502.15,502.36,502.53,502.68,502.84,502.98,503.12,503.27,503.41,503.52,503.61,503.70,503.84,503.94,504.01,504.10,504.20,504.32,504.48,504.61,504.72,504.86,504.96,505.07,505.23,505.38,505.47,505.59,505.75,505.89,505.98,506.05,506.16,506.30,506.39,506.52,506.63,506.67,506.65,506.60,506.52,506.47,506.46,506.39,506.31,506.27,506.26,506.19,506.11,506.07,506.05,505.97,505.88,505.79,505.70,505.57,505.49,505.41,505.33,505.25,505.18,505.05,504.84,504.73,504.89,504.98,505.06,505.13,505.21,505.29,505.37,505.40,505.42,505.49,505.52,505.56,505.61,505.63,505.69,505.72,505.75,505.81,505.83,505.89,505.98,506.05,506.08,506.04,506.03,506.02,506.00,506.00,506.05,506.07,506.10,506.17,506.25,506.27,506.30,506.38,506.44,506.46,506.51,506.57,506.58,506.65,506.72,506.77,506.78,506.83,506.85,506.87,506.93,507.01,507.04,507.08,507.14,507.21,507.24,507.30,507.37,507.42,507.44,507.49,507.56,507.63,507.65,507.72,507.79,507.87,507.94,507.95,508.00,508.08,508.15,508.15,508.21,508.26,508.27,508.28,508.33,508.36,508.38,508.39,508.45,508.47,508.51,508.57,508.60
500.32,500.32,500.32,500.32,500.33,500.36,500.38,500.36,500.30,500.17,499.99,499.81,499.68,499.59,499.45,499.29,499.17,499.08,498.93,498.78,498.68,498.63,498.58,498.55,498.51,498.47,498.44,498.39,498.36,498.34,498.33,498.28,498.25,498.24,498.23,498.18,498.15,498.14,498.11,498.05,498.04,498.04,498.00,497.94,497.94,497.94,497.89,497.85,497.89,497.95,498.03,498.10,498.14,498.18,498.24,498.30,498.35,498.38,498.42,498.46,498.50,498.58,498.63,498.66,498.70,498.74,498.78,498.85,498.91,498.94,498.93,498.86,498.84,498.87,498.95,499.02,499.11,499.22,499.36,499.43,499.44,499.46,499.49,499.53,499.54,499.54,499.55,499.59,499.67,499.72,499.76,499.80,499.88,499.95,500.06,500.15,500.23,500.30,500.42,500.59,500.78,500.97,501.17,501.39,501.62,501.85,502.03,502.23,502.41,502.56,502.72,502.88,503.03,503.19,503.34,503.50,503.60,503.67,503.76,503.91,504.00,504.08,504.15,504.24,504.38,504.52,504.63,504.72,504.86,504.98,505.10,505.23,505.38,505.47,505.59,505.74,505.86,505.97,506.07,506.19,506.31,506.42,506.54,506.65,506.74,506.73,506.67,506.59,506.54,506.53,506.45,506.38,506.34,506.32,506.25,506.17,506.14,506.12,506.04,505.97,505.88,505.79,505.68,505.59,505.49,505.40,505.32,505.20,505.06,504.87,504.78,504.90,504.98,505.06,505.13,505.21,505.29,505.37,505.40,505.42,505.49,505.50,505.55,505.60,505.62,505.69,505.70,505.74,505.80,505.81,505.87,505.93,505.99,506.05,506.01,506.00,506.00,506.01,506.04,506.11,506.14,506.16,506.24,506.31,506.34,506.37,506.44,506.52,506.56,506.60,506.64,506.68,506.75,506.81,506.85,506.89,506.96,507.00,507.04,507.09,507.16,507.20,507.25,507.30,507.37,507.41,507.45,507.50,507.57,507.58,507.64,507.72,507.78,507.78,507.85,507.93,507.99,508.04,508.07,508.13,508.20,508.24,508.27,508.34,508.38,508.38,508.39,508.42,508.44,508.45,508.48,508.53,508.54,508.58,508.64,508.65
500.53,500.52,500.51,500.51,500.51,500.51,500.50,500.50,500.42,500.16,499.97,499.81,499.68,499.59,499.45,499.30,499.18,499.08,498.94,498.80,498.73,498.72,498.71,498.65,498.62,498.59,498.52,498.51,498.45,498.41,498.40,498.40,498.33,498.31,498.30,498.29,498.23,498.20,498.18,498.12,498.11,498.11,498.07,498.01,498.01,498.00,497.96,497.93,498.00,498.07,498.16,498.20,498.23,498.30,498.37,498.40,498.43,498.49,498.51,498.56,498.63,498.69,498.71,498.76,498.80,498.83,498.90,498.97,499.00,499.00,498.99,498.92,498.91,498.94,499.01,499.09,499.17,499.28,499.43,499.49,499.50,499.55,499.60,499.61,499.61,499.61,499.65,499.72,499.79,499.81,499.86,499.94,500.02,500.09,500.21,500.33,500.41,500.49,500.57,500.70,500.87,501.08,501.25,501.46,501.69,501.92,502.15,502.32,502.48,502.63,502.78,502.94,503.10,503.25,503.40,503.56,503.65,503.74,503.83,503.98,504.06,504.15,504.22,504.31,504.44,504.55,504.64,504.72,504.86,505.01,505.14,505.23,505.38,505.47,505.59,505.72,505.81,505.95,506.11,506.23,506.33,506.47,506.57,506.69,506.79,506.80,506.74,506.67,506.61,506.59,506.52,506.45,506.41,506.39,506.31,506.24,506.20,506.19,506.11,506.02,505.95,505.87,505.79,505.71,505.57,505.46,505.36,505.22,505.07,504.91,504.83,504.91,504.98,505.06,505.13,505.21,505.29,505.36,505.39,505.42,505.48,505.50,505.55,505.59,505.61,505.68,505.70,505.74,505.79,505.80,505.86,505.90,505.93,506.00,506.01,506.02,506.02,506.04,506.12,506.18,506.22,506.25,506.32,506.40,506.43,506.46,506.53,506.61,506.67,506.71,506.73,506.80,506.88,506.92,506.94,507.01,507.08,507.16,507.21,507.23,507.29,507.37,507.41,507.43,507.50,507.57,507.61,507.63,507.69,507.70,507.77,507.84,507.90,507.91,507.98,508.05,508.10,508.13,508.19,508.26,508.30,508.33,508.40,508.47,508.50,508.50,508.50,508.50,508.51,508.54,508.59,508.60,508.61,508.65,508.71,508.72
500.78,500.77,500.74,500.71,500.70,500.65,500.64,500.59,500.45,500.21,499.94,499.77,499.68,499.59,499.45,499.33,499.22,499.09,498.99,498.93,498.91,498.91,498.90,498.84,498.77,498.71,498.65,498.64,498.58,498.51,498.47,498.46,498.40,498.37,498.37,498.36,498.29,498.26,498.26,498.23,498.18,498.17,498.16,498.13,498.08,498.06,498.05,498.05,498.08,498.15,498.23,498.29,498.35,498.42,498.46,498.50,498.54,498.57,498.62,498.69,498.75,498.78,498.83,498.86,498.89,498.95,499.02,499.06,499.06,499.05,499.00,498.98,498.97,499.00,499.08,499.15,499.24,499.35,499.49,499.55,499.56,499.62,499.67,499.67,499.67,499.71,499.77,499.84,499.87,499.92,500.01,500.13,500.21,500.28,500.38,500.47,500.54,500.63,500.74,500.86,500.98,501.16,501.37,501.55,501.75,501.98,502.21,502.38,502.54,502.69,502.85,503.00,503.16,503.31,503.47,503.63,503.73,503.82,503.95,504.05,504.13,504.21,504.28,504.37,504.47,504.59,504.69,504.78,504.88,505.02,505.14,505.23,505.38,505.47,505.56,505.67,505.80,505.95,506.11,506.25,506.38,506.48,506.61,506.72,506.83,506.92,506.87,506.79,506.72,506.66,506.58,506.51,506.47,506.45,506.38,506.30,506.26,506.25,506.17,506.09,506.01,505.94,505.86,505.78,505.64,505.50,505.38,505.27,505.13,504.97,504.90,504.96,504.99,505.06,505.13,505.21,505.28,505.32,505.36,505.41,505.44,505.49,505.52,505.55,505.60,505.63,505.67,505.71,505.75,505.80,505.82,505.86,505.93,506.00,506.05,506.11,506.16,506.22,506.29,506.33,506.37,506.43,506.50,506.58,506.64,506.68,506.71,506.79,506.83,506.84,506.85,506.93,507.01,507.07,507.11,507.15,507.22,507.29,507.36,507.41,507.44,507.50,507.53,507.56,507.63,507.71,507.74,507.75,507.78,507.83,507.90,507.95,507.98,508.03,508.11,508.15,508.18,508.24,508.31,508.35,508.39,508.45,508.52,508.56,508.56,508.56,508.56,508.56,508.60,508.65,508.67,508.67,508.71,508.75,508.78,508.83
501.03,501.01,500.97,500.93,500.89,500.82,500.76,500.65,500.47,500.23,499.91,499.73,499.64,499.56,499.44,499.35,499.25,499.14,499.08,499.06,499.06,499.06,499.06,499.00,498.92,498.85,498.81,498.77,498.71,498.63,498.57,498.56,498.50,498.45,498.44,498.43,498.36,498.34,498.34,498.32,498.25,498.24,498.24,498.22,498.15,498.13,498.13,498.13,498.14,498.22,498.29,498.37,498.44,498.52,498.55,498.61,498.67,498.68,498.74,498.80,498.84,498.88,498.95,498.97,499.00,499.07,499.13,499.13,499.13,499.11,499.04,499.03,499.03,499.06,499.11,499.19,499.31,499.45,499.58,499.63,499.66,499.70,499.74,499.76,499.77,499.82,499.91,499.97,500.00,500.07,500.18,500.29,500.37,500.47,500.55,500.63,500.71,500.79,500.91,501.01,501.10,501.26,501.46,501.65,501.84,502.05,502.28,502.45,502.60,502.73,502.88,503.04,503.19,503.35,503.50,503.65,503.77,503.90,504.04,504.12,504.19,504.27,504.35,504.43,504.50,504.63,504.76,504.83,504.89,505.00,505.11,505.20,505.34,505.46,505.54,505.65,505.80,505.95,506.11,506.26,506.41,506.52,506.64,506.75,506.86,506.98,506.98,506.92,506.84,506.76,506.69,506.61,506.55,506.52,506.45,506.37,506.34,506.31,506.24,506.15,506.08,506.00,505.92,505.82,505.70,505.56,505.41,505.31,505.18,505.03,504.95,505.00,505.03,505.07,505.13,505.21,505.28,505.30,505.34,505.41,505.44,505.51,505.53,505.56,505.63,505.66,505.73,505.78,505.82,505.89,505.92,505.98,506.05,506.13,506.19,506.26,506.33,506.41,506.48,506.52,506.57,506.66,506.73,506.80,506.87,506.90,506.91,506.95,506.99,507.00,507.02,507.09,507.15,507.22,507.27,507.30,507.35,507.42,507.50,507.56,507.57,507.63,507.67,507.69,507.76,507.84,507.87,507.87,507.88,507.95,508.01,508.05,508.08,508.16,508.24,508.26,508.29,508.37,508.44,508.47,508.50,508.57,508.62,508.63,508.63,508.63,508.64,508.66,508.70,508.74,508.74,508.76,508.81,508.84,508.85,508.92
501.28,501.22,501.19,501.15,501.08,501.00,500.87,500.69,500.47,500.23,499.88,499.67,499.59,499.51,499.43,499.35,499.28,499.21,499.20,499.20,499.20,499.20,499.19,499.13,499.06,499.00,498.98,498.92,498.85,498.77,498.70,498.69,498.63,498.56,498.51,498.50,498.43,498.40,498.40,498.38,498.31,498.29,498.29,498.28,498.21,498.19,498.19,498.19,498.21,498.27,498.36,498.43,498.51,498.59,498.66,498.74,498.79,498.80,498.87,498.90,498.93,499.00,499.07,499.09,499.13,499.19,499.20,499.20,499.19,499.18,499.11,499.10,499.10,499.10,499.12,499.21,499.39,499.58,499.69,499.70,499.77,499.79,499.82,499.88,499.90,499.95,500.03,500.11,500.19,500.26,500.34,500.43,500.51,500.65,500.74,500.82,500.90,500.98,501.06,501.14,501.24,501.39,501.54,501.75,501.95,502.12,502.34,502.51,502.63,502.74,502.89,503.04,503.20,503.35,503.51,503.66,503.81,503.96,504.10,504.19,504.26,504.34,504.42,504.50,504.57,504.69,504.82,504.88,504.89,504.96,505.04,505.13,505.29,505.44,505.54,505.65,505.80,505.95,506.11,506.26,506.42,506.56,506.66,506.78,506.91,507.00,507.07,507.04,506.97,506.89,506.81,506.74,506.66,506.60,506.51,506.44,506.40,506.38,506.30,506.23,506.14,506.06,505.97,505.84,505.74,505.61,505.47,505.33,505.23,505.11,505.00,505.02,505.08,505.11,505.15,505.23,505.30,505.32,505.37,505.44,505.51,505.59,505.62,505.65,505.72,505.80,505.87,505.95,506.01,506.09,506.16,506.23,506.31,506.38,506.40,506.45,506.53,506.62,506.69,506.76,506.83,506.91,506.98,507.05,507.08,507.09,507.10,507.11,507.16,507.19,507.21,507.28,507.30,507.35,507.42,507.48,507.49,507.55,507.63,507.69,507.70,507.76,507.80,507.82,507.90,507.97,507.99,507.99,508.01,508.08,508.10,508.14,508.21,508.29,508.36,508.39,508.42,508.50,508.57,508.59,508.63,508.69,508.71,508.71,508.71,508.71,508.71,508.77,508.79,508.80,508.81,508.87,508.89,508.90,508.92,508.99
501.49,501.42,501.36,501.30,501.21,501.04,500.88,500.69,500.47,500.23,499.91,499.69,499.58,499.50,499.43,499.38,499.35,499.33,499.33,499.33,499.33,499.33,499.33,499.30,499.24,499.17,499.12,499.04,499.00,498.95,498.89,498.83,498.76,498.71,498.68,498.63,498.55,498.49,498.47,498.45,498.38,498.37,498.37,498.34,498.28,498.26,498.26,498.26,498.27,498.34,498.42,498.50,498.58,498.65,498.73,498.80,498.88,498.92,498.95,499.00,499.05,499.12,499.16,499.20,499.24,499.27,499.31,499.28,499.26,499.24,499.18,499.17,499.17,499.17,499.19,499.31,499.52,499.69,499.76,499.77,499.84,499.87,499.89,499.97,500.02,500.08,500.16,500.25,500.37,500.46,500.53,500.61,500.69,500.79,500.88,500.98,501.10,501.18,501.25,501.33,501.42,501.52,501.63,501.81,502.02,502.18,502.36,502.52,502.66,502.79,502.94,503.10,503.25,503.41,503.56,503.72,503.87,504.02,504.17,504.25,504.33,504.40,504.48,504.55,504.63,504.73,504.81,504.84,504.89,504.92,505.00,505.13,505.27,505.39,505.51,505.65,505.80,505.95,506.11,506.26,506.42,506.56,506.66,506.78,506.93,507.05,507.13,507.14,507.10,507.02,506.94,506.87,506.79,506.72,506.63,506.56,506.50,506.44,506.37,506.28,506.21,506.11,505.99,505.88,505.76,505.65,505.54,505.43,505.31,505.19,505.11,505.08,505.15,505.20,505.26,505.34,505.42,505.47,505.53,505.61,505.69,505.76,505.82,505.88,505.95,506.03,506.12,506.19,506.25,506.29,506.36,506.44,506.51,506.59,506.64,506.70,506.78,506.87,506.94,507.01,507.07,507.11,507.18,507.22,507.22,507.25,507.28,507.29,507.31,507.35,507.39,507.43,507.47,507.51,507.55,507.62,507.63,507.68,507.76,507.82,507.83,507.89,507.95,508.00,508.03,508.10,508.13,508.13,508.14,508.21,508.22,508.26,508.34,508.42,508.45,508.49,508.55,508.62,508.66,508.70,508.76,508.82,508.83,508.83,508.83,508.83,508.83,508.85,508.87,508.88,508.93,508.96,508.97,508.99,509.03,509.06
501.66,501.58,501.51,501.42,501.28,501.06,500.88,500.69,500.47,500.23,499.94,499.72,499.61,499.56,499.50,499.48,499.48,499.48,499.48,499.48,499.48,499.48,499.48,499.46,499.41,499.34,499.28,499.20,499.17,499.12,499.05,498.99,498.92,498.87,498.83,498.74,498.65,498.57,498.54,498.54,498.47,498.45,498.45,498.42,498.36,498.34,498.32,498.34,498.36,498.44,498.51,498.59,498.67,498.74,498.80,498.87,498.94,499.02,499.05,499.11,499.18,499.23,499.25,499.30,499.34,499.37,499.41,499.36,499.32,499.30,499.24,499.22,499.21,499.21,499.26,499.43,499.63,499.77,499.82,499.84,499.90,499.94,499.99,500.06,500.16,500.24,500.32,500.41,500.53,500.63,500.70,500.78,500.88,500.96,501.04,501.14,501.26,501.35,501.44,501.52,501.60,501.68,501.76,501.91,502.09,502.24,502.39,502.54,502.70,502.86,503.01,503.17,503.32,503.48,503.63,503.78,503.94,504.09,504.23,504.31,504.39,504.47,504.54,504.62,504.68,504.75,504.80,504.81,504.88,504.90,504.97,505.13,505.27,505.37,505.49,505.65,505.80,505.95,506.11,506.26,506.42,506.56,506.66,506.78,506.94,507.09,507.19,507.24,507.23,507.15,507.07,507.00,506.92,506.84,506.76,506.69,506.61,506.53,506.45,506.38,506.30,506.19,506.05,505.97,505.83,505.72,505.64,505.55,505.41,505.31,505.23,505.18,505.24,505.33,505.43,505.52,505.60,505.68,505.75,505.84,505.91,505.98,506.07,506.13,506.19,506.27,506.34,506.42,506.49,506.51,506.59,506.66,506.73,506.82,506.89,506.95,507.02,507.09,507.17,507.25,507.29,507.33,507.38,507.38,507.38,507.41,507.46,507.48,507.48,507.52,507.58,507.59,507.63,507.67,507.70,507.75,507.77,507.82,507.89,507.96,507.98,508.03,508.10,508.16,508.16,508.21,508.25,508.25,508.27,508.34,508.36,508.40,508.46,508.52,508.55,508.60,508.67,508.72,508.75,508.81,508.88,508.92,508.93,508.93,508.93,508.93,508.93,508.93,508.94,508.98,509.02,509.02,509.04,509.08,509.13,509.13
501.79,501.71,501.63,501.51,501.29,501.06,500.88,500.69,500.47,500.23,499.94,499.76,499.70,499.69,499.68,499.68,499.68,499.68,499.68,499.68,499.68,499.68,499.67,499.61,499.54,499.49,499.46,499.39,499.32,499.25,499.19,499.16,499.10,499.03,498.94,498.80,498.72,498.64,498.62,498.67,498.60,498.58,498.55,498.50,498.48,498.42,498.40,498.41,498.48,498.56,498.64,498.71,498.79,498.87,498.89,498.94,499.02,499.09,499.16,499.23,499.28,499.31,499.37,499.39,499.43,499.48,499.49,499.43,499.40,499.37,499.30,499.29,499.24,499.24,499.34,499.54,499.72,499.84,499.90,499.91,499.98,500.05,500.12,500.20,500.34,500.44,500.51,500.59,500.68,500.76,500.83,500.93,501.07,501.15,501.23,501.31,501.40,501.48,501.61,501.71,501.79,501.87,501.95,502.04,502.16,502.31,502.46,502.62,502.77,502.93,503.08,503.23,503.39,503.54,503.69,503.85,504.00,504.15,504.29,504.38,504.45,504.53,504.61,504.68,504.70,504.75,504.81,504.81,504.88,504.90,504.97,505.13,505.27,505.37,505.49,505.65,505.80,505.95,506.11,506.26,506.42,506.56,506.66,506.78,506.94,507.09,507.24,507.33,507.36,507.28,507.21,507.13,507.05,506.97,506.90,506.82,506.74,506.67,506.58,506.51,506.43,506.32,506.19,506.10,505.96,505.85,505.77,505.69,505.54,505.44,505.36,505.30,505.37,505.50,505.64,505.77,505.85,505.93,506.01,506.09,506.16,506.24,506.32,506.37,506.40,506.46,506.54,506.62,506.70,506.77,506.84,506.92,506.99,507.07,507.15,507.17,507.21,507.29,507.37,507.45,507.52,507.57,507.57,507.57,507.57,507.58,507.60,507.66,507.68,507.71,507.77,507.78,507.79,507.83,507.88,507.90,507.96,507.98,508.02,508.10,508.16,508.18,508.23,508.28,508.29,508.29,508.34,508.39,508.40,508.47,508.49,508.52,508.59,508.60,508.66,508.73,508.79,508.80,508.87,508.94,508.99,509.00,509.00,509.00,509.00,509.00,509.00,509.00,509.04,509.08,509.09,509.10,509.15,509.19,509.19,509.21
501.87,501.78,501.68,501.52,501.29,501.06,500.86,500.66,500.47,500.23,499.97,499.84,499.81,499.81,499.81,499.81,499.81,499.81,499.81,499.81,499.81,499.81,499.81,499.75,499.69,499.65,499.56,499.48,499.40,499.32,499.25,499.20,499.13,499.06,498.97,498.87,498.78,498.74,498.73,498.75,498.72,498.68,498.64,498.61,498.56,498.53,498.49,498.48,498.56,498.63,498.72,498.79,498.87,498.94,499.00,499.06,499.13,499.21,499.29,499.34,499.38,499.42,499.45,499.49,499.53,499.56,499.55,499.49,499.45,499.44,499.37,499.36,499.30,499.31,499.45,499.67,499.80,499.90,499.98,500.07,500.15,500.22,500.30,500.38,500.49,500.57,500.68,500.78,500.86,500.94,501.02,501.11,501.21,501.29,501.40,501.50,501.58,501.66,501.76,501.86,501.94,502.01,502.13,502.25,502.35,502.44,502.63,502.79,502.95,503.09,503.20,503.35,503.50,503.65,503.76,503.91,504.06,504.20,504.31,504.44,504.52,504.60,504.68,504.75,504.75,504.80,504.86,504.86,504.89,504.90,504.97,505.12,505.23,505.35,505.49,505.65,505.80,505.95,506.11,506.26,506.41,506.52,506.64,506.78,506.94,507.09,507.25,507.38,507.46,507.46,507.39,507.28,507.18,507.10,507.02,506.95,506.87,506.79,506.72,506.64,506.53,506.41,506.31,506.23,506.09,505.97,505.90,505.81,505.67,505.56,505.49,505.43,505.50,505.66,505.84,505.98,506.06,506.14,506.22,506.29,506.37,506.45,506.52,506.59,506.64,506.71,506.79,506.87,506.94,507.02,507.10,507.15,507.20,507.27,507.35,507.41,507.46,507.54,507.62,507.69,507.75,507.77,507.77,507.73,507.74,507.77,507.78,507.81,507.85,507.89,507.93,507.96,507.97,508.02,508.07,508.08,508.11,508.15,508.18,508.23,508.30,508.31,508.36,508.42,508.42,508.42,508.47,508.51,508.53,508.60,508.62,508.65,508.71,508.72,508.78,508.86,508.92,508.93,509.00,509.07,509.12,509.11,509.06,509.06,509.06,509.06,509.06,509.10,509.14,509.16,509.16,509.21,509.24,509.25,509.27,509.31
501.96,501.84,501.70,501.52,501.29,501.06,500.84,500.64,500.47,500.25,500.05,499.96,499.95,499.95,499.95,499.95,499.95,499.95,499.95,499.95,499.95,499.94,499.92,499.85,499.81,499.75,499.63,499.54,499.46,499.37,499.29,499.21,499.13,499.06,498.98,498.91,498.86,498.85,498.85,498.85,498.84,498.78,498.74,498.73,498.66,498.65,498.60,498.56,498.63,498.72,498.80,498.87,498.94,499.01,499.09,499.17,499.24,499.32,499.40,499.44,499.47,499.54,499.54,499.61,499.64,499.63,499.62,499.55,499.52,499.50,499.44,499.44,499.43,499.48,499.64,499.83,499.93,500.01,500.10,500.23,500.32,500.41,500.50,500.57,500.65,500.73,500.83,500.96,501.03,501.13,501.21,501.29,501.37,501.44,501.56,501.68,501.76,501.85,501.93,502.01,502.09,502.19,502.32,502.47,502.57,502.61,502.78,502.95,503.13,503.28,503.38,503.51,503.66,503.79,503.90,504.04,504.19,504.30,504.40,504.50,504.60,504.68,504.74,504.81,504.82,504.86,504.90,504.90,504.90,504.91,505.00,505.14,505.24,505.37,505.51,505.67,505.82,505.98,506.12,506.26,506.41,506.51,506.63,506.78,506.94,507.09,507.25,507.40,507.53,507.58,507.56,507.44,507.32,507.23,507.16,507.08,507.00,506.92,506.85,506.77,506.64,506.51,506.43,506.34,506.21,506.11,506.02,505.93,505.79,505.69,505.62,505.57,505.64,505.84,506.04,506.18,506.27,506.34,506.41,506.49,506.56,506.64,506.73,506.82,506.89,506.95,507.03,507.11,507.18,507.26,507.34,507.38,507.42,507.50,507.57,507.65,507.72,507.80,507.86,507.92,507.95,507.95,507.94,507.89,507.91,507.95,507.97,507.97,508.03,508.07,508.08,508.14,508.16,508.20,508.25,508.27,508.27,508.31,508.35,508.38,508.43,508.45,508.49,508.54,508.54,508.54,508.60,508.65,508.66,508.73,508.74,508.77,508.83,508.85,508.92,508.98,509.03,509.05,509.12,509.19,509.22,509.21,509.16,509.15,509.15,509.15,509.15,509.20,509.22,509.23,509.25,509.31,509.32,509.33,509.36,509.41
502.07,501.88,501.70,501.52,501.29,501.06,500.88,500.69,500.48,500.32,500.20,500.13,500.08,500.08,500.08,500.08,500.08,500.08,500.08,500.08,500.08,500.06,499.99,499.92,499.84,499.77,499.69,499.61,499.48,499.37,499.29,499.21,499.13,499.06,498.98,498.92,498.95,498.97,498.97,498.97,498.97,498.91,498.87,498.86,498.79,498.77,498.73,498.67,498.71,498.83,498.93,498.98,499.00,499.08,499.15,499.23,499.31,499.38,499.46,499.53,499.60,499.67,499.68,499.73,499.74,499.69,499.68,499.62,499.59,499.56,499.51,499.56,499.66,499.80,499.94,500.04,500.13,500.20,500.28,500.37,500.45,500.57,500.69,500.76,500.84,500.92,501.01,501.09,501.17,501.30,501.41,501.48,501.56,501.64,501.72,501.80,501.90,502.03,502.13,502.20,502.30,502.43,502.53,502.66,502.79,502.84,502.88,503.06,503.27,503.48,503.63,503.73,503.85,504.00,504.15,504.30,504.41,504.52,504.63,504.60,504.70,504.78,504.81,504.88,504.89,504.89,504.90,504.90,504.91,504.95,505.06,505.21,505.35,505.45,505.58,505.73,505.88,506.04,506.15,506.26,506.42,506.56,506.66,506.78,506.94,507.09,507.25,507.40,507.53,507.60,507.66,507.61,507.50,507.37,507.28,507.21,507.13,507.05,506.97,506.90,506.77,506.65,506.56,506.42,506.32,506.24,506.14,506.00,505.91,505.82,505.75,505.71,505.82,506.03,506.23,506.39,506.52,506.56,506.61,506.68,506.76,506.84,506.96,507.07,507.14,507.16,507.23,507.30,507.38,507.46,507.53,507.60,507.68,507.75,507.82,507.91,507.98,508.05,508.06,508.07,508.08,508.08,508.08,508.07,508.07,508.10,508.16,508.16,508.22,508.26,508.26,508.28,508.34,508.37,508.40,508.45,508.46,508.47,508.50,508.56,508.57,508.58,508.62,508.68,508.68,508.68,508.72,508.77,508.79,508.86,508.87,508.88,508.91,508.97,509.04,509.08,509.11,509.18,509.25,509.28,509.28,509.28,509.27,509.27,509.27,509.27,509.27,509.28,509.29,509.31,509.37,509.38,509.39,509.42,509.47,509.48
502.11,501.92,501.73,501.54,501.34,501.11,500.94,500.76,500.59,500.47,500.36,500.28,500.25,500.21,500.20,500.20,500.20,500.20,500.20,500.20,500.20,500.19,500.11,499.96,499.85,499.77,499.70,499.62,499.52,499.40,499.29,499.21,499.13,499.08,499.04,499.01,499.04,499.08,499.11,499.10,499.06,499.02,498.98,498.95,498.91,498.87,498.80,498.75,498.77,498.91,499.00,499.07,499.12,499.19,499.27,499.35,499.43,499.50,499.54,499.61,499.68,499.75,499.79,499.83,499.81,499.75,499.75,499.69,499.66,499.67,499.71,499.78,499.89,500.00,500.11,500.19,500.27,500.35,500.42,500.50,500.58,500.70,500.83,500.91,500.99,501.10,501.19,501.27,501.35,501.46,501.55,501.63,501.71,501.82,501.91,501.99,502.07,502.19,502.30,502.42,502.53,502.65,502.76,502.88,502.98,503.05,503.06,503.17,503.36,503.59,503.78,503.94,504.09,504.24,504.36,504.51,504.61,504.67,504.69,504.67,504.78,504.87,504.92,504.95,504.99,504.98,504.95,504.96,505.00,505.06,505.16,505.28,505.43,505.55,505.67,505.79,505.95,506.11,506.24,506.35,506.47,506.62,506.75,506.88,507.03,507.15,507.29,507.45,507.58,507.66,507.77,507.75,507.65,507.55,507.46,507.35,507.26,507.18,507.11,507.03,506.90,506.77,506.68,506.54,506.44,506.34,506.23,506.12,506.03,505.95,505.89,505.88,506.02,506.20,506.39,506.58,506.73,506.79,506.86,506.93,507.00,507.09,507.19,507.29,507.36,507.40,507.47,507.54,507.63,507.70,507.77,507.86,507.92,507.96,508.03,508.11,508.19,508.25,508.25,508.25,508.25,508.25,508.22,508.24,508.25,508.28,508.35,508.36,508.39,508.43,508.46,508.46,508.53,508.55,508.57,508.61,508.65,508.66,508.67,508.70,508.70,508.74,508.77,508.80,508.80,508.80,508.86,508.91,508.91,508.94,508.98,509.00,509.02,509.09,509.14,509.18,509.23,509.30,509.34,509.36,509.36,509.36,509.36,509.36,509.36,509.36,509.36,509.36,509.38,509.42,509.45,509.45,509.48,509.52,509.55,509.56
502.14,501.98,501.77,501.56,501.40,501.19,501.03,500.88,500.74,500.66,500.52,500.45,500.43,500.36,500.34,500.34,500.34,500.34,500.34,500.34,500.34,500.32,500.24,500.02,499.86,499.77,499.70,499.62,499.54,499.44,499.31,499.21,499.14,499.12,499.14,499.14,499.14,499.18,499.22,499.20,499.15,499.14,499.10,499.04,499.03,498.95,498.87,498.81,498.84,498.98,499.08,499.17,499.25,499.32,499.40,499.47,499.55,499.61,499.63,499.69,499.76,499.84,499.90,499.91,499.87,499.81,499.80,499.75,499.74,499.79,499.93,500.01,500.09,500.17,500.25,500.32,500.40,500.47,500.55,500.63,500.72,500.84,500.96,501.04,501.12,501.25,501.37,501.45,501.52,501.60,501.69,501.77,501.86,502.00,502.10,502.18,502.26,502.35,502.48,502.63,502.77,502.85,503.00,503.10,503.18,503.26,503.26,503.32,503.45,503.66,503.89,504.12,504.31,504.46,504.57,504.74,504.80,504.78,504.72,504.72,504.85,504.95,505.02,505.04,505.09,505.07,505.03,505.04,505.10,505.18,505.26,505.36,505.50,505.65,505.77,505.88,506.02,506.17,506.33,506.45,506.55,506.69,506.84,507.00,507.14,507.23,507.37,507.51,507.65,507.73,507.87,507.86,507.80,507.72,507.64,507.51,507.40,507.31,507.24,507.16,507.03,506.90,506.81,506.67,506.57,506.45,506.32,506.24,506.16,506.08,506.02,506.07,506.21,506.37,506.56,506.77,506.93,507.03,507.10,507.17,507.25,507.33,507.40,507.48,507.56,507.64,507.71,507.79,507.87,507.94,508.02,508.10,508.15,508.18,508.25,508.32,508.40,508.44,508.45,508.44,508.44,508.42,508.37,508.42,508.44,508.47,508.53,508.55,508.55,508.58,508.64,508.65,508.71,508.74,508.75,508.76,508.81,508.84,508.84,508.85,508.85,508.91,508.94,508.94,508.94,508.94,508.99,509.03,509.03,509.03,509.10,509.14,509.15,509.22,509.24,509.28,509.36,509.43,509.44,509.44,509.44,509.44,509.44,509.44,509.44,509.44,509.44,509.44,509.48,509.51,509.52,509.53,509.58,509.62,509.62,509.64
502.21,502.04,501.84,501.63,501.47,501.31,501.20,501.08,500.94,500.85,500.71,500.65,500.62,500.55,500.48,500.47,500.47,500.47,500.47,500.47,500.47,500.46,500.42,500.12,499.89,499.77,499.70,499.62,499.54,499.46,499.36,499.23,499.19,499.22,499.26,499.26,499.26,499.27,499.28,499.28,499.27,499.26,499.22,499.17,499.15,499.04,498.94,498.88,498.90,499.04,499.19,499.29,499.38,499.45,499.53,499.61,499.67,499.69,499.74,499.81,499.89,499.96,499.98,499.93,499.89,499.87,499.81,499.85,499.90,499.97,500.06,500.14,500.22,500.29,500.37,500.45,500.53,500.61,500.68,500.77,500.89,501.00,501.09,501.17,501.25,501.38,501.50,501.58,501.66,501.73,501.85,501.97,502.04,502.13,502.26,502.38,502.46,502.60,502.70,502.83,502.96,503.05,503.19,503.29,503.40,503.51,503.52,503.54,503.60,503.73,503.95,504.19,504.41,504.63,504.83,505.04,504.99,504.85,504.79,504.79,504.91,505.02,505.10,505.16,505.18,505.17,505.17,505.17,505.18,505.24,505.35,505.48,505.57,505.72,505.86,505.99,506.09,506.24,506.39,506.54,506.67,506.77,506.90,507.06,507.21,507.35,507.45,507.58,507.70,507.79,507.88,507.94,507.93,507.85,507.77,507.69,507.56,507.44,507.37,507.29,507.16,507.03,506.94,506.79,506.70,506.58,506.45,506.37,506.29,506.18,506.12,506.25,506.41,506.56,506.75,506.96,507.12,507.26,507.33,507.37,507.44,507.52,507.60,507.68,507.75,507.83,507.91,507.98,508.06,508.14,508.21,508.29,508.37,508.43,508.50,508.59,508.63,508.64,508.64,508.59,508.56,508.56,508.54,508.56,508.61,508.65,508.68,508.73,508.75,508.75,508.78,508.83,508.86,508.90,508.94,508.94,508.96,508.97,508.99,509.04,509.04,509.06,509.06,509.06,509.07,509.13,509.15,509.17,509.17,509.17,509.22,509.26,509.28,509.35,509.37,509.41,509.49,509.55,509.56,509.56,509.56,509.56,509.56,509.56,509.56,509.56,509.56,509.56,509.58,509.59,509.59,509.65,509.68,509.69,509.70,509.75
502.26,502.07,501.90,501.74,501.59,501.47,501.36,501.24,501.12,501.01,500.89,500.82,500.78,500.74,500.66,500.62,500.60,500.59,500.55,500.57,500.60,500.60,500.56,500.27,500.00,499.82,499.74,499.63,499.54,499.47,499.39,499.31,499.29,499.31,499.36,499.39,499.40,499.40,499.40,499.40,499.40,499.40,499.36,499.28,499.24,499.11,499.00,498.94,498.97,499.11,499.26,499.38,499.46,499.57,499.66,499.72,499.75,499.79,499.87,499.94,500.01,500.05,500.08,500.03,499.97,499.94,499.91,499.96,500.04,500.12,500.19,500.27,500.35,500.43,500.50,500.58,500.66,500.74,500.81,500.90,501.04,501.15,501.22,501.30,501.38,501.51,501.63,501.71,501.78,501.86,501.99,502.12,502.19,502.27,502.40,502.54,502.66,502.81,502.93,503.05,503.17,503.28,503.40,503.51,503.63,503.73,503.78,503.78,503.79,503.84,504.02,504.25,504.48,504.72,504.98,505.19,505.11,504.94,504.85,504.85,504.91,505.01,505.13,505.23,505.25,505.25,505.25,505.25,505.25,505.30,505.42,505.56,505.68,505.79,505.94,506.08,506.19,506.35,506.48,506.61,506.76,506.87,506.99,507.13,507.28,507.43,507.52,507.62,507.73,507.81,507.92,508.00,508.03,507.98,507.90,507.82,507.70,507.57,507.49,507.38,507.26,507.15,507.03,506.92,506.83,506.71,506.58,506.50,506.39,506.27,506.25,506.40,506.59,506.75,506.94,507.16,507.32,507.47,507.56,507.61,507.68,507.73,507.79,507.87,507.95,508.02,508.10,508.18,508.25,508.33,508.44,508.53,508.61,508.68,508.73,508.77,508.79,508.79,508.79,508.76,508.74,508.74,508.74,508.74,508.79,508.84,508.85,508.89,508.92,508.94,508.96,509.02,509.04,509.07,509.10,509.10,509.10,509.12,509.16,509.19,509.20,509.20,509.20,509.20,509.24,509.28,509.29,509.29,509.29,509.29,509.36,509.40,509.41,509.48,509.49,509.54,509.61,509.64,509.65,509.65,509.65,509.65,509.65,509.65,509.65,509.65,509.65,509.65,509.65,509.66,509.70,509.74,509.75,509.76,509.80,509.84
502.33,502.12,501.99,501.88,501.74,501.66,501.52,501.40,501.31,501.16,501.07,500.99,500.94,500.93,500.86,500.78,500.73,500.72,500.66,500.68,500.71,500.71,500.69,500.44,500.13,499.87,499.78,499.65,499.55,499.48,499.42,499.41,499.42,499.42,499.44,499.50,499.52,499.52,499.52,499.52,499.52,499.51,499.47,499.39,499.31,499.17,499.06,499.01,499.04,499.17,499.33,499.45,499.55,499.68,499.77,499.82,499.86,499.92,500.00,500.07,500.11,500.14,500.21,500.16,500.09,500.02,500.03,500.09,500.17,500.25,500.34,500.42,500.49,500.55,500.63,500.71,500.79,500.87,500.94,501.03,501.17,501.27,501.35,501.43,501.50,501.64,501.76,501.83,501.92,502.00,502.12,502.25,502.32,502.40,502.53,502.69,502.84,502.98,503.13,503.25,503.37,503.52,503.62,503.74,503.86,503.95,504.01,504.03,504.00,503.98,504.12,504.33,504.56,504.81,505.09,505.28,505.22,505.08,504.97,504.98,504.93,504.97,505.11,505.27,505.31,505.31,505.31,505.31,505.32,505.37,505.49,505.64,505.78,505.89,506.01,506.15,506.31,506.46,506.57,506.69,506.83,506.98,507.08,507.20,507.34,507.49,507.58,507.67,507.74,507.82,507.96,508.06,508.11,508.11,508.03,507.95,507.83,507.70,507.62,507.47,507.37,507.26,507.13,507.04,506.95,506.83,506.70,506.61,506.48,506.38,506.38,506.56,506.79,506.96,507.15,507.35,507.51,507.67,507.78,507.86,507.93,507.94,507.99,508.06,508.14,508.23,508.31,508.38,508.46,508.54,508.68,508.78,508.86,508.92,508.93,508.94,508.94,508.93,508.92,508.92,508.92,508.92,508.93,508.93,508.98,509.02,509.03,509.03,509.09,509.12,509.15,509.21,509.22,509.22,509.22,509.22,509.23,509.28,509.32,509.32,509.32,509.32,509.33,509.35,509.41,509.42,509.42,509.43,509.44,509.44,509.49,509.52,509.53,509.60,509.62,509.66,509.71,509.71,509.72,509.72,509.72,509.73,509.73,509.73,509.73,509.73,509.73,509.73,509.73,509.75,509.80,509.82,509.82,509.86,509.91,509.92
502.45,502.30,502.18,502.08,501.93,501.85,501.71,501.59,501.50,501.36,501.26,501.19,501.13,501.12,501.05,500.98,500.93,500.92,500.84,500.79,500.77,500.77,500.76,500.60,500.23,499.88,499.80,499.70,499.62,499.54,499.48,499.48,499.52,499.55,499.56,499.58,499.63,499.65,499.65,499.65,499.65,499.61,499.53,499.46,499.38,499.24,499.13,499.10,499.16,499.25,499.39,499.53,499.67,499.76,499.84,499.94,500.03,500.06,500.13,500.17,500.20,500.26,500.33,500.29,500.22,500.15,500.16,500.22,500.30,500.40,500.52,500.61,500.64,500.69,500.76,500.84,500.92,501.00,501.07,501.16,501.30,501.40,501.48,501.56,501.63,501.77,501.89,501.97,502.05,502.17,502.29,502.38,502.45,502.53,502.66,502.82,502.96,503.06,503.20,503.38,503.56,503.72,503.86,503.96,504.07,504.19,504.22,504.23,504.22,504.21,504.26,504.46,504.69,504.92,505.17,505.39,505.38,505.31,505.29,505.33,505.07,504.92,505.01,505.26,505.35,505.38,505.38,505.38,505.44,505.47,505.55,505.70,505.86,506.00,506.11,506.22,506.38,506.53,506.67,506.79,506.90,507.04,507.19,507.30,507.40,507.50,507.63,507.73,507.80,507.88,507.98,508.10,508.20,508.24,508.16,508.08,507.96,507.83,507.74,507.60,507.50,507.39,507.25,507.17,507.04,506.93,506.82,506.69,506.59,506.50,506.52,506.75,507.03,507.22,507.38,507.55,507.71,507.86,508.00,508.11,508.13,508.19,508.21,508.26,508.34,508.47,508.57,508.65,508.72,508.80,508.89,508.98,509.05,509.12,509.13,509.13,509.13,509.12,509.06,509.05,509.05,509.07,509.12,509.13,509.14,509.18,509.22,509.23,509.24,509.28,509.33,509.35,509.35,509.35,509.35,509.36,509.42,509.44,509.45,509.45,509.45,509.45,509.49,509.53,509.55,509.55,509.55,509.57,509.62,509.63,509.64,509.65,509.66,509.68,509.73,509.76,509.77,509.77,509.77,509.77,509.80,509.85,509.85,509.85,509.85,509.85,509.85,509.85,509.85,509.86,509.88,509.94,509.95,509.96,509.99,510.04
502.59,502.47,502.36,502.24,502.12,502.01,501.89,501.78,501.66,501.54,501.46,501.38,501.31,501.28,501.24,501.17,501.11,501.07,501.03,500.96,500.91,500.88,500.87,500.80,500.35,499.89,499.83,499.76,499.71,499.66,499.62,499.62,499.66,499.68,499.68,499.69,499.73,499.76,499.78,499.78,499.78,499.72,499.63,499.52,499.44,499.30,499.20,499.17,499.25,499.35,499.47,499.61,499.75,499.83,499.90,500.01,500.12,500.18,500.23,500.26,500.31,500.38,500.43,500.40,500.35,500.29,500.33,500.39,500.47,500.56,500.68,500.76,500.80,500.84,500.89,500.97,501.04,501.13,501.21,501.32,501.44,501.53,501.61,501.69,501.80,501.92,502.02,502.10,502.18,502.32,502.43,502.50,502.54,502.62,502.75,502.92,503.09,503.20,503.32,503.47,503.65,503.83,504.01,504.15,504.28,504.41,504.46,504.46,504.46,504.47,504.51,504.66,504.84,505.04,505.24,505.44,505.47,505.43,505.40,505.37,505.10,504.92,504.97,505.26,505.40,505.46,505.48,505.49,505.53,505.56,505.65,505.80,505.93,506.08,506.20,506.31,506.44,506.60,506.75,506.89,507.00,507.12,507.24,507.36,507.45,507.54,507.65,507.75,507.84,507.94,508.02,508.13,508.24,508.29,508.28,508.22,508.09,507.96,507.87,507.73,507.63,507.52,507.38,507.29,507.16,507.04,506.95,506.80,506.71,506.63,506.67,506.94,507.21,507.44,507.63,507.78,507.91,508.06,508.23,508.37,508.38,508.44,508.46,508.50,508.58,508.69,508.78,508.86,508.94,509.02,509.09,509.17,509.24,509.28,509.28,509.28,509.28,509.27,509.23,509.22,509.22,509.23,509.27,509.31,509.32,509.34,509.39,509.42,509.42,509.45,509.48,509.48,509.48,509.50,509.52,509.53,509.57,509.58,509.58,509.59,509.62,509.62,509.65,509.68,509.68,509.71,509.72,509.74,509.78,509.78,509.78,509.79,509.82,509.83,509.86,509.88,509.88,509.88,509.88,509.91,509.94,509.98,509.98,509.98,509.98,509.98,509.98,510.01,510.02,510.02,510.03,510.07,510.11,510.12,510.13,510.17
502.74,502.65,502.52,502.40,502.31,502.16,502.06,501.95,501.81,501.73,501.65,501.57,501.50,501.44,501.42,501.37,501.29,501.23,501.21,501.16,501.08,501.02,501.02,501.01,500.51,499.96,499.92,499.86,499.84,499.83,499.82,499.82,499.82,499.82,499.82,499.83,499.84,499.88,499.91,499.91,499.90,499.84,499.73,499.59,499.51,499.37,499.26,499.23,499.31,499.44,499.54,499.65,499.79,499.88,499.96,500.04,500.14,500.27,500.31,500.36,500.43,500.50,500.51,500.52,500.49,500.44,500.50,500.57,500.65,500.74,500.82,500.89,500.97,501.01,501.03,501.10,501.18,501.25,501.35,501.49,501.58,501.66,501.74,501.83,501.97,502.07,502.15,502.22,502.31,502.45,502.55,502.60,502.63,502.69,502.83,503.01,503.22,503.38,503.48,503.57,503.68,503.89,504.11,504.29,504.45,504.61,504.70,504.73,504.72,504.73,504.81,504.88,504.99,505.15,505.30,505.46,505.50,505.45,505.36,505.22,505.07,504.98,504.99,505.27,505.44,505.55,505.60,505.60,505.61,505.66,505.77,505.91,506.01,506.15,506.29,506.43,506.52,506.67,506.82,506.97,507.11,507.19,507.27,507.39,507.51,507.60,507.68,507.76,507.86,507.99,508.09,508.17,508.25,508.32,508.38,508.34,508.22,508.09,508.00,507.86,507.76,507.65,507.51,507.42,507.29,507.17,507.08,506.93,506.84,506.76,506.81,507.11,507.36,507.64,507.89,508.03,508.13,508.25,508.44,508.62,508.63,508.69,508.72,508.75,508.82,508.90,508.98,509.06,509.13,509.21,509.29,509.36,509.41,509.41,509.41,509.41,509.42,509.42,509.41,509.41,509.41,509.42,509.43,509.49,509.50,509.51,509.53,509.59,509.61,509.61,509.61,509.61,509.62,509.66,509.70,509.70,509.71,509.71,509.72,509.74,509.79,509.80,509.80,509.81,509.83,509.89,509.91,509.91,509.91,509.91,509.92,509.95,510.00,510.00,510.01,510.01,510.01,510.02,510.02,510.07,510.11,510.11,510.11,510.11,510.12,510.13,510.13,510.19,510.20,510.20,510.21,510.22,510.27,510.31,510.32,510.32
502.93,502.84,502.72,502.59,502.50,502.35,502.25,502.14,502.00,501.92,501.85,501.77,501.69,501.62,501.61,501.56,501.48,501.42,501.41,501.35,501.27,501.21,501.21,501.16,500.75,500.27,500.13,500.09,500.12,500.11,500.01,500.01,500.01,500.01,500.02,500.08,500.09,500.06,500.04,500.03,499.98,499.91,499.79,499.65,499.57,499.43,499.32,499.29,499.37,499.42,499.52,499.65,499.74,499.82,499.94,500.04,500.14,500.29,500.40,500.46,500.50,500.57,500.63,500.68,500.67,500.62,500.64,500.71,500.79,500.88,501.00,501.03,501.10,501.17,501.21,501.24,501.30,501.38,501.48,501.63,501.72,501.79,501.87,501.96,502.11,502.20,502.28,502.36,502.44,502.58,502.66,502.69,502.75,502.82,502.95,503.14,503.36,503.51,503.65,503.75,503.84,503.97,504.14,504.34,504.54,504.75,504.94,504.99,504.96,504.95,505.11,505.03,505.06,505.22,505.37,505.52,505.50,505.38,505.24,505.09,505.07,505.06,505.09,505.28,505.45,505.59,505.67,505.67,505.67,505.73,505.84,505.99,506.12,506.23,506.36,506.51,506.64,506.79,506.91,507.03,507.17,507.25,507.34,507.42,507.53,507.66,507.75,507.82,507.90,508.01,508.13,508.23,508.30,508.38,508.45,508.45,508.35,508.22,508.13,507.99,507.89,507.78,507.64,507.55,507.42,507.30,507.21,507.06,506.97,506.89,506.94,507.25,507.54,507.84,508.11,508.30,508.43,508.49,508.64,508.83,508.88,508.90,508.95,508.99,509.02,509.10,509.17,509.25,509.33,509.41,509.48,509.52,509.54,509.54,509.54,509.54,509.57,509.60,509.55,509.54,509.57,509.61,509.61,509.64,509.64,509.66,509.71,509.74,509.74,509.74,509.74,509.75,509.79,509.82,509.84,509.84,509.84,509.84,509.87,509.91,509.94,509.94,509.94,509.95,510.00,510.03,510.04,510.04,510.04,510.04,510.08,510.12,510.14,510.14,510.14,510.14,510.16,510.20,510.21,510.23,510.24,510.24,510.24,510.24,510.27,510.31,510.31,510.34,510.34,510.34,510.35,510.40,510.43,510.47,510.51,510.51
503.12,503.01,502.89,502.77,502.67,502.54,502.43,502.31,502.19,502.08,502.00,501.94,501.89,501.81,501.78,501.74,501.68,501.61,501.58,501.53,501.47,501.40,501.37,501.30,501.06,500.73,500.51,500.48,500.48,500.42,500.31,500.28,500.28,500.28,500.29,500.33,500.32,500.25,500.18,500.13,500.05,499.95,499.84,499.72,499.61,499.49,499.41,499.40,499.46,499.44,499.51,499.60,499.68,499.78,499.93,500.04,500.14,500.29,500.45,500.53,500.60,500.67,500.72,500.79,500.81,500.77,500.77,500.84,500.93,501.05,501.16,501.20,501.24,501.30,501.37,501.40,501.47,501.55,501.64,501.76,501.85,501.92,502.00,502.09,502.23,502.33,502.41,502.49,502.59,502.69,502.75,502.79,502.87,502.95,503.08,503.25,503.45,503.64,503.80,503.93,504.02,504.10,504.22,504.38,504.58,504.81,505.04,505.10,505.06,505.05,505.22,505.13,505.15,505.28,505.43,505.51,505.42,505.28,505.16,505.09,505.13,505.17,505.20,505.33,505.46,505.62,505.74,505.74,505.76,505.81,505.90,506.06,506.21,506.32,506.44,506.58,506.74,506.89,506.99,507.09,507.21,507.29,507.38,507.48,507.57,507.69,507.77,507.87,507.96,508.05,508.17,508.26,508.35,508.44,508.52,508.56,508.48,508.35,508.26,508.12,508.02,507.91,507.77,507.68,507.55,507.43,507.34,507.19,507.10,507.00,507.05,507.38,507.69,508.00,508.29,508.53,508.71,508.76,508.86,509.00,509.13,509.14,509.19,509.25,509.25,509.30,509.37,509.44,509.52,509.60,509.65,509.67,509.67,509.67,509.67,509.67,509.70,509.76,509.72,509.71,509.73,509.77,509.77,509.77,509.79,509.83,509.87,509.87,509.87,509.88,509.91,509.91,509.95,509.97,509.97,509.97,510.00,510.00,510.03,510.07,510.07,510.07,510.09,510.12,510.16,510.17,510.17,510.18,510.20,510.21,510.24,510.27,510.27,510.27,510.30,510.30,510.32,510.36,510.37,510.37,510.38,510.41,510.41,510.41,510.44,510.47,510.47,510.47,510.47,510.48,510.51,510.56,510.59,510.63,510.67,510.70
503.30,503.17,503.05,502.95,502.81,502.72,502.59,502.47,502.38,502.23,502.14,502.11,502.08,502.00,501.93,501.91,501.87,501.79,501.73,501.70,501.66,501.59,501.51,501.43,501.37,501.25,501.02,500.98,500.88,500.77,500.69,500.63,500.60,500.59,500.58,500.57,500.51,500.43,500.32,500.19,500.11,499.98,499.86,499.76,499.63,499.54,499.50,499.52,499.58,499.53,499.52,499.55,499.64,499.77,499.92,500.04,500.14,500.29,500.45,500.59,500.72,500.78,500.81,500.87,500.90,500.90,500.91,500.97,501.09,501.22,501.30,501.37,501.40,501.44,501.51,501.58,501.66,501.73,501.81,501.90,501.97,502.05,502.13,502.22,502.37,502.46,502.54,502.63,502.76,502.80,502.85,502.92,503.00,503.07,503.21,503.37,503.54,503.75,503.93,504.08,504.21,504.29,504.38,504.47,504.61,504.83,505.05,505.10,505.06,505.04,505.17,505.19,505.25,505.35,505.45,505.41,505.30,505.19,505.14,505.19,505.26,505.30,505.32,505.40,505.48,505.65,505.79,505.81,505.88,505.90,505.98,506.13,506.28,506.43,506.54,506.65,506.80,506.95,507.05,507.13,507.22,507.30,507.43,507.53,507.62,507.70,507.78,507.90,508.02,508.11,508.19,508.27,508.38,508.50,508.59,508.66,508.61,508.49,508.39,508.25,508.15,508.04,507.91,507.81,507.68,507.57,507.47,507.32,507.23,507.11,507.14,507.50,507.81,508.13,508.44,508.72,508.95,509.07,509.12,509.19,509.37,509.40,509.45,509.50,509.50,509.51,509.57,509.64,509.72,509.78,509.80,509.80,509.80,509.80,509.80,509.80,509.83,509.89,509.89,509.89,509.90,509.90,509.91,509.91,509.95,509.99,510.00,510.00,510.01,510.04,510.09,510.09,510.10,510.11,510.11,510.12,510.18,510.19,510.19,510.20,510.21,510.21,510.25,510.29,510.30,510.30,510.30,510.33,510.39,510.39,510.40,510.41,510.41,510.42,510.47,510.49,510.49,510.50,510.51,510.51,510.53,510.59,510.59,510.59,510.60,510.60,510.61,510.61,510.61,510.64,510.69,510.71,510.76,510.80,510.83,510.88
503.50,503.35,503.25,503.14,503.00,502.92,502.78,502.66,502.56,502.42,502.33,502.29,502.27,502.20,502.12,502.10,502.06,501.99,501.91,501.90,501.86,501.78,501.70,501.58,501.53,501.51,501.45,501.35,501.25,501.15,501.08,501.00,500.91,500.83,500.77,500.67,500.59,500.48,500.34,500.20,500.11,499.98,499.84,499.73,499.67,499.64,499.63,499.64,499.66,499.64,499.63,499.64,499.68,499.78,499.89,500.00,500.14,500.29,500.45,500.60,500.73,500.81,500.90,500.99,501.03,501.03,501.03,501.10,501.22,501.36,501.43,501.51,501.56,501.61,501.64,501.72,501.79,501.87,501.95,502.02,502.11,502.18,502.28,502.40,502.50,502.59,502.67,502.75,502.85,502.91,502.94,502.99,503.07,503.19,503.34,503.50,503.65,503.84,504.04,504.21,504.36,504.48,504.57,504.68,504.81,504.94,505.07,505.10,505.09,505.07,505.13,505.23,505.34,505.42,505.36,505.29,505.26,505.25,505.25,505.31,505.40,505.43,505.45,505.52,505.55,505.68,505.84,505.93,505.96,506.00,506.10,506.25,506.36,506.50,506.64,506.76,506.87,506.97,507.09,507.19,507.27,507.36,507.45,507.57,507.69,507.76,507.84,507.93,508.04,508.16,508.25,508.33,508.41,508.52,508.64,508.74,508.73,508.66,508.53,508.43,508.31,508.19,508.08,507.95,507.85,507.73,507.61,507.50,507.38,507.26,507.29,507.58,507.89,508.23,508.57,508.87,509.15,509.39,509.49,509.51,509.59,509.64,509.68,509.71,509.75,509.76,509.82,509.88,509.90,509.93,509.93,509.93,509.93,509.93,509.93,509.93,509.94,509.97,510.02,510.03,510.03,510.04,510.09,510.10,510.11,510.13,510.13,510.13,510.17,510.21,510.23,510.23,510.23,510.26,510.29,510.30,510.32,510.33,510.33,510.34,510.39,510.40,510.41,510.43,510.43,510.43,510.46,510.50,510.53,510.53,510.53,510.56,510.59,510.60,510.62,510.63,510.63,510.64,510.68,510.69,510.70,510.73,510.73,510.73,510.73,510.74,510.79,510.79,510.79,510.80,510.84,510.89,510.95,511.00,511.00,511.02
503.66,503.54,503.43,503.31,503.19,503.08,502.96,502.86,502.77,502.62,502.52,502.48,502.44,502.39,502.31,502.27,502.24,502.18,502.11,502.07,502.02,501.94,501.86,501.74,501.68,501.68,501.71,501.59,501.50,501.42,501.32,501.24,501.12,501.00,500.89,500.74,500.63,500.50,500.35,500.23,500.12,499.98,499.85,499.76,499.76,499.76,499.76,499.76,499.76,499.76,499.76,499.76,499.77,499.82,499.88,499.99,500.14,500.29,500.45,500.59,500.71,500.81,500.97,501.08,501.14,501.16,501.17,501.25,501.37,501.49,501.59,501.67,501.73,501.77,501.80,501.85,501.93,502.00,502.08,502.16,502.23,502.31,502.42,502.56,502.64,502.72,502.79,502.88,502.95,503.01,503.04,503.08,503.17,503.29,503.45,503.63,503.78,503.94,504.15,504.34,504.50,504.64,504.75,504.86,504.95,505.01,505.11,505.11,505.12,505.16,505.17,505.28,505.38,505.41,505.31,505.27,505.31,505.36,505.38,505.44,505.51,505.54,505.58,505.65,505.66,505.75,505.88,505.99,506.02,506.09,506.20,506.34,506.45,506.58,506.71,506.83,506.93,507.00,507.12,507.23,507.31,507.41,507.50,507.60,507.72,507.80,507.89,507.98,508.08,508.20,508.28,508.38,508.47,508.55,508.68,508.77,508.83,508.82,508.69,508.59,508.47,508.35,508.25,508.12,508.01,507.89,507.77,507.67,507.54,507.44,507.44,507.61,507.94,508.32,508.67,508.98,509.31,509.64,509.79,509.79,509.80,509.84,509.86,509.88,509.93,509.93,509.97,510.00,510.00,510.00,510.00,510.00,510.00,510.00,510.00,510.00,510.01,510.05,510.14,510.18,510.19,510.20,510.25,510.26,510.26,510.27,510.29,510.29,510.33,510.36,510.36,510.36,510.38,510.42,510.46,510.46,510.46,510.46,510.47,510.50,510.55,510.56,510.56,510.56,510.59,510.59,510.63,510.66,510.66,510.66,510.68,510.72,510.76,510.76,510.76,510.77,510.79,510.80,510.85,510.86,510.86,510.86,510.86,510.88,510.89,510.90,510.95,510.96,510.96,510.96,510.97,511.04,511.12,511.17,511.19,511.19
503.78,503.71,503.59,503.47,503.38,503.23,503.13,503.05,502.95,502.81,502.72,502.65,502.59,502.58,502.51,502.44,502.39,502.37,502.30,502.23,502.15,502.07,502.00,501.91,501.84,501.79,501.78,501.71,501.63,501.52,501.39,501.31,501.23,501.10,500.95,500.80,500.66,500.51,500.38,500.28,500.13,499.99,499.90,499.89,499.89,499.89,499.89,499.89,499.89,499.89,499.89,499.89,499.89,499.90,499.91,500.00,500.14,500.29,500.45,500.56,500.67,500.82,500.97,501.11,501.22,501.28,501.30,501.42,501.53,501.63,501.77,501.86,501.89,501.92,501.98,502.00,502.05,502.13,502.21,502.28,502.36,502.44,502.54,502.69,502.77,502.85,502.93,503.00,503.07,503.10,503.14,503.21,503.28,503.38,503.56,503.75,503.91,504.06,504.28,504.47,504.63,504.77,504.92,504.98,505.00,505.02,505.16,505.14,505.17,505.27,505.29,505.36,505.37,505.33,505.32,505.37,505.44,505.49,505.50,505.57,505.60,505.64,505.71,505.78,505.79,505.84,505.93,506.01,506.08,506.16,506.26,506.42,506.56,506.66,506.75,506.85,506.98,507.07,507.16,507.24,507.33,507.46,507.55,507.64,507.73,507.81,507.94,508.04,508.13,508.21,508.28,508.41,508.52,508.61,508.69,508.77,508.88,508.96,508.87,508.74,508.63,508.52,508.38,508.29,508.17,508.05,507.95,507.81,507.72,507.64,507.57,507.60,507.97,508.37,508.72,509.06,509.43,509.81,509.97,509.97,509.97,509.98,509.98,509.98,509.99,509.99,510.00,510.00,510.00,510.00,510.00,510.00,510.00,510.00,510.00,510.01,510.04,510.12,510.26,510.35,510.38,510.38,510.39,510.40,510.40,510.42,510.48,510.48,510.48,510.49,510.49,510.50,510.55,510.58,510.59,510.59,510.60,510.60,510.63,510.68,510.69,510.69,510.69,510.71,510.77,510.78,510.78,510.79,510.79,510.79,510.85,510.88,510.89,510.89,510.90,510.94,510.98,510.98,510.99,510.99,510.99,510.99,511.00,511.05,511.08,511.08,511.09,511.09,511.10,511.10,511.11,511.17,511.25,511.32,511.38,511.38
503.92,503.89,503.78,503.65,503.56,503.42,503.32,503.22,503.10,503.00,502.91,502.84,502.78,502.77,502.70,502.63,502.58,502.56,502.49,502.38,502.28,502.20,502.13,502.05,502.00,501.95,501.86,501.78,501.70,501.61,501.51,501.43,501.31,501.17,501.02,500.87,500.76,500.62,500.47,500.34,500.19,500.07,500.02,500.01,499.97,499.96,499.96,499.96,499.96,500.01,500.02,500.02,500.02,500.02,500.02,500.08,500.19,500.30,500.45,500.58,500.72,500.87,500.97,501.12,501.26,501.38,501.47,501.58,501.69,501.81,501.92,502.00,502.05,502.09,502.13,502.17,502.21,502.26,502.34,502.42,502.49,502.57,502.68,502.82,502.90,502.98,503.05,503.13,503.16,503.20,503.26,503.33,503.37,503.49,503.65,503.84,504.03,504.19,504.37,504.57,504.75,504.86,504.96,505.03,505.04,505.03,505.17,505.18,505.21,505.30,505.35,505.39,505.41,505.42,505.43,505.50,505.54,505.58,505.63,505.70,505.72,505.76,505.84,505.91,505.92,505.97,506.03,506.07,506.19,506.24,506.33,506.49,506.64,506.73,506.80,506.89,507.00,507.12,507.22,507.29,507.37,507.48,507.60,507.70,507.77,507.86,507.96,508.08,508.19,508.26,508.34,508.44,508.56,508.67,508.75,508.83,508.92,509.00,509.00,508.87,508.76,508.66,508.51,508.44,508.33,508.21,508.11,508.04,507.96,507.89,507.82,507.77,507.93,508.30,508.72,509.13,509.55,509.87,510.00,510.00,510.00,510.00,510.00,510.00,510.00,510.00,510.00,510.02,510.06,510.06,510.06,510.06,510.06,510.06,510.06,510.09,510.15,510.25,510.39,510.49,510.52,510.52,510.52,510.56,510.58,510.59,510.62,510.62,510.62,510.64,510.68,510.68,510.71,510.72,510.72,510.73,510.77,510.78,510.79,510.82,510.82,510.82,510.85,510.89,510.92,510.92,510.92,510.94,510.97,510.98,511.00,511.02,511.02,511.02,511.06,511.10,511.12,511.12,511.12,511.12,511.14,511.18,511.18,511.21,511.22,511.22,511.22,511.22,511.25,511.28,511.28,511.31,511.38,511.45,511.53,511.57
504.02,504.02,503.95,503.85,503.76,503.61,503.51,503.40,503.26,503.18,503.11,503.03,502.97,502.94,502.89,502.82,502.76,502.74,502.67,502.54,502.42,502.33,502.25,502.18,502.13,502.08,501.95,501.87,501.79,501.72,501.63,501.53,501.39,501.25,501.11,500.96,500.86,500.72,500.56,500.42,500.30,500.21,500.17,500.16,500.08,500.07,500.07,500.07,500.08,500.13,500.15,500.15,500.15,500.15,500.15,500.19,500.27,500.35,500.50,500.64,500.78,500.93,501.03,501.17,501.31,501.45,501.61,501.71,501.84,501.97,502.05,502.13,502.20,502.26,502.28,502.34,502.36,502.40,502.47,502.54,502.62,502.70,502.80,502.95,503.03,503.11,503.18,503.23,503.25,503.30,503.37,503.43,503.47,503.61,503.76,503.94,504.14,504.32,504.48,504.65,504.82,504.90,504.97,505.05,505.07,505.03,505.17,505.22,505.25,505.31,505.38,505.42,505.46,505.50,505.53,505.60,505.63,505.67,505.74,505.81,505.84,505.88,505.94,506.01,506.04,506.10,506.15,506.17,506.29,506.34,506.41,506.55,506.68,506.78,506.87,506.94,507.03,507.16,507.27,507.36,507.44,507.51,507.63,507.75,507.84,507.92,508.00,508.11,508.23,508.30,508.40,508.49,508.59,508.71,508.81,508.89,508.97,509.04,509.10,509.01,508.91,508.79,508.68,508.61,508.53,508.43,508.32,508.29,508.22,508.15,508.08,508.02,507.97,508.24,508.66,509.13,509.58,509.88,510.00,510.00,510.00,510.00,510.00,510.00,510.02,510.02,510.02,510.05,510.10,510.10,510.10,510.10,510.11,510.13,510.14,510.20,510.29,510.40,510.52,510.62,510.66,510.67,510.68,510.73,510.75,510.75,510.75,510.77,510.77,510.80,510.85,510.85,510.85,510.86,510.87,510.88,510.93,510.95,510.95,510.95,510.97,510.97,511.01,511.05,511.05,511.06,511.07,511.10,511.14,511.15,511.15,511.16,511.17,511.18,511.23,511.25,511.25,511.25,511.26,511.27,511.30,511.35,511.35,511.35,511.36,511.37,511.37,511.37,511.41,511.45,511.45,511.47,511.53,511.61,511.69,511.74
504.09,504.09,504.08,504.04,503.95,503.81,503.71,503.60,503.46,503.38,503.30,503.22,503.15,503.09,503.07,503.01,502.94,502.87,502.79,502.71,502.59,502.47,502.38,502.31,502.24,502.17,502.08,502.00,501.92,501.84,501.75,501.62,501.46,501.34,501.24,501.08,500.94,500.79,500.63,500.50,500.47,500.41,500.37,500.35,500.28,500.26,500.26,500.26,500.26,500.27,500.28,500.28,500.28,500.28,500.28,500.32,500.40,500.49,500.63,500.74,500.85,501.00,501.14,501.30,501.42,501.52,501.68,501.82,501.97,502.11,502.19,502.25,502.33,502.41,502.46,502.48,502.54,502.57,502.60,502.68,502.75,502.83,502.94,503.07,503.16,503.24,503.28,503.30,503.37,503.39,503.44,503.51,503.59,503.73,503.89,504.05,504.22,504.44,504.60,504.73,504.82,504.90,504.97,505.05,505.07,505.03,505.17,505.25,505.29,505.31,505.39,505.45,505.49,505.52,505.59,505.66,505.73,505.78,505.80,505.87,505.94,505.98,506.00,506.08,506.15,506.22,506.27,506.29,506.37,506.44,506.52,506.61,506.70,506.83,506.93,507.01,507.09,507.18,507.30,507.42,507.50,507.58,507.66,507.78,507.90,507.98,508.06,508.14,508.23,508.31,508.46,508.54,508.63,508.73,508.87,508.95,509.03,509.11,509.18,509.17,509.07,508.95,508.88,508.86,508.80,508.71,508.63,508.56,508.48,508.41,508.35,508.32,508.14,508.22,508.53,509.00,509.46,509.84,510.00,510.00,510.00,510.00,510.00,510.03,510.08,510.09,510.09,510.09,510.10,510.10,510.11,510.11,510.13,510.19,510.26,510.33,510.44,510.57,510.67,510.75,510.81,510.87,510.87,510.87,510.88,510.89,510.89,510.95,510.96,510.97,510.98,510.98,510.99,511.02,511.07,511.07,511.08,511.08,511.09,511.10,511.15,511.17,511.17,511.18,511.19,511.24,511.26,511.27,511.28,511.28,511.28,511.31,511.37,511.37,511.37,511.38,511.39,511.39,511.45,511.46,511.47,511.48,511.48,511.49,511.51,511.57,511.57,511.57,511.57,511.58,511.59,511.65,511.73,511.80,511.87,511.88
504.21,504.21,504.21,504.18,504.10,503.99,503.88,503.76,503.65,503.53,503.48,503.42,503.34,503.27,503.26,503.21,503.12,503.00,502.93,502.85,502.73,502.60,502.51,502.44,502.36,502.28,502.20,502.13,502.05,501.96,501.84,501.72,501.58,501.44,501.31,501.16,501.00,500.88,500.77,500.67,500.66,500.60,500.56,500.54,500.43,500.41,500.41,500.41,500.41,500.41,500.41,500.41,500.41,500.41,500.41,500.47,500.58,500.66,500.77,500.86,500.96,501.11,501.23,501.38,501.51,501.64,501.79,501.95,502.10,502.24,502.36,502.44,502.49,502.54,502.61,502.66,502.69,502.73,502.78,502.86,502.90,502.99,503.10,503.20,503.25,503.31,503.37,503.42,503.45,503.49,503.55,503.62,503.67,503.85,504.02,504.17,504.34,504.52,504.65,504.74,504.82,504.90,504.97,505.02,505.05,505.07,505.17,505.23,505.26,505.31,505.34,505.42,505.47,505.51,505.55,505.63,505.70,505.76,505.81,505.84,505.91,505.97,506.01,506.05,506.12,506.20,506.27,506.37,506.52,506.55,506.59,506.67,506.75,506.85,506.94,507.03,507.15,507.23,507.34,507.43,507.52,507.63,507.72,507.81,507.92,508.00,508.11,508.20,508.28,508.37,508.51,508.62,508.69,508.78,508.93,509.02,509.10,509.18,509.25,509.29,509.26,509.20,509.17,509.12,509.05,508.97,508.90,508.83,508.75,508.67,508.63,508.63,508.43,508.30,508.44,508.89,509.46,509.85,510.00,510.01,510.05,510.06,510.06,510.06,510.10,510.10,510.10,510.10,510.11,510.15,510.16,510.18,510.23,510.31,510.39,510.47,510.58,510.72,510.79,510.88,510.95,511.01,511.01,511.01,511.03,511.06,511.07,511.10,511.11,511.11,511.12,511.15,511.16,511.18,511.21,511.21,511.21,511.24,511.26,511.27,511.30,511.31,511.31,511.32,511.36,511.40,511.41,511.41,511.42,511.45,511.46,511.48,511.51,511.51,511.51,511.53,511.56,511.57,511.60,511.61,511.61,511.62,511.65,511.66,511.68,511.71,511.71,511.71,511.71,511.72,511.76,511.80,511.87,511.94,512.01,512.06
