352.23,352.15,352.39,353.11,354.13,355.53,357.06,358.48,359.49,360.00,360.08,359.80,359.25,358.60,357.99,357.42,356.87,356.30,355.72,355.16,354.62,354.08,353.56,353.46,353.80,354.52,355.28,356.00,356.68,357.24,357.41,357.44,357.69,358.18,358.71,359.49,362.11,366.11,370.30,372.06,373.08,373.76,374.22,374.73,375.06,375.25,375.38,375.48,375.44,375.34,375.27,375.27,375.28,375.28,375.34,375.51,375.84,376.12,376.75,377.51,378.06,378.55,379.02,379.49,380.15,381.54,383.19,384.77,386.05,386.65,386.42,385.58,384.58,383.72,382.94,381.84,380.34,378.60,377.01,375.42,374.61,374.33,374.11,373.93,373.88,374.97,377.19,378.35,379.35,380.53,381.86,383.13,384.64,385.67,385.76,384.94,385.11,385.59,385.88,385.76,385.13,384.52,383.93,383.33,382.71,382.09,381.42,380.80,380.79,382.82,386.51,389.56,391.52,392.88,394.26,395.63,396.94,398.17,399.31,400.68,402.32,404.19,406.08,408.07,409.61,410.70,411.52,412.39,413.47,414.59,415.64,416.62,417.55,418.47,419.39,420.34,421.30,422.29,423.25,423.96,423.82,423.49,423.12,422.74,422.36,422.03,421.68,421.65,422.66,424.68,426.40,427.58,428.08,427.70,426.77,425.41,424.10,423.73,423.50,424.32,425.88,427.75,429.66,432.34,434.92,436.81,437.64,437.86,437.64,437.26,436.92,436.04,434.50,432.38,429.85,427.62,425.84,425.12,425.26,425.41,425.54,425.95,426.64,427.54,428.51,429.55,431.02,433.01,435.09,437.14,439.57,442.90,447.72,452.12,456.50,459.53,460.38,460.81,461.20,461.60,462.00,462.24,461.99,461.64,461.30,460.96,460.61,460.16,459.56,458.78,457.86,456.99,456.38,456.03,455.81,455.24,452.66,447.80,441.31,437.40,439.89,445.28,450.70,452.80,454.12,455.36,456.44,456.98,456.51,455.85,454.98,453.97,453.38,453.77,454.66,455.73,456.78,457.83,458.88,459.88,460.78,461.73,462.72,463.66,464.55,465.43,466.24,466.73,466.88,466.79,466.64,466.28,466.15,466.75,468.49,470.51
350.24,350.07,350.29,351.26,352.56,354.04,355.51,356.94,358.34,359.17,359.40,359.13,358.60,358.01,357.46,356.94,356.42,355.88,355.30,354.72,354.16,353.62,353.05,352.94,353.27,353.87,354.55,355.23,355.85,356.32,356.52,356.75,357.27,358.00,358.61,359.26,361.49,365.30,369.81,371.29,372.30,373.11,373.70,374.36,374.86,375.14,375.30,375.46,375.51,375.49,375.47,375.50,375.57,375.59,375.62,375.72,375.99,376.28,376.99,377.75,378.05,378.54,379.05,379.56,380.26,381.61,383.22,384.73,385.78,385.71,384.79,383.62,382.41,381.19,379.81,378.26,376.27,374.00,372.14,370.37,369.69,369.71,369.73,369.76,369.81,371.26,374.12,375.38,376.41,377.61,378.94,380.20,381.68,382.80,383.29,383.17,383.71,384.33,384.77,384.85,384.29,383.74,383.16,382.56,381.95,381.31,380.65,380.12,380.69,384.83,389.15,391.74,392.91,394.11,395.27,396.49,397.79,399.16,400.42,402.10,403.94,405.82,407.67,409.43,410.52,411.23,412.07,412.86,413.87,414.93,415.93,416.92,417.83,418.69,419.51,420.29,421.18,422.13,423.00,423.50,423.10,422.68,422.26,421.85,421.47,421.09,420.64,420.38,420.92,422.62,423.92,424.83,425.28,424.68,423.57,422.29,421.29,421.38,421.74,423.02,424.84,426.77,428.60,430.83,433.00,434.70,435.45,435.52,434.98,434.22,433.64,432.69,431.24,429.45,427.48,425.75,424.29,423.75,423.99,424.19,424.46,425.13,426.04,427.00,428.00,428.96,430.28,432.14,434.28,436.33,438.39,441.22,445.92,450.61,455.33,458.83,460.23,460.70,461.08,461.45,461.80,461.95,461.67,461.33,461.01,460.69,460.29,459.68,458.91,458.05,457.13,456.21,455.41,454.81,454.50,453.87,451.57,446.79,439.94,436.17,439.75,445.54,450.47,452.20,453.30,454.29,455.10,455.36,454.70,454.01,453.13,452.11,451.80,452.61,453.70,454.82,455.94,457.05,458.20,459.26,460.13,460.97,461.79,462.66,463.60,464.48,465.15,465.29,465.13,464.96,464.78,464.55,464.90,466.16,467.92,469.85
349.58,349.52,349.63,350.13,351.11,352.41,353.68,354.84,356.30,357.26,357.64,357.56,357.27,356.97,356.69,356.37,355.95,355.43,354.88,354.31,353.71,353.16,352.51,352.36,352.66,353.17,353.83,354.49,354.98,355.35,356.00,356.91,357.91,358.78,359.11,359.43,361.41,365.15,369.78,371.18,371.98,372.69,373.36,373.99,374.64,375.01,375.19,375.40,375.54,375.62,375.68,375.74,375.82,375.83,375.84,375.83,375.83,376.38,377.34,378.24,378.67,379.09,379.50,380.04,380.85,381.99,383.41,384.63,385.12,384.17,383.12,381.94,380.36,378.21,376.13,373.80,371.75,370.28,369.56,369.16,369.08,369.14,369.23,369.36,369.54,370.22,371.53,372.87,374.48,375.94,377.19,378.40,379.41,380.36,381.15,381.74,382.36,383.12,383.74,383.95,383.43,382.89,382.34,381.79,381.22,380.55,379.91,379.70,381.26,387.50,392.00,394.41,395.45,396.10,396.60,397.46,398.63,400.03,401.51,403.32,405.26,407.22,409.01,410.13,410.97,411.75,412.59,413.37,414.27,415.25,416.24,417.18,418.01,418.80,419.57,420.36,421.21,422.06,422.68,422.78,422.43,421.98,421.50,421.00,420.58,420.02,419.28,418.69,418.83,419.74,420.76,421.56,421.86,421.29,420.25,419.31,418.86,419.42,420.31,421.59,423.24,425.22,427.14,429.32,431.37,432.85,433.15,433.08,432.37,431.32,430.38,429.32,427.87,426.24,424.67,423.36,422.53,422.36,422.65,422.98,423.60,424.48,425.49,426.53,427.54,428.54,429.78,431.44,433.57,435.66,437.74,440.37,444.49,449.21,454.18,458.13,460.11,460.64,460.97,461.33,461.64,461.71,461.46,461.11,460.75,460.42,459.99,459.03,458.02,457.15,456.23,455.35,454.50,453.75,453.21,452.75,451.27,447.22,440.31,435.30,439.37,445.60,450.26,451.41,452.37,453.31,453.90,453.69,452.93,452.16,451.28,450.50,450.72,451.64,452.80,454.01,455.22,456.44,457.65,458.69,459.38,459.93,460.61,461.46,462.47,463.43,463.76,463.73,463.56,463.34,463.12,462.98,463.67,465.42,467.25,469.07
349.14,349.07,349.14,349.52,350.13,350.88,351.72,352.64,353.72,354.60,355.17,355.40,355.17,355.01,355.11,355.34,355.44,354.98,354.44,353.88,353.28,352.62,351.94,351.84,352.21,352.65,353.21,353.84,354.51,355.27,356.23,357.34,358.48,359.57,360.51,361.00,363.03,366.34,369.80,370.94,371.54,372.11,372.76,373.53,374.34,374.90,375.21,375.42,375.49,375.53,375.56,375.60,375.63,375.67,375.68,375.66,375.81,376.60,377.65,378.62,379.24,379.66,380.05,380.57,381.35,382.45,383.59,384.15,383.93,382.82,381.76,379.52,376.69,374.07,372.40,370.85,369.51,368.58,368.25,368.25,368.41,368.65,369.00,369.36,369.62,370.11,370.86,371.45,372.91,374.35,375.60,376.83,377.77,378.69,379.59,380.43,381.21,382.04,382.70,382.96,382.52,381.96,381.40,380.86,380.31,379.74,379.34,380.75,384.81,389.97,393.41,395.30,396.23,396.91,397.52,398.33,399.39,400.71,402.06,403.86,405.82,407.79,409.54,410.53,411.32,412.12,412.96,413.77,414.62,415.49,416.41,417.30,418.13,418.92,419.69,420.47,421.27,421.80,422.02,421.93,421.61,421.17,420.50,419.56,418.48,417.41,416.55,416.00,415.98,416.46,417.25,417.88,418.00,417.52,417.09,416.65,416.54,417.52,418.69,420.01,421.60,423.55,425.62,427.70,429.57,430.87,431.00,430.61,429.76,428.65,427.40,425.89,424.40,423.03,421.89,421.12,420.84,421.01,421.49,422.03,422.87,423.83,424.85,425.88,426.89,427.95,429.20,430.78,432.91,435.04,437.16,439.73,443.52,448.16,453.11,457.37,459.98,460.53,460.85,461.16,461.43,461.55,461.31,460.98,460.64,460.31,459.87,458.85,457.74,456.71,455.59,454.53,453.62,452.84,452.17,451.67,450.00,446.24,440.11,434.63,439.26,445.83,450.31,451.28,452.20,453.11,453.58,453.16,452.33,451.46,450.56,449.85,450.14,451.06,452.24,453.47,454.71,455.94,457.10,458.01,458.57,459.09,459.70,460.54,461.46,462.06,462.24,462.20,462.05,461.86,461.63,461.66,462.52,464.36,466.30,468.32
348.77,348.66,348.71,349.07,349.38,349.62,350.02,350.67,351.29,351.95,352.59,353.03,352.91,352.93,353.40,354.15,354.77,354.49,353.98,353.42,352.81,352.05,351.37,351.35,351.79,352.19,352.66,353.31,354.22,355.36,356.50,357.63,358.77,360.04,361.64,362.56,364.64,367.36,369.54,370.56,371.05,371.47,372.04,372.94,373.82,374.56,375.10,375.37,375.36,375.33,375.33,375.33,375.33,375.38,375.35,375.32,375.67,376.52,377.57,378.68,379.73,380.21,380.62,381.11,381.80,382.82,383.52,383.41,382.63,381.52,379.82,376.44,372.79,370.26,369.21,368.59,368.08,367.70,367.70,367.92,368.23,368.66,369.28,369.88,370.28,370.80,371.35,371.09,371.86,372.94,374.09,375.35,376.32,377.24,378.15,379.09,380.06,380.98,381.66,381.92,381.58,380.97,380.35,379.78,379.30,379.04,379.29,382.41,388.47,391.89,394.17,395.54,396.36,397.18,398.06,398.95,399.97,401.23,402.47,404.19,406.10,407.99,409.66,410.67,411.49,412.30,413.15,414.00,414.81,415.62,416.47,417.32,418.17,418.99,419.77,420.52,421.22,421.40,421.27,421.05,420.64,419.85,418.69,417.19,415.56,414.21,413.41,413.03,412.95,413.16,413.70,414.12,414.10,413.79,413.97,414.09,414.37,415.72,417.07,418.51,420.07,421.89,424.04,426.00,427.63,428.69,428.68,427.99,427.09,426.04,424.65,422.78,421.33,420.25,419.51,419.19,419.36,419.84,420.48,421.20,422.16,423.16,424.17,425.18,426.20,427.36,428.64,430.17,432.25,434.41,436.58,439.12,442.77,447.39,452.23,456.63,459.74,460.38,460.71,460.97,461.20,461.37,461.18,460.89,460.60,460.27,459.84,458.80,457.54,456.25,454.86,453.59,452.63,451.86,451.02,450.13,447.91,444.22,439.14,434.19,439.38,446.13,450.41,451.35,452.27,453.14,453.53,452.96,452.07,451.15,450.22,449.51,449.68,450.65,451.83,453.04,454.26,455.48,456.52,457.29,457.77,458.31,458.89,459.65,460.43,460.67,460.75,460.73,460.63,460.48,460.28,460.45,461.39,463.22,465.35,467.70
348.38,348.27,348.31,348.62,348.88,349.07,349.25,349.47,349.73,350.04,350.34,350.58,350.82,351.31,352.04,352.88,353.67,353.90,353.52,352.90,352.16,351.41,350.85,350.90,351.34,351.74,352.25,353.06,354.07,355.16,356.19,357.23,358.29,359.51,361.14,362.81,364.66,366.59,368.39,369.88,370.49,370.77,371.14,372.02,372.69,373.54,374.47,375.01,375.08,375.07,375.07,375.07,375.07,375.09,374.93,374.73,374.99,375.46,376.37,377.91,379.99,380.65,381.14,381.65,382.19,382.84,382.71,382.21,381.52,380.23,375.80,372.09,369.68,368.46,367.63,367.07,366.99,367.43,368.30,369.04,369.59,370.10,370.80,371.58,372.33,373.07,373.55,372.88,372.06,371.99,372.72,373.93,374.85,375.71,376.60,377.56,378.72,379.84,380.57,380.80,380.63,379.88,379.06,378.37,378.06,378.70,380.68,384.56,389.74,392.37,394.24,395.45,396.19,396.84,397.87,398.92,400.08,401.46,402.92,404.56,406.21,407.82,409.31,410.33,411.19,412.04,412.89,413.80,414.65,415.49,416.34,417.19,418.04,418.89,419.69,420.36,420.75,420.78,420.59,420.21,419.31,417.07,414.59,412.51,411.31,410.66,410.31,410.14,410.13,410.17,410.34,410.46,410.48,410.53,410.83,411.51,412.58,414.09,415.64,417.34,418.96,420.41,422.34,424.14,425.43,425.98,425.69,424.94,424.18,423.40,422.30,420.69,419.53,418.77,418.32,418.03,418.43,419.08,419.76,420.49,421.44,422.45,423.45,424.48,425.59,426.89,428.22,429.67,431.58,433.69,435.89,438.49,442.22,447.16,451.86,456.02,459.17,460.17,460.54,460.78,460.99,461.13,461.00,460.82,460.60,460.28,459.95,458.67,457.01,455.28,453.56,452.23,451.33,450.56,449.33,447.20,444.15,440.38,436.38,434.21,439.98,446.47,450.49,451.42,452.33,453.17,453.46,452.72,451.81,450.89,449.96,449.20,449.16,450.32,451.58,452.69,453.81,454.98,455.86,456.53,457.06,457.59,458.10,458.66,459.21,459.49,459.50,459.43,459.35,459.25,459.15,459.35,460.25,462.09,464.68,467.41
348.04,347.91,347.89,348.13,348.33,348.47,348.57,348.66,348.81,349.00,349.17,349.35,349.62,350.15,350.84,351.64,352.52,353.15,352.91,352.29,351.52,350.77,350.33,350.44,350.91,351.38,352.00,352.92,353.97,355.01,356.05,357.04,357.99,359.00,360.24,361.71,363.31,364.97,366.58,367.89,368.52,368.96,369.56,370.57,371.12,371.65,372.16,372.39,372.20,371.95,371.73,371.50,371.40,371.62,371.62,371.46,371.84,372.81,374.78,377.40,379.92,380.64,381.11,381.53,381.91,382.32,381.98,381.37,380.30,377.69,372.68,369.53,367.90,367.01,366.41,366.60,367.35,368.41,369.45,370.30,370.95,371.53,372.26,373.19,373.76,374.10,374.16,373.52,372.53,372.16,372.49,373.11,373.69,374.27,374.99,375.92,376.84,377.69,378.29,378.52,378.36,378.26,378.21,378.27,378.75,380.59,383.90,387.50,390.56,392.46,394.06,395.07,395.62,396.19,397.22,398.46,399.81,401.27,402.71,404.15,405.66,407.23,408.75,409.99,410.97,411.83,412.72,413.61,414.50,415.37,416.21,417.06,417.85,418.55,419.16,419.61,419.85,419.63,419.15,418.41,416.78,414.07,411.24,409.01,408.18,407.82,407.65,407.63,407.74,407.88,408.10,408.25,408.29,408.48,409.11,410.17,411.56,413.16,414.83,416.59,418.13,419.32,420.75,421.99,422.80,423.04,422.66,422.01,421.44,420.91,420.18,419.15,418.20,417.50,417.17,417.20,417.75,418.45,419.14,419.86,420.76,421.76,422.80,423.87,425.08,426.43,427.78,429.18,430.91,432.98,435.29,437.97,441.63,447.28,451.92,455.62,458.46,459.88,460.35,460.58,460.78,460.85,460.76,460.64,460.48,460.17,459.49,457.31,455.10,453.43,451.79,450.19,448.69,447.14,445.20,442.52,438.95,435.40,433.31,435.30,442.04,447.79,450.71,451.62,452.50,453.14,453.20,452.39,451.54,450.63,449.66,448.79,448.66,450.01,451.35,452.40,453.47,454.40,455.09,455.66,456.20,456.71,457.21,457.71,458.17,458.44,458.37,458.25,458.15,458.07,458.03,458.56,459.69,461.55,464.33,467.22
347.70,347.55,347.47,347.60,347.74,347.85,347.93,348.01,348.15,348.31,348.45,348.61,348.80,349.21,349.78,350.50,351.40,352.31,352.24,351.67,350.90,350.19,349.84,350.00,350.50,351.08,351.84,352.83,353.87,354.87,355.91,356.85,357.69,358.46,359.25,360.21,361.51,363.01,364.39,365.12,365.62,366.18,366.96,367.98,368.46,368.71,368.79,368.59,367.94,367.43,367.00,366.59,366.40,366.98,367.39,367.58,368.40,370.22,373.23,376.46,378.72,379.67,380.51,381.09,381.33,381.60,381.31,380.62,378.85,374.61,370.18,367.88,366.72,365.86,365.64,366.63,368.08,369.49,370.41,371.27,372.02,372.74,373.52,374.45,374.65,374.46,374.09,373.63,373.04,372.74,372.73,372.74,372.95,373.26,373.77,374.57,375.14,375.63,376.07,376.38,376.35,377.08,378.15,379.38,380.96,383.73,387.50,390.24,391.22,392.49,393.74,394.48,394.84,395.36,396.30,397.65,399.17,400.68,402.07,403.35,404.79,406.43,408.11,409.67,410.79,411.66,412.56,413.44,414.34,415.20,415.99,416.69,417.28,417.75,418.08,418.32,418.46,418.00,417.22,416.18,414.10,411.45,408.65,406.28,405.56,405.23,405.16,405.28,405.54,405.88,406.32,406.64,406.80,407.19,408.19,409.51,411.01,412.62,414.34,415.99,417.37,418.34,419.29,419.96,420.35,420.37,419.93,419.38,418.97,418.63,418.23,417.76,417.02,416.35,416.10,416.52,417.18,417.88,418.58,419.30,420.11,421.09,422.17,423.31,424.61,425.98,427.33,428.70,430.25,432.28,434.72,437.48,440.99,447.51,452.10,455.23,457.68,459.42,460.09,460.38,460.54,460.54,460.48,460.39,460.17,459.57,458.20,455.08,452.37,450.82,449.30,447.39,445.18,442.74,440.05,437.19,433.66,430.81,430.91,437.26,444.67,449.36,451.02,451.89,452.73,453.08,452.84,452.01,451.22,450.33,449.29,448.31,448.16,449.70,451.13,452.14,453.09,453.74,454.25,454.75,455.27,455.75,456.27,456.77,457.20,457.45,457.30,457.12,456.98,456.93,457.06,458.01,459.41,461.29,464.14,467.06
347.34,347.15,347.04,347.03,347.11,347.24,347.33,347.36,347.45,347.59,347.71,347.84,348.07,348.44,349.02,349.72,350.50,351.41,351.60,351.19,350.41,349.81,349.42,349.60,350.19,350.83,351.73,352.73,353.72,354.66,355.56,356.40,357.16,357.86,358.52,359.28,360.14,361.07,361.85,361.50,361.43,361.54,361.73,362.08,362.54,363.37,364.13,363.84,362.68,362.06,361.83,361.72,361.69,362.76,364.10,365.54,367.53,370.19,372.30,373.51,373.99,375.94,378.73,380.49,380.68,380.90,380.72,379.58,376.78,371.52,368.62,366.80,365.63,365.25,365.93,366.96,368.02,368.98,369.82,370.94,372.06,373.13,374.09,374.55,374.51,374.23,373.86,373.57,373.28,373.09,373.01,373.08,373.34,373.64,374.00,374.46,374.94,375.32,375.83,376.51,377.23,378.26,380.25,382.91,385.73,388.09,389.80,391.01,391.89,392.92,393.28,393.53,393.87,394.31,395.04,396.25,397.72,399.28,400.87,402.24,403.72,405.48,407.49,409.39,410.66,411.51,412.38,413.29,414.17,414.93,415.43,415.44,415.42,415.54,415.75,415.96,415.97,415.43,414.63,413.81,412.61,410.54,407.67,404.61,403.06,402.53,402.59,402.92,403.35,403.92,404.51,405.10,405.77,406.80,408.07,409.47,410.95,412.47,414.06,415.34,416.35,417.19,418.05,418.76,419.13,419.00,418.30,417.63,417.21,416.92,416.54,416.19,415.72,415.34,415.32,415.90,416.63,417.36,418.07,418.82,419.55,420.47,421.58,422.85,424.21,425.55,426.90,428.27,429.69,431.65,434.16,436.94,440.31,447.67,452.04,454.63,456.83,458.47,459.59,460.13,460.22,460.22,460.21,460.07,459.34,457.41,454.75,451.49,448.73,446.81,444.93,442.86,440.55,437.91,434.87,432.17,430.18,429.30,431.38,440.79,447.24,450.38,451.36,452.20,453.01,453.00,452.41,451.61,450.78,449.88,448.80,447.75,447.64,449.35,450.90,451.83,452.43,452.84,453.32,453.82,454.31,454.83,455.32,455.82,456.26,456.37,456.20,455.98,455.81,455.87,456.64,457.87,459.34,461.21,464.02,466.89
346.98,346.79,346.62,346.52,346.50,346.60,346.69,346.70,346.75,346.85,346.94,347.03,347.31,347.73,348.31,349.01,349.78,350.64,351.00,350.79,350.09,349.49,349.03,349.21,349.85,350.56,351.50,352.49,353.44,354.29,355.08,355.83,356.53,357.21,357.92,358.62,359.27,359.87,360.24,359.80,359.60,359.52,359.47,359.53,359.84,360.56,361.23,361.04,360.16,359.74,359.67,359.71,359.84,361.09,362.87,364.92,367.26,369.81,371.05,371.15,370.90,372.32,374.56,376.25,377.04,378.05,377.89,376.29,373.36,369.45,367.40,365.71,364.75,365.10,366.18,367.27,368.15,368.87,369.64,370.76,371.98,373.20,374.26,374.61,374.51,374.24,373.94,373.74,373.55,373.40,373.35,373.53,373.79,374.09,374.41,374.76,375.19,375.58,376.19,377.09,378.17,379.64,382.47,385.90,388.61,390.19,390.96,391.54,392.13,392.58,392.50,392.46,392.63,393.03,393.70,394.69,395.87,397.21,399.10,400.92,402.73,404.61,406.68,408.88,410.39,411.38,412.27,413.17,413.78,414.22,414.45,414.18,413.83,413.61,413.55,413.57,413.43,412.86,412.08,411.28,410.29,408.47,405.76,402.70,401.00,400.48,400.57,400.99,401.68,402.56,403.44,404.35,405.38,406.71,408.09,409.47,410.84,412.17,413.44,414.43,415.24,416.02,416.83,417.58,417.96,417.72,416.75,415.90,415.46,415.23,414.85,414.53,414.30,414.24,414.49,415.14,415.90,416.63,417.35,418.11,418.82,419.77,420.96,422.31,423.69,425.05,426.41,427.80,429.18,431.08,433.55,436.30,439.55,446.75,451.18,453.71,455.56,456.92,458.11,458.69,458.74,458.62,458.25,457.62,456.19,453.35,450.10,446.83,444.10,442.03,440.02,438.09,435.88,433.46,431.16,429.26,428.79,430.26,434.97,444.60,449.23,451.04,451.75,452.50,452.97,452.68,451.96,451.18,450.34,449.40,448.34,447.30,446.95,448.79,450.39,451.20,451.54,451.91,452.38,452.88,453.38,453.89,454.38,454.87,455.25,455.28,455.07,454.82,454.78,455.24,456.38,457.74,459.23,461.10,463.88,466.64
346.63,346.43,346.23,346.07,345.92,345.97,346.04,346.04,346.04,346.10,346.13,346.21,346.53,347.03,347.63,348.34,349.15,349.90,350.36,350.33,349.78,349.14,348.66,348.83,349.50,350.29,351.19,352.14,353.03,353.79,354.50,355.23,355.90,356.58,357.38,358.10,358.70,359.12,359.28,359.26,359.20,359.12,359.06,359.07,359.21,359.44,359.65,359.61,359.37,359.28,359.31,359.44,359.72,361.00,362.91,365.10,367.24,369.14,369.68,369.38,369.09,369.33,369.83,370.74,372.21,374.06,373.87,372.04,369.64,368.02,366.39,364.72,364.10,365.21,366.36,367.52,368.45,369.13,369.82,370.77,371.91,373.12,374.18,374.64,374.63,374.43,374.21,374.04,373.82,373.69,373.73,374.02,374.27,374.55,374.88,375.26,375.66,376.11,376.80,377.76,378.91,380.87,384.29,387.94,389.95,390.74,391.31,391.76,391.96,391.76,391.52,391.33,391.30,391.64,392.34,393.14,393.97,395.01,397.05,399.37,401.58,403.61,405.64,408.04,409.91,411.19,412.09,412.91,413.15,413.20,413.22,412.94,412.46,411.97,411.54,411.22,410.86,410.26,409.50,408.59,407.38,405.62,403.24,400.69,399.29,398.91,399.05,399.58,400.54,401.72,402.93,404.15,405.39,406.73,408.08,409.34,410.54,411.67,412.58,413.36,414.10,414.87,415.64,416.41,416.77,416.42,415.23,414.17,413.71,413.55,413.20,412.94,412.92,413.13,413.60,414.28,415.03,415.76,416.47,417.23,417.99,419.03,420.29,421.68,423.07,424.47,425.87,427.26,428.70,430.50,432.86,435.53,438.61,444.74,449.47,452.44,453.94,454.96,455.90,456.38,456.35,456.02,455.14,453.70,451.46,448.08,444.69,441.51,438.89,436.86,435.01,433.44,431.52,429.64,428.71,428.10,429.17,432.96,440.07,448.04,450.63,451.46,452.15,452.74,452.72,452.23,451.51,450.72,449.86,448.90,447.89,446.89,446.17,447.97,449.55,450.26,450.52,450.95,451.43,451.93,452.46,452.92,453.43,453.90,454.23,454.18,453.91,453.68,453.85,454.81,456.13,457.53,459.02,460.88,463.59,466.15
346.27,346.07,345.89,345.68,345.47,345.40,345.39,345.38,345.34,345.34,345.36,345.43,345.76,346.26,346.95,347.71,348.43,348.94,349.37,349.45,349.13,348.62,348.27,348.53,349.23,350.02,350.87,351.69,352.45,353.17,353.86,354.69,355.45,356.14,356.88,357.57,358.14,358.54,358.72,358.74,358.72,358.67,358.61,358.62,358.74,358.88,358.96,358.96,358.90,358.88,359.01,359.37,359.80,361.29,363.30,365.37,367.05,368.46,368.76,368.40,368.16,368.41,368.78,369.27,369.93,370.67,370.55,369.48,367.97,366.78,365.49,364.26,364.03,365.33,366.50,367.70,368.81,369.69,370.22,371.09,372.14,373.18,373.97,374.41,374.66,374.70,374.52,374.31,374.08,374.03,374.17,374.48,374.77,375.04,375.34,375.73,376.17,376.63,377.17,377.90,379.06,381.16,384.30,387.61,389.85,390.47,390.83,391.06,391.09,390.85,390.53,390.26,390.15,390.41,391.04,391.91,392.82,393.80,395.20,397.23,399.49,401.81,404.08,406.44,408.77,410.63,411.46,412.02,412.06,411.97,411.94,411.69,411.21,410.59,409.85,408.93,408.16,407.38,406.53,405.57,404.25,402.50,400.68,399.06,397.96,397.72,398.25,399.24,400.36,401.62,402.91,404.20,405.47,406.65,407.74,408.75,409.72,410.69,411.52,412.29,413.05,413.81,414.59,415.36,415.64,415.08,413.65,412.46,411.99,411.91,411.72,411.75,411.94,412.23,412.64,413.32,414.03,414.74,415.44,416.19,417.20,418.28,419.46,420.86,422.30,423.75,425.19,426.65,428.15,429.79,431.98,434.53,437.10,440.70,446.06,450.38,451.90,452.60,453.10,453.25,453.02,452.44,451.20,448.89,445.80,442.25,438.79,435.91,433.58,431.82,430.65,429.63,428.45,427.60,428.04,429.15,432.11,437.23,444.11,449.31,451.03,451.76,452.43,452.73,452.39,451.77,451.05,450.25,449.32,448.32,447.31,446.31,445.42,446.63,447.97,448.85,449.38,449.91,450.46,451.02,451.54,451.96,452.34,452.86,453.31,453.05,452.75,452.66,453.04,454.16,455.52,456.96,458.48,460.26,462.63,464.80
345.91,345.72,345.51,345.25,344.91,344.70,344.61,344.60,344.55,344.58,344.65,344.79,345.12,345.62,346.31,346.99,347.50,347.88,348.17,348.28,348.17,348.04,347.93,348.23,348.85,349.58,350.39,351.15,351.88,352.65,353.39,354.20,354.98,355.67,356.36,357.03,357.57,357.97,358.19,358.22,358.22,358.19,358.15,358.13,358.25,358.35,358.38,358.40,358.51,358.65,358.91,359.39,359.96,361.45,363.28,365.07,366.52,367.69,367.88,367.57,367.43,367.77,368.14,368.43,368.59,368.70,368.56,367.85,366.75,365.66,364.54,363.65,363.73,365.15,366.46,367.77,369.04,370.09,370.63,371.39,372.19,372.91,373.50,373.94,374.33,374.57,374.62,374.55,374.39,374.43,374.65,374.94,375.25,375.52,375.82,376.19,376.65,377.11,377.57,378.13,379.07,380.95,383.67,386.57,388.74,389.56,389.95,390.13,390.09,389.90,389.57,389.31,389.24,389.54,390.10,390.90,391.83,392.83,393.91,395.55,397.68,400.05,402.11,404.44,407.00,409.28,410.53,411.05,411.05,410.84,410.55,410.07,409.35,408.48,407.48,406.30,405.33,404.44,403.50,402.42,401.08,399.53,398.21,397.29,396.68,396.84,397.78,399.09,400.31,401.59,402.88,404.02,404.93,405.63,406.50,407.39,408.27,409.26,410.29,411.22,412.04,412.81,413.59,414.34,414.59,414.00,412.40,411.01,410.42,410.40,410.50,410.78,411.09,411.39,411.73,412.33,413.00,413.68,414.38,415.21,416.19,417.27,418.41,419.61,420.84,421.97,423.15,424.48,426.10,427.91,430.43,433.25,435.59,437.93,442.27,446.34,448.41,449.36,449.69,449.58,449.02,447.87,446.03,443.09,439.58,436.20,433.38,431.15,429.22,427.71,427.20,427.11,427.18,427.76,429.61,432.18,436.41,441.86,447.49,450.40,451.48,452.12,452.61,452.51,451.96,451.30,450.58,449.73,448.74,447.73,446.73,445.72,444.79,445.57,446.63,447.51,448.20,448.86,449.53,450.12,450.55,450.89,451.25,451.85,452.38,451.95,451.62,451.73,452.36,453.54,454.83,456.13,457.50,459.06,460.99,462.78
345.50,345.31,345.05,344.70,344.22,343.92,343.82,343.85,343.87,343.99,344.16,344.37,344.67,345.15,345.72,346.21,346.50,346.81,347.02,347.13,347.25,347.62,347.82,348.09,348.51,349.08,349.80,350.56,351.38,352.25,353.02,353.75,354.46,355.14,355.84,356.47,356.99,357.40,357.66,357.70,357.70,357.70,357.69,357.63,357.74,357.81,357.85,357.91,358.22,358.58,358.98,359.48,360.14,361.43,362.88,364.31,365.73,366.81,367.00,366.77,366.77,367.17,367.52,367.72,367.81,367.87,367.63,366.85,365.73,364.67,363.63,362.94,363.19,364.69,366.20,367.65,369.03,370.19,370.87,371.51,371.95,372.32,372.81,373.26,373.68,374.08,374.46,374.70,374.72,374.87,375.16,375.40,375.70,376.00,376.31,376.66,377.11,377.57,378.03,378.50,379.08,380.43,382.66,385.11,386.92,388.10,388.74,389.01,389.00,388.86,388.60,388.46,388.54,388.99,389.47,390.11,390.94,391.99,393.09,394.39,396.26,398.46,399.96,402.19,404.70,407.15,409.10,409.76,409.82,409.49,408.79,407.92,406.83,405.66,404.49,403.35,402.37,401.43,400.42,399.22,397.98,396.80,395.93,395.48,395.44,396.20,397.49,398.95,400.26,401.49,402.66,403.49,403.81,403.86,404.56,405.42,406.32,407.44,408.87,410.06,411.02,411.83,412.61,413.32,413.63,413.17,411.51,409.91,409.10,409.03,409.47,409.91,410.27,410.56,410.86,411.33,411.97,412.62,413.31,414.23,414.97,416.01,417.13,418.00,418.82,419.44,420.14,421.20,422.88,425.06,428.26,431.71,434.13,436.38,438.57,441.10,443.88,445.41,445.81,445.47,444.45,442.43,439.87,436.68,433.33,430.43,428.74,427.32,425.96,424.93,425.06,426.10,427.70,429.90,433.09,436.65,441.44,446.39,450.21,451.54,452.17,452.62,452.82,452.25,451.56,450.86,450.09,449.15,448.15,447.15,446.14,445.14,444.24,444.78,445.60,446.32,447.05,447.85,448.63,449.23,449.54,449.80,450.21,450.88,451.43,450.91,450.55,450.87,451.73,452.87,453.98,454.95,455.96,457.20,458.85,460.29
344.74,344.56,344.22,343.76,343.27,343.39,343.76,344.03,344.19,344.35,344.46,344.55,344.67,344.94,345.27,345.63,345.96,346.32,346.85,347.37,347.85,348.39,348.79,348.96,348.98,349.05,349.46,350.18,351.00,351.81,352.54,353.24,353.94,354.63,355.31,355.90,356.40,356.83,357.14,357.18,357.18,357.20,357.23,357.22,357.25,357.39,357.61,357.87,358.19,358.60,359.04,359.52,360.08,361.14,362.34,363.58,364.95,365.94,366.13,365.98,366.11,366.52,366.84,367.00,367.02,367.02,366.66,365.84,364.79,363.93,363.18,362.56,362.68,363.98,365.49,366.90,368.29,369.53,370.19,370.77,371.19,371.58,372.09,372.56,373.00,373.45,373.96,374.61,374.97,375.29,375.63,375.91,376.17,376.46,376.79,377.16,377.62,378.04,378.48,378.94,379.38,380.14,381.52,383.29,385.04,386.24,386.96,387.36,387.52,387.48,387.46,387.63,388.01,388.52,389.03,389.60,390.32,391.28,392.40,393.67,395.32,397.18,398.49,400.06,402.06,404.22,406.04,406.73,406.75,406.30,405.43,404.50,403.49,402.46,401.39,400.24,399.15,398.14,397.16,396.20,395.38,394.68,394.23,394.13,394.59,395.65,397.09,398.63,400.00,401.13,401.78,402.17,402.34,402.18,402.62,403.31,404.18,405.44,406.98,408.42,409.71,410.82,411.59,412.29,412.75,412.59,411.13,409.65,408.36,407.71,408.31,408.79,409.18,409.54,409.94,410.40,410.94,411.52,412.15,412.87,413.72,414.61,415.46,416.21,416.93,417.46,418.08,418.95,420.12,422.15,425.71,429.77,432.56,434.67,436.37,438.20,440.22,441.39,441.73,441.10,439.35,436.36,433.49,431.16,429.12,427.19,425.87,424.77,424.54,425.40,426.50,428.08,430.56,433.85,437.62,441.24,445.61,449.44,451.64,452.78,453.38,453.61,453.42,452.62,451.78,450.73,449.59,448.52,447.51,446.50,445.52,444.56,443.64,443.90,444.60,445.40,446.20,447.00,447.81,448.44,448.72,448.93,449.44,450.06,450.45,450.06,449.69,450.00,450.83,451.83,452.54,452.67,452.95,454.05,456.59,457.92
343.77,343.59,343.31,343.05,342.95,343.47,344.11,344.50,344.71,344.83,344.89,344.91,344.95,345.06,345.26,345.52,345.84,346.20,346.91,347.71,348.45,349.11,349.61,349.74,349.57,349.37,349.41,349.89,350.58,351.32,352.02,352.72,353.42,354.11,354.79,355.34,355.82,356.26,356.59,356.65,356.66,356.69,356.77,356.85,356.95,357.19,357.53,357.89,358.22,358.65,359.10,359.53,359.97,360.85,361.90,363.05,364.28,365.12,365.25,365.16,365.44,365.88,366.14,366.24,366.24,366.21,365.78,365.03,364.16,363.45,362.87,362.26,362.23,363.25,364.69,366.05,367.41,368.65,369.26,369.83,370.33,370.81,371.34,371.84,372.41,373.03,373.74,374.62,375.16,375.57,375.94,376.25,376.53,376.82,377.16,377.56,377.99,378.39,378.81,379.23,379.60,380.07,380.89,382.08,383.51,384.52,385.25,385.78,386.13,386.29,386.56,386.99,387.52,388.06,388.61,389.15,389.77,390.62,391.74,393.00,394.45,395.97,397.19,398.37,399.84,401.45,402.79,403.38,403.37,402.87,401.93,401.04,399.99,399.03,398.17,397.30,396.33,395.44,394.64,393.89,393.29,392.92,392.83,393.13,394.01,395.22,396.64,398.13,399.51,400.35,400.57,400.63,400.68,400.39,400.66,401.24,402.08,403.42,404.97,406.55,408.06,409.41,410.40,411.16,411.72,411.82,410.81,409.41,407.74,406.62,407.12,407.59,408.02,408.45,408.91,409.38,409.84,410.35,410.89,411.44,412.25,413.00,413.70,414.39,415.06,415.63,416.25,416.99,417.83,419.60,422.79,426.83,430.59,432.85,434.51,436.06,437.54,438.36,438.71,437.98,435.87,432.34,429.52,427.66,426.24,424.87,423.68,423.48,424.57,426.76,428.71,430.95,434.00,437.69,441.51,445.10,448.62,451.31,452.69,453.92,454.59,454.59,453.96,452.86,451.77,450.40,449.00,447.91,446.89,445.84,444.80,443.85,443.00,443.17,443.78,444.56,445.38,446.19,447.02,447.67,447.98,448.22,448.77,449.30,449.53,449.24,448.98,449.29,449.98,450.68,450.98,450.68,450.63,451.66,454.47,455.74
342.66,342.53,342.48,342.79,343.44,344.17,344.77,345.11,345.23,345.26,345.31,345.38,345.45,345.53,345.71,345.92,346.12,346.42,347.06,347.88,348.74,349.49,350.01,350.18,350.11,349.99,349.65,349.71,350.15,350.84,351.52,352.21,352.89,353.59,354.26,354.77,355.24,355.67,356.01,356.12,356.15,356.20,356.32,356.54,356.85,357.21,357.58,357.90,358.27,358.71,359.14,359.51,359.85,360.58,361.57,362.69,363.70,364.35,364.39,364.34,364.77,365.23,365.41,365.46,365.46,365.43,365.01,364.45,363.84,363.21,362.60,361.99,361.83,362.54,363.86,365.19,366.51,367.66,368.24,368.84,369.44,370.04,370.62,371.17,371.96,372.89,373.88,374.77,375.28,375.67,376.04,376.36,376.71,377.04,377.38,377.77,378.17,378.56,378.94,379.32,379.66,380.15,380.85,381.66,382.44,383.13,383.81,384.45,385.00,385.43,385.97,386.53,387.07,387.62,388.16,388.70,389.29,390.01,391.10,392.31,393.56,394.83,395.99,397.13,398.21,399.13,399.78,400.19,400.21,399.72,398.76,397.93,396.67,395.66,395.07,394.75,394.14,393.59,393.05,392.39,391.72,391.48,391.70,392.42,393.65,394.91,396.18,397.50,398.75,399.10,399.05,398.93,398.80,398.46,398.71,399.28,400.13,401.44,402.94,404.54,406.12,407.58,409.01,409.88,410.46,410.75,410.35,408.96,407.14,405.79,405.95,406.36,406.82,407.28,407.74,408.21,408.68,409.12,409.56,410.04,410.60,411.24,411.92,412.58,413.20,413.86,414.52,415.18,416.00,417.52,419.63,422.93,428.02,430.81,432.72,434.38,435.82,436.52,436.96,436.38,434.42,431.00,428.49,426.35,424.53,423.17,422.13,423.51,425.90,428.50,431.05,434.14,437.49,440.91,444.33,447.92,450.35,452.07,453.51,454.86,455.61,455.38,454.26,452.80,451.38,449.80,448.31,447.24,446.23,445.09,443.95,442.96,442.33,442.62,443.17,443.80,444.57,445.40,446.24,446.90,447.28,447.66,448.16,448.56,448.69,448.42,448.42,448.78,449.25,449.50,449.51,449.31,449.48,450.48,452.63,453.84
341.86,342.17,342.71,343.44,344.23,344.79,345.20,345.50,345.63,345.70,345.76,345.84,345.91,345.99,346.14,346.33,346.53,346.75,347.17,347.80,348.58,349.35,349.94,350.29,350.44,350.41,350.05,349.85,350.02,350.58,351.13,351.73,352.38,353.06,353.70,354.19,354.65,355.09,355.44,355.59,355.73,355.92,356.19,356.51,356.85,357.22,357.60,357.95,358.34,358.74,359.11,359.40,359.67,360.14,360.94,362.00,363.00,363.51,363.62,363.71,364.16,364.55,364.60,364.59,364.62,364.61,364.36,363.92,363.35,362.75,362.17,361.56,361.33,361.86,362.96,364.24,365.51,366.59,367.20,367.85,368.54,369.33,370.25,371.00,371.88,372.81,373.73,374.56,375.11,375.51,375.85,376.20,376.55,376.90,377.26,377.65,378.03,378.43,378.81,379.19,379.56,380.02,380.63,381.29,381.90,382.55,383.21,383.83,384.38,384.86,385.44,386.04,386.63,387.22,387.80,388.39,388.99,389.64,390.46,391.53,392.69,393.87,394.97,395.89,396.77,397.55,398.11,398.81,398.77,398.16,397.21,396.29,395.23,394.47,394.05,393.73,393.16,392.51,391.83,391.11,390.38,390.25,390.73,391.77,393.16,394.58,395.87,396.96,397.67,397.47,397.06,396.66,396.39,396.52,397.07,397.82,398.72,399.82,401.14,402.82,404.59,406.14,407.39,408.18,408.76,409.13,408.94,407.79,406.24,404.97,404.81,405.19,405.65,406.11,406.59,407.09,407.56,408.08,408.63,409.09,409.50,409.97,410.44,410.88,411.39,412.05,412.71,413.37,414.23,415.74,417.64,420.22,424.05,427.70,430.54,432.67,434.07,434.71,435.25,434.89,433.45,431.18,428.35,425.20,422.69,421.88,422.31,424.40,427.00,429.71,432.81,436.15,439.52,442.86,446.10,449.15,451.02,452.41,453.87,455.23,455.74,455.24,453.95,452.47,450.99,449.26,447.49,446.00,444.94,443.87,442.78,441.90,441.79,442.20,442.72,443.26,443.95,444.65,445.43,446.09,446.53,447.00,447.42,447.74,447.84,447.61,447.89,448.35,448.70,448.72,448.66,448.61,448.95,449.93,451.47,452.78
341.56,342.25,343.21,344.19,344.86,345.21,345.46,345.72,345.91,346.08,346.20,346.29,346.37,346.44,346.57,346.74,346.95,347.13,347.39,347.80,348.40,349.12,349.76,350.27,350.62,350.73,350.46,350.14,350.11,350.54,350.99,351.50,352.06,352.67,353.22,353.70,354.16,354.59,354.97,355.22,355.47,355.79,356.16,356.54,356.88,357.24,357.63,358.01,358.37,358.71,359.02,359.27,359.50,359.78,360.37,361.28,362.28,362.69,362.88,363.10,363.54,363.83,363.78,363.70,363.75,363.77,363.66,363.32,362.80,362.21,361.67,361.08,360.84,361.31,362.25,363.41,364.60,365.64,366.39,367.19,368.03,369.03,370.25,371.16,372.03,372.89,373.70,374.47,375.06,375.48,375.81,376.18,376.48,376.78,377.11,377.45,377.82,378.20,378.60,379.00,379.39,379.83,380.34,380.91,381.50,382.17,382.77,383.34,383.90,384.42,385.02,385.64,386.25,386.87,387.49,388.11,388.72,389.32,389.93,390.86,391.94,393.04,394.06,394.77,395.48,396.20,396.90,397.85,397.80,397.13,396.16,395.20,394.40,393.87,393.50,393.03,392.45,391.70,390.90,390.13,389.38,389.25,389.77,390.89,392.28,393.98,395.41,396.35,396.53,395.92,395.28,394.69,394.32,394.80,395.68,396.63,397.59,398.59,399.81,401.46,403.23,404.70,405.70,406.36,406.90,407.30,407.18,406.30,405.00,403.87,403.65,404.01,404.49,404.99,405.49,406.03,406.56,407.18,407.82,408.24,408.58,408.96,409.31,409.59,409.98,410.53,411.10,411.68,412.51,414.07,415.98,418.06,420.46,423.99,427.45,430.34,432.26,432.99,433.56,433.37,432.32,430.55,427.04,423.47,421.09,421.09,422.79,425.17,427.69,430.42,433.98,437.58,441.01,444.32,447.45,449.91,451.43,452.67,454.05,455.37,455.48,454.72,453.43,452.05,450.60,448.77,446.75,444.87,443.59,442.51,441.57,441.00,441.33,441.84,442.33,442.84,443.44,444.03,444.70,445.31,445.80,446.28,446.63,446.90,447.03,446.91,447.39,447.89,448.15,448.05,447.95,448.07,448.58,449.55,450.67,452.02
341.98,342.79,343.79,344.74,345.09,345.33,345.53,345.73,346.01,346.35,346.59,346.73,346.81,346.89,347.02,347.18,347.36,347.57,347.81,348.04,348.35,348.96,349.58,350.14,350.63,350.97,350.81,350.52,350.47,350.81,351.20,351.66,352.11,352.53,352.95,353.40,353.83,354.24,354.69,355.11,355.49,355.83,356.17,356.55,356.92,357.31,357.68,358.05,358.33,358.58,358.85,359.13,359.37,359.61,360.00,360.64,361.56,361.93,362.16,362.46,362.88,363.08,362.96,362.84,362.86,362.92,362.86,362.60,362.15,361.61,361.13,360.57,360.40,360.98,361.90,362.87,363.90,364.98,366.00,367.09,368.19,369.38,370.69,371.67,372.45,373.20,373.98,374.75,375.35,375.80,376.16,376.47,376.72,376.88,377.05,377.30,377.61,377.96,378.37,378.81,379.19,379.59,380.00,380.49,381.15,381.79,382.31,382.86,383.48,384.14,384.76,385.39,386.00,386.62,387.23,387.85,388.44,388.99,389.55,390.40,391.38,392.38,393.29,393.88,394.39,395.03,395.97,396.89,396.97,396.38,395.37,394.50,393.91,393.42,392.94,392.34,391.73,391.05,390.32,389.56,388.85,388.54,388.79,389.62,390.81,392.91,394.62,395.51,395.34,394.62,393.99,393.39,392.96,393.44,394.54,395.67,396.70,397.85,399.13,400.57,401.99,403.15,403.98,404.49,404.93,405.29,405.18,404.50,403.32,402.32,402.44,402.85,403.36,403.93,404.51,405.07,405.71,406.42,407.08,407.42,407.79,408.21,408.62,408.91,409.18,409.51,409.84,410.20,410.90,412.50,414.45,416.38,418.01,419.80,423.09,426.95,430.20,431.28,431.81,431.67,430.60,427.96,423.56,420.79,420.00,421.01,423.14,425.43,427.76,430.49,434.38,438.43,442.09,445.40,448.47,450.46,451.77,452.90,454.11,455.29,454.89,453.90,452.78,451.62,450.19,448.29,446.15,444.09,442.36,441.10,440.43,440.44,440.97,441.51,442.01,442.50,443.05,443.60,444.11,444.62,445.12,445.47,445.78,446.05,446.25,446.41,446.94,447.37,447.54,447.40,447.26,447.58,448.26,449.21,450.24,451.45
342.40,343.17,343.92,344.61,344.95,345.17,345.38,345.63,345.94,346.31,346.62,346.85,347.10,347.31,347.45,347.60,347.80,348.03,348.22,348.42,348.65,349.01,349.51,350.08,350.65,351.13,351.11,350.92,350.89,351.18,351.56,352.00,352.40,352.75,353.14,353.52,353.91,354.31,354.77,355.16,355.54,355.89,356.22,356.60,356.99,357.30,357.57,357.87,358.15,358.39,358.64,358.91,359.18,359.42,359.73,360.18,360.84,361.16,361.44,361.82,362.26,362.34,362.14,361.99,362.01,362.12,362.04,361.80,361.43,360.97,360.50,360.14,360.21,360.98,362.04,363.04,364.04,365.09,366.18,367.32,368.48,369.73,371.12,372.29,373.11,373.82,374.57,375.41,376.15,376.68,377.05,377.34,377.51,377.62,377.70,377.82,377.99,378.04,378.23,378.61,379.00,379.35,379.71,380.16,380.74,381.39,381.97,382.56,383.23,383.92,384.59,385.20,385.79,386.41,386.98,387.56,388.13,388.67,389.26,390.00,390.86,391.77,392.59,393.23,393.82,394.48,395.30,395.99,396.22,395.90,395.04,394.24,393.56,392.93,392.31,391.69,391.07,390.43,389.76,389.07,388.38,387.84,387.86,388.50,389.46,391.07,392.56,393.46,393.33,392.84,392.23,391.73,391.54,391.90,393.06,394.41,395.71,396.91,398.14,399.41,400.57,401.44,402.11,402.52,402.91,403.24,403.18,402.64,401.79,401.12,401.31,401.73,402.31,402.95,403.61,404.28,404.97,405.66,406.26,406.58,406.99,407.44,407.88,408.25,408.50,408.79,409.08,409.39,409.90,411.32,413.01,414.68,416.27,417.88,420.09,422.76,425.60,427.87,428.81,428.27,426.38,423.41,420.52,419.51,420.04,421.56,423.56,425.59,427.71,430.32,434.35,438.72,442.68,446.19,449.20,450.71,451.84,452.95,454.05,454.85,454.31,453.31,452.22,451.05,449.43,447.38,445.19,443.13,441.21,440.18,439.88,440.19,440.70,441.21,441.71,442.22,442.72,443.25,443.66,444.02,444.41,444.69,444.96,445.21,445.49,445.95,446.53,446.84,446.85,446.71,446.67,447.18,447.97,448.87,449.84,450.99
342.68,343.33,343.83,344.27,344.68,344.95,345.21,345.53,345.86,346.22,346.57,346.91,347.28,347.61,347.80,347.95,348.19,348.44,348.61,348.80,349.00,349.19,349.57,350.11,350.71,351.26,351.41,351.33,351.32,351.56,351.94,352.38,352.76,353.08,353.45,353.78,354.12,354.50,354.90,355.24,355.59,355.94,356.25,356.61,356.95,357.20,357.38,357.62,357.91,358.17,358.42,358.66,358.96,359.20,359.47,359.79,360.17,360.38,360.71,361.18,361.62,361.59,361.33,361.15,361.18,361.31,361.23,361.00,360.67,360.31,359.91,359.78,360.09,360.97,362.20,363.55,364.66,365.53,366.52,367.65,368.82,370.08,371.53,372.89,373.81,374.57,375.38,376.31,377.16,377.73,378.08,378.34,378.45,378.52,378.57,378.58,378.63,378.45,378.44,378.71,379.02,379.28,379.57,379.94,380.42,381.10,381.76,382.42,383.13,383.83,384.51,385.08,385.59,386.19,386.73,387.24,387.75,388.29,388.95,389.72,390.51,391.32,392.08,392.79,393.48,394.14,394.76,395.19,395.50,395.43,394.82,394.07,393.31,392.55,391.81,391.17,390.50,389.85,389.22,388.58,387.90,387.22,386.99,387.37,388.14,389.16,390.34,391.25,391.24,391.06,390.59,390.25,390.31,390.55,391.50,392.84,394.34,395.77,396.98,398.12,399.11,399.78,400.26,400.60,400.93,401.23,401.26,400.90,400.40,400.07,400.27,400.74,401.36,402.06,402.77,403.53,404.25,404.89,405.42,405.78,406.22,406.68,407.14,407.58,407.85,408.14,408.45,408.77,409.21,410.46,411.89,413.36,414.94,416.57,417.82,419.17,421.14,423.93,424.99,424.17,421.92,419.39,418.49,419.09,420.51,422.23,423.96,425.77,427.69,430.16,434.26,438.81,443.00,446.70,449.69,450.87,451.86,452.94,453.91,454.27,453.73,452.79,451.72,450.50,448.58,446.32,444.04,442.02,440.23,439.46,439.49,440.05,440.48,440.92,441.41,441.92,442.36,442.84,443.15,443.41,443.70,443.94,444.18,444.45,444.84,445.51,446.09,446.26,446.16,446.05,446.18,446.84,447.69,448.56,449.51,450.63
342.57,343.04,343.50,343.90,344.35,344.77,345.17,345.54,345.91,346.25,346.60,346.97,347.35,347.67,347.96,348.21,348.45,348.75,348.94,349.10,349.28,349.50,349.81,350.27,350.84,351.42,351.79,351.78,351.75,351.96,352.33,352.73,353.08,353.39,353.72,354.08,354.38,354.64,354.93,355.29,355.62,355.94,356.24,356.49,356.69,356.90,357.13,357.36,357.60,357.88,358.15,358.39,358.70,358.94,359.19,359.42,359.60,359.61,359.96,360.51,360.90,360.82,360.51,360.30,360.33,360.47,360.43,360.22,359.92,359.67,359.46,359.56,359.96,360.74,362.09,364.42,365.89,366.25,366.91,367.98,369.17,370.48,371.94,373.38,374.47,375.46,376.48,377.52,378.31,378.81,379.10,379.27,379.37,379.44,379.49,379.49,379.50,379.42,379.42,379.52,379.58,379.63,379.72,379.93,380.38,381.10,381.80,382.51,383.26,383.95,384.60,385.03,385.39,385.93,386.42,386.85,387.26,387.75,388.59,389.62,390.53,391.25,391.96,392.71,393.36,393.90,394.36,394.60,394.78,394.82,394.54,393.87,393.16,392.42,391.67,390.96,390.12,389.37,388.68,388.01,387.37,386.74,386.23,386.09,386.83,387.60,388.57,389.40,389.52,389.61,389.51,389.43,389.52,389.69,390.00,390.78,392.20,394.30,395.62,396.69,397.63,398.31,398.58,398.81,399.09,399.39,399.56,399.48,399.29,399.16,399.38,399.98,400.61,401.30,402.05,402.76,403.51,404.13,404.60,405.05,405.50,405.97,406.43,406.87,407.19,407.49,407.80,408.18,408.84,410.05,411.52,412.97,414.10,415.28,416.39,417.51,418.67,419.83,420.08,419.51,418.49,417.86,418.57,419.80,421.22,422.75,424.32,426.06,427.86,430.17,434.26,438.81,443.00,446.73,449.81,451.00,451.92,452.87,453.65,453.60,453.06,452.26,451.27,450.06,447.78,445.19,442.69,440.66,439.56,438.93,439.11,440.00,440.31,440.63,441.08,441.57,441.90,442.25,442.47,442.69,442.99,443.23,443.51,443.90,444.44,445.11,445.52,445.61,445.51,445.44,445.84,446.58,447.44,448.31,449.31,450.43
342.68,343.12,343.58,344.04,344.51,344.94,345.34,345.69,346.03,346.38,346.75,347.12,347.43,347.74,348.02,348.29,348.57,348.87,349.09,349.30,349.54,349.77,350.06,350.49,351.02,351.60,351.99,352.12,352.19,352.35,352.68,353.03,353.32,353.54,353.74,354.00,354.23,354.42,354.64,355.05,355.44,355.77,356.03,356.23,356.42,356.61,356.83,357.09,357.33,357.59,357.86,358.13,358.40,358.64,358.85,358.99,358.95,358.86,358.98,359.25,359.49,359.52,359.40,359.35,359.44,359.62,359.63,359.46,359.27,359.30,359.34,359.53,359.91,361.09,365.06,367.19,367.96,368.08,368.38,368.91,369.94,371.35,372.94,374.36,375.58,376.69,377.73,378.79,380.03,381.04,381.73,382.15,382.28,382.36,382.40,382.40,382.40,382.35,382.32,382.35,382.29,382.10,381.94,381.87,381.98,382.66,383.18,383.50,383.66,383.84,384.15,384.54,385.00,385.55,385.94,386.29,386.76,387.50,388.48,389.66,390.58,391.17,391.79,392.48,393.08,393.56,393.88,394.06,394.19,394.27,394.21,393.73,393.07,392.34,391.58,390.88,390.08,389.20,388.30,387.49,386.85,386.24,385.65,385.31,385.70,386.46,387.36,388.10,388.37,388.71,388.78,388.79,388.89,389.07,389.24,389.76,390.85,392.61,393.90,395.05,396.04,396.72,396.89,397.13,397.45,397.82,398.16,398.35,398.39,398.48,398.94,399.59,400.16,400.71,401.34,402.04,402.76,403.35,403.82,404.28,404.74,405.21,405.67,406.11,406.47,406.82,407.31,408.03,409.01,409.93,410.94,411.94,412.79,413.84,414.92,415.97,416.92,417.61,417.49,417.28,417.38,418.14,419.36,420.57,421.85,423.36,424.90,426.51,428.15,430.32,434.41,438.92,443.10,446.80,449.80,450.95,451.79,452.65,453.32,453.02,452.40,451.64,450.71,449.26,446.82,444.13,441.65,439.81,438.87,438.57,439.02,439.99,440.27,440.50,440.74,440.99,441.30,441.61,441.81,442.01,442.29,442.56,442.91,443.41,444.05,444.70,444.95,444.94,444.84,444.87,445.51,446.38,447.31,448.25,449.22,450.30
342.90,343.34,343.82,344.35,344.82,345.22,345.56,345.86,346.18,346.53,346.91,347.25,347.50,347.79,348.06,348.31,348.60,348.89,349.14,349.41,349.70,349.98,350.29,350.67,351.15,351.69,352.03,352.30,352.49,352.62,352.88,353.15,353.36,353.49,353.58,353.73,353.88,354.04,354.24,354.68,355.14,355.51,355.75,355.91,356.13,356.32,356.53,356.81,357.06,357.30,357.56,357.84,358.08,358.30,358.45,358.48,358.27,358.11,357.97,357.93,358.04,358.21,358.34,358.48,358.66,358.88,358.96,358.88,358.84,359.15,359.38,359.60,360.40,363.01,369.28,370.79,370.72,370.66,370.60,370.57,371.31,372.68,374.31,375.63,376.92,378.14,379.28,380.49,382.05,383.37,384.33,384.94,385.14,385.23,385.30,385.32,385.31,385.24,385.18,385.14,385.04,384.68,384.34,384.02,383.76,384.16,384.36,384.21,383.77,383.43,383.49,383.90,384.50,385.05,385.34,385.69,386.33,387.35,388.40,389.61,390.50,391.02,391.57,392.19,392.74,393.15,393.34,393.50,393.60,393.70,393.78,393.56,393.00,392.29,391.55,390.85,390.18,389.12,387.94,386.98,386.32,385.71,385.14,384.72,384.78,385.54,386.37,387.01,387.42,387.93,388.13,388.19,388.32,388.58,388.83,389.26,390.02,391.24,392.47,393.66,394.67,395.27,395.40,395.65,396.02,396.47,396.93,397.35,397.61,397.92,398.61,399.30,399.81,400.24,400.72,401.33,402.00,402.57,403.04,403.51,403.98,404.45,404.91,405.36,405.77,406.31,407.11,408.20,409.37,409.94,410.42,410.96,411.62,412.57,413.56,414.55,415.43,416.06,416.13,416.55,417.61,419.17,420.42,421.44,422.53,423.98,425.47,426.96,428.49,430.63,434.80,439.20,443.22,446.78,449.69,450.82,451.59,452.36,452.93,452.48,451.78,451.06,450.13,448.35,445.81,443.11,440.73,439.14,438.17,438.25,439.01,439.99,440.25,440.40,440.42,440.43,440.69,440.94,441.14,441.34,441.61,441.93,442.38,442.97,443.66,444.26,444.35,444.25,444.16,444.34,445.16,446.15,447.14,448.12,449.06,450.10
343.18,343.67,344.15,344.67,345.09,345.44,345.74,346.01,346.37,346.65,346.95,347.26,347.55,347.81,348.09,348.34,348.54,348.78,349.02,349.28,349.62,350.02,350.40,350.75,351.09,351.40,351.71,352.05,352.34,352.53,352.66,352.79,352.89,352.98,353.07,353.21,353.37,353.52,353.73,354.21,354.69,355.11,355.42,355.59,355.81,356.03,356.25,356.50,356.79,357.05,357.28,357.53,357.75,357.89,357.90,357.78,357.56,357.39,357.13,356.98,357.19,357.46,357.77,358.04,358.26,358.49,358.68,358.84,359.03,359.39,359.64,359.79,362.61,369.41,374.19,375.11,374.83,374.46,374.11,373.89,374.16,374.93,376.20,377.35,378.57,379.98,381.66,383.55,384.38,384.82,385.18,385.46,385.72,385.90,386.04,386.13,386.08,385.96,385.83,385.71,385.56,385.36,385.12,384.83,384.41,383.81,383.43,383.08,382.64,382.34,382.68,383.25,383.82,384.24,384.49,385.18,386.15,387.20,388.17,389.17,390.00,390.64,391.24,391.85,392.36,392.64,392.65,392.79,392.89,393.00,393.14,393.24,392.91,392.32,391.61,390.93,390.34,389.02,387.52,386.47,385.75,385.16,384.64,384.28,384.36,384.84,385.46,386.05,386.50,386.98,387.33,387.57,387.77,388.23,388.79,389.35,390.04,391.16,392.33,393.34,394.09,394.44,394.50,394.73,395.08,395.50,395.96,396.46,396.97,397.53,398.22,398.92,399.52,400.00,400.34,400.68,401.25,401.80,402.27,402.79,403.27,403.73,404.19,404.66,405.17,406.31,407.68,408.94,409.75,410.09,410.38,410.80,411.37,412.01,412.66,413.34,414.03,414.75,416.28,418.06,419.68,420.73,421.68,422.57,423.48,424.52,425.79,427.26,428.91,431.30,435.83,439.88,443.30,446.41,449.38,450.64,451.39,452.02,452.42,451.91,451.32,450.67,449.63,447.45,444.88,442.17,439.87,438.56,437.44,437.88,438.96,439.97,440.19,440.25,440.22,440.16,440.17,440.23,440.40,440.67,441.02,441.40,441.93,442.61,443.29,443.71,443.68,443.54,443.53,443.92,444.78,445.76,446.74,447.68,448.61,449.56
342.65,343.19,343.78,344.47,345.01,345.36,345.63,345.91,346.22,346.47,346.72,347.01,347.31,347.55,347.79,348.01,348.21,348.44,348.72,349.04,349.39,349.78,350.17,350.51,350.81,351.08,351.38,351.70,351.97,352.15,352.27,352.36,352.43,352.50,352.55,352.66,352.80,352.98,353.25,353.75,354.24,354.68,355.06,355.30,355.52,355.75,355.99,356.23,356.49,356.74,356.97,357.19,357.36,357.35,357.24,357.07,356.85,356.77,356.63,356.59,356.86,357.34,357.86,358.27,358.51,358.69,358.90,359.13,359.38,360.08,363.64,366.26,369.75,375.21,377.75,378.15,377.77,377.21,376.80,376.62,376.75,377.27,378.22,379.17,380.38,381.87,383.54,384.86,385.26,385.44,385.63,385.86,386.06,386.19,386.26,386.29,386.16,386.00,385.83,385.65,385.50,385.34,385.01,384.51,383.83,382.98,382.32,381.82,381.53,381.53,381.97,382.54,383.13,383.73,384.20,385.01,386.02,387.03,388.00,388.96,389.76,390.37,390.93,391.53,391.93,392.06,391.95,392.04,392.15,392.30,392.49,392.71,392.69,392.30,391.65,391.03,390.51,389.43,387.84,386.05,385.18,384.62,384.13,383.80,383.98,384.36,384.88,385.42,385.86,386.31,386.75,387.16,387.59,388.18,388.83,389.49,390.23,391.29,392.18,392.90,393.43,393.71,393.86,394.15,394.52,394.92,395.39,395.91,396.52,397.18,397.83,398.46,399.09,399.63,400.05,400.37,400.78,401.20,401.63,402.16,402.67,403.14,403.63,404.19,404.85,406.21,407.89,409.40,409.95,410.18,410.38,410.71,411.25,411.76,412.26,413.17,414.68,416.25,417.94,419.48,420.73,421.60,422.50,423.42,424.36,425.37,426.49,427.72,429.41,432.28,437.47,441.02,443.81,446.42,448.97,450.36,451.15,451.67,451.88,451.37,450.81,449.96,448.53,446.25,443.85,441.39,439.33,438.09,436.87,437.31,438.43,439.51,439.98,440.07,439.96,439.75,439.49,439.56,439.81,440.13,440.50,440.95,441.55,442.27,442.91,443.11,442.99,442.85,442.92,443.47,444.35,445.30,446.25,447.17,448.03,448.89
341.49,342.31,343.01,343.87,344.57,344.99,345.31,345.64,345.88,346.12,346.36,346.62,346.91,347.14,347.33,347.51,347.73,347.99,348.34,348.72,349.09,349.42,349.79,350.12,350.43,350.74,351.05,351.30,351.50,351.65,351.80,351.89,351.97,352.04,352.05,352.11,352.23,352.44,352.78,353.30,353.76,354.21,354.64,354.98,355.25,355.49,355.72,355.96,356.19,356.42,356.64,356.81,356.87,356.72,356.56,356.41,356.24,356.26,356.33,356.48,356.84,357.54,358.25,358.78,359.06,359.19,359.71,360.47,361.27,362.64,369.61,374.65,377.77,379.76,380.21,380.25,379.92,379.36,379.04,378.97,379.13,379.54,380.23,380.99,382.16,383.58,384.87,385.23,385.41,385.60,385.83,386.07,386.17,386.20,386.17,386.05,385.80,385.57,385.32,385.06,384.89,384.71,384.21,383.43,382.47,381.59,380.72,380.20,380.28,380.86,381.44,382.04,382.72,383.59,384.26,385.08,385.99,386.91,387.91,388.88,389.64,390.16,390.64,391.21,391.47,391.44,391.26,391.28,391.41,391.60,391.85,392.10,392.36,392.21,391.68,391.15,390.67,390.01,388.45,385.81,384.73,384.14,383.65,383.33,383.60,383.98,384.47,384.98,385.40,385.86,386.33,386.87,387.52,388.23,388.88,389.59,390.42,391.38,391.94,392.36,392.74,393.06,393.38,393.75,394.13,394.53,394.99,395.52,396.15,396.81,397.43,397.98,398.58,399.19,399.76,400.19,400.46,400.70,401.05,401.68,402.45,403.00,403.42,403.92,404.69,406.01,407.77,409.49,409.95,410.18,410.35,410.62,411.14,411.71,412.47,414.00,416.50,418.81,420.00,420.69,421.28,422.11,423.07,424.07,425.11,426.21,427.22,428.20,429.96,433.36,439.07,442.11,444.34,446.48,448.49,450.01,450.88,451.29,451.31,450.83,450.26,449.09,447.24,445.01,442.82,440.74,438.96,437.72,436.44,436.66,437.61,438.73,439.50,439.70,439.54,439.17,438.77,438.96,439.32,439.67,440.03,440.55,441.22,441.93,442.49,442.47,442.28,442.16,442.33,443.00,443.89,444.81,445.71,446.59,447.36,448.16
339.49,341.31,342.01,342.75,343.41,344.04,344.65,345.18,345.44,345.67,345.93,346.21,346.46,346.65,346.85,347.03,347.18,347.56,347.95,348.33,348.72,349.08,349.41,349.74,350.04,350.35,350.66,350.88,351.05,351.19,351.29,351.37,351.48,351.58,351.58,351.61,351.71,351.93,352.32,352.85,353.20,353.57,354.04,354.51,354.93,355.20,355.41,355.69,355.93,356.12,356.26,356.29,356.20,356.05,355.97,355.98,355.98,356.00,356.12,356.46,357.10,357.81,358.55,359.18,359.58,359.80,361.87,365.26,368.90,371.65,376.25,378.77,379.96,380.78,380.94,381.13,381.25,381.24,381.14,381.08,381.14,381.40,381.95,382.59,383.53,384.42,385.01,385.26,385.38,385.52,385.67,385.75,385.78,385.75,385.64,385.40,384.97,384.44,383.90,383.45,383.22,382.87,382.23,381.38,380.33,378.75,377.56,377.33,378.39,380.21,381.47,382.48,383.40,384.23,384.76,385.41,386.19,387.03,388.02,388.85,389.49,389.96,390.43,390.88,390.97,390.81,390.65,390.54,390.67,390.91,391.21,391.55,391.82,391.91,391.76,391.27,390.81,390.29,388.82,386.01,384.70,383.94,383.33,382.92,383.11,383.55,384.08,384.63,385.17,385.64,386.15,386.67,387.25,388.03,388.78,389.57,390.35,390.96,391.39,391.79,392.17,392.54,392.96,393.35,393.74,394.13,394.54,395.11,395.73,396.36,396.97,397.52,398.12,398.74,399.37,400.01,400.20,400.25,400.48,401.53,403.47,404.32,404.28,404.07,404.60,405.70,407.17,408.69,409.52,409.94,410.17,410.40,410.90,411.91,414.14,416.79,419.04,420.19,420.86,421.38,421.89,422.59,423.49,424.47,425.47,426.45,427.41,428.43,430.49,434.25,439.47,442.13,444.12,446.07,447.91,449.66,450.55,450.83,450.70,450.28,449.55,448.24,446.37,444.20,442.02,440.20,438.69,437.47,436.27,436.08,436.62,437.57,438.30,438.67,438.52,438.19,438.28,438.56,438.92,439.30,439.69,440.23,440.93,441.55,441.89,441.72,441.50,441.47,441.77,442.53,443.44,444.28,445.07,445.82,446.54,447.40
334.30,336.41,338.25,341.22,342.21,342.95,343.69,344.33,344.76,345.17,345.51,345.78,345.98,346.16,346.32,346.44,346.58,347.06,347.55,347.99,348.37,348.75,349.07,349.37,349.65,349.96,350.25,350.46,350.62,350.73,350.81,350.89,351.01,351.12,351.10,351.09,351.19,351.42,351.81,352.26,352.59,352.96,353.44,353.94,354.44,354.81,355.09,355.39,355.63,355.75,355.79,355.78,355.72,355.65,355.65,355.70,355.77,355.79,355.98,356.45,357.22,357.95,358.71,359.43,360.24,361.72,364.75,368.63,372.53,375.52,378.87,380.17,380.45,380.61,380.16,379.86,380.26,381.13,381.47,381.72,381.94,382.19,382.54,382.94,383.51,384.08,384.55,384.92,385.16,385.31,385.40,385.37,385.37,385.08,384.45,383.45,382.23,381.04,380.05,379.37,379.08,378.99,378.60,377.75,376.33,374.61,373.61,374.15,376.58,379.87,381.77,383.12,384.20,384.85,385.25,385.81,386.50,387.27,388.14,388.78,389.29,389.72,390.12,390.38,390.28,389.99,389.76,389.62,389.82,390.21,390.67,391.06,391.35,391.58,391.64,391.21,390.80,390.39,389.05,386.25,384.69,383.78,383.06,382.56,382.72,383.24,383.79,384.32,384.90,385.40,385.97,386.51,387.03,387.77,388.55,389.33,390.04,390.50,390.89,391.30,391.70,392.10,392.56,392.96,393.38,393.84,394.34,394.89,395.43,395.96,396.49,397.03,397.63,398.25,398.88,399.59,399.68,399.99,401.25,404.36,406.97,407.45,406.75,406.08,406.04,406.50,407.15,407.91,408.68,409.25,409.72,410.54,412.37,414.62,416.93,418.98,420.44,421.04,421.52,421.99,422.47,423.06,423.93,424.88,425.86,426.80,427.74,428.71,430.61,434.07,439.09,441.70,443.60,445.41,447.13,448.87,449.91,450.26,449.97,449.47,448.64,447.31,445.53,443.51,441.39,439.73,438.41,437.21,436.02,435.45,435.62,436.39,437.03,437.56,437.66,437.60,437.94,438.31,438.70,439.11,439.52,440.02,440.55,440.93,441.08,440.95,440.81,440.85,441.21,442.02,442.85,443.60,444.29,444.98,445.76,446.54
327.66,329.56,332.83,338.56,340.10,341.36,342.51,343.20,343.87,344.53,344.98,345.24,345.43,345.64,345.72,345.76,345.96,346.52,347.12,347.63,348.03,348.42,348.73,349.00,349.26,349.55,349.81,350.04,350.21,350.30,350.37,350.45,350.56,350.65,350.59,350.58,350.67,350.88,351.25,351.59,351.96,352.38,352.85,353.35,353.87,354.34,354.74,355.05,355.29,355.34,355.32,355.33,355.39,355.45,355.49,355.51,355.58,355.59,355.87,356.42,357.19,357.96,358.73,359.50,360.71,363.56,366.70,369.57,372.15,374.72,377.89,379.15,379.26,378.81,377.25,376.16,376.71,378.55,379.65,380.75,381.45,381.82,382.00,382.15,382.40,382.86,383.54,384.12,384.58,384.89,384.98,384.82,384.65,383.79,382.22,380.03,377.88,376.08,374.74,373.91,373.64,374.00,374.05,373.29,371.51,370.13,369.76,371.31,375.17,379.81,382.18,383.75,384.94,385.36,385.70,386.21,386.82,387.49,388.19,388.66,389.06,389.43,389.70,389.72,389.42,388.98,388.65,388.54,388.84,389.46,390.22,390.65,390.97,391.26,391.38,391.00,390.68,390.33,389.04,386.32,384.59,383.55,382.75,382.22,382.42,383.00,383.55,384.04,384.58,385.11,385.75,386.35,386.85,387.49,388.22,388.94,389.57,390.04,390.45,390.88,391.32,391.74,392.21,392.64,393.12,393.69,394.34,394.83,395.24,395.63,396.05,396.56,397.14,397.74,398.38,399.08,399.37,400.55,403.57,408.99,411.49,411.25,410.04,409.26,408.58,408.25,407.94,407.69,408.12,408.74,409.70,411.57,415.10,418.53,419.94,420.47,421.00,421.59,422.10,422.57,423.04,423.55,424.39,425.31,426.26,427.24,428.17,429.01,430.37,433.06,438.01,440.88,442.84,444.52,446.14,447.69,448.89,449.39,449.01,448.37,447.53,446.30,444.68,442.87,440.86,439.31,438.09,436.91,435.68,434.82,434.69,435.31,435.87,436.50,436.93,437.21,437.60,438.04,438.50,438.93,439.32,439.77,440.03,440.15,440.16,440.15,440.14,440.25,440.63,441.43,442.14,442.79,443.43,444.11,444.94,445.57
324.46,326.17,328.42,331.61,333.38,337.70,341.28,341.97,342.67,343.32,343.89,344.34,344.65,344.89,344.88,344.93,345.40,346.00,346.58,347.13,347.64,348.03,348.31,348.58,348.86,349.12,349.40,349.65,349.82,349.90,349.98,350.05,350.12,350.15,350.13,350.13,350.15,350.28,350.57,350.93,351.34,351.79,352.30,352.95,353.48,353.89,354.25,354.60,354.85,355.01,355.09,355.11,355.18,355.26,355.32,355.37,355.39,355.39,355.69,356.25,357.02,357.79,358.52,359.14,359.71,360.63,362.03,364.13,366.80,369.81,372.82,374.23,374.01,372.02,368.53,367.24,368.06,370.43,373.31,376.62,378.57,379.33,379.56,379.88,380.47,381.06,381.53,382.10,382.91,383.74,384.16,383.40,382.31,380.06,376.92,373.56,371.88,370.86,370.17,369.79,369.83,370.13,370.16,369.73,368.81,368.16,368.67,370.99,375.32,380.09,382.44,383.98,385.16,385.64,386.07,386.48,386.89,387.35,387.93,388.36,388.75,389.08,389.19,388.83,388.26,387.72,387.38,387.31,387.67,388.58,389.86,390.41,390.80,391.02,391.02,390.74,390.44,389.88,388.31,385.43,383.93,382.88,382.11,381.76,382.16,382.72,383.24,383.72,384.25,384.75,385.35,385.98,386.60,387.22,387.88,388.50,389.07,389.58,390.03,390.49,390.98,391.53,392.10,392.69,393.28,393.89,394.56,394.90,395.17,395.48,395.87,396.30,396.78,397.32,397.96,398.94,401.03,404.58,409.01,412.52,413.05,412.63,412.21,412.04,411.44,411.04,410.55,410.01,410.11,410.60,412.70,415.76,418.34,420.01,420.73,421.10,421.52,422.07,422.64,423.18,423.69,424.18,424.90,425.76,426.70,427.63,428.47,429.08,429.81,431.50,435.79,439.30,441.61,443.20,444.75,446.16,447.06,447.45,447.29,446.74,446.05,445.14,443.89,442.12,440.36,438.92,437.69,436.47,435.24,434.31,434.11,434.67,435.21,435.75,436.12,436.43,436.87,437.28,437.73,438.16,438.55,438.96,439.21,439.31,439.31,439.32,439.36,439.57,439.99,440.63,441.27,441.90,442.56,443.25,443.82,444.37
322.19,323.64,325.25,326.86,328.67,333.27,337.73,339.95,341.28,342.06,342.68,343.20,343.50,343.71,343.80,344.17,345.08,345.69,346.24,346.79,347.32,347.68,347.94,348.20,348.48,348.73,349.01,349.28,349.47,349.57,349.63,349.72,349.75,349.74,349.74,349.74,349.72,349.77,350.00,350.34,350.82,351.36,351.94,352.57,353.04,353.42,353.77,354.11,354.33,354.54,354.70,354.79,354.94,355.07,355.16,355.20,355.20,355.20,355.50,356.07,356.83,357.59,358.20,358.50,358.43,358.10,358.25,359.41,361.47,364.06,366.40,367.39,366.87,364.65,361.47,360.47,361.22,363.36,366.62,370.61,372.83,373.39,373.05,372.89,373.29,374.24,375.83,378.10,380.57,382.48,383.22,381.81,379.43,375.98,372.13,368.82,367.70,367.22,366.95,366.87,367.11,367.35,367.33,367.17,367.12,367.56,369.16,372.42,377.08,380.73,382.45,383.73,384.89,385.52,386.01,386.37,386.70,387.09,387.61,388.06,388.45,388.71,388.48,387.81,387.10,386.51,386.15,386.07,386.38,387.43,389.17,390.15,390.62,390.74,390.65,390.38,389.68,388.48,386.63,384.25,383.05,382.05,381.41,381.32,381.84,382.38,382.89,383.40,383.93,384.40,384.95,385.58,386.24,386.86,387.39,387.95,388.54,389.13,389.70,390.30,390.92,391.56,392.11,392.70,393.29,393.86,394.55,394.90,395.09,395.31,395.67,396.08,396.74,397.52,398.56,400.69,404.37,408.80,412.83,414.38,414.01,413.70,413.73,413.87,413.66,413.61,413.43,413.06,413.02,414.04,416.27,418.81,420.27,420.81,421.20,421.59,422.00,422.53,423.13,423.73,424.27,424.77,425.39,426.22,427.10,427.88,428.56,429.00,429.40,430.36,433.31,436.92,439.74,441.69,443.17,444.40,445.09,445.42,445.43,444.95,444.47,443.92,443.05,441.36,439.78,438.41,437.16,435.92,434.66,433.75,433.54,434.08,434.62,435.05,435.34,435.59,436.02,436.44,436.87,437.30,437.70,438.06,438.34,438.48,438.51,438.54,438.61,438.88,439.31,439.85,440.42,440.95,441.53,442.15,442.59,443.16
320.53,321.63,323.16,324.77,326.49,328.73,332.27,336.94,339.36,340.53,341.27,341.80,341.98,342.13,342.57,343.54,344.99,345.59,346.11,346.61,347.05,347.37,347.61,347.84,348.10,348.40,348.64,348.93,349.17,349.29,349.32,349.43,349.47,349.41,349.41,349.41,349.37,349.38,349.57,349.88,350.40,351.06,351.72,352.16,352.56,352.94,353.30,353.59,353.78,353.93,354.11,354.33,354.61,354.84,354.97,354.98,354.98,354.99,355.33,355.93,356.64,357.38,357.75,357.66,357.14,356.61,356.26,356.40,357.11,358.44,359.69,359.81,359.07,357.93,357.08,356.67,357.06,358.40,360.65,363.59,365.02,364.86,363.59,362.55,362.36,363.87,367.60,372.91,378.04,381.28,382.12,380.01,376.20,371.99,368.37,366.13,365.45,365.10,364.91,364.93,365.21,365.46,365.48,365.59,366.38,368.12,371.08,375.32,379.97,381.66,382.39,383.25,384.28,385.00,385.54,385.92,386.29,386.75,387.28,387.76,388.18,388.30,387.62,386.76,386.03,385.44,385.00,384.88,385.04,386.07,388.12,389.83,390.39,390.42,390.22,389.74,388.26,386.13,384.13,382.86,381.99,381.13,380.73,380.92,381.44,381.98,382.52,383.05,383.58,384.06,384.59,385.17,385.78,386.38,386.76,387.27,387.95,388.64,389.40,390.25,391.05,391.65,392.05,392.52,392.94,393.37,394.08,394.61,394.86,395.02,395.43,395.94,397.03,398.40,400.31,404.23,408.84,412.48,414.56,414.82,414.80,414.77,414.77,414.85,415.15,415.67,416.08,416.23,416.34,418.29,419.65,420.25,420.84,421.26,421.65,422.03,422.45,422.99,423.59,424.20,424.79,425.33,425.88,426.64,427.41,427.97,428.46,428.82,429.17,429.71,430.93,433.98,437.25,439.89,441.36,442.42,443.06,443.44,443.53,443.09,442.83,442.63,442.11,440.56,439.13,437.78,436.49,435.24,433.94,433.11,432.97,433.50,434.02,434.39,434.57,434.75,435.13,435.57,435.99,436.40,436.83,437.16,437.46,437.66,437.74,437.80,437.88,438.16,438.60,439.12,439.59,439.96,440.37,440.84,441.30,441.99
320.05,320.47,321.31,322.79,324.57,326.48,328.99,332.22,334.80,337.08,338.85,339.93,340.13,340.59,341.63,343.15,344.81,345.50,345.97,346.38,346.73,347.04,347.29,347.52,347.77,348.07,348.31,348.60,348.85,348.98,349.04,349.13,349.15,349.09,349.09,349.09,349.07,349.13,349.39,349.69,350.19,350.77,351.32,351.76,352.15,352.51,352.83,353.08,353.25,353.37,353.52,353.77,354.07,354.32,354.48,354.57,354.62,354.71,355.15,355.82,356.52,357.03,357.12,356.87,356.36,355.69,355.17,354.94,355.06,355.61,356.14,356.16,355.80,355.27,354.99,354.88,355.17,356.10,357.87,359.24,359.49,359.11,358.79,358.71,359.28,361.29,365.41,371.58,377.42,380.63,380.69,377.26,372.79,368.79,365.59,363.53,363.04,362.84,362.82,362.97,363.28,363.56,364.09,365.19,367.30,369.99,374.57,378.83,381.41,382.69,383.43,383.81,383.99,384.27,384.99,385.53,385.95,386.43,386.97,387.44,387.75,387.69,386.90,386.11,385.40,384.69,383.99,383.86,383.95,384.90,387.03,389.38,390.12,390.06,389.38,387.63,385.53,383.33,381.67,381.04,380.73,380.37,380.25,380.52,381.01,381.54,382.08,382.61,383.10,383.61,384.18,384.76,385.31,385.78,386.05,386.49,387.14,387.87,388.84,389.86,390.61,390.85,390.96,391.41,391.61,391.58,392.15,392.99,393.62,394.20,395.17,396.33,397.73,399.87,403.23,407.79,411.76,414.21,415.22,415.48,415.72,415.84,415.87,415.90,416.05,416.43,417.08,417.89,418.57,419.80,420.48,420.75,421.20,421.65,422.05,422.45,422.91,423.44,424.04,424.66,425.26,425.80,426.30,426.81,427.33,427.77,428.18,428.52,428.86,429.28,429.91,431.60,434.24,437.04,438.86,440.13,440.91,441.38,441.53,441.37,441.28,441.19,440.84,439.67,438.39,437.06,435.70,434.38,433.11,432.49,432.43,432.87,433.43,433.71,433.88,434.04,434.30,434.68,435.12,435.54,435.94,436.26,436.56,436.80,436.95,436.99,437.09,437.44,437.91,438.35,438.72,439.04,439.38,439.75,440.13,440.82
319.90,319.90,320.17,321.19,322.68,324.48,326.38,328.34,330.70,333.22,335.34,336.82,337.54,338.80,340.65,342.69,344.41,345.27,345.75,346.10,346.41,346.72,346.96,347.19,347.44,347.75,347.99,348.26,348.51,348.69,348.78,348.83,348.83,348.79,348.76,348.76,348.80,348.95,349.28,349.59,350.02,350.49,350.93,351.34,351.74,352.07,352.33,352.54,352.72,352.82,352.93,353.16,353.46,353.73,353.94,354.11,354.26,354.50,355.02,355.70,356.33,356.51,356.35,356.04,355.60,354.98,354.45,354.06,353.86,353.98,354.10,354.14,354.05,353.84,353.75,353.97,354.41,355.15,356.33,356.45,355.99,355.66,356.17,357.12,358.45,361.24,366.10,372.11,377.42,379.75,378.65,374.09,369.44,365.64,362.80,361.18,360.86,360.79,360.92,361.23,361.58,361.99,363.41,365.73,368.81,373.09,377.84,381.12,382.30,383.50,384.37,384.52,384.18,384.03,384.44,385.01,385.58,386.08,386.61,387.09,387.34,387.19,386.44,385.76,385.07,384.19,383.10,382.88,382.94,383.80,385.76,387.97,388.62,388.26,387.02,384.62,382.69,381.06,379.97,379.72,379.73,379.69,379.77,380.07,380.55,381.09,381.63,382.15,382.64,383.20,383.79,384.38,384.85,385.12,385.27,385.66,386.33,387.19,388.28,389.28,389.81,389.61,389.53,390.12,390.42,390.32,390.88,392.05,393.11,394.13,395.47,397.04,398.78,401.66,406.13,410.53,413.58,415.10,415.57,415.96,416.34,416.59,416.73,416.84,416.95,417.14,417.71,418.69,419.75,420.42,420.78,421.06,421.49,421.96,422.41,422.86,423.35,423.87,424.40,424.93,425.45,425.93,426.37,426.73,427.06,427.45,427.81,428.15,428.51,428.89,429.30,430.00,431.68,434.00,436.10,437.55,438.54,439.20,439.53,439.59,439.63,439.64,439.44,438.60,437.46,436.17,434.83,433.48,432.25,431.88,431.95,432.28,432.81,433.03,433.18,433.33,433.49,433.82,434.24,434.66,435.03,435.35,435.66,435.94,436.14,436.16,436.32,436.69,437.13,437.51,437.83,438.15,438.47,438.75,439.08,439.69
319.90,319.90,319.94,320.17,320.84,322.30,324.13,326.03,327.88,329.37,330.78,332.30,334.12,336.68,339.52,342.04,343.71,344.80,345.39,345.78,346.08,346.39,346.64,346.87,347.12,347.42,347.66,347.90,348.16,348.41,348.51,348.53,348.53,348.51,348.45,348.45,348.58,348.84,349.21,349.52,349.84,350.20,350.58,350.91,351.28,351.58,351.80,351.97,352.18,352.26,352.33,352.52,352.82,353.12,353.38,353.62,353.93,354.39,354.96,355.56,356.00,355.80,355.48,355.13,354.76,354.39,354.00,353.55,353.20,353.27,353.29,353.29,353.21,353.03,353.10,353.75,354.54,355.24,355.61,355.11,354.68,354.66,355.35,356.97,358.79,362.70,368.98,373.97,377.63,378.32,375.88,370.73,366.34,362.53,359.93,359.15,359.04,359.08,359.33,359.78,360.26,360.93,363.60,367.26,370.82,377.28,380.28,381.63,382.79,383.99,384.86,385.11,384.88,384.52,384.00,384.39,385.13,385.68,386.22,386.69,386.97,386.90,386.29,385.73,385.04,383.96,382.37,381.89,381.95,382.71,384.17,385.26,385.46,384.61,382.94,381.02,380.19,379.69,379.34,379.18,379.15,379.11,379.23,379.58,380.09,380.63,381.17,381.71,382.25,382.85,383.47,384.02,384.39,384.40,384.46,384.84,385.58,386.67,387.71,388.45,388.63,388.13,388.08,389.01,389.80,390.19,390.98,392.44,393.86,395.15,396.48,398.00,400.18,403.75,408.63,412.13,414.28,415.36,415.76,416.15,416.54,416.90,417.24,417.58,417.93,418.05,418.25,418.76,419.81,420.52,420.99,421.34,421.71,422.20,422.72,423.23,423.74,424.20,424.57,424.92,425.27,425.61,425.99,426.34,426.67,427.05,427.38,427.74,428.12,428.50,428.89,429.33,429.96,431.13,433.24,434.72,435.92,436.90,437.57,437.69,437.83,437.98,437.94,437.33,436.27,435.09,433.87,432.57,431.42,431.31,431.52,431.75,432.18,432.34,432.47,432.60,432.71,432.99,433.36,433.75,434.12,434.44,434.75,435.06,435.29,435.32,435.56,435.88,436.23,436.60,436.92,437.28,437.60,437.86,438.18,438.67
319.90,319.90,319.90,319.93,320.16,320.79,321.94,323.63,325.22,326.44,327.72,329.31,331.49,334.73,338.25,341.09,342.49,343.53,344.67,345.45,345.76,346.06,346.31,346.55,346.80,347.10,347.34,347.57,347.83,348.10,348.20,348.21,348.21,348.20,348.18,348.25,348.46,348.75,349.09,349.36,349.62,349.90,350.20,350.51,350.77,351.01,351.24,351.43,351.62,351.71,351.78,351.93,352.26,352.58,352.88,353.17,353.54,354.05,354.61,355.12,355.39,355.20,354.75,354.30,353.97,353.65,353.32,352.94,352.61,352.52,352.46,352.42,352.36,352.35,352.74,353.42,354.02,354.38,354.40,354.10,354.13,354.44,355.16,357.33,360.41,364.88,370.36,373.95,376.28,375.90,372.97,368.36,364.27,360.97,358.70,357.73,357.56,357.70,358.07,358.65,359.36,360.74,364.22,369.16,374.46,379.25,381.14,382.02,383.02,384.11,384.99,385.32,385.21,384.93,384.46,384.28,384.53,385.22,385.77,386.19,386.50,386.61,386.19,385.70,384.93,383.64,381.74,380.87,380.70,381.03,381.67,382.06,382.04,381.56,380.72,379.82,379.46,379.19,378.92,378.69,378.51,378.61,378.88,379.25,379.66,380.18,380.75,381.31,381.87,382.48,383.09,383.59,383.83,383.70,383.73,384.16,385.00,385.99,386.47,386.75,387.10,387.70,388.49,389.65,390.61,391.29,392.26,393.60,394.88,396.04,397.21,398.67,401.63,405.70,410.16,413.20,414.76,415.52,415.90,416.29,416.68,417.06,417.45,417.83,418.22,418.48,418.77,419.21,419.90,420.53,421.07,421.54,421.98,422.39,422.77,423.13,423.49,423.82,424.17,424.54,424.92,425.23,425.57,425.92,426.27,426.61,426.97,427.34,427.73,428.12,428.50,428.89,429.29,429.93,431.13,432.26,433.53,434.73,435.55,435.71,436.08,436.42,436.47,435.98,435.09,434.00,432.80,431.61,430.79,430.86,431.12,431.29,431.52,431.63,431.75,431.89,431.97,432.14,432.45,432.84,433.21,433.53,433.84,434.19,434.50,434.53,434.75,435.04,435.36,435.70,436.06,436.40,436.71,437.03,437.53,438.31
320.02,319.90,319.90,319.90,319.90,319.90,320.38,321.57,322.70,323.80,325.11,326.75,328.92,332.02,335.35,338.13,339.78,341.30,343.08,344.56,345.41,345.74,345.99,346.22,346.47,346.77,347.02,347.25,347.51,347.78,347.89,347.89,347.89,347.89,347.92,348.09,348.34,348.64,348.94,349.17,349.39,349.61,349.84,350.12,350.33,350.53,350.75,350.97,351.10,351.21,351.30,351.44,351.77,352.09,352.40,352.72,353.10,353.58,354.11,354.55,354.72,354.54,354.01,353.51,353.19,352.89,352.61,352.31,352.04,351.86,351.72,351.62,351.59,351.72,352.26,352.85,353.24,353.43,353.56,353.71,354.32,355.15,356.10,358.53,362.31,366.57,370.53,372.88,374.24,373.26,370.23,366.29,362.49,359.74,357.79,356.52,356.24,356.44,356.94,357.69,358.74,360.85,365.04,371.04,377.67,380.57,381.71,382.41,383.19,384.13,384.97,385.36,385.36,385.20,384.96,384.46,384.25,384.75,385.33,385.72,386.04,386.26,386.04,385.63,384.63,383.00,380.94,379.85,379.53,379.53,379.62,379.61,379.52,379.45,379.39,379.27,379.13,378.89,378.61,378.31,378.01,378.19,378.55,378.93,379.28,379.76,380.33,380.93,381.50,382.13,382.74,383.14,383.20,383.02,383.05,383.51,384.31,385.10,385.28,385.41,386.06,387.58,389.05,390.34,391.41,392.34,393.46,394.67,395.80,396.85,397.95,399.42,402.94,407.24,411.17,413.94,415.08,415.63,416.03,416.42,416.81,417.19,417.58,417.96,418.35,418.74,419.15,419.59,419.99,420.55,421.10,421.61,422.04,422.35,422.60,422.83,423.05,423.28,423.63,424.05,424.47,424.80,425.12,425.49,425.85,426.19,426.57,426.94,427.30,427.66,428.02,428.39,428.76,429.13,429.56,430.31,431.44,432.63,433.57,433.83,434.42,434.88,434.97,434.60,433.85,432.86,431.71,430.62,430.15,430.39,430.73,430.89,430.98,431.04,431.13,431.21,431.25,431.33,431.59,431.94,432.29,432.60,433.02,433.42,433.70,433.73,433.92,434.20,434.50,434.82,435.19,435.52,435.89,436.38,437.09,438.13
320.43,319.94,319.91,319.90,319.90,319.90,319.99,320.21,320.45,321.32,322.69,324.35,326.11,327.85,329.56,331.64,334.52,337.57,339.96,342.46,344.85,345.37,345.66,345.90,346.15,346.45,346.69,346.92,347.19,347.47,347.62,347.60,347.56,347.58,347.66,347.92,348.18,348.44,348.74,348.98,349.16,349.32,349.50,349.74,350.02,350.24,350.43,350.63,350.68,350.79,350.93,351.09,351.34,351.63,351.94,352.25,352.58,352.98,353.47,353.90,354.04,353.69,353.22,352.77,352.42,352.18,351.94,351.69,351.49,351.37,351.12,350.98,350.98,351.14,351.43,351.88,352.31,352.80,353.67,354.38,355.64,357.24,358.84,361.05,364.08,366.93,369.07,370.62,371.59,370.58,367.83,364.31,360.79,358.41,356.72,355.43,355.11,355.29,355.91,356.97,358.51,361.18,366.11,372.70,379.30,381.66,382.45,382.87,383.33,384.14,384.84,385.25,385.36,385.21,385.10,384.94,384.64,384.31,384.91,385.37,385.65,385.81,385.80,385.47,383.98,381.78,379.81,378.89,378.63,378.67,378.83,378.78,378.81,378.85,378.89,378.86,378.79,378.60,378.36,378.11,377.81,377.88,378.15,378.56,378.99,379.41,379.94,380.56,381.18,381.85,382.44,382.69,382.52,382.37,382.44,382.82,383.38,383.89,384.51,385.18,386.12,387.59,389.05,390.34,391.55,392.73,393.94,395.18,396.41,397.60,398.81,400.48,403.98,408.04,411.62,414.27,415.25,415.72,416.16,416.55,416.93,417.32,417.70,418.10,418.48,418.87,419.26,419.65,420.05,420.56,421.07,421.47,421.68,421.92,422.15,422.36,422.53,422.76,423.11,423.50,423.90,424.27,424.65,425.03,425.41,425.78,426.16,426.50,426.79,427.06,427.38,427.70,428.02,428.34,428.68,429.19,429.81,430.67,431.69,432.22,432.86,433.32,433.44,433.16,432.52,431.65,430.63,429.62,429.37,429.82,430.31,430.56,430.65,430.67,430.65,430.61,430.57,430.63,430.81,431.06,431.32,431.65,432.37,432.81,432.86,432.88,433.08,433.36,433.66,433.97,434.29,434.65,435.20,436.01,436.95,437.97
322.13,321.03,320.11,319.93,319.90,319.90,319.90,319.90,319.91,320.32,320.99,321.96,323.43,324.77,326.00,327.49,329.59,332.05,334.11,336.82,340.42,343.75,345.12,345.63,345.86,346.13,346.41,346.65,346.91,347.19,347.31,347.31,347.27,347.28,347.44,347.73,347.99,348.25,348.54,348.74,348.88,348.99,349.13,349.36,349.69,349.97,350.17,350.27,350.25,350.31,350.46,350.66,350.89,351.18,351.49,351.80,352.11,352.49,352.89,353.20,353.20,352.83,352.41,352.02,351.72,351.59,351.38,351.20,351.04,350.87,350.58,350.40,350.40,350.61,350.88,351.43,352.16,353.06,354.32,356.57,358.32,359.53,360.67,362.35,363.93,365.01,365.64,366.64,367.11,366.30,364.46,362.19,359.08,356.91,355.58,354.83,354.59,354.78,355.39,356.54,358.62,362.31,368.00,374.63,380.42,382.75,383.55,383.75,383.74,384.06,384.71,385.18,385.32,385.21,385.13,385.08,384.90,384.57,384.57,384.94,385.28,385.43,385.39,384.87,382.89,380.43,379.02,378.19,377.95,377.97,378.07,378.08,378.14,378.19,378.23,378.27,378.28,378.21,378.07,377.87,377.61,377.54,377.72,378.12,378.58,379.05,379.60,380.25,380.94,381.64,382.00,382.03,381.81,381.66,381.75,382.09,382.68,383.56,384.59,385.57,386.61,387.85,389.14,390.40,391.61,392.83,394.12,395.62,397.11,398.49,399.82,401.75,404.99,408.58,411.80,414.40,415.30,415.75,416.20,416.62,417.01,417.40,417.78,418.18,418.60,419.00,419.38,419.76,420.12,420.56,420.94,421.24,421.39,421.54,421.72,421.88,422.00,422.20,422.54,422.93,423.31,423.70,424.09,424.50,424.87,425.14,425.44,425.72,425.99,426.27,426.58,426.89,427.19,427.52,427.88,428.33,428.84,429.51,430.32,430.81,431.37,431.76,431.91,431.72,431.15,430.45,429.66,428.84,428.57,429.13,429.80,430.23,430.32,430.34,430.34,430.33,430.30,430.25,430.12,430.09,430.37,431.04,431.70,432.02,432.03,432.08,432.28,432.54,432.82,433.13,433.48,433.83,434.41,435.32,436.32,437.29
324.50,322.86,320.90,320.11,319.93,319.90,319.90,319.90,319.90,319.90,319.90,320.16,321.23,322.26,323.20,324.12,325.18,326.75,328.36,330.93,335.13,340.85,343.78,345.08,345.59,345.83,346.12,346.38,346.66,346.92,347.00,347.02,346.99,347.00,347.24,347.53,347.79,348.04,348.30,348.45,348.53,348.62,348.73,348.98,349.32,349.64,349.84,349.82,349.75,349.74,349.85,350.10,350.40,350.72,351.03,351.35,351.67,352.02,352.35,352.51,352.37,352.01,351.62,351.25,351.00,351.01,350.87,350.74,350.62,350.38,350.09,349.88,349.86,350.10,350.45,351.13,352.13,353.31,354.65,357.60,359.28,359.85,360.34,361.38,361.72,361.51,361.19,361.73,361.81,361.30,360.45,359.50,357.18,355.45,354.56,354.39,354.27,354.48,355.08,356.33,359.06,363.88,370.40,376.97,381.50,383.77,384.57,384.61,384.22,384.00,384.59,385.10,385.28,385.20,385.14,385.12,385.09,384.93,384.44,384.62,384.93,385.02,384.70,383.81,381.63,379.31,378.42,377.61,377.34,377.32,377.34,377.42,377.48,377.52,377.55,377.63,377.70,377.74,377.70,377.56,377.38,377.20,377.29,377.67,378.13,378.68,379.29,379.95,380.70,381.38,381.50,381.32,381.10,380.92,381.09,381.50,382.22,383.49,384.76,385.93,387.02,388.11,389.25,390.45,391.65,392.86,394.20,395.97,397.78,399.51,401.20,403.32,406.17,409.18,411.98,414.47,415.33,415.75,416.20,416.66,417.07,417.46,417.85,418.25,418.70,419.11,419.47,419.81,420.08,420.40,420.68,420.89,421.05,421.15,421.27,421.38,421.48,421.62,421.96,422.34,422.73,423.13,423.56,423.97,424.27,424.42,424.62,424.85,425.12,425.42,425.74,426.05,426.35,426.67,427.09,427.55,428.07,428.65,429.23,429.64,430.05,430.36,430.48,430.32,429.83,429.29,428.72,428.10,427.74,428.32,429.14,429.73,429.87,429.89,429.94,430.00,429.97,429.85,429.41,429.16,429.56,430.49,430.98,431.16,431.19,431.30,431.50,431.74,432.00,432.31,432.68,433.01,433.60,434.52,435.50,436.45
327.66,325.89,323.22,320.71,320.01,319.90,319.90,319.90,319.90,319.90,319.90,319.95,320.19,320.41,320.61,321.02,321.96,323.56,325.15,327.30,330.60,335.50,340.42,343.73,345.33,345.57,345.81,346.09,346.40,346.65,346.69,346.69,346.72,346.81,347.05,347.34,347.60,347.81,347.98,348.02,348.09,348.16,348.29,348.63,348.91,349.13,349.25,349.18,349.11,348.96,348.94,349.24,349.81,350.24,350.58,350.90,351.26,351.54,351.80,351.89,351.67,351.30,350.86,350.45,350.19,350.34,350.34,350.28,350.17,349.93,349.69,349.46,349.39,349.61,350.09,350.85,351.79,352.81,353.69,354.13,354.39,354.58,354.75,355.09,355.37,355.52,355.55,355.67,355.69,355.61,355.49,355.32,354.73,354.23,353.99,354.00,353.99,354.26,354.93,356.47,360.14,366.00,373.57,380.20,382.86,384.63,385.10,384.99,384.65,384.13,384.48,384.98,385.28,385.21,385.19,385.19,385.15,385.04,384.76,384.62,384.63,384.47,383.37,381.80,380.20,378.88,378.07,377.18,376.74,376.62,376.69,376.76,376.79,376.83,376.90,376.97,377.05,377.12,377.15,377.12,377.08,376.90,376.91,377.22,377.69,378.32,378.99,379.68,380.38,380.96,380.94,380.66,380.37,380.12,380.58,381.34,382.25,383.37,384.49,385.67,386.92,388.20,389.32,390.48,391.70,392.98,394.28,396.12,398.31,400.75,403.44,405.58,407.81,410.12,412.41,414.54,415.37,415.79,416.20,416.66,417.12,417.53,417.91,418.31,418.77,419.17,419.47,419.65,419.78,419.90,420.09,420.32,420.53,420.68,420.74,420.82,420.95,421.05,421.37,421.76,422.16,422.62,423.18,423.48,423.59,423.64,423.79,424.00,424.27,424.58,424.89,425.20,425.47,425.79,426.30,426.77,427.33,427.94,428.52,428.92,429.22,429.37,429.33,429.00,428.70,428.29,427.78,427.24,426.85,427.34,428.13,428.78,429.06,429.12,429.16,429.22,429.20,429.06,428.56,428.43,429.15,429.84,430.10,430.23,430.36,430.51,430.72,430.96,431.22,431.53,431.85,432.21,432.79,433.67,434.61,435.54
329.53,328.01,325.56,322.63,320.78,320.07,319.90,319.90,319.90,319.90,319.90,319.90,319.90,319.90,319.90,320.04,320.52,321.37,322.38,324.12,327.00,330.98,335.74,339.81,342.94,345.03,345.57,345.90,346.19,346.35,346.37,346.39,346.47,346.62,346.88,347.16,347.34,347.46,347.56,347.61,347.67,347.74,347.82,348.09,348.30,348.45,348.51,348.43,348.29,348.13,348.08,348.28,348.80,349.42,349.97,350.38,350.65,350.86,351.12,351.26,351.04,350.64,350.11,349.59,349.28,349.53,349.59,349.63,349.65,349.55,349.34,349.11,348.95,349.02,349.48,350.20,351.05,351.93,352.55,352.28,351.93,351.76,351.86,352.07,352.38,352.63,352.74,352.81,352.86,352.91,353.03,353.22,353.18,353.12,353.23,353.58,353.85,354.23,354.97,356.90,361.89,368.80,375.83,381.23,383.33,384.89,385.30,385.21,384.93,384.34,384.52,384.99,385.40,385.39,385.38,385.34,385.25,385.10,384.78,384.56,384.28,383.73,382.47,380.76,379.47,378.58,377.77,376.81,376.20,375.95,375.99,376.07,376.12,376.17,376.25,376.32,376.37,376.43,376.50,376.53,376.57,376.51,376.54,376.79,377.36,378.03,378.72,379.42,380.08,380.54,380.48,380.07,379.64,379.94,380.63,381.48,382.41,383.35,384.31,385.46,386.75,388.11,389.36,390.59,391.84,393.11,394.41,396.51,399.32,402.55,405.80,407.99,409.92,411.84,413.65,414.89,415.46,415.85,416.25,416.71,417.14,417.57,417.98,418.37,418.79,419.08,419.27,419.37,419.42,419.52,419.66,419.82,420.01,420.14,420.18,420.23,420.35,420.50,420.83,421.28,421.79,422.34,422.67,422.76,422.76,422.85,422.99,423.18,423.43,423.74,424.05,424.33,424.62,424.97,425.49,426.01,426.63,427.27,427.84,428.21,428.38,428.37,428.17,427.79,427.50,427.16,426.72,426.24,426.03,426.53,427.18,427.69,428.03,428.13,428.17,428.21,428.22,428.06,427.75,427.85,428.64,429.13,429.33,429.44,429.57,429.73,429.94,430.18,430.42,430.71,431.05,431.39,431.95,432.77,433.66,434.52
330.70,329.60,327.83,325.23,322.18,320.62,320.04,319.94,319.91,319.90,319.90,319.90,319.90,319.90,319.90,319.90,319.92,319.96,320.29,321.52,323.85,326.80,330.67,334.79,339.09,343.37,345.07,345.73,345.99,346.05,346.06,346.11,346.23,346.44,346.73,346.95,347.03,347.06,347.13,347.21,347.29,347.32,347.33,347.45,347.60,347.71,347.74,347.64,347.44,347.29,347.22,347.28,347.70,348.50,349.25,349.73,349.90,350.09,350.38,350.56,350.36,349.90,349.25,348.66,348.36,348.64,348.73,348.87,349.06,349.12,348.98,348.78,348.56,348.44,348.82,349.45,350.19,350.94,351.37,351.11,350.56,350.14,350.22,350.47,350.80,351.03,351.12,351.26,351.35,351.44,351.62,352.03,352.23,352.40,352.75,353.37,353.87,354.33,355.25,357.81,364.28,371.56,377.31,381.19,383.23,384.78,385.30,385.31,385.07,384.53,384.60,385.06,385.54,385.61,385.62,385.50,385.31,385.07,384.66,384.39,383.86,382.93,381.79,380.25,379.18,378.44,377.56,376.48,375.67,375.28,375.30,375.37,375.44,375.52,375.60,375.66,375.68,375.73,375.81,375.88,375.96,376.04,376.13,376.36,377.01,377.70,378.39,379.07,379.65,379.97,379.88,379.51,379.26,380.14,380.94,381.77,382.64,383.43,384.24,385.33,386.63,388.03,389.42,390.74,392.00,393.22,394.56,397.05,400.64,404.67,408.14,410.32,412.06,413.65,414.93,415.28,415.58,415.93,416.33,416.78,417.17,417.61,418.04,418.41,418.75,418.89,418.97,419.03,419.05,419.17,419.28,419.38,419.52,419.61,419.63,419.66,419.75,419.99,420.34,420.82,421.42,422.02,422.06,421.94,421.91,422.06,422.22,422.38,422.59,422.90,423.20,423.45,423.77,424.19,424.69,425.29,425.96,426.63,427.18,427.47,427.50,427.32,426.99,426.62,426.30,425.99,425.60,425.18,425.20,425.71,426.23,426.58,426.93,427.06,427.10,427.13,427.16,426.98,426.96,427.33,428.07,428.40,428.58,428.69,428.79,428.96,429.17,429.41,429.65,429.91,430.27,430.59,431.08,431.84,432.66,433.46
331.15,330.55,329.77,328.41,324.88,322.19,320.66,320.14,319.94,319.90,319.90,319.90,319.90,319.90,319.90,319.90,319.90,319.90,319.98,320.31,321.10,322.74,325.94,329.31,333.04,338.15,343.57,345.53,345.78,345.79,345.80,345.85,346.00,346.24,346.52,346.62,346.67,346.72,346.75,346.82,346.89,346.88,346.78,346.77,346.89,346.96,346.95,346.86,346.65,346.44,346.28,346.29,346.86,347.72,348.40,348.77,348.95,349.31,349.55,349.60,349.38,348.79,348.06,347.59,347.51,347.65,347.82,348.03,348.25,348.43,348.52,348.42,348.23,348.08,348.33,348.84,349.47,350.04,350.26,350.11,349.75,349.40,349.34,349.50,349.66,349.78,349.86,350.02,350.11,350.22,350.51,351.26,352.13,352.88,353.47,353.90,354.22,354.60,356.10,360.03,368.01,373.24,377.25,380.40,382.36,384.19,385.04,385.25,385.03,384.53,384.64,385.15,385.67,385.74,385.75,385.53,385.18,384.79,384.44,383.97,383.19,382.15,381.27,380.28,379.50,378.72,377.56,376.27,375.20,374.63,374.64,374.72,374.80,374.88,374.94,374.96,375.01,375.08,375.16,375.24,375.32,375.44,375.60,375.88,376.45,377.12,377.82,378.41,378.71,378.82,378.63,378.94,380.01,380.76,381.43,382.17,382.96,383.73,384.41,385.45,386.77,388.21,389.66,390.92,392.10,393.29,394.67,397.76,402.36,407.13,410.25,412.22,413.69,414.72,415.23,415.49,415.73,416.06,416.44,416.85,417.24,417.67,418.09,418.38,418.50,418.57,418.63,418.65,418.71,418.80,418.92,419.04,419.14,419.22,419.24,419.22,419.25,419.57,419.91,420.29,420.76,421.27,421.19,421.10,421.13,421.28,421.44,421.60,421.79,422.06,422.36,422.60,422.96,423.44,424.02,424.64,425.31,425.98,426.50,426.60,426.44,426.13,425.77,425.44,425.13,424.79,424.42,424.14,424.28,424.67,425.11,425.52,425.84,425.96,426.03,426.07,426.07,425.92,426.20,426.79,427.47,427.65,427.80,427.92,428.03,428.23,428.41,428.66,428.95,429.25,429.57,429.84,430.24,430.86,431.59,432.40
331.64,331.26,330.88,329.94,327.01,324.06,321.98,321.11,320.65,320.30,320.05,319.90,319.90,319.90,319.90,319.90,319.90,319.90,319.90,319.90,320.03,320.71,322.44,324.79,328.07,333.22,339.66,343.73,345.51,345.53,345.54,345.62,345.79,346.02,346.22,346.25,346.30,346.35,346.36,346.43,346.48,346.43,346.25,346.15,346.20,346.24,346.21,346.09,345.88,345.57,345.33,345.36,346.05,346.92,347.52,347.82,348.09,348.40,348.54,348.45,348.10,347.59,346.91,346.53,346.63,346.75,346.95,347.19,347.42,347.65,347.84,347.88,347.81,347.73,347.88,348.36,348.91,349.34,349.45,349.40,349.13,348.80,348.61,348.61,348.72,348.88,349.09,349.42,349.62,349.98,350.62,351.64,352.78,353.69,354.33,354.71,355.08,355.78,358.32,363.32,370.19,373.88,376.79,379.12,380.30,382.16,383.53,384.30,384.49,384.26,384.34,384.72,385.16,385.32,385.40,385.19,384.78,384.32,383.96,383.63,382.98,382.02,381.22,380.49,379.80,378.93,377.62,376.21,374.93,374.15,374.01,374.07,374.15,374.22,374.29,374.33,374.39,374.48,374.56,374.63,374.74,374.93,375.16,375.44,375.89,376.54,377.20,377.66,377.75,377.96,378.49,379.41,380.57,381.20,381.79,382.48,383.23,383.93,384.53,385.58,386.94,388.40,389.84,391.04,392.19,393.50,395.50,398.80,403.77,408.79,411.47,413.37,414.56,415.22,415.44,415.65,415.90,416.21,416.57,416.96,417.34,417.72,418.02,418.17,418.19,418.23,418.26,418.30,418.35,418.45,418.56,418.67,418.75,418.82,418.85,418.84,418.90,419.22,419.49,419.77,420.10,420.41,420.38,420.36,420.43,420.55,420.67,420.81,420.99,421.21,421.48,421.75,422.16,422.72,423.36,423.96,424.67,425.33,425.75,425.76,425.51,425.16,424.79,424.44,424.10,423.75,423.40,423.13,423.25,423.55,423.97,424.43,424.74,424.86,424.94,425.00,425.03,425.07,425.53,426.18,426.76,426.89,427.02,427.14,427.25,427.48,427.70,427.97,428.26,428.51,428.78,429.03,429.39,429.95,430.59,431.37
332.20,331.84,331.42,330.43,328.55,325.88,323.64,322.53,321.81,321.09,320.50,320.12,320.03,319.95,319.91,319.90,319.90,319.90,319.90,319.90,319.91,319.97,320.11,321.37,324.03,328.43,334.32,340.44,344.42,345.05,345.25,345.40,345.59,345.77,345.85,345.86,345.91,345.96,345.97,346.04,346.06,345.95,345.72,345.55,345.47,345.42,345.34,345.17,344.91,344.58,344.36,344.50,345.26,346.08,346.62,346.88,347.21,347.40,347.43,347.22,346.72,346.35,345.79,345.53,345.74,345.91,346.12,346.35,346.57,346.80,347.04,347.21,347.30,347.33,347.44,347.92,348.41,348.75,348.82,348.83,348.60,348.26,347.98,347.88,348.06,348.35,348.72,349.28,349.68,350.39,351.44,352.67,353.82,354.68,355.31,355.76,356.28,357.39,361.00,366.75,371.31,373.87,375.91,377.27,377.42,379.07,381.16,382.81,383.60,383.70,383.71,383.87,384.16,384.42,384.58,384.47,384.12,383.62,383.30,383.29,382.97,382.21,381.41,380.76,380.06,379.11,377.65,376.11,374.64,373.66,373.37,373.42,373.50,373.57,373.65,373.73,373.80,373.89,373.98,374.08,374.24,374.50,374.77,375.02,375.35,375.96,376.53,376.87,376.90,377.41,378.83,380.13,380.78,381.33,381.91,382.62,383.40,384.07,384.65,385.74,387.13,388.58,389.97,391.09,392.21,393.75,396.50,399.79,404.76,409.79,412.11,414.03,414.98,415.41,415.63,415.80,416.06,416.37,416.70,417.07,417.44,417.71,417.86,417.87,417.87,417.87,417.90,417.97,417.98,418.10,418.20,418.28,418.36,418.43,418.46,418.49,418.61,418.89,419.09,419.30,419.51,419.62,419.68,419.75,419.82,419.90,419.98,420.11,420.24,420.39,420.61,420.89,421.38,422.03,422.73,423.33,424.05,424.68,424.97,424.93,424.68,424.36,423.99,423.62,423.24,422.89,422.55,422.21,422.18,422.43,422.85,423.34,423.64,423.76,423.84,423.93,424.05,424.35,424.93,425.54,425.98,426.10,426.24,426.37,426.48,426.70,426.99,427.28,427.53,427.71,427.94,428.19,428.57,429.12,429.69,430.40
332.84,332.28,331.51,330.53,329.05,327.00,325.17,324.06,323.28,322.56,321.86,321.22,320.72,320.23,319.97,319.90,319.90,319.90,319.90,319.90,319.90,319.90,319.90,320.27,321.19,323.21,328.39,334.56,340.03,343.60,344.85,345.21,345.35,345.45,345.47,345.47,345.52,345.57,345.58,345.65,345.63,345.47,345.18,344.85,344.48,344.16,343.88,343.59,343.12,343.09,343.36,343.79,344.49,345.19,345.67,345.94,346.09,346.21,346.26,346.11,345.58,345.10,344.74,344.67,344.90,345.11,345.29,345.50,345.73,345.96,346.19,346.41,346.58,346.72,346.95,347.36,347.80,348.15,348.18,348.19,348.05,347.78,347.50,347.67,348.14,348.64,349.07,349.59,350.29,351.27,352.49,353.79,354.84,355.75,356.57,357.29,357.76,358.72,362.49,368.35,371.77,373.49,374.08,374.00,373.75,374.78,378.14,381.16,382.38,382.58,382.48,382.48,382.62,382.76,382.92,383.02,382.87,382.43,382.49,382.75,382.69,382.19,381.53,380.94,380.32,379.33,377.56,375.53,373.71,372.70,372.70,372.77,372.85,372.93,373.00,373.08,373.16,373.27,373.42,373.62,373.82,374.07,374.33,374.61,374.89,375.37,375.74,376.05,376.52,377.48,378.54,379.42,380.03,380.59,381.34,382.28,383.31,384.23,384.93,385.99,387.31,388.71,390.05,390.99,392.09,393.82,396.65,399.81,404.79,409.92,412.33,414.32,415.19,415.56,415.82,415.99,416.22,416.50,416.82,417.14,417.38,417.50,417.54,417.54,417.54,417.54,417.58,417.64,417.65,417.73,417.81,417.89,417.97,417.99,418.04,418.13,418.28,418.52,418.74,418.96,419.17,419.30,419.38,419.43,419.47,419.55,419.62,419.67,419.72,419.77,419.85,420.11,420.66,421.41,422.21,422.98,423.57,423.97,424.14,424.08,423.91,423.70,423.46,423.12,422.74,422.38,421.98,421.55,421.18,421.35,421.80,422.29,422.60,422.68,422.76,422.92,423.20,423.74,424.40,424.93,425.17,425.31,425.46,425.61,425.75,425.93,426.18,426.39,426.60,426.81,427.04,427.39,427.85,428.40,429.00,429.65
333.29,332.55,331.65,330.72,329.59,327.99,326.49,325.47,324.68,323.96,323.24,322.51,321.86,321.26,320.75,320.32,320.00,319.91,319.90,319.90,319.90,319.90,319.90,319.90,319.96,320.54,323.63,328.10,333.28,338.65,342.68,344.06,344.55,344.83,344.87,345.02,345.13,345.18,345.19,345.23,345.10,344.79,344.31,343.79,343.13,342.49,342.00,341.78,341.61,341.99,342.58,343.13,343.74,344.29,344.67,344.86,344.94,345.01,345.09,344.97,344.43,343.92,343.79,343.90,344.13,344.37,344.56,344.75,344.96,345.19,345.43,345.66,345.90,346.17,346.45,346.79,347.18,347.49,347.50,347.50,347.44,347.28,347.12,347.53,348.17,348.80,349.36,349.98,350.88,351.93,353.10,354.44,355.36,356.03,356.61,357.09,357.22,357.73,361.30,367.31,370.95,371.82,370.62,368.75,367.92,369.37,374.76,379.63,381.47,381.55,381.29,381.09,381.03,381.07,381.23,381.53,381.67,381.49,381.82,382.25,382.33,381.96,381.38,380.81,379.79,378.16,375.88,373.88,372.53,371.93,372.05,372.15,372.24,372.32,372.39,372.48,372.60,372.76,372.97,373.20,373.43,373.66,373.91,374.19,374.47,374.89,375.27,375.68,376.31,377.22,378.01,378.71,379.37,379.96,380.85,381.96,383.16,384.27,385.18,386.25,387.40,388.50,389.60,390.34,391.52,393.55,396.45,399.66,404.52,409.58,412.28,414.39,415.27,415.63,415.94,416.14,416.36,416.61,416.85,417.06,417.13,417.14,417.14,417.15,417.17,417.18,417.20,417.25,417.28,417.35,417.42,417.50,417.54,417.57,417.63,417.75,417.94,418.17,418.40,418.65,418.88,419.00,419.09,419.13,419.18,419.25,419.31,419.34,419.34,419.32,419.34,419.68,420.27,421.03,421.85,422.53,422.94,423.18,423.27,423.24,423.10,422.95,422.77,422.51,422.20,421.87,421.49,421.02,420.49,420.46,420.77,421.22,421.52,421.68,421.85,422.09,422.50,423.15,423.81,424.24,424.35,424.50,424.63,424.77,424.92,425.09,425.30,425.49,425.66,425.90,426.19,426.62,427.15,427.73,428.34,428.99
333.59,332.75,331.89,331.05,330.24,328.95,327.68,326.76,325.98,325.26,324.57,323.91,323.31,322.88,322.14,321.21,320.43,320.15,320.03,319.95,319.90,319.90,319.90,319.90,319.90,319.97,320.34,322.13,325.60,331.13,338.42,341.81,343.29,343.93,344.09,344.46,344.68,344.77,344.79,344.77,344.48,343.94,343.21,342.50,341.58,340.67,340.03,340.05,340.49,341.26,342.01,342.53,343.01,343.41,343.62,343.68,343.76,343.84,343.92,343.80,343.28,342.83,342.93,343.19,343.42,343.65,343.88,344.07,344.25,344.48,344.72,344.98,345.30,345.72,345.98,346.25,346.55,346.79,346.79,346.79,346.79,346.77,346.80,347.39,348.08,348.76,349.45,350.25,351.22,352.14,353.13,354.42,355.25,355.55,355.59,355.51,355.18,355.20,358.23,363.98,368.32,368.49,365.81,362.56,361.38,364.05,371.64,378.29,380.76,380.59,380.13,379.74,379.48,379.44,379.62,380.07,380.52,380.79,381.29,381.82,381.94,381.58,381.01,380.13,378.26,375.67,373.08,371.63,371.28,371.31,371.41,371.55,371.65,371.73,371.81,371.91,372.12,372.34,372.57,372.81,373.04,373.27,373.51,373.77,374.08,374.52,375.05,375.62,376.15,376.66,377.35,378.11,378.84,379.49,380.44,381.60,382.84,384.07,385.22,386.31,387.26,387.94,388.68,389.33,390.64,392.95,395.99,399.41,404.05,408.86,411.99,414.30,415.25,415.64,415.98,416.22,416.44,416.63,416.78,416.86,416.76,416.71,416.70,416.71,416.77,416.79,416.79,416.81,416.88,416.96,417.04,417.10,417.12,417.17,417.25,417.38,417.62,417.85,418.08,418.36,418.60,418.69,418.77,418.84,418.91,418.98,419.00,419.05,419.05,418.99,419.03,419.51,420.11,420.77,421.51,421.92,422.16,422.31,422.38,422.39,422.26,422.11,421.95,421.77,421.56,421.34,421.04,420.58,420.06,419.78,419.81,420.14,420.46,420.76,421.07,421.42,421.91,422.56,423.15,423.48,423.51,423.64,423.75,423.88,424.02,424.18,424.39,424.57,424.76,425.02,425.39,425.89,426.46,427.08,427.71,428.37
334.02,333.17,332.34,331.55,330.81,329.95,329.02,328.12,327.34,326.58,325.94,325.41,324.91,324.54,323.78,322.88,322.20,321.57,320.88,320.28,319.92,319.90,319.90,319.90,319.90,319.90,319.90,320.44,321.66,324.32,330.35,337.66,341.87,342.69,343.14,343.56,343.91,344.22,344.40,344.21,343.74,343.10,342.30,341.45,340.44,339.57,339.13,339.48,339.97,340.81,341.55,341.95,342.40,342.61,342.59,342.47,342.54,342.61,342.69,342.60,342.19,341.91,342.14,342.48,342.71,342.94,343.17,343.36,343.53,343.78,344.09,344.50,344.94,345.38,345.67,345.78,345.93,346.13,346.14,346.14,346.17,346.26,346.51,347.15,347.80,348.45,349.11,349.79,350.39,351.02,351.85,353.00,353.94,354.31,354.27,353.99,353.75,354.08,355.79,358.66,361.01,361.32,360.26,359.17,359.87,363.72,371.22,377.47,379.75,379.31,378.61,378.21,378.09,378.04,378.18,378.55,379.26,380.29,380.88,381.43,381.55,381.19,380.42,377.75,374.54,371.94,370.97,370.53,370.55,370.67,370.76,370.91,371.05,371.14,371.25,371.43,371.66,371.92,372.19,372.42,372.65,372.88,373.14,373.43,373.75,374.23,374.77,375.30,375.74,376.15,376.78,377.50,378.22,378.95,379.80,380.68,381.71,383.07,384.26,385.34,386.21,386.81,387.58,388.50,389.79,391.81,395.11,398.94,403.32,407.77,411.36,413.95,415.08,415.55,415.82,416.06,416.25,416.39,416.49,416.55,416.47,416.37,416.31,416.31,416.33,416.33,416.36,416.42,416.50,416.57,416.65,416.72,416.77,416.80,416.86,417.02,417.29,417.53,417.80,418.07,418.28,418.36,418.44,418.52,418.59,418.67,418.72,418.75,418.71,418.63,418.75,419.23,419.73,420.18,420.57,420.93,421.22,421.41,421.49,421.58,421.44,421.26,421.11,420.95,420.82,420.75,420.62,420.25,419.81,419.45,419.21,419.19,419.52,419.93,420.34,420.79,421.36,421.95,422.44,422.69,422.66,422.76,422.92,423.06,423.16,423.27,423.44,423.63,423.87,424.18,424.64,425.21,425.81,426.44,427.10,427.71
334.48,333.65,332.88,332.19,331.53,330.90,330.20,329.39,328.68,328.00,327.44,326.99,326.60,326.24,325.59,324.89,324.34,323.50,322.49,321.51,320.72,320.31,320.01,319.90,319.90,319.90,319.90,319.90,319.90,320.53,324.02,331.42,337.87,341.48,342.16,342.61,343.09,343.58,343.92,343.62,342.99,342.26,341.45,340.41,339.26,338.59,338.53,339.07,339.58,340.33,341.01,341.40,341.85,342.03,341.92,341.67,341.63,341.58,341.55,341.43,341.13,341.04,341.37,341.74,341.99,342.22,342.46,342.66,342.87,343.19,343.61,344.11,344.62,345.06,345.37,345.42,345.46,345.56,345.58,345.63,345.70,345.88,346.25,346.82,347.43,348.05,348.65,349.20,349.55,349.98,350.58,351.42,352.24,352.67,352.75,352.58,352.65,353.24,354.13,355.11,355.97,356.47,356.99,358.00,360.37,365.40,371.72,376.58,378.40,377.79,376.95,376.59,376.62,376.63,376.77,377.26,378.30,379.81,380.56,381.05,381.12,380.49,378.65,374.83,371.57,369.77,369.79,369.91,370.02,370.12,370.20,370.31,370.47,370.62,370.78,371.03,371.27,371.54,371.83,372.06,372.29,372.50,372.75,373.05,373.42,373.93,374.45,374.92,375.28,375.65,376.23,376.91,377.62,378.38,379.12,379.76,380.46,381.50,382.42,383.33,384.43,385.77,386.76,387.85,389.07,390.85,394.35,398.56,402.77,406.85,410.65,413.32,414.75,415.41,415.60,415.83,415.98,416.08,416.17,416.25,416.21,416.07,415.95,415.89,415.88,415.90,415.95,416.03,416.11,416.18,416.26,416.33,416.41,416.44,416.50,416.66,416.94,417.20,417.50,417.77,417.96,418.04,418.12,418.19,418.27,418.35,418.42,418.43,418.34,418.26,418.44,418.87,419.29,419.60,419.77,420.06,420.32,420.50,420.61,420.74,420.68,420.58,420.49,420.39,420.32,420.32,420.24,419.89,419.51,419.13,418.74,418.50,418.84,419.28,419.73,420.20,420.75,421.31,421.70,421.87,421.82,421.89,422.10,422.26,422.33,422.35,422.50,422.71,422.99,423.40,423.97,424.56,425.17,425.81,426.40,426.94
