419.20,418.44,417.66,416.82,416.00,415.21,414.44,413.68,412.97,412.16,411.27,410.37,409.47,408.61,407.78,406.95,406.10,405.28,404.36,403.47,402.65,401.83,401.02,400.22,399.37,398.37,397.41,396.42,395.49,394.75,394.26,393.94,393.71,393.46,393.00,392.36,391.50,390.55,389.66,388.85,388.07,387.31,386.60,386.02,385.44,384.81,384.11,383.35,382.66,381.97,381.23,380.17,378.12,376.53,374.24,371.16,368.57,368.24,370.09,372.45,373.39,372.30,370.26,367.37,364.80,366.45,369.91,374.29,378.35,380.11,380.11,378.93,376.96,374.26,370.98,368.07,365.51,363.11,360.53,357.94,355.93,354.61,354.03,353.91,354.12,354.54,355.17,355.98,355.94,355.70,355.51,355.40,355.30,355.67,356.32,356.72,355.56,353.22,350.09,346.84,344.93,344.25,343.58,342.78,342.09,341.54,341.51,341.67,341.82,341.98,342.09,342.22,342.38,342.56,342.70,342.84,342.98,343.08,343.24,343.39,343.53,343.67,343.82,343.93,344.04,344.13,344.22,344.34,344.39,344.43,344.48,344.56,344.57,344.57,344.57,344.57,344.57,344.59,344.61,344.61,344.58,344.57,344.57,344.56,344.49,344.48,344.46,344.47,344.56,344.64,344.72,344.79,345.14,346.66,349.47,352.35,354.27,354.08,354.69,355.02,354.95,354.54,354.15,353.76,353.37,352.98,352.54,352.08,351.66,351.32,351.12,351.06,351.00,350.94,350.89,350.86,350.86,350.82,350.73,350.58,350.45,350.30,350.17,350.09,349.97,349.74,349.46,349.27,349.53,349.79,349.94,350.02,350.09,350.10,350.15,350.23,350.31,350.38,350.40,350.44,350.57,350.91,351.44,351.99,352.52,353.00,353.17,353.30,353.41,353.54,353.79,354.34,354.95,355.49,355.84,356.38,356.91,357.39,357.85,358.29,358.70,359.13,359.52,359.81,360.22,360.67,361.14,361.61,362.15,362.69,363.21,363.77,364.48,365.01,365.03,364.68,364.30,363.98,363.62,363.25,362.89,362.58,362.24,361.89,361.54,361.16,360.58,360.13,359.89,359.86,359.81,359.74,359.69,359.66,359.61,359.58
419.70,418.94,418.13,417.30,416.46,415.66,414.85,413.97,413.16,412.24,411.26,410.29,409.38,408.54,407.70,406.85,406.00,405.13,404.16,403.21,402.32,401.45,400.64,399.86,399.03,398.08,397.17,396.35,395.65,395.15,394.88,394.65,394.35,393.90,393.21,392.36,391.43,390.48,389.60,388.84,388.18,387.58,387.00,386.53,386.02,385.40,384.69,383.93,383.27,382.58,381.81,380.80,379.25,378.27,376.19,372.89,370.14,369.88,372.24,374.99,375.57,373.91,371.85,368.99,365.85,365.54,368.73,373.12,377.35,380.08,380.84,380.82,380.05,378.23,375.50,373.13,370.78,368.36,366.16,363.69,361.49,359.73,358.62,358.30,358.49,358.89,359.39,359.94,359.60,359.09,358.67,358.36,358.14,358.60,359.13,359.12,358.67,357.49,355.15,351.49,347.00,345.50,344.52,343.52,342.73,341.96,341.70,341.69,341.77,341.92,342.03,342.16,342.31,342.44,342.59,342.75,342.88,342.99,343.13,343.29,343.43,343.57,343.72,343.81,343.89,343.97,344.05,344.18,344.23,344.28,344.35,344.40,344.41,344.41,344.41,344.41,344.44,344.45,344.45,344.45,344.45,344.45,344.43,344.40,344.36,344.38,344.41,344.48,344.62,344.70,344.78,345.15,346.59,350.61,353.43,355.33,356.26,355.66,356.09,356.17,355.89,355.51,355.12,354.68,354.23,353.77,353.26,352.75,352.18,351.64,351.33,351.28,351.23,351.17,351.12,351.09,351.07,350.97,350.79,350.63,350.47,350.30,350.16,350.06,349.93,349.71,349.45,349.30,349.56,349.82,349.96,350.02,350.09,350.12,350.17,350.23,350.31,350.38,350.40,350.51,350.78,351.27,351.87,352.44,353.01,353.58,353.88,354.04,354.15,354.26,354.53,355.06,355.63,356.05,356.18,356.51,356.86,357.25,357.72,358.18,358.58,359.01,359.38,359.50,359.85,360.32,360.82,361.32,361.94,362.58,363.24,363.96,364.79,365.29,365.28,364.95,364.58,364.26,363.89,363.52,363.16,362.82,362.47,362.12,361.77,361.38,360.90,360.38,359.99,359.90,359.82,359.76,359.72,359.69,359.64,359.61
420.11,419.36,418.54,417.75,416.90,416.10,415.17,414.07,413.02,412.01,411.00,410.04,409.19,408.40,407.57,406.72,405.86,404.95,403.97,402.97,402.00,401.08,400.23,399.42,398.63,397.79,396.96,396.48,396.17,395.89,395.64,395.39,394.84,394.00,393.19,392.39,391.56,390.71,389.89,389.19,388.80,388.54,388.27,387.81,387.17,386.41,385.60,384.84,384.13,383.40,382.57,381.67,380.80,379.80,377.60,374.30,371.55,372.01,375.34,378.42,377.94,375.72,372.95,369.74,366.64,365.81,368.58,372.72,376.93,380.02,381.09,381.41,381.25,380.59,379.77,379.00,377.21,374.41,371.85,369.41,367.13,365.06,363.41,362.75,362.79,363.06,363.38,363.66,363.48,363.02,362.37,361.52,360.87,361.24,361.72,361.70,362.33,363.38,362.87,359.21,351.28,347.89,345.92,344.43,343.54,342.75,342.14,341.77,341.69,341.81,341.94,342.09,342.22,342.32,342.47,342.62,342.77,342.91,343.07,343.22,343.34,343.45,343.59,343.68,343.76,343.83,343.92,344.00,344.08,344.14,344.21,344.22,344.23,344.23,344.23,344.23,344.29,344.31,344.31,344.31,344.31,344.31,344.28,344.23,344.24,344.35,344.45,344.54,344.69,344.81,344.98,346.14,349.71,357.09,359.15,358.96,358.12,357.23,357.35,357.22,356.84,356.44,356.05,355.50,354.91,354.32,353.72,353.11,352.50,351.93,351.54,351.48,351.43,351.38,351.36,351.29,351.21,351.06,350.86,350.70,350.49,350.30,350.15,350.01,349.92,349.67,349.44,349.35,349.58,349.87,349.99,350.02,350.10,350.17,350.19,350.23,350.31,350.38,350.42,350.68,351.18,351.72,352.33,352.89,353.46,354.06,354.57,354.77,354.86,354.99,355.29,355.79,356.25,356.53,356.49,356.65,356.89,357.21,357.66,358.12,358.52,358.94,359.28,359.28,359.49,359.97,360.56,361.15,361.94,362.81,363.73,364.66,365.50,365.62,365.41,365.08,364.71,364.39,364.02,363.66,363.34,362.96,362.63,362.28,361.91,361.52,361.12,360.64,360.18,359.92,359.82,359.79,359.76,359.71,359.69,359.64
420.45,419.73,418.92,418.10,417.25,416.30,415.22,414.03,412.89,411.79,410.75,409.79,408.99,408.21,407.38,406.54,405.68,404.76,403.77,402.79,401.82,400.86,399.99,399.18,398.46,397.89,397.39,397.08,396.85,396.59,396.19,395.67,394.95,394.09,393.28,392.46,391.74,391.07,390.43,389.98,389.74,389.59,389.40,388.94,388.21,387.40,386.55,385.74,385.00,384.23,383.44,382.59,381.69,380.02,377.27,374.40,374.14,375.99,378.38,379.96,379.59,378.33,374.63,370.33,367.00,366.45,369.03,373.03,377.19,380.04,381.10,381.66,381.91,381.75,381.36,380.91,379.92,378.45,377.08,375.48,373.06,370.24,367.79,366.81,366.67,366.80,367.01,367.37,367.62,367.51,366.83,365.27,363.35,363.32,364.25,365.25,366.68,367.91,367.97,366.13,361.49,354.32,349.08,346.08,344.60,343.65,342.87,342.32,342.05,341.89,341.87,341.97,342.12,342.24,342.39,342.55,342.68,342.80,342.95,343.10,343.24,343.36,343.47,343.55,343.63,343.71,343.78,343.86,343.94,344.00,344.03,344.07,344.08,344.08,344.08,344.08,344.11,344.13,344.13,344.13,344.13,344.13,344.13,344.16,344.25,344.44,344.56,344.66,344.87,345.35,346.45,349.77,355.58,359.84,360.96,360.59,359.64,358.69,358.45,358.08,357.55,357.03,356.52,355.92,355.31,354.69,354.06,353.45,352.83,352.23,351.75,351.68,351.65,351.62,351.56,351.44,351.28,351.10,350.92,350.76,350.54,350.36,350.19,350.00,349.87,349.64,349.45,349.41,349.63,349.89,350.00,350.02,350.10,350.18,350.20,350.23,350.31,350.39,350.58,351.01,351.63,352.18,352.78,353.35,353.92,354.52,355.07,355.40,355.58,355.70,356.01,356.51,356.86,356.96,356.83,356.94,357.15,357.40,357.70,358.07,358.49,358.85,359.10,359.25,359.51,360.03,360.77,361.67,362.57,363.52,364.49,365.37,365.91,365.82,365.54,365.21,364.84,364.52,364.15,363.80,363.48,363.10,362.74,362.39,362.04,361.65,361.27,360.87,360.43,360.00,359.88,359.83,359.79,359.76,359.75,359.73
420.75,420.06,419.27,418.40,417.48,416.38,415.18,413.96,412.80,411.63,410.55,409.58,408.79,408.00,407.18,406.34,405.49,404.58,403.60,402.63,401.70,400.78,399.97,399.27,398.69,398.30,398.03,397.78,397.49,397.10,396.51,395.77,394.98,394.20,393.51,392.78,392.17,391.66,391.26,391.04,390.82,390.60,390.31,389.79,388.99,388.10,387.20,386.31,385.47,384.63,383.79,382.92,381.89,379.72,376.80,374.68,376.57,379.12,380.50,380.87,380.77,380.31,376.26,371.29,367.55,367.03,369.48,373.56,377.78,380.16,381.12,381.80,382.32,382.50,382.26,381.85,381.43,381.03,380.62,379.76,377.72,374.87,372.11,371.27,371.05,370.96,370.90,371.01,371.38,371.30,370.41,368.31,365.52,365.23,366.51,368.24,369.92,370.93,371.16,370.72,369.41,361.68,354.67,349.69,346.37,344.85,343.80,343.05,342.61,342.23,342.03,341.98,342.03,342.15,342.30,342.46,342.59,342.69,342.84,342.99,343.12,343.24,343.32,343.40,343.48,343.55,343.63,343.71,343.79,343.84,343.87,343.94,343.96,343.96,343.96,343.96,343.96,343.96,343.96,343.96,343.99,344.03,344.09,344.20,344.36,344.56,344.69,344.92,345.54,346.53,349.46,354.53,360.39,361.52,361.87,361.58,360.78,359.84,359.28,358.72,358.10,357.48,356.87,356.25,355.62,355.01,354.39,353.78,353.15,352.54,351.99,351.88,351.86,351.81,351.70,351.53,351.33,351.13,350.97,350.81,350.58,350.40,350.22,350.00,349.84,349.63,349.47,349.47,349.69,349.91,350.00,350.02,350.10,350.18,350.21,350.25,350.31,350.38,350.70,351.30,352.04,352.64,353.24,353.81,354.37,354.98,355.53,355.99,356.28,356.41,356.72,357.21,357.44,357.39,357.19,357.29,357.49,357.68,357.85,358.14,358.52,358.83,359.06,359.40,359.82,360.45,361.31,362.38,363.35,364.33,365.29,366.04,366.20,365.98,365.67,365.35,364.99,364.65,364.30,363.94,363.61,363.23,362.84,362.49,362.16,361.78,361.39,361.06,360.66,360.15,359.94,359.86,359.82,359.82,359.82,359.84
421.01,420.34,419.57,418.63,417.54,416.34,415.12,413.89,412.73,411.57,410.46,409.44,408.60,407.76,406.96,406.15,405.30,404.44,403.48,402.51,401.63,400.89,400.29,399.87,399.52,399.08,398.76,398.45,397.99,397.29,396.55,395.79,395.06,394.41,393.97,393.52,393.01,392.60,392.44,392.32,391.96,391.46,390.84,390.18,389.31,388.32,387.27,386.23,385.25,384.23,383.19,382.16,381.13,379.02,376.83,375.88,378.25,379.97,380.97,381.41,381.36,380.83,377.55,372.93,368.59,367.39,369.75,374.20,378.68,380.40,381.25,381.90,382.50,382.97,383.02,382.72,382.30,381.83,381.31,380.72,379.90,378.47,376.39,376.52,376.40,375.97,375.34,374.53,374.29,373.56,372.08,369.83,367.26,367.09,368.32,369.80,370.91,371.86,372.03,371.45,370.71,368.79,363.73,356.53,349.48,346.61,345.03,343.96,343.34,342.93,342.58,342.26,342.03,342.06,342.18,342.33,342.48,342.62,342.77,342.88,342.97,343.06,343.13,343.20,343.29,343.36,343.44,343.51,343.59,343.66,343.74,343.81,343.82,343.82,343.82,343.82,343.82,343.83,343.83,343.86,343.98,344.11,344.25,344.39,344.55,344.72,344.86,345.43,347.11,348.84,354.68,360.07,362.11,362.81,362.82,362.27,361.37,360.44,359.69,359.04,358.41,357.80,357.18,356.56,355.95,355.33,354.72,354.09,353.48,352.86,352.30,352.11,352.01,351.91,351.75,351.54,351.36,351.17,350.97,350.80,350.58,350.40,350.22,350.00,349.84,349.62,349.50,349.53,349.75,349.93,350.00,350.02,350.10,350.18,350.24,350.29,350.30,350.32,350.68,351.43,352.39,353.12,353.72,354.26,354.83,355.43,355.98,356.56,356.94,357.13,357.44,357.88,358.01,357.84,357.59,357.68,357.84,358.00,358.17,358.40,358.67,358.98,359.34,359.76,360.47,361.32,362.22,363.13,364.17,365.14,366.04,366.65,366.42,366.11,365.80,365.49,365.16,364.80,364.46,364.12,363.74,363.36,362.97,362.62,362.30,361.91,361.52,361.18,360.84,360.42,360.01,359.90,359.89,359.89,359.90,359.95
421.24,420.56,419.75,418.65,417.50,416.29,415.07,413.87,412.67,411.50,410.38,409.36,408.51,407.66,406.83,406.01,405.16,404.31,403.47,402.66,401.93,401.32,400.94,400.66,400.37,399.93,399.36,398.81,398.22,397.48,396.71,396.10,395.57,395.12,394.76,394.39,394.03,393.61,392.99,392.34,391.59,390.89,390.33,389.78,388.93,387.91,386.84,385.81,384.80,383.74,382.67,381.65,380.64,378.41,377.30,378.03,379.94,381.26,381.81,381.75,381.20,380.59,377.74,373.51,369.25,367.93,370.45,375.14,379.60,380.67,381.39,382.02,382.64,383.21,383.54,383.35,382.93,382.42,381.88,381.33,380.79,380.03,379.00,379.19,379.19,378.89,378.31,377.37,376.26,374.79,372.91,370.74,369.12,369.00,369.78,370.84,371.74,372.63,372.86,372.37,371.75,371.10,368.49,363.65,356.82,350.52,347.20,345.34,344.13,343.66,343.26,342.90,342.58,342.39,342.25,342.25,342.35,342.50,342.66,342.75,342.83,342.91,342.99,343.06,343.14,343.22,343.30,343.37,343.45,343.53,343.60,343.68,343.70,343.70,343.70,343.70,343.70,343.77,343.88,343.98,344.12,344.28,344.43,344.59,344.75,345.12,345.78,346.92,349.18,354.12,359.13,362.53,363.66,363.89,363.48,362.73,361.79,360.83,359.96,359.21,358.55,357.98,357.39,356.82,356.24,355.65,355.04,354.43,353.81,353.19,352.61,352.33,352.14,351.96,351.73,351.54,351.34,351.15,350.95,350.76,350.57,350.38,350.18,349.99,349.79,349.57,349.49,349.60,349.82,349.95,350.02,350.06,350.11,350.18,350.23,350.25,350.25,350.26,350.69,351.51,352.55,353.43,354.13,354.74,355.32,355.90,356.48,357.06,357.51,357.83,358.14,358.48,358.51,358.29,358.02,358.04,358.17,358.33,358.49,358.72,358.99,359.31,359.77,360.45,361.31,362.22,363.13,364.04,364.99,365.95,366.66,366.91,366.61,366.26,365.93,365.62,365.31,364.93,364.60,364.26,363.87,363.49,363.10,362.75,362.42,362.04,361.65,361.29,360.94,360.58,360.17,360.00,359.97,360.02,360.09,360.18
421.32,420.63,419.79,418.61,417.45,416.25,415.05,413.87,412.65,411.48,410.36,409.33,408.46,407.61,406.78,405.98,405.16,404.33,403.60,402.96,402.39,401.93,401.71,401.49,401.17,400.65,399.85,399.10,398.42,397.75,397.08,396.62,396.28,395.97,395.64,395.19,394.81,394.24,393.14,392.00,390.91,390.10,389.63,389.17,388.39,387.47,386.52,385.58,384.58,383.45,382.32,381.32,380.33,378.15,378.01,380.06,381.48,382.43,382.43,381.70,380.54,379.55,376.96,373.27,369.59,368.74,371.68,376.31,380.31,380.93,381.57,382.20,382.83,383.44,383.92,383.85,383.46,382.92,382.38,381.83,381.31,380.88,380.71,380.76,380.80,380.65,380.21,379.35,377.60,375.58,373.55,371.69,371.05,370.95,371.17,371.73,372.55,373.39,373.69,373.35,372.72,372.03,371.27,369.35,364.36,356.32,351.04,347.63,345.41,344.57,344.02,343.62,343.28,342.90,342.52,342.35,342.33,342.40,342.53,342.63,342.70,342.78,342.85,342.93,343.01,343.09,343.17,343.24,343.32,343.39,343.48,343.55,343.56,343.57,343.59,343.62,343.66,343.81,344.01,344.16,344.32,344.47,344.65,344.89,345.23,345.87,347.30,349.47,352.84,359.63,362.84,364.17,365.01,364.72,363.96,363.06,362.12,361.12,360.18,359.35,358.62,358.02,357.44,356.91,356.38,355.82,355.22,354.62,354.01,353.41,352.84,352.52,352.25,351.98,351.71,351.53,351.31,351.11,350.93,350.72,350.54,350.34,350.14,349.97,349.75,349.52,349.48,349.66,349.86,349.97,350.04,350.10,350.11,350.18,350.20,350.20,350.20,350.22,350.71,351.57,352.63,353.63,354.47,355.19,355.81,356.36,356.97,357.53,358.05,358.50,358.83,359.06,359.00,358.74,358.46,358.41,358.50,358.65,358.82,359.05,359.37,359.78,360.36,361.27,362.20,363.13,364.06,364.98,365.86,366.73,367.18,367.07,366.77,366.40,366.06,365.75,365.43,365.06,364.73,364.39,364.00,363.62,363.24,362.89,362.56,362.17,361.80,361.41,361.05,360.72,360.35,360.15,360.11,360.20,360.34,360.44
421.06,420.37,419.59,418.59,417.45,416.28,415.09,413.88,412.70,411.54,410.43,409.38,408.47,407.61,406.88,406.23,405.55,404.78,404.06,403.46,403.02,402.79,402.57,402.27,401.80,401.02,400.18,399.39,398.74,398.25,397.85,397.46,397.12,396.81,396.46,395.71,394.82,393.85,392.76,391.66,390.58,389.75,389.21,388.63,387.98,387.40,386.84,386.12,385.16,383.76,382.37,381.31,380.30,378.77,379.02,381.09,382.67,382.95,382.16,380.79,379.11,376.96,374.44,371.64,369.34,370.07,373.90,377.84,380.51,381.14,381.81,382.49,383.17,383.79,384.10,384.18,383.91,383.37,382.83,382.29,381.78,381.43,381.35,381.41,381.30,380.98,380.43,379.60,377.94,376.06,374.33,373.25,373.11,372.92,372.66,372.63,373.39,374.19,374.57,374.38,373.71,372.96,372.15,371.10,369.21,365.41,358.50,351.95,347.87,345.99,344.92,344.31,343.93,343.55,343.22,342.90,342.59,342.36,342.41,342.50,342.57,342.65,342.73,342.81,342.88,342.96,343.03,343.11,343.19,343.27,343.34,343.42,343.44,343.47,343.55,343.68,343.86,344.04,344.20,344.36,344.51,344.67,344.94,345.47,346.38,347.42,349.79,354.08,360.26,363.46,365.16,365.96,365.90,365.08,364.18,363.26,362.31,361.31,360.38,359.51,358.66,357.83,357.14,356.62,356.12,355.57,355.02,354.46,353.91,353.36,352.85,352.62,352.31,352.00,351.76,351.54,351.31,351.09,350.88,350.71,350.50,350.31,350.13,349.91,349.74,349.52,349.50,349.71,349.87,349.97,350.04,350.10,350.11,350.18,350.20,350.20,350.20,350.22,350.75,351.61,352.64,353.69,354.68,355.54,356.26,356.81,357.43,357.99,358.55,359.10,359.46,359.62,359.49,359.20,358.92,358.82,358.86,358.97,359.14,359.38,359.81,360.45,361.26,362.19,363.11,364.04,364.97,365.90,366.87,367.39,367.48,367.22,366.90,366.54,366.19,365.88,365.56,365.19,364.86,364.52,364.13,363.75,363.41,363.06,362.68,362.31,361.97,361.61,361.23,360.86,360.54,360.38,360.37,360.46,360.60,360.69
420.91,420.16,419.35,418.45,417.42,416.29,415.12,413.92,412.76,411.61,410.49,409.48,408.70,408.02,407.38,406.75,406.04,405.31,404.61,404.09,403.81,403.67,403.34,402.83,402.19,401.44,400.67,400.00,399.44,398.99,398.60,398.21,397.77,397.28,396.75,395.96,394.96,393.90,392.84,391.76,390.82,390.14,389.69,389.14,388.54,388.24,388.04,387.36,386.00,384.21,382.61,381.50,380.49,379.47,380.02,382.06,383.71,383.16,381.67,379.86,377.86,375.44,373.08,371.09,370.27,372.34,376.22,379.23,380.85,381.48,382.16,382.86,383.51,384.02,384.21,384.34,384.24,383.87,383.33,382.79,382.28,381.93,381.94,381.97,381.68,381.18,380.53,379.72,378.18,376.78,375.82,375.38,375.32,375.04,374.56,374.13,374.32,374.98,375.43,375.35,374.64,373.87,373.05,372.23,371.29,369.42,365.24,359.93,354.46,349.94,347.30,345.57,344.44,344.06,343.74,343.43,343.10,342.80,342.70,342.75,342.81,342.85,342.89,342.96,343.01,343.05,343.10,343.18,343.20,343.23,343.31,343.39,343.46,343.55,343.69,343.88,344.11,344.29,344.44,344.63,344.91,345.44,346.06,346.80,348.11,352.06,356.10,360.23,364.93,366.57,367.07,366.99,366.35,365.37,364.40,363.43,362.47,361.51,360.57,359.67,358.78,357.91,357.13,356.42,355.81,355.26,354.73,354.22,353.69,353.24,353.00,352.87,352.54,352.16,351.86,351.56,351.31,351.08,350.86,350.66,350.47,350.28,350.09,349.89,349.70,349.53,349.54,349.73,349.92,349.98,350.04,350.10,350.11,350.14,350.15,350.15,350.15,350.18,350.75,351.64,352.68,353.73,354.76,355.75,356.61,357.25,357.88,358.44,359.01,359.62,360.13,360.26,360.12,359.84,359.54,359.30,359.26,359.35,359.54,359.88,360.51,361.33,362.27,363.23,364.20,365.16,366.12,367.04,367.68,367.81,367.66,367.35,367.04,366.66,366.32,366.01,365.70,365.35,365.01,364.65,364.26,363.91,363.57,363.20,362.82,362.47,362.13,361.76,361.38,361.04,360.73,360.61,360.64,360.76,360.87,360.95
420.83,420.01,419.14,418.26,417.34,416.28,415.14,413.99,412.82,411.69,410.63,409.71,409.12,408.61,408.02,407.33,406.56,405.85,405.21,404.81,404.66,404.51,404.04,403.34,402.58,401.95,401.26,400.71,400.23,399.75,399.25,398.81,398.25,397.57,396.88,396.13,395.18,394.12,393.09,392.08,391.34,390.82,390.47,390.04,389.46,389.33,389.35,388.63,386.84,384.75,382.96,381.78,380.86,380.30,381.07,383.03,384.56,383.27,381.22,379.10,377.01,374.81,372.67,371.33,371.66,374.63,378.20,380.36,381.23,381.86,382.55,383.25,383.83,384.19,384.31,384.45,384.50,384.34,383.85,383.31,382.78,382.44,382.50,382.45,381.98,381.33,380.64,379.89,378.63,377.83,377.63,377.66,377.53,377.18,376.59,375.83,375.31,375.78,376.29,376.31,375.57,374.80,373.97,373.13,372.29,371.28,370.42,367.65,362.09,355.97,351.74,348.27,345.61,344.88,344.34,343.98,343.70,343.42,343.18,343.16,343.19,343.19,343.20,343.26,343.29,343.29,343.29,343.34,343.32,343.32,343.41,343.49,343.62,343.76,343.94,344.15,344.38,344.59,344.83,345.16,345.70,346.63,347.94,349.52,351.45,357.91,363.03,366.10,368.12,368.94,368.52,367.62,366.63,365.63,364.63,363.62,362.63,361.69,360.76,359.83,358.94,358.09,357.23,356.33,355.58,355.00,354.43,353.95,353.50,353.20,353.26,353.19,352.84,352.41,352.03,351.63,351.34,351.09,350.85,350.62,350.45,350.25,350.04,349.87,349.65,349.55,349.59,349.76,349.96,350.00,350.04,350.08,350.08,350.08,350.08,350.09,350.10,350.13,350.73,351.67,352.72,353.75,354.81,355.89,356.87,357.66,358.32,358.89,359.48,360.14,360.79,360.92,360.79,360.54,360.22,359.88,359.77,359.87,360.13,360.58,361.41,362.37,363.36,364.37,365.37,366.37,367.33,368.10,368.29,368.09,367.79,367.48,367.15,366.79,366.45,366.14,365.83,365.52,365.17,364.79,364.41,364.09,363.73,363.35,362.98,362.65,362.28,361.90,361.54,361.22,360.93,360.86,360.92,361.06,361.13,361.21
420.83,419.97,419.04,418.08,417.15,416.23,415.22,414.04,412.84,411.80,410.99,410.37,409.86,409.29,408.60,407.84,407.02,406.25,405.90,405.72,405.53,405.20,404.65,403.98,403.28,402.66,401.97,401.39,400.87,400.31,399.62,398.99,398.35,397.70,397.01,396.36,395.44,394.36,393.34,392.58,392.06,391.62,391.23,390.97,390.43,390.17,390.00,389.19,387.42,385.37,383.46,382.08,381.53,381.43,382.38,384.09,384.95,383.44,381.17,379.00,377.31,375.89,374.11,372.90,373.20,375.83,378.88,380.75,381.57,382.25,382.94,383.63,384.13,384.28,384.43,384.58,384.70,384.70,384.34,383.83,383.33,383.02,383.04,382.73,382.14,381.48,380.88,380.40,379.96,379.73,379.69,379.69,379.55,379.19,378.53,377.49,376.37,376.65,377.18,377.28,376.54,375.77,374.91,373.99,373.03,372.03,371.22,370.04,368.20,365.91,361.33,355.10,349.20,346.93,345.40,344.66,344.31,344.05,343.76,343.66,343.64,343.64,343.65,343.71,343.75,343.72,343.67,343.62,343.64,343.72,343.85,343.93,344.02,344.15,344.31,344.48,344.65,345.00,345.61,346.51,347.56,348.50,351.34,355.99,359.55,364.11,367.38,369.12,369.64,369.66,368.91,367.89,366.89,365.88,364.88,363.88,362.88,361.89,360.90,359.99,359.14,358.28,357.37,356.49,355.67,354.90,354.20,353.73,353.53,353.52,353.63,353.53,353.17,352.73,352.33,351.89,351.48,351.13,350.85,350.62,350.40,350.21,350.03,349.82,349.64,349.59,349.65,349.81,349.97,350.00,350.01,350.03,350.03,350.03,350.03,350.05,350.10,350.13,350.77,351.70,352.74,353.80,354.88,355.92,356.94,357.92,358.74,359.35,360.00,360.78,361.44,361.57,361.44,361.19,360.89,360.61,360.57,360.81,361.31,361.80,362.66,363.63,364.59,365.59,366.60,367.60,368.39,368.65,368.51,368.23,367.92,367.59,367.23,366.90,366.58,366.27,365.96,365.65,365.33,364.99,364.60,364.23,363.90,363.54,363.16,362.79,362.46,362.09,361.71,361.37,361.16,361.12,361.18,361.32,361.40,361.47
420.95,420.13,419.22,418.19,417.19,416.23,415.21,414.11,413.13,412.35,411.73,411.21,410.63,409.85,409.05,408.22,407.44,406.95,406.75,406.56,406.24,405.75,405.16,404.52,403.86,403.24,402.59,401.92,401.24,400.52,399.75,399.07,398.44,397.83,397.14,396.48,395.60,394.63,393.80,393.25,392.82,392.39,391.92,391.58,390.97,390.40,389.84,388.90,387.24,385.33,383.79,383.05,382.95,383.05,383.88,385.09,385.16,383.57,381.60,379.83,378.57,377.67,376.03,374.52,374.28,376.93,379.50,381.11,381.94,382.63,383.33,383.92,384.28,384.40,384.55,384.71,384.85,384.91,384.77,384.31,383.88,383.60,383.45,382.97,382.37,381.80,381.34,380.99,380.89,380.88,380.90,380.90,380.82,380.55,379.99,379.03,377.74,377.68,378.08,378.25,377.51,376.68,375.75,374.75,373.75,372.75,371.84,371.16,370.71,370.05,367.28,362.94,358.01,353.75,348.85,346.61,345.86,345.22,344.50,344.21,344.13,344.10,344.10,344.14,344.13,344.08,343.97,343.90,343.97,344.12,344.26,344.34,344.42,344.52,344.72,345.18,345.71,346.41,347.47,349.37,352.81,354.79,357.71,362.04,365.44,367.90,369.48,370.26,370.20,369.93,369.10,368.07,367.06,366.06,365.06,364.05,363.05,362.04,361.04,360.07,359.16,358.31,357.41,356.55,355.70,354.86,354.10,353.79,353.76,353.86,353.97,353.86,353.49,353.06,352.65,352.19,351.74,351.33,351.00,350.67,350.39,350.18,349.99,349.79,349.64,349.60,349.66,349.78,349.89,349.94,349.98,350.00,350.00,350.00,350.00,350.02,350.06,350.08,350.77,351.73,352.78,353.86,354.91,355.95,357.00,358.03,358.96,359.81,360.67,361.53,362.24,362.31,362.12,361.86,361.64,361.57,361.69,361.97,362.46,363.11,363.99,364.92,365.87,366.87,367.84,368.59,369.01,368.98,368.71,368.37,368.03,367.69,367.34,367.02,366.71,366.40,366.09,365.78,365.48,365.15,364.79,364.40,364.06,363.71,363.34,362.97,362.62,362.25,361.87,361.55,361.40,361.39,361.46,361.58,361.66,361.73
421.20,420.41,419.54,418.43,417.33,416.29,415.28,414.33,413.67,413.15,412.64,412.06,411.31,410.31,409.38,408.56,407.92,407.81,407.66,407.34,406.85,406.24,405.61,404.98,404.33,403.67,403.02,402.23,401.37,400.49,399.73,399.08,398.49,397.91,397.22,396.55,395.74,394.92,394.32,393.88,393.46,392.99,392.45,391.91,391.20,390.35,389.36,388.22,386.74,385.19,384.30,384.45,384.70,384.90,385.47,386.07,385.38,383.83,382.33,381.10,380.22,379.61,377.96,376.05,375.25,378.02,380.11,381.45,382.33,383.02,383.70,384.13,384.38,384.53,384.68,384.83,384.95,385.05,385.13,384.75,384.41,384.14,383.78,383.24,382.69,382.25,381.94,381.65,381.58,381.62,381.68,381.69,381.68,381.53,381.16,380.43,379.23,378.81,378.96,379.16,378.41,377.51,376.49,375.45,374.44,373.43,372.45,371.75,371.46,371.18,370.82,370.07,367.98,362.49,354.69,350.69,348.90,347.19,345.82,345.23,344.95,344.78,344.68,344.58,344.48,344.38,344.23,344.14,344.24,344.31,344.24,344.18,344.19,344.33,344.82,346.17,347.78,349.31,351.03,353.87,359.56,362.62,364.83,367.15,369.35,370.03,370.31,370.44,370.25,369.93,369.12,368.12,367.13,366.13,365.13,364.14,363.14,362.14,361.13,360.07,359.07,358.21,357.37,356.52,355.68,354.84,354.09,354.00,354.08,354.18,354.30,354.18,353.82,353.39,352.98,352.52,352.06,351.63,351.24,350.80,350.45,350.18,349.97,349.79,349.65,349.61,349.64,349.72,349.80,349.87,349.94,349.99,349.99,349.99,349.99,349.99,350.00,350.02,350.70,351.68,352.74,353.80,354.82,355.88,356.95,358.05,359.15,360.33,361.42,362.34,363.09,363.07,362.82,362.60,362.52,362.70,362.97,363.24,363.60,364.39,365.24,366.16,367.16,368.14,368.99,369.35,369.36,369.18,368.87,368.51,368.14,367.77,367.46,367.15,366.84,366.53,366.22,365.91,365.60,365.30,364.97,364.59,364.21,363.86,363.53,363.14,362.77,362.39,362.03,361.75,361.65,361.68,361.76,361.84,361.92,362.00
421.65,420.86,419.93,418.64,417.43,416.55,415.85,415.22,414.61,414.11,413.44,412.57,411.64,410.59,409.65,408.99,408.74,408.71,408.43,407.96,407.37,406.70,406.07,405.35,404.55,403.72,402.87,401.98,401.09,400.26,399.59,398.96,398.35,397.75,397.11,396.52,395.86,395.20,394.64,394.09,393.53,392.96,392.37,391.82,391.19,390.39,389.31,387.75,386.61,386.09,385.97,386.10,386.30,386.59,387.00,387.15,386.08,384.70,383.34,382.19,381.41,380.85,379.06,377.23,376.73,379.20,380.68,381.77,382.72,383.40,384.00,384.32,384.50,384.66,384.81,384.92,385.04,385.18,385.30,385.16,384.90,384.55,384.09,383.69,383.26,382.89,382.59,382.35,382.30,382.34,382.41,382.46,382.47,382.38,382.12,381.53,380.55,379.97,379.83,379.78,379.07,378.09,377.06,376.04,375.04,374.03,373.06,372.60,372.72,372.72,372.72,372.46,371.48,368.91,365.17,360.81,356.03,351.39,349.29,348.04,347.13,346.41,345.79,345.13,344.78,344.65,344.49,344.35,344.24,343.66,342.51,341.74,341.42,341.85,343.55,347.55,352.28,356.25,359.38,362.00,365.09,367.25,368.62,369.46,370.28,370.52,370.57,370.48,370.13,369.62,368.79,367.85,366.90,365.95,365.00,364.05,363.09,362.08,361.03,359.96,358.92,357.99,357.17,356.38,355.56,354.77,354.23,354.28,354.41,354.51,354.62,354.51,354.18,353.75,353.31,352.84,352.38,351.96,351.56,351.10,350.67,350.33,350.05,349.81,349.70,349.63,349.63,349.71,349.78,349.82,349.88,349.93,349.93,349.93,349.93,349.93,349.93,349.95,350.45,351.27,352.25,353.27,354.28,355.34,356.55,358.09,359.75,361.10,362.24,363.20,363.85,363.75,363.60,363.62,363.76,364.03,364.29,364.56,364.88,365.35,366.07,367.17,368.44,369.34,369.71,369.75,369.60,369.31,368.91,368.55,368.23,367.90,367.59,367.28,366.97,366.66,366.35,366.04,365.73,365.43,365.11,364.73,364.38,364.03,363.66,363.29,362.94,362.58,362.22,361.95,361.89,361.94,362.02,362.10,362.18,362.25
422.15,421.27,420.20,418.82,417.85,417.21,416.70,416.17,415.48,414.78,413.91,412.88,411.86,410.96,410.20,409.75,409.70,409.49,409.02,408.43,407.77,407.05,406.28,405.44,404.52,403.57,402.61,401.68,400.78,399.97,399.34,398.71,398.11,397.52,396.91,396.35,395.78,395.20,394.62,394.01,393.41,392.81,392.21,391.66,391.06,390.39,389.42,387.89,387.34,387.48,387.72,387.78,387.87,388.01,388.12,387.91,386.86,385.66,384.38,383.26,382.50,381.51,379.49,378.04,378.22,380.07,381.15,382.11,383.08,383.77,384.24,384.48,384.63,384.78,384.91,385.02,385.15,385.30,385.45,385.51,385.35,385.02,384.58,384.23,383.88,383.54,383.25,383.05,383.03,383.07,383.13,383.18,383.01,382.76,382.38,381.81,381.10,380.58,380.22,379.88,379.23,378.32,377.35,376.36,375.36,374.35,373.76,373.68,374.08,374.38,374.53,374.38,373.89,372.90,371.31,367.86,362.72,356.78,353.85,351.98,350.49,349.24,348.19,347.04,346.06,345.29,344.77,344.59,343.97,342.67,340.89,339.90,339.70,341.12,344.98,352.41,358.28,362.68,365.73,367.40,368.61,369.74,370.45,370.66,370.80,370.84,370.72,370.45,370.01,369.30,368.40,367.46,366.53,365.60,364.67,363.75,362.81,361.83,360.81,359.79,358.75,357.73,356.90,356.13,355.36,354.69,354.42,354.56,354.73,354.86,354.95,354.83,354.51,354.09,353.63,353.17,352.73,352.31,351.89,351.46,351.07,350.70,350.30,349.87,349.73,349.66,349.64,349.68,349.75,349.79,349.83,349.87,349.87,349.87,349.88,349.90,349.90,349.91,350.18,350.79,351.69,352.70,353.83,355.22,356.89,358.79,360.48,361.83,363.03,364.04,364.56,364.61,364.65,364.81,365.08,365.38,365.64,365.90,366.20,366.50,367.03,367.96,369.12,369.90,370.01,369.92,369.73,369.38,368.98,368.65,368.34,368.03,367.72,367.41,367.10,366.79,366.48,366.17,365.86,365.56,365.24,364.88,364.54,364.19,363.83,363.45,363.10,362.75,362.42,362.18,362.18,362.22,362.28,362.36,362.44,362.54
422.67,421.64,420.40,419.09,418.59,418.17,417.66,417.03,416.19,415.19,414.15,413.12,412.14,411.50,411.03,410.76,410.69,410.13,409.46,408.75,408.03,407.24,406.30,405.32,404.32,403.32,402.33,401.38,400.49,399.68,399.05,398.44,397.86,397.29,396.67,396.12,395.57,395.00,394.39,393.77,393.20,392.63,392.02,391.47,390.88,390.34,389.64,388.53,388.65,389.06,389.32,389.34,389.31,389.16,388.89,388.44,387.62,386.59,385.39,384.29,383.41,381.76,379.54,378.62,379.58,380.66,381.56,382.49,383.42,384.11,384.42,384.62,384.78,384.94,385.04,385.19,385.35,385.51,385.68,385.86,385.78,385.52,385.20,384.83,384.50,384.19,383.91,383.76,383.79,383.80,383.79,383.75,383.32,382.76,382.14,381.51,381.04,380.66,380.17,379.57,379.01,378.27,377.40,376.46,375.49,374.59,374.56,374.93,375.41,376.02,376.32,376.27,375.92,375.21,373.86,371.92,368.32,362.66,358.99,356.50,354.49,352.76,351.36,349.82,348.06,346.37,345.23,344.90,343.56,341.57,339.62,338.87,339.22,342.33,349.03,359.42,364.69,367.86,369.71,370.17,370.51,370.80,371.05,371.21,371.18,371.09,370.80,370.38,369.91,368.99,367.98,367.01,366.08,365.15,364.22,363.30,362.37,361.43,360.48,359.54,358.54,357.47,356.63,355.86,355.16,354.66,354.61,354.81,355.04,355.22,355.28,355.16,354.84,354.42,353.96,353.50,353.09,352.68,352.25,351.89,351.62,351.22,350.63,349.95,349.75,349.70,349.67,349.63,349.70,349.76,349.79,349.80,349.81,349.81,349.85,349.89,349.90,349.90,349.93,350.32,351.14,352.27,353.67,355.61,357.83,359.91,361.29,362.54,363.80,364.90,365.28,365.54,365.77,366.02,366.33,366.63,366.90,367.17,367.47,367.72,368.03,368.60,369.36,369.96,370.02,369.94,369.75,369.40,369.07,368.77,368.47,368.16,367.85,367.54,367.23,366.92,366.61,366.30,365.99,365.68,365.38,365.05,364.69,364.34,364.01,363.63,363.26,362.91,362.63,362.44,362.48,362.51,362.55,362.62,362.70,362.84
423.15,422.01,420.82,420.03,419.74,419.15,418.34,417.42,416.42,415.36,414.41,413.63,413.03,412.56,412.13,411.76,411.43,410.57,409.70,408.87,408.04,407.12,406.17,405.19,404.19,403.18,402.18,401.23,400.35,399.58,398.95,398.38,397.80,397.20,396.59,396.03,395.46,394.86,394.24,393.63,393.07,392.49,391.88,391.34,390.78,390.30,389.89,389.56,389.72,390.01,390.25,390.28,390.05,389.78,389.44,388.95,388.13,387.22,386.25,385.12,383.65,381.80,379.94,379.36,380.36,381.26,382.08,382.94,383.76,384.33,384.57,384.81,385.05,385.26,385.49,385.70,385.90,386.12,386.35,386.38,386.26,386.06,385.78,385.46,385.14,384.84,384.57,384.46,384.50,384.42,384.17,383.76,383.25,382.62,381.96,381.32,380.73,380.15,379.62,379.15,378.69,378.01,377.23,376.40,375.64,375.38,375.65,376.10,376.58,377.12,377.73,378.06,378.04,377.53,376.26,374.38,371.50,367.37,363.62,360.32,357.66,355.59,353.67,351.94,350.07,348.17,346.59,345.59,343.40,340.96,339.25,339.01,340.30,346.19,355.62,364.19,368.09,369.89,370.80,371.13,371.33,371.57,371.76,371.77,371.39,371.08,370.72,370.31,369.77,368.70,367.62,366.59,365.63,364.70,363.77,362.84,361.91,360.98,359.96,359.00,358.08,357.22,356.55,355.89,355.27,354.81,354.76,355.03,355.31,355.51,355.60,355.48,355.16,354.75,354.28,353.82,353.46,353.12,352.77,352.49,352.25,351.74,350.93,349.99,349.79,349.76,349.73,349.68,349.70,349.72,349.74,349.75,349.79,349.80,349.82,349.86,349.89,349.90,349.90,350.09,350.78,352.56,354.53,356.74,358.90,360.66,361.96,363.19,364.66,366.04,366.06,366.17,366.40,366.69,367.00,367.31,367.60,367.89,368.19,368.48,368.78,369.17,369.62,369.97,370.01,369.88,369.67,369.39,369.13,368.88,368.60,368.29,367.98,367.67,367.36,367.05,366.74,366.43,366.12,365.81,365.50,365.14,364.80,364.48,364.15,363.77,363.43,363.08,362.79,362.69,362.75,362.81,362.85,362.88,362.96,363.10
423.62,422.57,421.58,420.92,420.46,419.67,418.65,417.57,416.61,415.67,414.88,414.29,413.88,413.49,412.98,412.41,411.80,410.82,409.83,408.89,407.98,407.00,406.04,405.07,404.11,403.15,402.19,401.27,400.42,399.68,399.05,398.47,397.88,397.27,396.65,396.08,395.46,394.83,394.21,393.62,393.04,392.46,391.89,391.37,390.85,390.47,390.28,390.39,390.54,390.75,390.92,390.93,390.60,390.25,389.91,389.45,388.68,387.89,387.12,386.01,384.19,382.36,380.72,380.15,380.89,381.73,382.56,383.48,384.34,384.80,385.05,385.31,385.57,385.81,386.12,386.37,386.61,386.84,386.99,386.88,386.72,386.53,386.31,386.06,385.78,385.48,385.22,385.13,385.00,384.72,384.28,383.69,383.10,382.46,381.81,381.18,380.54,379.93,379.40,378.94,378.44,377.85,377.22,376.61,376.10,376.17,376.59,377.10,377.62,378.16,378.87,379.40,379.58,379.24,378.31,376.52,373.88,370.31,366.38,362.81,359.86,357.43,355.04,353.00,351.05,349.19,347.52,345.93,343.31,340.87,339.66,340.39,342.83,350.60,361.29,367.52,370.06,371.02,371.49,371.84,372.01,372.23,372.26,371.97,371.36,370.89,370.50,370.08,369.47,368.41,367.29,366.22,365.20,364.24,363.31,362.37,361.42,360.44,359.51,358.64,357.86,357.18,356.60,356.01,355.45,355.00,354.94,355.21,355.53,355.78,355.92,355.83,355.50,355.08,354.65,354.26,353.95,353.66,353.37,353.13,352.88,352.26,351.32,350.26,349.90,349.84,349.79,349.74,349.74,349.74,349.74,349.75,349.79,349.80,349.82,349.85,349.89,349.91,350.12,350.50,351.35,353.43,355.69,357.92,359.91,361.51,363.07,364.61,366.01,366.94,366.75,366.71,366.81,367.00,367.24,367.56,367.88,368.19,368.49,368.78,369.08,369.38,369.65,369.84,369.88,369.76,369.56,369.33,369.10,368.86,368.61,368.32,368.01,367.73,367.44,367.15,366.87,366.56,366.25,365.94,365.62,365.25,364.92,364.61,364.29,363.93,363.59,363.24,362.99,362.97,363.01,363.09,363.13,363.14,363.22,363.34
424.08,423.28,422.54,421.60,420.68,419.71,418.67,417.62,416.87,416.20,415.58,415.04,414.57,414.14,413.47,412.66,411.83,410.91,409.88,408.85,407.88,406.94,405.96,405.00,404.09,403.23,402.36,401.49,400.66,399.92,399.30,398.69,398.07,397.45,396.83,396.22,395.56,394.90,394.29,393.73,393.14,392.56,392.04,391.56,391.10,390.85,390.82,390.97,391.12,391.33,391.44,391.33,391.03,390.67,390.33,389.94,389.33,388.65,388.03,387.03,385.20,383.56,381.92,381.04,381.27,382.12,383.04,384.16,385.20,385.59,385.87,386.11,386.35,386.60,386.90,387.14,387.40,387.59,387.49,387.33,387.14,386.94,386.77,386.60,386.38,386.11,385.83,385.69,385.23,384.69,384.17,383.61,382.94,382.30,381.68,381.09,380.55,380.10,379.60,379.02,378.38,377.86,377.46,377.13,376.88,376.87,377.30,377.89,378.51,379.17,379.75,380.22,380.46,380.26,379.88,378.47,375.79,371.70,367.29,363.96,361.05,358.24,355.50,352.94,350.89,349.28,347.87,345.95,343.48,341.50,341.01,342.96,346.90,355.36,365.44,369.57,370.98,371.67,372.20,372.55,372.69,372.76,372.47,371.79,371.10,370.53,370.11,369.66,368.96,368.05,366.97,365.88,364.86,363.89,363.03,362.14,361.13,359.94,359.19,358.54,357.92,357.35,356.75,356.18,355.63,355.19,355.12,355.37,355.71,356.04,356.24,356.20,355.87,355.45,355.09,354.82,354.58,354.30,354.01,353.77,353.49,352.80,351.83,350.81,350.11,349.92,349.86,349.80,349.79,349.79,349.79,349.80,349.81,349.81,349.85,349.90,349.94,350.04,350.68,351.63,352.91,354.85,357.06,359.17,361.03,362.67,364.75,366.73,367.72,367.53,367.31,367.21,367.13,367.07,367.19,367.50,367.81,368.11,368.41,368.66,368.95,369.22,369.44,369.59,369.62,369.56,369.42,369.20,368.97,368.74,368.50,368.25,367.95,367.69,367.45,367.21,366.97,366.67,366.36,366.06,365.74,365.37,365.05,364.74,364.42,364.11,363.75,363.41,363.22,363.27,363.28,363.34,363.39,363.41,363.48,363.57
424.35,423.46,422.62,421.71,420.80,419.86,418.95,418.16,417.50,416.88,416.28,415.66,414.96,414.28,413.47,412.59,411.74,410.86,409.86,408.84,407.88,407.03,406.09,405.18,404.30,403.40,402.50,401.61,400.78,400.08,399.50,398.88,398.25,397.59,396.97,396.31,395.66,395.02,394.40,393.81,393.27,392.76,392.27,391.81,391.43,391.31,391.39,391.55,391.71,391.91,391.97,391.74,391.43,391.10,390.78,390.45,390.06,389.62,389.05,388.13,386.67,385.40,383.63,382.22,381.86,382.90,384.05,385.30,386.38,386.71,386.70,386.87,387.14,387.42,387.68,387.93,388.10,388.15,387.95,387.75,387.56,387.38,387.22,387.02,386.84,386.53,386.10,385.72,385.19,384.64,384.09,383.49,382.81,382.17,381.60,381.13,380.73,380.34,379.94,379.48,378.94,378.46,378.12,377.86,377.61,377.58,377.92,378.46,379.08,379.72,380.25,380.68,380.93,380.75,380.43,379.68,377.75,373.83,368.44,364.64,361.43,358.28,355.26,352.31,350.38,349.26,348.35,346.97,345.24,344.11,344.35,346.27,352.94,361.32,368.46,370.58,371.63,372.32,372.89,373.26,373.10,372.78,372.27,371.58,370.84,370.15,369.49,368.84,368.18,367.41,366.46,365.62,364.98,364.21,364.01,363.75,362.72,360.19,359.24,358.65,358.09,357.54,356.93,356.38,355.81,355.33,355.26,355.54,355.88,356.22,356.50,356.57,356.31,355.98,355.70,355.46,355.19,354.92,354.66,354.42,354.13,353.45,352.54,351.57,350.72,350.16,349.89,349.87,349.86,349.82,349.83,349.87,349.87,349.87,349.88,349.98,350.27,351.05,352.12,353.38,354.84,356.55,358.81,361.24,363.37,364.97,367.09,368.30,368.52,368.03,367.88,367.75,367.63,367.55,367.53,367.54,367.69,367.94,368.24,368.52,368.82,369.05,369.19,369.33,369.40,369.37,369.25,369.06,368.84,368.60,368.37,368.13,367.82,367.58,367.35,367.11,366.88,366.58,366.30,366.04,365.77,365.48,365.18,364.87,364.56,364.25,363.91,363.63,363.47,363.53,363.55,363.61,363.67,363.72,363.80,363.87
424.56,423.62,422.69,421.84,420.99,420.10,419.31,418.69,418.05,417.40,416.69,415.92,415.06,414.20,413.33,412.46,411.61,410.76,409.82,408.85,407.91,407.08,406.17,405.29,404.42,403.49,402.56,401.66,400.87,400.23,399.64,399.01,398.36,397.69,397.04,396.36,395.72,395.13,394.60,393.99,393.47,393.01,392.56,392.11,391.84,391.82,391.98,392.13,392.29,392.47,392.47,392.16,391.85,391.54,391.24,390.97,390.73,390.45,390.00,389.29,388.27,387.32,385.43,383.48,382.45,383.61,385.10,386.52,387.60,387.91,387.65,387.68,387.94,388.23,388.47,388.65,388.71,388.61,388.41,388.18,387.99,387.83,387.65,387.40,387.13,386.74,386.19,385.63,385.09,384.55,383.98,383.35,382.71,382.14,381.67,381.31,380.98,380.62,380.30,380.00,379.58,379.16,378.86,378.64,378.42,378.38,378.57,378.98,379.55,380.15,380.67,381.10,381.34,381.12,380.76,380.43,379.33,376.11,369.38,364.82,361.23,357.90,354.84,351.83,350.51,350.27,349.88,349.22,348.61,348.60,349.57,351.63,359.02,366.06,370.40,371.36,372.26,373.00,373.52,373.68,373.18,372.53,371.91,371.30,370.57,369.79,368.95,368.13,367.46,366.88,366.28,365.86,365.68,365.40,365.77,366.09,365.31,361.99,359.87,358.84,358.29,357.74,357.13,356.56,355.99,355.49,355.42,355.70,356.05,356.40,356.78,356.99,356.89,356.70,356.52,356.27,355.97,355.69,355.44,355.18,354.90,354.28,353.43,352.48,351.53,350.67,350.14,350.00,349.91,349.85,349.86,349.90,349.91,349.98,350.15,350.46,351.09,352.38,353.74,355.16,356.71,358.66,361.95,364.58,366.30,367.45,368.99,369.40,369.11,368.55,368.42,368.30,368.16,368.02,367.87,367.65,367.63,367.78,368.08,368.38,368.66,368.84,368.96,369.10,369.19,369.17,369.07,368.93,368.71,368.48,368.24,368.00,367.69,367.45,367.22,366.99,366.75,366.45,366.19,365.96,365.73,365.49,365.20,364.90,364.61,364.32,364.06,363.85,363.75,363.80,363.83,363.88,363.94,364.01,364.10,364.24
424.74,423.88,423.01,422.16,421.31,420.46,419.70,419.06,418.37,417.62,416.72,415.72,414.81,413.95,413.13,412.32,411.47,410.62,409.76,408.86,407.94,407.03,406.11,405.22,404.35,403.43,402.50,401.67,400.97,400.39,399.73,399.03,398.38,397.74,397.05,396.38,395.75,395.25,394.91,394.32,393.77,393.30,392.88,392.46,392.34,392.41,392.56,392.72,392.88,392.99,392.92,392.61,392.30,392.00,391.72,391.49,391.25,391.01,390.78,390.44,389.84,389.08,387.14,384.74,383.02,384.10,385.99,387.68,388.81,389.09,388.72,388.57,388.71,389.00,389.24,389.30,389.21,389.02,388.85,388.63,388.44,388.26,388.02,387.72,387.23,386.67,386.12,385.52,384.96,384.43,383.85,383.19,382.68,382.29,381.95,381.62,381.25,380.93,380.68,380.47,380.15,379.82,379.61,379.47,379.38,379.31,379.33,379.53,379.98,380.57,381.12,381.55,381.75,381.45,381.07,380.73,380.28,378.20,369.75,364.26,360.36,357.08,354.32,351.86,351.83,352.94,353.02,353.04,353.85,355.14,356.84,359.50,364.40,368.59,371.13,372.12,372.95,373.70,374.06,373.67,372.85,372.07,371.44,370.92,370.28,369.48,368.59,367.70,366.93,366.65,366.66,366.81,367.09,367.59,368.18,368.81,368.64,365.71,361.18,359.07,358.49,357.93,357.32,356.76,356.18,355.68,355.61,355.85,356.21,356.62,357.06,357.49,357.63,357.64,357.57,357.31,357.01,356.71,356.41,356.12,355.88,355.34,354.52,353.53,352.56,351.60,350.82,350.33,350.05,349.97,349.97,349.99,350.04,350.27,350.81,351.55,352.51,353.90,355.34,356.75,358.45,361.43,366.80,369.23,369.56,369.75,370.01,369.98,369.62,369.11,368.94,368.84,368.64,368.36,368.08,367.84,367.69,367.71,367.95,368.25,368.45,368.61,368.75,368.90,368.99,368.98,368.89,368.79,368.58,368.35,368.11,367.87,367.57,367.32,367.09,366.85,366.62,366.32,366.06,365.83,365.60,365.36,365.08,364.81,364.57,364.34,364.15,364.07,364.06,364.08,364.14,364.17,364.20,364.27,364.37,364.66
424.98,424.13,423.28,422.44,421.62,420.79,420.00,419.28,418.50,417.59,416.55,415.48,414.60,413.74,412.88,412.05,411.23,410.38,409.57,408.73,407.85,406.96,406.04,405.13,404.24,403.36,402.47,401.73,401.08,400.48,399.79,399.02,398.31,397.65,397.06,396.60,396.19,395.78,395.35,394.75,394.16,393.63,393.18,392.87,392.87,393.00,393.15,393.31,393.50,393.53,393.38,393.07,392.76,392.48,392.24,392.00,391.77,391.50,391.25,390.90,390.35,389.80,388.02,385.62,383.70,384.51,386.50,388.39,389.66,389.88,389.61,389.40,389.44,389.72,389.87,389.84,389.68,389.45,389.25,389.03,388.82,388.57,388.19,387.76,387.19,386.61,386.06,385.44,384.89,384.35,383.81,383.30,382.90,382.57,382.27,381.95,381.57,381.31,381.12,380.93,380.63,380.39,380.35,380.41,380.44,380.38,380.36,380.49,380.82,381.30,381.79,382.06,382.03,381.63,381.24,380.85,380.33,377.93,367.88,362.11,358.61,355.79,353.26,353.42,355.30,357.22,357.56,357.78,359.02,360.74,362.56,364.37,367.60,370.23,371.81,372.85,373.78,374.28,374.19,373.38,372.38,371.59,370.94,370.39,369.80,369.04,368.18,367.47,367.20,367.26,367.51,367.81,368.13,368.68,369.32,369.97,370.10,368.12,362.10,359.27,358.68,358.13,357.52,356.92,356.34,355.87,355.75,356.02,356.44,356.92,357.38,357.89,358.12,358.19,358.20,358.23,358.06,357.80,357.50,357.25,357.16,356.64,355.79,354.87,354.11,353.36,352.62,351.90,351.35,351.10,351.10,351.25,351.43,351.64,352.15,352.93,353.95,355.18,356.60,358.22,360.79,365.82,369.21,370.40,370.47,370.42,370.33,370.17,369.85,369.46,369.25,369.08,368.86,368.58,368.28,368.00,367.78,367.70,367.82,368.03,368.20,368.35,368.50,368.65,368.75,368.73,368.64,368.56,368.43,368.22,367.98,367.74,367.44,367.19,366.96,366.73,366.49,366.19,365.93,365.70,365.48,365.28,365.07,364.88,364.73,364.54,364.35,364.32,364.37,364.34,364.41,364.46,364.50,364.54,364.63,364.92
425.24,424.40,423.54,422.70,421.91,421.07,420.23,419.38,418.48,417.43,416.32,415.25,414.39,413.53,412.64,411.77,410.97,410.13,409.33,408.54,407.70,406.86,405.97,405.05,404.14,403.30,402.49,401.81,401.20,400.59,399.91,399.07,398.32,397.73,397.27,397.00,396.75,396.38,395.82,395.21,394.60,394.00,393.50,393.33,393.42,393.58,393.74,393.91,394.11,394.05,393.83,393.52,393.23,392.99,392.75,392.52,392.28,391.99,391.61,391.10,390.43,389.74,388.04,385.88,384.22,385.03,387.05,388.97,390.24,390.47,390.35,390.17,390.15,390.36,390.43,390.33,390.13,389.88,389.63,389.40,389.11,388.75,388.26,387.71,387.12,386.53,385.97,385.38,384.87,384.37,383.90,383.53,383.21,382.90,382.59,382.26,381.93,381.74,381.59,381.39,381.12,381.02,381.14,381.35,381.50,381.49,381.48,381.58,381.82,382.17,382.38,382.32,382.00,381.52,381.13,380.74,379.44,375.30,365.13,359.84,356.88,354.68,353.36,355.76,358.69,360.74,361.29,361.61,362.86,364.67,366.52,367.71,369.78,371.44,372.51,373.59,374.59,374.71,374.10,373.00,371.89,371.07,370.42,369.85,369.30,368.58,367.90,367.52,367.77,368.10,368.48,368.83,369.12,369.55,370.12,370.67,370.90,369.61,362.91,359.60,358.87,358.30,357.70,357.09,356.51,356.05,355.94,356.24,356.73,357.25,357.73,358.26,358.55,358.66,358.72,358.93,358.92,358.90,358.83,358.51,358.67,358.18,357.29,356.49,355.91,355.38,354.68,353.83,353.05,352.62,352.63,352.91,353.19,353.32,353.72,354.40,355.35,356.45,357.80,360.22,364.16,369.43,370.55,370.67,370.69,370.56,370.38,370.15,369.87,369.56,369.31,369.07,368.84,368.59,368.31,368.04,367.84,367.73,367.72,367.82,367.96,368.11,368.27,368.42,368.51,368.49,368.41,368.33,368.26,368.08,367.85,367.61,367.31,367.06,366.83,366.60,366.38,366.13,365.90,365.68,365.48,365.33,365.18,365.07,364.97,364.80,364.60,364.63,364.72,364.64,364.67,364.75,364.78,364.80,364.89,365.15
425.49,424.64,423.79,422.94,422.11,421.26,420.34,419.30,418.25,417.18,416.09,415.06,414.19,413.29,412.41,411.56,410.72,409.86,409.07,408.30,407.51,406.72,405.88,404.98,404.08,403.25,402.58,401.95,401.36,400.79,400.16,399.26,398.56,398.17,397.89,397.65,397.33,396.89,396.28,395.66,395.09,394.45,393.88,393.88,394.00,394.16,394.33,394.54,394.65,394.54,394.28,393.99,393.74,393.50,393.27,393.04,392.80,392.50,391.91,391.12,390.19,388.64,386.77,385.12,384.40,385.83,387.88,389.49,390.48,390.85,390.88,390.85,390.85,390.89,390.90,390.78,390.55,390.25,389.96,389.72,389.28,388.73,388.19,387.59,387.03,386.45,385.86,385.32,384.93,384.59,384.23,383.85,383.53,383.23,382.89,382.55,382.35,382.24,382.08,381.86,381.66,381.81,382.04,382.27,382.48,382.61,382.65,382.71,382.90,383.15,382.65,382.02,381.45,380.88,380.50,380.16,377.03,369.14,361.78,358.14,355.68,354.22,356.11,358.86,360.78,361.89,362.59,363.06,364.07,365.66,367.68,369.45,370.96,372.21,373.30,374.36,375.31,374.90,373.76,372.60,371.39,370.48,369.85,369.40,368.85,368.18,367.91,368.05,368.52,368.97,369.43,369.84,370.20,370.54,370.90,371.24,371.30,369.89,363.73,360.24,359.04,358.44,357.88,357.29,356.70,356.26,356.20,356.55,357.05,357.59,358.11,358.65,358.97,359.13,359.20,359.26,359.41,360.04,360.64,360.02,360.55,360.13,359.20,358.59,358.03,357.47,356.74,355.81,354.94,354.41,354.44,354.78,355.06,355.06,355.37,355.93,356.69,357.84,359.12,363.42,369.20,370.59,370.95,370.90,370.71,370.49,370.21,369.92,369.58,369.22,368.93,368.68,368.45,368.22,368.00,367.87,367.86,367.82,367.71,367.66,367.77,367.92,368.07,368.22,368.31,368.29,368.22,368.14,368.06,367.92,367.73,367.48,367.18,366.93,366.71,366.49,366.33,366.21,366.06,365.90,365.75,365.65,365.51,365.39,365.28,365.07,364.95,365.05,365.15,365.02,364.96,365.00,365.05,365.06,365.15,365.41
425.37,424.46,423.56,422.75,421.94,421.16,420.26,419.17,418.02,416.91,415.85,414.85,413.96,413.07,412.18,411.31,410.45,409.56,408.79,408.05,407.27,406.50,405.69,404.86,404.04,403.33,402.74,402.18,401.64,401.10,400.51,399.82,399.20,398.77,398.57,398.31,397.89,397.35,396.72,396.03,395.40,394.78,394.31,394.40,394.57,394.75,394.91,395.09,395.15,395.00,394.74,394.44,394.16,393.92,393.67,393.41,393.16,392.77,392.05,391.15,390.05,388.05,386.30,385.51,386.01,387.42,388.94,390.04,390.72,391.12,391.38,391.46,391.46,391.45,391.37,391.14,390.83,390.48,390.13,389.75,389.22,388.63,388.08,387.46,386.91,386.42,386.00,385.62,385.26,384.92,384.56,384.18,383.86,383.52,383.19,382.92,382.83,382.75,382.60,382.41,382.43,382.66,382.93,383.19,383.42,383.61,383.73,383.62,383.28,383.00,382.24,381.44,380.63,379.60,378.34,376.00,371.64,365.01,359.89,357.02,355.19,354.88,358.36,360.60,361.95,362.90,363.79,364.45,365.28,366.68,368.66,370.36,371.72,372.93,374.08,375.13,375.58,374.84,373.56,372.31,371.00,370.10,369.49,369.05,368.57,368.34,368.42,368.76,369.27,369.85,370.37,370.84,371.25,371.60,371.86,371.82,371.39,370.06,365.29,361.35,359.15,358.57,357.99,357.38,356.80,356.43,356.69,357.05,357.48,357.95,358.46,359.00,359.34,359.62,359.96,360.59,360.82,362.41,364.72,365.10,365.53,365.08,364.08,362.96,361.76,360.23,358.73,357.47,356.50,356.09,356.25,356.67,356.93,356.90,357.09,357.52,358.48,360.86,363.82,367.48,370.78,371.17,371.03,370.78,370.50,370.22,369.88,369.59,369.25,368.85,368.54,368.33,368.20,368.14,368.12,368.14,368.13,368.05,367.89,367.78,367.75,367.76,367.84,368.02,368.12,368.10,368.02,367.94,367.87,367.76,367.61,367.42,367.23,367.04,366.87,366.71,366.57,366.44,366.33,366.20,366.05,365.93,365.81,365.68,365.50,365.25,365.24,365.42,365.57,365.45,365.30,365.28,365.32,365.36,365.41,365.63
425.11,424.13,423.17,422.37,421.57,420.81,419.97,418.94,417.77,416.67,415.63,414.63,413.72,412.86,411.96,411.06,410.20,409.27,408.50,407.77,407.00,406.27,405.55,404.83,404.15,403.56,403.01,402.52,402.01,401.48,400.95,400.47,399.94,399.44,399.27,398.94,398.39,397.75,397.10,396.35,395.63,395.07,394.79,394.92,395.13,395.32,395.49,395.63,395.63,395.44,395.18,394.88,394.58,394.33,394.05,393.74,393.42,392.90,392.12,391.19,390.03,387.87,386.36,386.41,387.96,389.06,389.95,390.58,391.03,391.42,391.85,392.02,392.02,391.94,391.74,391.38,390.97,390.57,390.18,389.66,389.08,388.50,387.96,387.40,386.89,386.51,386.27,386.01,385.65,385.26,384.88,384.51,384.19,383.83,383.52,383.36,383.33,383.26,383.13,383.06,383.30,383.53,383.80,384.06,384.28,384.48,384.53,384.14,383.28,382.48,381.61,380.61,379.38,377.72,375.50,371.32,366.38,362.02,358.67,356.27,355.16,356.13,360.10,361.76,362.80,363.83,364.87,365.72,366.47,367.70,369.54,371.01,372.35,373.63,374.85,375.86,375.72,374.72,373.40,372.08,370.72,369.88,369.30,368.84,368.49,368.69,369.05,369.49,370.06,370.76,371.36,371.87,372.29,372.63,372.66,372.16,371.22,369.78,366.12,362.04,359.21,358.66,358.06,357.44,356.86,356.58,357.21,357.65,358.01,358.40,358.87,359.39,359.86,360.37,361.10,362.28,362.78,365.11,368.63,369.90,370.15,369.75,368.83,367.39,365.80,363.48,361.18,359.30,358.03,357.74,358.10,358.70,359.11,359.26,359.52,360.14,361.58,364.67,368.61,370.87,371.29,371.44,370.95,370.52,370.21,369.88,369.49,369.21,368.89,368.51,368.30,368.17,368.16,368.25,368.40,368.51,368.44,368.29,368.13,367.99,367.84,367.72,367.69,367.84,367.91,367.89,367.83,367.77,367.71,367.65,367.56,367.46,367.37,367.25,367.13,367.03,366.88,366.73,366.62,366.51,366.37,366.21,366.10,365.93,365.69,365.43,365.52,365.77,365.96,365.88,365.68,365.60,365.61,365.66,365.69,365.86
424.81,423.78,422.74,421.79,420.88,420.00,419.18,418.44,417.53,416.48,415.40,414.39,413.52,412.67,411.77,410.87,410.00,409.02,408.21,407.44,406.71,406.13,405.64,405.14,404.63,404.13,403.60,403.07,402.53,402.00,401.52,401.05,400.54,400.10,399.95,399.42,398.72,398.00,397.31,396.54,395.82,395.40,395.37,395.50,395.67,395.87,396.09,396.26,396.13,395.87,395.59,395.33,395.03,394.78,394.48,394.07,393.52,392.87,392.13,391.29,390.26,388.42,387.26,387.73,389.57,390.14,390.63,391.11,391.55,391.93,392.27,392.51,392.51,392.18,391.78,391.29,390.81,390.38,389.98,389.46,388.92,388.39,387.93,387.54,387.23,386.97,386.71,386.36,385.98,385.59,385.22,384.89,384.53,384.19,383.97,383.92,383.86,383.74,383.74,383.92,384.20,384.44,384.64,384.82,384.99,385.10,384.61,383.78,382.82,381.91,380.90,379.29,377.10,374.63,372.04,368.41,364.32,360.63,358.19,356.05,355.91,358.07,360.78,362.42,363.61,364.66,365.68,366.70,367.58,368.74,370.32,371.68,373.00,374.31,375.57,376.52,375.86,374.62,373.27,371.96,370.70,369.91,369.36,368.97,368.84,369.17,369.57,370.12,371.00,371.84,372.50,373.00,373.31,373.48,372.80,371.82,370.55,368.26,364.13,360.97,359.21,358.66,358.11,357.51,356.93,356.71,357.63,358.37,358.77,359.04,359.51,359.99,360.83,361.91,363.10,364.18,365.54,367.66,369.91,370.56,370.82,370.75,370.43,369.86,369.25,367.63,365.05,361.94,359.77,359.38,360.07,361.20,362.17,363.05,364.03,365.77,368.25,369.36,370.55,371.42,371.72,371.29,370.65,370.20,369.87,369.49,369.05,368.72,368.46,368.33,368.49,368.55,368.61,368.71,368.84,368.77,368.64,368.48,368.34,368.24,368.10,367.95,367.83,367.75,367.70,367.67,367.65,367.65,367.69,367.69,367.69,367.71,367.64,367.54,367.43,367.30,367.20,367.05,366.91,366.79,366.69,366.54,366.35,366.13,365.89,365.69,365.82,366.10,366.32,366.33,366.13,365.97,365.91,365.94,366.00,366.09
424.37,423.52,422.60,421.57,420.56,419.62,418.76,417.98,417.10,416.11,415.12,414.18,413.32,412.47,411.60,410.72,409.84,408.86,408.16,407.56,406.99,406.52,406.09,405.65,405.18,404.71,404.18,403.64,403.11,402.61,402.15,401.71,401.25,400.81,400.53,399.76,398.95,398.20,397.50,396.77,396.12,395.81,395.90,396.09,396.31,396.54,396.73,396.78,396.60,396.31,396.02,395.75,395.47,395.06,394.58,394.02,393.32,392.60,391.95,391.29,390.36,388.81,387.91,388.49,390.26,390.80,391.20,391.63,392.05,392.37,392.71,392.88,392.78,392.35,391.85,391.35,390.84,390.36,389.94,389.48,389.00,388.56,388.18,387.89,387.65,387.39,387.08,386.73,386.35,385.96,385.58,385.20,384.85,384.60,384.47,384.45,384.38,384.35,384.44,384.66,384.93,385.13,385.31,385.46,385.54,385.22,384.45,383.50,382.53,381.52,380.38,378.51,376.01,373.30,370.50,367.00,363.22,359.85,357.76,355.81,356.38,359.34,361.28,362.81,364.11,365.33,366.49,367.55,368.53,369.75,371.28,372.61,373.93,375.24,376.36,376.75,375.82,374.57,373.29,372.01,370.75,369.94,369.45,369.19,369.21,369.56,370.15,370.95,371.98,372.91,373.64,374.02,373.94,373.53,372.52,371.39,369.81,366.67,362.52,360.13,359.06,358.49,357.94,357.37,357.10,357.40,358.35,359.14,359.60,359.89,360.26,360.75,361.73,363.02,364.41,365.69,367.25,368.94,370.39,370.89,371.29,371.41,371.30,371.00,370.69,369.72,368.05,365.73,363.35,362.84,363.57,364.83,366.00,366.80,367.61,368.93,370.69,371.22,371.62,371.81,371.67,371.02,370.01,369.62,369.50,369.12,368.83,368.68,368.62,368.65,368.84,368.97,369.07,369.13,369.16,369.03,368.88,368.72,368.57,368.46,368.31,368.16,368.01,367.89,367.78,367.76,367.78,367.79,367.83,367.78,367.83,367.97,367.93,367.86,367.74,367.60,367.48,367.37,367.22,367.08,366.97,366.81,366.57,366.32,366.11,365.98,366.17,366.45,366.68,366.77,366.58,366.41,366.27,366.20,366.27,366.32
423.92,423.24,422.46,421.46,420.43,419.47,418.54,417.62,416.69,415.75,414.85,413.99,413.14,412.29,411.44,410.60,409.76,408.87,408.34,407.95,407.54,407.13,406.68,406.22,405.75,405.28,404.76,404.23,403.72,403.25,402.76,402.34,401.88,401.40,400.93,400.01,399.15,398.41,397.70,397.01,396.47,396.28,396.45,396.69,396.98,397.23,397.37,397.26,397.04,396.76,396.46,396.14,395.77,395.15,394.45,393.74,392.97,392.20,391.68,391.19,390.37,389.06,388.38,388.94,390.51,391.17,391.61,392.06,392.48,392.77,393.15,393.21,392.96,392.50,391.98,391.50,391.00,390.49,390.03,389.64,389.26,388.89,388.58,388.34,388.10,387.80,387.42,387.10,386.72,386.32,385.91,385.49,385.19,385.05,385.00,384.98,384.93,385.03,385.18,385.35,385.57,385.74,385.89,386.01,385.90,385.11,384.18,383.25,382.30,381.23,379.94,377.96,375.42,372.70,369.78,366.17,362.45,359.34,357.40,355.76,356.83,360.24,361.83,363.24,364.61,365.96,367.28,368.35,369.52,370.90,372.44,373.75,375.07,376.28,377.06,376.73,375.66,374.48,373.29,372.04,370.77,369.99,369.59,369.51,369.62,369.99,370.80,371.87,372.94,373.96,374.67,374.81,374.20,373.17,372.04,370.78,368.81,364.98,361.23,359.48,358.84,358.25,357.70,357.30,357.51,358.38,359.24,359.95,360.46,360.81,361.10,361.59,362.61,363.95,365.43,366.94,368.37,369.60,370.54,371.11,371.65,371.93,371.90,371.58,371.26,370.81,370.27,369.32,367.27,366.72,367.28,368.37,369.41,369.83,370.19,370.67,371.27,371.81,372.21,372.08,371.49,370.79,369.52,369.15,369.19,368.89,368.81,368.90,369.05,369.20,369.28,369.42,369.51,369.52,369.43,369.28,369.12,368.97,368.83,368.68,368.52,368.37,368.23,368.13,368.00,367.99,368.03,368.03,368.01,367.89,367.94,368.19,368.23,368.18,368.06,367.91,367.77,367.67,367.54,367.39,367.23,367.06,366.79,366.52,366.32,366.29,366.53,366.80,367.04,367.20,367.03,366.86,366.68,366.50,366.54,366.55
423.63,422.72,421.88,421.19,420.41,419.49,418.53,417.59,416.61,415.67,414.75,413.86,413.01,412.16,411.31,410.50,409.81,409.36,408.96,408.58,408.17,407.68,407.20,406.74,406.27,405.81,405.33,404.85,404.35,403.82,403.24,402.73,402.15,401.52,400.88,400.12,399.38,398.65,397.91,397.20,396.88,396.87,397.10,397.39,397.65,397.85,397.93,397.72,397.44,397.18,396.91,396.48,395.55,394.75,393.99,393.24,392.46,391.69,391.23,390.89,390.30,389.11,388.60,389.17,390.53,391.14,391.65,392.17,392.67,393.14,393.64,393.56,393.17,392.75,392.28,391.81,391.34,390.86,390.41,390.11,389.76,389.39,389.04,388.79,388.52,388.19,387.80,387.43,387.00,386.56,386.14,385.82,385.70,385.63,385.56,385.52,385.55,385.68,385.83,385.99,386.16,386.32,386.51,386.45,385.75,384.85,383.93,382.98,382.00,381.00,379.52,377.39,374.79,372.09,369.05,365.17,361.45,358.87,357.21,356.33,357.65,360.78,362.75,364.20,365.50,366.77,368.03,369.16,370.88,372.63,374.03,375.25,376.63,377.37,377.26,376.39,375.31,374.16,372.98,371.76,370.62,370.08,369.91,369.97,370.19,370.73,371.66,372.78,373.86,374.92,375.31,374.91,373.75,372.56,371.44,369.69,366.95,363.08,360.44,359.20,358.60,358.05,357.51,357.76,358.57,359.59,360.19,360.76,361.26,361.69,362.04,362.45,363.49,364.88,366.38,367.81,369.00,369.94,370.70,371.35,371.96,372.41,372.53,372.16,371.79,371.40,370.99,370.47,369.68,369.39,369.50,369.82,370.17,370.34,370.56,370.95,371.50,372.08,372.37,372.16,371.53,370.83,370.02,369.47,369.19,369.13,369.20,369.35,369.53,369.71,369.80,369.94,369.95,369.82,369.63,369.48,369.32,369.19,369.08,368.94,368.78,368.63,368.47,368.34,368.24,368.21,368.23,368.21,368.11,367.96,368.01,368.29,368.46,368.44,368.35,368.24,368.09,367.95,367.84,367.70,367.48,367.27,366.98,366.71,366.54,366.60,366.86,367.16,367.43,367.60,367.48,367.32,367.13,366.92,366.82,366.86
423.56,422.62,421.70,420.93,420.10,419.18,418.25,417.31,416.35,415.53,414.71,413.88,413.12,412.36,411.58,410.86,410.31,410.01,409.61,409.16,408.69,408.16,407.65,407.16,406.66,406.13,405.57,405.04,404.50,403.95,403.31,402.69,402.04,401.34,400.66,400.02,399.40,398.76,398.07,397.46,397.36,397.52,397.79,398.06,398.33,398.46,398.42,398.18,397.88,397.61,397.34,396.88,395.67,394.61,393.62,392.68,391.94,391.17,390.71,390.39,389.84,388.71,388.72,389.49,390.55,391.15,391.73,392.30,392.87,393.44,394.02,393.91,393.50,393.09,392.64,392.18,391.71,391.25,390.84,390.57,390.26,389.90,389.53,389.23,388.87,388.50,388.10,387.68,387.26,386.81,386.43,386.29,386.27,386.19,386.10,386.06,386.17,386.35,386.51,386.64,386.79,386.94,386.90,386.48,385.53,384.59,383.67,382.72,381.75,380.78,378.97,376.52,373.74,370.90,367.65,363.76,360.37,358.45,356.98,356.86,358.47,361.30,363.42,365.14,366.58,367.91,369.28,370.84,372.88,374.74,376.07,377.14,377.83,377.78,377.05,375.97,374.89,373.78,372.62,371.51,370.85,370.82,370.96,371.12,371.37,371.93,372.73,373.68,374.73,375.81,375.83,374.99,373.59,372.22,370.88,368.77,365.76,362.25,360.12,359.00,358.34,357.93,358.32,358.96,359.75,360.55,361.03,361.53,362.03,362.51,362.92,363.34,364.41,365.74,367.06,368.29,369.34,370.17,370.84,371.53,372.19,372.80,373.06,372.70,372.32,371.94,371.54,371.19,370.94,370.77,370.67,370.62,370.62,370.71,370.83,371.12,371.65,372.25,372.58,372.38,371.75,371.10,370.50,369.97,369.63,369.59,369.69,369.82,369.96,370.11,370.19,370.34,370.31,370.14,369.91,369.72,369.56,369.42,369.31,369.15,369.00,368.84,368.69,368.54,368.45,368.42,368.42,368.39,368.20,368.02,368.08,368.38,368.66,368.71,368.64,368.53,368.40,368.25,368.13,367.96,367.70,367.47,367.17,366.90,366.76,366.94,367.20,367.49,367.78,367.96,367.91,367.77,367.58,367.37,367.21,367.17
423.55,422.70,421.76,420.75,419.72,418.81,417.94,417.05,416.16,415.50,414.81,414.06,413.43,412.79,412.12,411.50,411.06,410.70,410.19,409.63,409.09,408.55,408.00,407.45,406.88,406.26,405.59,404.96,404.37,403.80,403.13,402.44,401.76,401.08,400.41,399.85,399.37,398.88,398.31,397.83,397.87,398.14,398.46,398.72,399.00,399.04,398.87,398.63,398.34,398.03,397.75,397.32,396.04,394.73,393.44,392.27,391.49,390.69,390.20,389.85,389.30,388.32,388.89,389.88,390.64,391.27,391.88,392.50,393.11,393.73,394.34,394.27,393.88,393.48,393.03,392.56,392.10,391.66,391.28,391.03,390.75,390.42,390.04,389.63,389.18,388.75,388.34,387.90,387.49,387.08,386.79,386.84,386.84,386.74,386.61,386.59,386.81,387.04,387.19,387.30,387.44,387.56,387.16,386.34,385.35,384.40,383.46,382.52,381.58,380.57,378.33,375.41,372.26,369.18,365.73,362.13,359.36,358.07,356.85,357.44,359.34,361.88,364.00,366.05,367.78,369.29,370.91,373.01,375.19,377.00,378.19,378.94,378.61,377.72,376.62,375.54,374.46,373.38,372.32,371.50,371.48,371.99,372.44,372.67,372.94,373.42,373.98,374.67,375.63,376.64,376.26,375.07,373.56,372.01,370.33,368.01,365.10,362.14,360.08,358.86,358.16,358.08,359.65,360.46,360.92,361.36,361.81,362.27,362.78,363.30,363.75,364.22,365.28,366.47,367.50,368.52,369.53,370.33,370.98,371.69,372.39,373.14,373.53,373.22,372.83,372.44,372.06,371.75,371.57,371.42,371.27,371.12,371.01,371.10,371.14,371.32,371.79,372.38,372.81,372.69,372.10,371.49,370.96,370.56,370.30,370.17,370.21,370.28,370.36,370.45,370.53,370.66,370.63,370.45,370.22,369.99,369.81,369.66,369.50,369.36,369.20,369.05,368.89,368.75,368.65,368.62,368.62,368.55,368.28,368.09,368.14,368.46,368.82,368.97,368.94,368.81,368.71,368.57,368.41,368.19,367.90,367.66,367.37,367.11,367.01,367.29,367.54,367.82,368.11,368.31,368.34,368.22,368.03,367.82,367.66,367.51
423.16,422.44,421.66,420.83,419.93,419.10,418.34,417.63,416.92,416.17,415.40,414.67,414.04,413.38,412.73,412.19,411.80,411.24,410.52,409.84,409.25,408.65,408.05,407.43,406.79,406.16,405.48,404.84,404.23,403.62,402.98,402.30,401.66,401.07,400.50,399.99,399.66,399.38,399.02,398.62,398.38,398.49,398.95,399.34,399.57,399.54,399.31,399.03,398.77,398.48,398.20,397.78,396.53,395.17,393.83,392.55,391.38,390.40,389.89,389.66,389.48,389.16,389.59,390.31,391.01,391.63,392.25,392.87,393.49,394.10,394.72,394.66,394.25,393.82,393.41,392.96,392.49,392.06,391.73,391.48,391.24,390.96,390.58,389.96,389.44,388.99,388.56,388.14,387.71,387.44,387.36,387.42,387.44,387.29,387.13,387.13,387.49,387.71,387.87,387.99,388.07,388.00,387.45,386.55,385.50,384.51,383.49,382.48,381.50,380.43,377.76,374.04,370.01,366.66,363.23,360.62,358.83,357.79,357.25,358.51,360.54,362.79,364.98,367.04,368.96,370.84,372.83,375.04,377.26,378.86,379.43,379.30,378.50,377.43,376.29,375.20,374.12,373.04,372.32,372.34,372.80,373.45,373.95,374.24,374.54,374.99,375.50,376.07,376.71,377.40,376.56,375.00,373.31,371.60,369.69,367.40,364.83,362.29,360.19,358.85,358.45,359.22,360.65,361.37,361.80,362.19,362.60,363.05,363.56,364.08,364.54,365.00,365.81,366.77,367.73,368.73,369.69,370.49,371.19,371.99,372.75,373.55,374.00,373.72,373.30,372.90,372.59,372.38,372.22,372.07,371.91,371.76,371.62,371.54,371.52,371.62,371.92,372.46,372.93,372.93,372.48,371.89,371.52,371.21,370.93,370.74,370.64,370.64,370.71,370.83,370.91,371.01,370.93,370.71,370.49,370.25,370.08,369.90,369.71,369.60,369.45,369.31,369.15,369.00,368.86,368.85,368.83,368.64,368.35,368.15,368.21,368.52,368.85,369.15,369.22,369.12,368.98,368.83,368.64,368.39,368.09,367.86,367.56,367.35,367.32,367.62,367.86,368.14,368.44,368.70,368.78,368.64,368.44,368.27,368.11,367.91
423.04,422.37,421.66,420.91,420.22,419.63,419.02,418.34,417.62,416.83,416.05,415.31,414.66,414.00,413.40,412.85,412.32,411.59,410.77,410.00,409.34,408.75,408.13,407.49,406.82,406.15,405.48,404.85,404.23,403.62,403.02,402.39,401.81,401.30,400.80,400.42,400.19,400.02,399.77,399.31,398.92,398.88,399.28,399.74,400.15,400.21,399.93,399.49,399.22,398.94,398.65,398.21,397.03,395.67,394.31,392.96,391.63,390.63,390.20,390.09,390.09,390.06,390.30,390.76,391.40,391.99,392.60,393.22,393.84,394.46,395.07,395.01,394.61,394.18,393.79,393.34,392.88,392.45,392.15,391.93,391.70,391.45,391.08,390.41,389.84,389.31,388.79,388.38,388.05,387.93,387.96,388.01,388.02,387.86,387.71,387.77,388.18,388.38,388.50,388.57,388.52,388.31,387.69,386.78,385.76,384.72,383.68,382.63,381.60,380.38,376.40,371.78,367.49,363.97,361.17,359.44,358.52,358.30,358.66,360.21,362.15,364.18,366.27,368.25,370.22,372.27,374.46,376.67,378.77,380.06,380.09,379.27,378.23,377.10,375.96,374.88,373.80,373.00,372.78,373.37,374.12,374.88,375.45,375.80,376.12,376.55,377.06,377.53,377.82,378.02,376.60,374.65,372.87,371.08,369.00,366.69,364.33,362.16,360.33,359.01,358.70,359.84,360.98,361.74,362.39,363.01,363.39,363.83,364.32,364.82,365.28,365.75,366.37,367.14,368.07,369.06,369.98,370.79,371.54,372.38,373.17,373.99,374.47,374.21,373.79,373.43,373.18,373.03,372.87,372.72,372.56,372.41,372.25,372.10,372.01,372.00,372.13,372.58,373.02,373.13,372.86,372.38,372.10,371.82,371.54,371.31,371.10,371.03,371.08,371.22,371.30,371.31,371.17,370.94,370.72,370.50,370.34,370.15,369.94,369.83,369.68,369.53,369.37,369.22,369.09,369.07,369.02,368.75,368.42,368.22,368.27,368.58,368.89,369.27,369.45,369.43,369.27,369.07,368.85,368.59,368.29,368.05,367.76,367.61,367.68,367.95,368.21,368.49,368.78,369.06,369.21,369.08,368.87,368.69,368.50,368.28
423.18,422.49,421.78,421.03,420.56,420.29,419.85,419.06,418.19,417.44,416.70,415.95,415.26,414.62,414.06,413.46,412.65,411.82,410.99,410.19,409.48,408.89,408.26,407.63,406.97,406.24,405.61,405.00,404.39,403.78,403.23,402.68,402.18,401.71,401.29,401.07,400.90,400.74,400.48,399.86,399.47,399.36,399.55,400.00,400.71,401.00,400.74,400.07,399.72,399.40,399.09,398.63,397.53,396.20,394.81,393.44,392.17,391.30,391.00,390.98,390.97,390.91,390.97,391.25,391.80,392.35,392.94,393.56,394.18,394.79,395.40,395.34,394.95,394.56,394.17,393.73,393.27,392.84,392.55,392.36,392.17,391.92,391.56,390.96,390.35,389.74,389.12,388.67,388.54,388.55,388.60,388.60,388.60,388.44,388.32,388.46,388.90,389.05,389.07,389.02,388.82,388.52,387.88,387.00,386.05,385.00,383.97,382.93,381.84,380.44,374.54,369.07,365.06,361.50,359.72,358.78,358.68,359.68,360.97,362.47,364.17,366.01,367.87,369.68,371.54,373.55,375.77,377.95,379.81,380.73,380.32,379.07,377.93,376.80,375.65,374.57,373.56,373.28,373.64,374.48,375.37,376.23,376.91,377.36,377.68,378.09,378.55,378.89,378.87,378.56,376.49,374.10,372.29,370.47,368.28,365.93,363.66,361.86,360.53,359.34,358.89,359.81,360.72,361.63,362.66,363.69,364.13,364.60,365.08,365.54,366.00,366.46,366.98,367.66,368.53,369.51,370.39,371.20,371.99,372.84,373.62,374.44,374.92,374.67,374.30,374.03,373.83,373.68,373.52,373.37,373.21,373.06,372.90,372.75,372.60,372.46,372.41,372.73,373.11,373.30,373.23,372.92,372.68,372.41,372.12,371.88,371.59,371.45,371.47,371.60,371.66,371.56,371.38,371.14,370.92,370.75,370.60,370.41,370.19,370.04,369.88,369.73,369.57,369.43,369.33,369.29,369.18,368.87,368.50,368.29,368.34,368.65,368.96,369.33,369.62,369.75,369.60,369.32,369.06,368.80,368.50,368.26,367.98,367.89,368.02,368.27,368.56,368.83,369.09,369.39,369.62,369.53,369.30,369.07,368.84,368.59
423.24,422.56,421.99,421.51,421.15,420.91,420.44,419.58,418.80,418.05,417.31,416.59,415.90,415.18,414.47,413.72,412.93,412.12,411.36,410.63,409.90,409.16,408.39,407.68,407.01,406.36,405.82,405.31,404.75,404.14,403.59,403.09,402.62,402.20,401.94,401.77,401.62,401.40,400.99,400.28,400.01,399.99,400.12,400.49,401.16,401.71,401.83,401.16,400.51,399.97,399.53,399.09,398.04,396.75,395.39,394.01,392.75,392.01,391.78,391.76,391.72,391.69,391.66,391.85,392.31,392.84,393.36,393.94,394.55,395.17,395.74,395.66,395.28,394.89,394.50,394.10,393.66,393.25,392.99,392.82,392.67,392.47,392.07,391.49,390.91,390.35,389.83,389.43,389.26,389.21,389.19,389.18,389.14,388.96,388.89,389.12,389.59,389.62,389.48,389.33,389.12,388.71,388.02,387.16,386.27,385.30,384.26,383.19,382.10,380.63,373.85,367.88,363.92,360.59,359.28,359.54,360.72,362.42,363.82,365.13,366.57,368.20,369.87,371.25,372.77,374.62,376.85,379.02,380.82,381.39,380.40,379.04,377.82,376.62,375.42,374.31,373.77,374.02,374.73,375.62,376.50,377.44,378.30,378.96,379.23,379.45,379.59,379.62,379.50,379.26,376.72,373.79,371.70,369.74,367.51,365.40,363.56,362.01,360.87,359.85,359.14,359.11,360.04,361.03,362.22,363.58,364.63,365.32,365.85,366.30,366.72,367.18,367.63,368.21,369.03,369.92,370.78,371.62,372.45,373.29,374.08,374.87,375.35,375.18,374.87,374.65,374.48,374.32,374.17,374.01,373.86,373.71,373.55,373.40,373.21,373.02,372.89,372.88,373.18,373.49,373.64,373.44,373.25,372.99,372.71,372.46,372.16,371.95,371.88,371.93,371.95,371.83,371.63,371.39,371.18,371.01,370.86,370.67,370.45,370.29,370.14,369.98,369.83,369.68,369.54,369.43,369.26,368.95,368.62,368.38,368.40,368.71,369.02,369.35,369.74,370.06,370.01,369.71,369.40,369.11,368.81,368.57,368.36,368.23,368.25,368.48,368.78,369.07,369.36,369.66,369.90,369.94,369.77,369.45,369.16,368.80
423.40,422.84,422.41,422.10,421.79,421.49,420.93,420.01,419.26,418.51,417.79,417.09,416.37,415.60,414.79,413.98,413.19,412.39,411.63,410.89,410.13,409.28,408.47,407.80,407.24,406.72,406.22,405.74,405.20,404.59,404.02,403.52,403.09,402.78,402.64,402.49,402.34,402.07,401.52,400.95,400.80,400.83,400.92,401.18,401.75,402.41,402.75,402.15,401.44,400.74,400.16,399.65,398.64,397.40,396.08,394.72,393.38,392.85,392.67,392.58,392.47,392.44,392.39,392.49,392.83,393.36,393.83,394.37,394.97,395.55,396.08,395.99,395.60,395.21,394.83,394.44,394.04,393.68,393.49,393.35,393.27,393.08,392.61,392.06,391.50,390.99,390.53,390.16,389.99,389.89,389.82,389.80,389.73,389.56,389.50,389.74,390.21,390.29,390.03,389.65,389.41,388.91,388.18,387.32,386.47,385.57,384.50,383.34,382.10,380.46,373.37,367.31,363.49,360.29,359.37,360.74,363.11,365.38,366.83,367.97,369.14,370.50,371.98,373.02,374.17,375.73,377.89,379.99,381.65,381.89,380.43,379.04,377.79,376.56,375.33,374.23,374.17,374.81,375.73,376.68,377.58,378.53,379.42,380.11,380.41,380.51,380.45,380.31,380.14,379.87,377.21,373.88,371.16,369.13,367.07,365.23,363.66,362.31,361.32,360.50,359.69,359.04,359.42,360.31,361.55,363.06,364.51,365.65,366.46,367.01,367.41,367.88,368.30,368.82,369.57,370.41,371.25,372.07,372.90,373.72,374.52,375.30,375.80,375.73,375.47,375.28,375.13,374.97,374.79,374.63,374.48,374.32,374.14,373.99,373.79,373.60,373.41,373.22,373.35,373.66,373.93,373.83,373.68,373.44,373.18,372.96,372.70,372.48,372.34,372.27,372.22,372.06,371.87,371.66,371.44,371.26,371.10,370.91,370.71,370.55,370.38,370.21,370.06,369.90,369.75,369.58,369.36,369.08,368.77,368.52,368.46,368.65,368.93,369.41,369.93,370.33,370.42,370.15,369.83,369.52,369.23,368.99,368.80,368.62,368.53,368.71,368.96,369.25,369.56,369.86,370.12,370.28,370.22,369.92,369.56,369.12
423.74,423.39,423.06,422.75,422.42,422.00,421.34,420.39,419.55,418.81,418.11,417.39,416.62,415.84,415.06,414.25,413.41,412.57,411.73,410.91,410.09,409.28,408.56,408.05,407.70,407.33,406.81,406.28,405.71,405.09,404.49,403.95,403.60,403.44,403.35,403.20,403.08,402.78,402.16,401.95,401.92,401.92,401.94,402.06,402.51,403.09,403.43,402.94,402.44,401.73,401.00,400.34,399.37,398.19,396.92,395.55,394.04,393.82,393.72,393.51,393.32,393.22,393.19,393.20,393.38,393.88,394.36,394.87,395.42,395.96,396.43,396.32,395.93,395.55,395.16,394.77,394.43,394.17,394.07,393.98,393.94,393.74,393.17,392.68,392.15,391.61,391.12,390.81,390.67,390.59,390.52,390.45,390.37,390.24,390.18,390.34,390.77,391.07,390.79,390.06,389.71,389.15,388.40,387.56,386.70,385.77,384.59,383.22,381.70,379.76,373.01,367.35,363.74,360.54,359.94,362.20,365.50,368.26,369.84,370.88,371.82,372.88,374.16,375.05,375.83,376.96,378.93,380.90,382.28,382.17,380.44,379.03,377.83,376.63,375.41,374.38,374.70,375.56,376.56,377.56,378.55,379.49,380.22,380.73,381.14,381.24,381.20,381.07,380.84,380.31,377.89,374.33,370.68,368.69,367.02,365.42,363.90,362.72,361.91,361.23,360.56,359.83,359.09,359.60,360.76,362.22,363.72,365.48,366.82,367.66,368.07,368.57,369.00,369.50,370.17,371.00,371.80,372.58,373.36,374.15,374.98,375.77,376.30,376.31,376.10,375.92,375.77,375.60,375.38,375.22,375.06,374.88,374.68,374.51,374.35,374.16,373.94,373.78,373.67,373.80,374.08,374.07,373.93,373.73,373.51,373.35,373.18,373.01,372.83,372.64,372.49,372.28,372.10,371.92,371.69,371.53,371.32,371.13,370.96,370.80,370.60,370.41,370.25,370.11,369.95,369.75,369.53,369.28,368.99,368.73,368.55,368.51,368.72,369.54,370.19,370.56,370.79,370.64,370.36,370.04,369.75,369.51,369.27,369.05,368.90,368.98,369.13,369.39,369.70,370.00,370.30,370.54,370.62,370.46,370.04,369.59
424.39,424.08,423.76,423.38,422.86,422.21,421.51,420.75,419.87,419.10,418.35,417.58,416.73,415.90,415.05,414.19,413.34,412.49,411.64,410.90,410.29,409.71,409.15,408.71,408.34,407.92,407.36,406.77,406.18,405.56,404.95,404.53,404.30,404.19,404.07,403.96,403.73,403.41,403.14,403.08,403.07,403.06,403.02,403.06,403.28,403.77,404.13,403.67,403.16,402.58,401.92,401.19,400.37,399.27,397.84,396.19,394.73,395.02,395.16,394.96,394.73,394.51,394.35,394.16,394.05,394.42,394.88,395.38,395.93,396.44,396.84,396.70,396.31,395.93,395.54,395.19,394.93,394.79,394.70,394.63,394.54,394.31,393.79,393.27,392.74,392.20,391.71,391.45,391.33,391.25,391.18,391.10,390.98,390.92,390.96,391.13,391.47,391.80,391.55,390.77,390.18,389.60,388.92,388.16,387.25,385.52,383.71,382.06,380.51,378.40,373.56,368.93,365.16,361.91,361.22,363.82,367.57,370.53,372.19,373.41,374.44,375.39,376.45,377.28,377.90,378.65,380.06,382.05,382.90,382.26,380.36,378.97,377.77,376.65,375.59,374.77,375.06,375.99,377.11,378.20,379.21,380.04,380.73,381.26,381.71,381.98,381.95,381.65,381.16,380.51,378.00,374.19,370.17,368.40,366.96,365.54,364.23,363.33,362.61,361.90,361.19,360.48,359.68,359.50,360.10,361.40,362.99,365.00,366.90,368.28,368.75,369.20,369.64,370.17,370.87,371.70,372.49,373.26,374.03,374.81,375.61,376.36,376.85,376.85,376.68,376.52,376.35,376.15,375.96,375.81,375.62,375.42,375.24,375.04,374.87,374.69,374.46,374.31,374.12,374.07,374.19,374.30,374.15,373.96,373.78,373.64,373.47,373.33,373.13,372.92,372.75,372.54,372.35,372.18,371.95,371.78,371.58,371.38,371.22,371.02,370.83,370.66,370.50,370.35,370.19,370.02,369.84,369.64,369.38,369.11,368.89,368.83,369.18,369.89,370.43,370.78,371.09,371.14,370.93,370.62,370.31,370.03,369.72,369.46,369.32,369.30,369.36,369.60,369.92,370.19,370.45,370.72,370.93,370.95,370.64,370.24
425.05,424.64,424.18,423.65,422.95,422.13,421.43,420.86,420.06,419.26,418.46,417.64,416.72,415.84,414.95,414.06,413.20,412.44,411.71,411.12,410.69,410.29,409.86,409.43,408.98,408.47,407.84,407.20,406.56,405.98,405.48,405.18,405.03,404.94,404.79,404.70,404.45,404.21,404.21,404.21,404.21,404.19,404.15,404.15,404.19,404.53,404.82,404.35,403.84,403.31,402.60,401.63,400.88,399.84,398.36,396.63,395.50,396.18,396.60,396.54,396.29,396.00,395.72,395.29,394.84,394.98,395.39,395.90,396.43,396.93,397.24,397.09,396.73,396.34,395.96,395.61,395.44,395.41,395.35,395.28,395.15,394.89,394.40,393.87,393.33,392.79,392.31,392.11,391.99,391.90,391.83,391.74,391.62,391.63,391.76,391.95,392.23,392.49,392.24,391.49,390.83,390.31,389.71,388.87,387.43,384.72,382.33,380.48,378.94,376.92,373.95,370.40,366.64,363.43,363.12,365.81,369.53,372.58,374.34,375.75,376.93,377.94,378.86,379.51,379.95,380.41,381.28,383.18,383.55,382.47,380.45,379.04,377.96,377.01,376.13,375.42,375.35,376.16,377.36,378.52,379.58,380.40,381.13,381.78,382.26,382.70,382.61,382.08,381.35,380.61,377.95,373.94,369.77,368.19,366.95,365.74,364.66,363.94,363.23,362.49,361.75,361.03,360.34,359.68,359.70,360.70,362.36,364.50,366.74,368.58,369.41,369.89,370.35,370.89,371.58,372.41,373.20,373.98,374.74,375.49,376.25,376.95,377.40,377.38,377.24,377.08,376.90,376.69,376.52,376.36,376.17,375.97,375.79,375.59,375.40,375.21,375.01,374.83,374.62,374.46,374.41,374.53,374.38,374.20,374.05,373.90,373.73,373.57,373.38,373.18,373.01,372.80,372.61,372.44,372.21,372.05,371.84,371.64,371.47,371.25,371.08,370.92,370.76,370.61,370.45,370.31,370.15,369.99,369.78,369.52,369.24,369.11,369.66,370.23,370.65,370.98,371.34,371.56,371.46,371.20,370.89,370.59,370.22,369.94,369.76,369.60,369.57,369.80,370.13,370.38,370.63,370.93,371.21,371.37,371.17,370.82
425.60,424.93,424.15,423.35,422.53,421.68,421.00,420.55,419.98,419.19,418.36,417.50,416.57,415.66,414.80,413.93,413.09,412.53,412.12,411.73,411.33,410.95,410.55,410.08,409.52,408.92,408.24,407.52,406.85,406.37,406.13,405.90,405.75,405.65,405.50,405.41,405.34,405.31,405.31,405.31,405.31,405.30,405.29,405.29,405.30,405.44,405.47,405.01,404.53,403.91,402.86,401.36,400.51,399.48,398.16,396.84,396.44,397.24,397.93,398.15,397.91,397.62,397.25,396.60,395.76,395.57,395.92,396.42,396.94,397.38,397.59,397.47,397.18,396.79,396.41,396.03,395.90,396.00,395.99,395.93,395.80,395.53,395.00,394.45,393.92,393.38,392.92,392.79,392.66,392.55,392.48,392.40,392.31,392.39,392.56,392.78,393.02,393.15,392.83,392.14,391.70,391.34,390.82,389.59,386.92,383.20,380.52,378.61,377.07,375.50,373.70,371.09,367.78,364.83,365.75,368.31,371.42,374.50,376.45,377.94,379.27,380.47,381.40,381.66,381.84,382.10,382.61,384.23,384.23,382.91,380.89,379.38,378.58,377.93,377.21,376.38,375.61,376.05,377.20,378.47,379.62,380.57,381.46,382.28,382.84,383.37,383.12,382.33,381.50,380.67,377.90,373.79,369.55,368.08,367.04,366.10,365.23,364.46,363.70,362.98,362.25,361.50,360.80,360.06,359.71,360.18,361.89,364.06,366.31,368.41,370.00,370.69,371.18,371.69,372.31,373.13,373.91,374.69,375.44,376.14,376.85,377.50,377.92,377.89,377.75,377.60,377.44,377.26,377.05,376.88,376.72,376.54,376.32,376.15,375.95,375.75,375.58,375.36,375.18,374.99,374.82,374.77,374.62,374.46,374.31,374.16,374.00,373.79,373.60,373.44,373.28,373.06,372.87,372.69,372.47,372.31,372.10,371.90,371.73,371.51,371.34,371.18,371.02,370.87,370.71,370.56,370.41,370.25,370.10,369.93,369.53,369.17,369.98,370.50,370.85,371.18,371.55,371.85,371.92,371.78,371.48,371.17,370.80,370.50,370.24,369.87,369.79,369.98,370.29,370.58,370.88,371.19,371.49,371.70,371.54,371.20
425.53,424.71,423.83,422.98,422.13,421.25,420.48,419.92,419.48,418.79,417.98,417.12,416.25,415.43,414.76,414.13,413.50,413.09,412.74,412.37,411.98,411.59,411.13,410.53,409.83,409.17,408.44,407.82,407.35,407.04,406.84,406.65,406.49,406.37,406.22,406.13,406.07,406.05,406.05,406.09,406.10,406.12,406.15,406.15,406.15,406.22,406.18,405.70,405.20,404.28,402.92,401.24,400.04,398.91,398.02,397.58,397.90,398.70,399.34,399.59,399.43,399.13,398.61,397.73,396.63,396.15,396.43,396.94,397.44,397.79,397.94,397.81,397.56,397.24,396.86,396.48,396.38,396.55,396.62,396.57,396.48,396.21,395.64,395.09,394.55,394.01,393.56,393.45,393.31,393.20,393.12,393.01,393.04,393.19,393.38,393.57,393.80,393.78,393.46,392.94,392.55,392.19,391.45,390.00,387.18,382.19,379.49,377.80,376.15,374.55,372.89,370.71,368.21,366.50,367.79,370.43,373.52,376.54,378.69,380.37,381.83,383.06,383.81,383.81,383.80,383.93,384.23,385.48,384.88,383.33,381.66,380.30,379.58,378.97,378.26,377.35,376.36,376.33,377.09,378.31,379.51,380.54,381.52,382.49,383.28,383.97,383.74,382.89,382.03,381.07,378.78,374.67,369.66,368.36,367.49,366.64,365.81,365.04,364.26,363.51,362.78,362.05,361.31,360.48,359.89,359.97,361.45,363.79,366.30,368.61,370.32,371.17,371.88,372.52,373.10,373.81,374.58,375.33,376.05,376.74,377.44,378.03,378.38,378.36,378.26,378.12,377.97,377.80,377.61,377.42,377.25,377.07,376.85,376.68,376.48,376.27,376.11,375.88,375.71,375.51,375.29,375.09,374.89,374.72,374.56,374.40,374.21,374.02,373.85,373.69,373.53,373.36,373.16,372.97,372.78,372.58,372.36,372.16,371.99,371.76,371.60,371.42,371.23,371.08,370.92,370.79,370.68,370.57,370.50,370.40,370.14,369.91,370.43,370.82,371.12,371.41,371.75,372.06,372.28,372.29,372.06,371.80,371.50,371.24,370.96,370.56,370.36,370.38,370.57,370.88,371.19,371.50,371.81,372.01,371.80,371.47
425.26,424.37,423.46,422.62,421.84,421.05,420.26,419.54,419.03,418.36,417.61,416.85,416.10,415.44,414.97,414.55,414.11,413.77,413.40,413.02,412.62,412.16,411.61,410.88,410.08,409.39,408.69,408.24,407.97,407.79,407.56,407.39,407.23,407.08,406.93,406.85,406.78,406.71,406.72,406.78,406.80,406.84,406.89,406.89,406.90,406.95,406.87,406.39,405.79,404.52,402.85,401.11,399.77,398.75,398.35,398.63,399.40,400.14,400.70,400.95,400.80,400.41,399.66,398.63,397.48,396.77,396.97,397.44,397.90,398.18,398.27,398.15,397.93,397.67,397.30,396.92,396.87,397.11,397.26,397.24,397.16,396.89,396.29,395.74,395.20,394.67,394.25,394.14,394.00,393.88,393.78,393.67,393.80,394.00,394.20,394.37,394.58,394.45,394.14,393.74,393.34,392.86,391.89,390.39,387.73,381.55,378.79,377.37,375.69,373.97,372.21,370.33,368.66,368.19,369.72,372.57,375.78,378.69,381.00,382.91,384.51,385.70,386.10,385.92,385.81,385.83,385.95,386.63,385.54,383.88,382.52,381.37,380.70,380.01,379.16,378.18,377.14,376.72,377.06,378.20,379.38,380.44,381.48,382.56,383.57,384.46,384.37,383.57,382.66,381.58,379.84,375.92,370.30,368.89,368.03,367.21,366.39,365.62,364.85,364.07,363.33,362.61,361.83,360.94,360.15,359.93,361.14,363.63,366.38,368.83,370.50,371.48,372.39,373.19,373.82,374.49,375.22,375.94,376.63,377.33,378.01,378.54,378.84,378.84,378.77,378.65,378.50,378.33,378.17,377.97,377.78,377.59,377.37,377.20,377.00,376.79,376.63,376.40,376.22,376.01,375.75,375.43,375.18,374.99,374.82,374.64,374.43,374.26,374.11,373.95,373.80,373.65,373.44,373.23,373.07,372.85,372.63,372.43,372.25,372.04,371.86,371.66,371.46,371.36,371.23,371.13,371.07,371.00,371.00,370.91,370.78,370.71,370.94,371.23,371.50,371.75,372.05,372.36,372.64,372.77,372.65,372.47,372.25,372.01,371.73,371.37,371.08,370.95,371.00,371.23,371.52,371.82,372.13,372.30,372.01,371.72
424.93,424.04,423.14,422.33,421.76,421.37,420.85,420.02,418.97,418.08,417.44,416.99,416.53,416.09,415.68,415.27,414.82,414.44,414.05,413.67,413.23,412.59,411.87,411.11,410.35,409.68,409.20,408.93,408.73,408.50,408.27,408.10,407.95,407.79,407.65,407.62,407.52,407.43,407.43,407.44,407.49,407.53,407.54,407.55,407.60,407.63,407.52,407.01,406.20,404.61,402.65,400.83,399.99,399.68,399.72,400.07,400.65,401.29,401.89,402.22,401.92,401.15,400.09,399.11,398.33,397.45,397.53,397.90,398.29,398.56,398.62,398.51,398.32,398.06,397.69,397.35,397.37,397.70,397.90,397.93,397.84,397.55,396.94,396.39,395.85,395.36,395.02,394.92,394.78,394.63,394.51,394.45,394.62,394.81,394.99,395.21,395.37,395.23,394.89,394.45,394.02,393.21,392.18,390.91,388.50,381.45,378.40,377.13,375.72,373.98,372.21,370.70,369.68,369.79,371.83,375.01,378.30,381.05,383.40,385.54,387.32,388.40,388.23,387.94,387.85,387.85,387.71,387.45,386.27,384.77,383.41,382.48,381.86,380.96,379.77,378.66,377.69,377.10,377.22,378.25,379.29,380.30,381.38,382.50,383.59,384.73,384.94,384.32,383.31,382.13,380.75,377.36,371.98,369.74,368.60,367.76,366.98,366.21,365.43,364.66,363.89,363.13,362.36,361.42,360.52,360.09,361.12,363.56,366.38,368.90,370.57,371.59,372.52,373.42,374.29,375.15,375.85,376.52,377.22,377.91,378.55,379.03,379.31,379.36,379.29,379.20,379.06,378.85,378.69,378.53,378.33,378.11,377.88,377.72,377.51,377.31,377.14,376.92,376.69,376.44,376.12,375.76,375.51,375.28,375.06,374.85,374.68,374.53,374.37,374.21,374.06,373.91,373.70,373.50,373.33,373.11,372.92,372.74,372.53,372.35,372.15,371.92,371.76,371.85,371.79,371.75,371.72,371.65,371.64,371.49,371.30,371.24,371.51,371.77,372.04,372.32,372.57,372.88,373.09,373.22,373.25,373.21,373.03,372.76,372.46,372.15,371.95,371.80,371.69,371.65,371.86,372.15,372.43,372.55,372.22,372.00
424.61,423.90,423.30,422.81,422.44,422.18,421.83,421.13,419.62,418.63,418.02,417.60,417.22,416.83,416.42,415.98,415.53,415.14,414.72,414.25,413.69,413.07,412.42,411.76,411.12,410.53,410.14,409.85,409.57,409.27,409.00,408.82,408.66,408.52,408.41,408.39,408.27,408.14,408.14,408.14,408.17,408.19,408.20,408.24,408.28,408.29,408.18,407.69,406.76,405.10,403.32,402.02,401.48,401.19,401.21,401.53,402.00,402.59,403.05,403.04,402.23,401.19,400.19,399.54,399.18,398.36,398.16,398.34,398.68,398.95,398.99,398.87,398.66,398.41,398.11,397.83,397.88,398.24,398.50,398.61,398.52,398.21,397.63,397.05,396.44,395.99,395.79,395.70,395.56,395.40,395.28,395.26,395.43,395.62,395.81,395.99,396.11,395.93,395.59,395.14,394.60,393.65,392.52,390.75,387.19,380.88,378.08,376.81,375.48,373.98,372.91,372.86,373.53,374.24,375.98,378.26,380.66,382.96,385.34,387.59,389.32,390.24,390.03,389.51,389.14,388.91,388.59,387.98,386.91,385.64,384.35,383.19,382.10,380.96,379.83,378.90,378.00,377.37,377.34,378.18,379.13,380.15,381.24,382.39,383.66,385.00,385.41,384.91,383.77,382.52,381.25,378.68,374.51,371.30,369.44,368.33,367.56,366.79,366.02,365.24,364.47,363.69,362.85,361.97,361.24,360.99,361.89,364.03,366.60,368.99,370.60,371.66,372.63,373.61,374.60,375.56,376.35,377.08,377.80,378.49,379.12,379.54,379.76,379.78,379.75,379.69,379.57,379.41,379.22,379.06,378.86,378.64,378.44,378.25,378.06,377.85,377.62,377.39,377.13,376.82,376.47,376.12,375.81,375.57,375.37,375.15,374.98,374.80,374.63,374.47,374.31,374.17,373.99,373.79,373.60,373.37,373.19,373.00,372.79,372.63,372.41,372.20,372.08,372.23,372.35,372.39,372.37,372.30,372.29,372.09,371.88,371.81,372.09,372.34,372.62,372.90,373.13,373.30,373.38,373.44,373.56,373.71,373.71,373.53,373.25,373.02,372.85,372.69,372.54,372.41,372.43,372.56,372.71,372.79,372.59,372.54
424.56,424.05,423.76,423.58,423.37,423.14,422.91,422.38,420.64,419.55,418.87,418.38,417.99,417.60,417.16,416.69,416.24,415.83,415.40,414.88,414.30,413.75,413.21,412.66,412.12,411.61,411.29,410.94,410.55,410.16,409.81,409.58,409.41,409.28,409.20,409.18,409.03,408.87,408.84,408.84,408.85,408.85,408.87,408.93,408.95,408.96,408.86,408.43,407.46,405.91,404.50,403.72,403.33,402.90,402.77,403.01,403.38,403.95,404.11,403.63,402.40,401.23,400.42,400.10,400.05,399.35,398.90,398.85,399.09,399.35,399.37,399.21,398.98,398.75,398.53,398.32,398.40,398.77,399.07,399.26,399.20,398.88,398.31,397.68,397.00,396.60,396.54,396.49,396.35,396.17,396.02,396.07,396.23,396.43,396.63,396.77,396.83,396.61,396.25,395.80,395.12,394.08,392.79,390.36,385.59,380.36,377.92,376.61,375.34,374.30,374.38,375.74,377.63,378.70,380.02,381.36,382.84,384.72,387.08,389.31,390.84,391.50,391.40,390.76,390.17,389.69,389.19,388.44,387.43,386.26,384.96,383.46,381.87,380.59,379.67,378.99,378.19,377.62,377.54,378.19,379.05,380.08,381.20,382.43,383.91,385.41,385.91,385.42,384.18,382.95,381.76,379.94,376.95,373.06,370.42,368.93,368.14,367.37,366.60,365.83,365.06,364.31,363.54,362.84,362.36,362.33,363.12,364.89,367.09,369.20,370.69,371.76,372.77,373.81,374.88,375.90,376.79,377.60,378.34,379.03,379.63,379.99,380.14,380.15,380.14,380.09,380.02,379.91,379.71,379.56,379.37,379.17,379.00,378.78,378.59,378.37,378.07,377.83,377.52,377.18,376.81,376.49,376.13,375.88,375.69,375.47,375.30,375.09,374.90,374.73,374.58,374.43,374.26,374.09,373.86,373.64,373.45,373.27,373.06,372.89,372.68,372.49,372.40,372.57,372.86,373.01,373.02,372.94,372.92,372.69,372.46,372.39,372.67,372.92,373.19,373.46,373.63,373.64,373.59,373.60,373.78,374.06,374.26,374.23,374.02,373.87,373.71,373.55,373.38,373.23,373.08,373.03,373.03,373.06,373.00,373.09
425.39,425.01,424.64,424.44,424.26,424.09,423.89,423.44,422.07,420.77,419.80,419.17,418.77,418.33,417.88,417.41,416.94,416.44,416.05,415.78,415.50,414.98,414.43,413.89,413.35,412.85,412.62,412.29,411.88,411.43,410.94,410.52,410.28,410.18,410.05,410.03,409.84,409.61,409.50,409.49,409.54,409.57,409.57,409.59,409.64,409.67,409.61,409.32,408.41,407.35,406.36,405.57,405.05,404.58,404.41,404.54,404.77,405.27,404.88,403.93,402.99,402.05,401.38,401.11,401.02,400.32,399.91,399.67,399.58,399.75,399.71,399.54,399.31,399.08,398.91,398.79,398.92,399.29,399.60,399.83,399.85,399.56,398.89,398.22,397.52,397.18,397.27,397.31,397.20,396.88,396.58,396.77,397.03,397.24,397.40,397.54,397.56,397.28,396.90,396.41,395.53,394.33,392.75,390.02,385.25,380.51,378.20,376.85,375.77,375.72,377.58,378.95,379.51,380.16,381.57,383.11,384.69,386.45,388.68,390.61,391.68,391.86,391.71,391.39,391.07,390.63,389.86,388.99,387.66,386.11,384.45,382.75,381.10,380.00,379.38,378.86,378.21,377.94,378.09,378.62,379.29,380.27,381.55,383.08,384.67,386.31,386.62,385.81,384.62,383.69,382.81,381.16,378.24,374.69,371.51,369.59,368.73,367.96,367.18,366.41,365.68,365.11,364.93,364.68,364.42,364.36,364.99,366.45,368.15,369.75,370.98,372.01,373.06,374.13,375.21,376.27,377.22,378.03,378.75,379.47,379.90,380.19,380.36,380.40,380.35,380.32,380.28,380.20,380.09,379.99,379.86,379.69,379.52,379.30,379.04,378.78,378.52,378.23,377.88,377.53,377.19,376.82,376.50,376.24,376.02,375.78,375.57,375.39,375.20,375.00,374.84,374.69,374.53,374.35,374.13,373.95,373.75,373.55,373.37,373.16,372.98,372.79,372.67,372.89,373.23,373.53,373.66,373.58,373.46,373.25,373.04,372.97,373.20,373.48,373.75,373.93,373.91,373.86,373.78,373.80,373.97,374.21,374.48,374.68,374.73,374.58,374.43,374.24,374.04,373.88,373.73,373.60,373.48,373.40,373.38,373.40
426.32,425.97,425.58,425.29,425.08,424.92,424.75,424.43,423.59,422.37,421.22,420.29,419.52,418.98,418.48,418.00,417.53,417.09,416.75,416.55,416.43,416.15,415.67,415.13,414.59,414.13,413.93,413.61,413.20,412.71,412.15,411.69,411.47,411.44,411.35,411.50,411.42,411.27,411.32,411.32,411.36,411.36,411.27,410.97,410.99,410.99,410.85,410.56,409.81,409.03,408.25,407.46,406.75,406.23,406.06,406.16,406.25,406.34,405.76,404.81,403.96,403.11,402.49,402.12,401.88,401.34,400.90,400.50,400.27,400.43,400.36,400.08,399.74,399.46,399.30,399.26,399.45,399.82,400.16,400.44,400.41,400.06,399.43,398.74,398.09,397.83,398.03,398.10,397.94,397.52,397.18,397.51,397.86,398.07,398.20,398.26,398.20,397.92,397.52,396.98,396.12,394.81,393.13,390.62,386.50,381.22,378.69,377.35,376.54,377.60,379.27,380.11,380.36,381.36,382.88,384.51,386.13,387.82,389.84,391.26,391.97,392.06,391.97,391.74,391.47,391.05,390.20,388.96,387.43,385.75,383.96,382.16,380.59,379.66,379.27,378.90,378.49,378.44,378.68,379.16,380.08,381.59,383.02,384.26,385.80,387.31,387.50,386.70,385.74,384.93,383.85,382.02,379.18,375.83,372.84,370.71,369.40,368.59,367.81,367.08,366.52,366.28,366.44,366.40,366.30,366.32,366.82,367.86,369.07,370.27,371.35,372.36,373.42,374.49,375.54,376.62,377.63,378.47,379.16,379.80,380.13,380.38,380.57,380.66,380.60,380.55,380.51,380.45,380.35,380.26,380.16,380.03,379.88,379.71,379.45,379.16,378.88,378.58,378.23,377.89,377.54,377.19,376.84,376.55,376.31,376.11,375.88,375.70,375.51,375.30,375.14,374.96,374.78,374.61,374.38,374.22,374.04,373.85,373.66,373.46,373.27,373.08,372.97,373.18,373.53,373.89,374.15,374.20,374.04,373.80,373.60,373.54,373.76,373.97,374.12,374.17,374.09,374.01,373.94,373.95,374.12,374.38,374.68,374.93,375.06,374.94,374.82,374.65,374.46,374.28,374.12,373.96,373.81,373.67,373.60,373.59
427.30,426.90,426.51,426.15,425.88,425.70,425.56,425.38,425.01,424.00,422.81,421.59,420.37,419.62,419.04,418.53,418.11,417.76,417.46,417.26,417.19,417.21,416.86,416.36,415.84,415.41,415.23,414.92,414.50,413.99,413.39,412.96,412.82,412.89,412.93,413.31,413.39,413.42,413.74,413.78,413.78,413.69,413.39,412.71,412.67,412.59,412.33,411.99,411.39,410.76,410.08,409.27,408.40,407.83,407.64,407.69,407.62,407.26,406.66,405.92,405.10,404.27,403.64,403.13,402.70,402.35,401.87,401.38,401.10,401.26,401.15,400.74,400.27,399.94,399.76,399.78,400.01,400.38,400.75,401.05,400.92,400.48,399.92,399.25,398.70,398.55,398.81,398.88,398.63,398.14,397.80,398.27,398.68,398.90,398.99,398.96,398.83,398.57,398.17,397.61,396.87,395.47,393.78,391.69,388.42,382.39,379.39,377.94,377.40,379.31,380.04,380.33,380.88,382.43,384.00,385.60,387.18,388.77,390.52,391.44,391.92,392.14,392.15,391.92,391.60,391.12,390.20,388.61,386.99,385.34,383.60,381.83,380.40,379.64,379.37,379.13,378.99,379.19,379.59,380.17,381.42,383.52,385.04,385.83,387.16,388.32,388.44,387.86,387.18,386.41,384.88,382.71,379.97,376.82,374.27,372.01,370.17,369.28,368.49,367.86,367.53,367.64,367.97,368.02,368.02,368.14,368.52,369.17,369.95,370.83,371.81,372.78,373.81,374.86,375.88,376.95,378.02,378.91,379.56,380.05,380.34,380.57,380.78,380.90,380.84,380.78,380.74,380.69,380.56,380.47,380.39,380.28,380.15,380.04,379.81,379.52,379.22,378.91,378.59,378.24,377.88,377.56,377.19,376.85,376.60,376.43,376.20,376.03,375.84,375.62,375.46,375.25,375.06,374.88,374.66,374.49,374.33,374.15,373.93,373.76,373.56,373.36,373.27,373.44,373.79,374.17,374.53,374.74,374.61,374.34,374.14,374.11,374.28,374.37,374.37,374.30,374.22,374.14,374.06,374.08,374.27,374.56,374.86,375.08,375.19,375.13,375.05,374.93,374.75,374.54,374.38,374.22,374.06,373.92,373.77,373.73
428.29,427.85,427.42,427.04,426.69,426.52,426.42,426.27,425.91,425.13,424.12,422.94,421.59,420.44,419.66,419.15,418.79,418.43,418.15,417.95,417.85,417.86,417.89,417.59,417.07,416.66,416.56,416.28,415.82,415.24,414.63,414.23,414.17,414.40,414.79,415.29,415.46,415.69,416.35,416.48,416.45,416.08,415.31,414.53,414.40,414.22,413.89,413.53,412.91,412.27,411.57,410.75,409.94,409.36,408.97,408.72,408.42,407.98,407.42,406.76,406.09,405.41,404.75,404.15,403.66,403.28,402.82,402.35,402.04,402.11,401.90,401.44,401.00,400.74,400.48,400.52,400.75,401.08,401.40,401.62,401.38,400.89,400.38,399.76,399.36,399.32,399.59,399.71,399.30,398.72,398.41,398.98,399.49,399.69,399.69,399.63,399.53,399.35,399.02,398.51,397.87,396.49,394.77,392.78,389.96,384.38,380.55,378.46,378.05,379.50,380.12,380.81,381.90,383.29,384.69,386.12,387.49,388.74,390.12,390.92,391.49,391.93,392.08,391.95,391.59,390.85,389.51,388.04,386.57,385.11,383.61,382.12,381.06,380.38,379.97,379.72,379.79,380.54,381.61,382.69,383.90,385.68,387.10,387.94,388.80,389.28,389.31,389.05,388.63,387.81,385.89,383.43,380.79,378.11,375.62,373.24,371.20,370.08,369.26,368.88,368.82,368.99,369.29,369.45,369.50,369.58,369.86,370.38,370.99,371.67,372.50,373.28,374.23,375.25,376.26,377.28,378.35,379.26,379.91,380.23,380.52,380.77,380.97,381.10,381.04,381.01,380.97,380.91,380.81,380.72,380.62,380.49,380.39,380.26,380.08,379.87,379.60,379.24,378.92,378.57,378.20,377.88,377.51,377.17,376.92,376.75,376.53,376.35,376.16,375.95,375.79,375.57,375.38,375.20,374.98,374.82,374.62,374.43,374.25,374.04,373.86,373.66,373.53,373.70,374.05,374.43,374.78,375.00,375.02,374.87,374.70,374.60,374.59,374.56,374.50,374.43,374.35,374.27,374.19,374.23,374.45,374.75,374.97,375.15,375.28,375.31,375.25,375.13,374.97,374.80,374.64,374.48,374.33,374.18,374.02,373.90
429.21,428.62,428.14,427.76,427.48,427.37,427.32,427.20,426.77,426.10,425.29,424.34,423.15,421.89,420.94,420.21,419.60,419.14,418.85,418.64,418.49,418.47,418.62,418.55,418.25,417.93,417.88,417.58,417.11,416.54,415.88,415.49,415.47,415.80,416.38,417.07,417.53,417.94,418.49,418.62,418.56,418.09,417.19,416.35,416.08,415.80,415.44,415.06,414.44,413.74,412.98,412.14,411.34,410.69,410.15,409.67,409.17,408.70,408.14,407.53,406.91,406.28,405.68,405.10,404.60,404.23,403.78,403.32,402.99,402.96,402.62,402.20,401.85,401.61,401.31,401.29,401.48,401.79,402.10,402.14,401.80,401.28,400.81,400.32,400.08,400.10,400.30,400.36,399.96,399.42,399.12,399.59,400.07,400.25,400.25,400.20,400.12,400.01,399.78,399.41,398.86,397.60,395.84,393.81,391.33,387.06,382.20,379.07,378.72,379.55,380.12,380.91,382.02,383.33,384.64,385.85,386.95,387.97,389.12,389.99,390.74,391.40,391.76,391.75,391.19,390.23,389.08,388.01,386.80,385.50,384.22,383.16,382.40,381.80,381.43,381.57,382.44,383.73,385.07,386.14,386.96,387.99,388.90,389.50,389.94,390.04,390.00,389.90,389.70,389.13,387.63,385.15,381.90,379.00,376.56,374.21,372.17,371.16,370.32,369.86,369.72,369.84,370.04,370.16,370.31,370.55,370.91,371.42,371.95,372.53,373.18,373.82,374.71,375.69,376.65,377.68,378.73,379.57,380.13,380.37,380.67,380.94,381.17,381.29,381.27,381.25,381.21,381.15,381.06,380.96,380.83,380.69,380.57,380.45,380.31,380.14,379.91,379.59,379.26,378.91,378.56,378.22,377.83,377.50,377.23,377.05,376.84,376.68,376.49,376.27,376.11,375.89,375.70,375.53,375.31,375.14,374.93,374.73,374.56,374.34,374.17,373.98,373.81,373.90,374.26,374.64,374.95,375.17,375.29,375.25,375.12,374.97,374.84,374.75,374.67,374.60,374.52,374.44,374.36,374.41,374.65,374.92,375.10,375.25,375.40,375.49,375.44,375.32,375.19,375.08,374.93,374.76,374.59,374.44,374.28,374.13
