771.46,771.15,768.58,764.53,760.25,755.05,749.56,744.18,738.63,733.38,726.76,718.51,709.59,702.54,696.78,691.70,686.99,682.58,677.71,672.72,667.92,663.68,659.01,653.85,648.87,645.01,641.27,639.22,637.93,636.77,636.04,635.54,635.02,634.48,633.93,632.65,630.65,628.10,625.11,622.18,619.59,617.36,615.48,613.86,613.64,613.70,613.88,614.61,615.59,615.97,616.63,618.45,621.35,624.70,628.11,631.74,636.44,642.76,648.70,652.31,651.98,651.15,652.51,654.85,656.55,655.04,652.57,650.99,651.12,653.85,657.97,665.00,673.83,683.22,691.14,696.09,698.04,696.40,689.89,681.68,675.30,670.90,667.74,664.17,660.94,658.55,657.07,655.58,653.63,650.37,645.90,640.62,634.28,629.51,626.20,623.94,622.00,620.06,617.89,615.56,613.38,610.84,607.82,604.63,601.65,599.02,597.12,595.79,594.85,593.92,592.99,592.02,591.03,590.11,589.56,591.19,594.14,597.52,600.77,603.47,603.71,601.25,597.76,592.27,587.55,584.18,582.01,579.95,577.76,575.29,572.28,568.37,562.85,559.09,557.26,555.51,553.78,554.10,555.44,556.58,557.46,558.44,559.05,559.18,559.23,559.22,559.24,559.40,559.97,561.52,563.30,565.16,567.11,569.22,571.96,574.93,578.10,581.56,583.46,583.68,582.99,582.14,582.02,582.91,584.24,585.58,586.39,586.80,587.21,587.48,587.39,588.17,590.79,594.85,600.08,605.96,612.46,618.21,622.87,626.36,627.65,626.45,623.83,620.79,618.23,618.18,619.50,621.02,620.98,619.50,617.35,615.80,616.41,617.35,618.75,620.43,622.60,626.15,631.21,636.97,642.61,646.91,651.04,655.22,659.09,662.21,665.18,667.66,670.31,673.74,678.62,682.98,686.47,688.75,689.08,687.85,683.73,678.27,672.86,668.47,664.78,661.50,658.80,657.42,658.09,659.74,661.29,661.71,660.61,657.62,654.00,650.54,648.08,647.17,645.52,641.29,633.04,629.12,626.11,622.85,619.19,615.84,612.49,609.05,605.41,601.22,595.24,589.10,583.51,578.81,574.35,570.59,567.42,564.80,562.58,560.57
773.72,772.38,769.01,765.02,760.95,755.71,749.90,744.03,738.41,733.32,727.04,719.11,710.11,702.86,696.99,691.82,686.92,682.24,677.39,672.58,667.94,663.48,658.73,653.77,649.04,645.20,641.51,639.47,638.37,637.65,637.26,636.97,636.58,635.99,634.98,633.05,630.73,628.13,625.19,622.29,619.60,617.51,616.18,615.30,615.79,616.53,617.22,617.93,618.45,618.78,619.63,621.63,624.52,627.92,631.42,635.28,640.45,647.18,653.24,657.25,658.11,658.09,659.59,661.69,663.06,661.53,658.54,656.55,656.49,659.00,662.70,669.21,677.48,686.45,694.72,699.67,701.67,700.35,694.53,687.73,682.81,679.58,676.99,673.16,669.52,666.29,663.53,661.15,658.84,655.26,650.13,643.53,636.86,631.81,628.30,626.06,624.17,622.34,620.42,618.37,616.17,613.57,610.36,606.83,603.41,600.49,598.57,597.42,596.74,595.87,594.98,594.02,593.04,592.17,591.76,593.56,596.40,599.21,602.39,604.46,603.97,601.02,597.61,593.16,589.77,587.62,586.21,584.00,581.33,578.39,575.07,570.99,565.16,560.65,558.01,556.31,554.67,555.19,556.77,558.13,559.04,559.75,560.18,560.35,560.56,560.72,560.85,561.10,561.84,563.60,565.66,567.79,569.94,572.08,574.73,577.86,581.46,585.41,587.53,587.81,587.03,585.89,585.57,586.37,587.72,589.22,590.26,590.77,590.92,590.81,590.61,591.30,593.62,596.64,600.28,606.00,612.08,617.78,622.90,627.18,629.89,629.76,627.93,625.58,623.30,623.47,625.07,626.74,625.92,624.08,621.76,620.12,620.61,621.00,622.01,623.20,624.51,627.10,630.86,635.63,640.89,645.68,650.62,655.67,660.63,665.18,669.23,672.63,675.93,679.73,684.84,689.37,692.25,693.18,691.83,689.63,684.42,677.67,671.01,666.18,661.92,657.57,653.48,651.05,651.11,652.47,654.19,655.43,655.43,654.01,650.33,644.59,639.91,638.83,637.64,634.01,626.56,623.34,621.33,619.26,616.79,614.37,611.37,608.09,604.63,600.80,595.03,589.42,584.50,580.26,576.05,572.15,568.87,566.28,564.00,561.90
774.94,772.59,768.53,764.36,760.05,754.55,748.39,742.22,736.85,731.91,726.08,718.84,710.25,702.95,696.99,691.73,686.69,681.72,676.96,672.42,668.01,663.42,658.75,654.32,650.16,646.29,642.57,640.46,639.48,639.18,638.99,638.65,638.18,637.40,635.79,633.27,630.68,628.06,625.24,622.41,619.83,618.10,617.43,617.27,618.06,619.13,620.11,620.75,621.05,621.70,623.09,625.50,628.52,631.92,635.48,639.51,645.01,651.95,658.10,662.61,664.86,665.58,667.13,668.85,669.73,668.43,665.11,662.81,662.44,664.28,667.14,672.83,680.43,689.20,698.42,703.36,705.13,704.03,699.53,694.27,690.81,688.66,686.37,682.47,678.41,674.24,670.02,666.39,663.46,659.64,654.15,646.48,639.78,634.65,630.90,628.41,626.38,624.55,622.81,620.99,618.71,616.04,612.62,608.79,605.13,602.15,600.33,599.29,598.71,597.85,596.98,596.04,595.08,594.29,594.08,595.87,598.43,600.83,604.08,605.29,604.08,600.99,597.86,594.51,592.58,591.74,590.90,588.42,585.11,581.43,577.50,573.21,567.55,562.49,558.88,557.16,555.63,556.26,557.98,559.53,560.59,561.10,561.40,561.67,562.07,562.42,562.65,563.00,563.94,565.65,567.88,570.30,572.73,575.01,577.62,580.98,585.09,589.44,591.75,592.08,591.22,589.94,589.51,590.23,591.61,593.26,594.57,595.12,595.02,594.61,594.42,595.16,597.15,599.11,601.16,606.57,612.21,617.75,623.06,627.79,631.52,632.78,632.30,630.88,629.29,629.65,631.20,632.49,630.54,628.03,625.76,624.48,625.00,624.69,625.13,625.83,626.62,628.58,631.25,634.73,639.04,644.07,649.35,654.80,660.47,666.28,671.28,675.67,680.05,684.84,690.36,695.01,697.17,696.69,693.79,691.05,685.14,677.31,669.32,663.93,658.99,653.75,648.69,645.48,644.63,645.32,646.89,648.80,649.68,649.49,645.84,638.34,631.44,629.99,629.20,626.68,621.36,618.65,617.10,615.76,614.21,612.56,610.06,607.17,604.17,601.02,596.05,590.98,586.25,581.87,577.63,573.57,570.12,567.38,564.79,562.20
773.52,770.46,765.88,761.44,756.76,751.13,744.88,738.63,733.69,728.70,723.45,717.40,709.65,702.77,696.83,691.42,686.25,681.17,676.72,672.50,668.35,664.23,660.05,655.89,651.79,647.80,644.15,642.42,641.78,641.53,641.25,640.67,639.86,638.62,636.36,633.58,630.81,628.11,625.43,622.75,620.64,619.40,619.08,619.22,619.92,620.77,621.59,622.34,623.47,625.12,627.37,630.34,633.97,637.28,640.55,644.28,649.46,656.58,663.02,668.22,671.80,672.97,674.57,676.13,676.81,675.58,672.60,670.05,668.81,669.53,671.37,675.58,682.55,692.29,701.75,707.34,709.46,708.87,706.68,701.60,698.43,696.78,694.65,691.14,685.88,680.36,675.25,670.12,666.39,662.70,657.60,649.48,643.20,638.32,634.41,631.39,628.84,626.89,625.02,623.03,620.96,618.41,614.81,610.72,607.05,604.32,602.72,601.72,600.95,599.94,599.01,598.08,597.14,596.31,596.01,597.29,599.54,602.29,605.57,606.08,604.40,601.36,598.53,596.26,595.91,596.44,595.85,592.65,588.55,583.84,578.68,574.02,568.83,563.83,559.81,557.99,556.64,557.34,558.96,560.40,561.75,562.44,562.84,563.18,563.67,564.22,564.53,564.94,566.01,567.40,569.77,572.54,575.26,577.69,580.81,584.70,589.23,593.87,596.40,596.61,595.68,594.71,594.53,595.24,596.50,598.09,599.54,599.82,599.58,599.25,599.17,599.56,600.40,601.34,602.84,606.99,611.99,617.44,622.93,627.67,631.76,634.97,636.63,636.34,636.98,638.24,639.10,638.66,635.74,631.98,629.52,628.75,629.38,628.98,628.60,628.54,629.16,631.12,633.56,635.91,638.60,643.02,648.02,653.30,658.90,664.89,670.70,675.89,681.26,687.12,693.06,697.82,699.64,698.63,695.37,691.95,685.87,677.55,668.33,662.02,656.18,650.90,646.37,642.69,639.90,639.07,639.88,641.60,641.89,641.11,637.88,631.56,624.01,622.28,622.13,621.16,618.03,615.76,614.13,612.77,611.37,609.57,607.93,606.32,604.45,601.73,597.61,592.49,587.18,582.45,578.04,573.94,570.22,566.92,563.79,560.84
769.96,766.81,762.57,758.40,753.92,747.98,741.63,735.82,731.00,726.02,720.99,715.46,708.33,702.41,696.61,690.89,685.55,680.46,675.92,671.81,668.05,664.54,660.94,656.93,652.75,648.97,646.18,645.18,644.90,644.53,643.78,642.63,641.16,639.21,636.35,633.23,630.41,627.89,625.54,623.15,621.54,620.88,621.09,621.44,622.07,622.80,623.47,624.06,625.24,627.08,630.01,634.24,638.50,641.61,644.32,647.54,652.80,659.75,666.38,672.30,677.17,679.57,682.33,684.59,685.28,683.63,680.30,676.97,674.62,674.30,675.40,678.53,684.74,694.54,704.07,709.94,712.60,712.82,711.68,708.02,705.21,703.14,700.55,697.12,691.09,684.79,679.28,673.66,668.97,664.92,660.28,653.11,646.42,641.48,637.68,634.52,631.63,629.20,626.97,624.83,622.66,620.15,616.57,612.57,609.22,606.77,605.29,604.25,603.31,602.24,601.20,600.14,599.07,598.13,597.87,599.17,601.57,604.59,607.47,607.80,606.12,603.14,600.36,598.84,599.15,599.89,598.76,594.90,589.90,584.36,578.68,574.02,569.47,565.06,561.25,558.98,557.61,558.11,559.48,560.79,562.20,563.23,564.03,564.67,565.25,565.89,566.33,566.85,567.99,569.50,571.96,574.90,577.98,580.99,584.50,588.79,593.69,598.46,601.07,601.39,600.79,600.41,600.20,600.77,601.86,603.10,603.79,603.96,603.90,603.80,603.76,603.74,603.65,603.86,604.91,607.44,611.76,616.99,622.44,627.32,632.06,636.60,639.90,641.18,643.04,644.59,644.82,643.04,639.01,634.94,632.68,632.12,632.45,632.03,631.47,631.68,633.20,635.34,637.14,638.55,640.25,643.85,648.38,653.84,659.80,665.87,671.69,676.92,682.45,688.55,694.56,699.19,700.95,699.98,696.78,692.88,686.51,678.03,668.40,660.99,655.42,650.99,646.86,641.69,637.20,634.57,633.93,635.02,635.14,634.04,631.18,626.23,620.13,617.96,617.41,616.73,614.58,612.70,611.12,609.53,607.67,605.54,604.53,603.91,603.01,600.85,597.08,592.05,586.73,582.08,577.76,573.67,569.72,565.91,562.36,558.67
765.12,762.30,758.85,755.19,751.21,745.11,738.80,733.58,728.71,723.69,718.68,713.33,706.87,702.01,696.24,690.09,684.69,679.63,674.86,670.74,667.42,664.49,661.44,657.63,653.51,650.24,648.60,648.34,648.29,647.61,646.18,644.22,641.93,639.28,635.98,632.55,629.78,627.54,625.57,623.55,622.54,622.54,623.29,623.80,624.40,625.05,625.59,625.85,626.60,628.17,631.60,637.22,642.05,645.21,647.75,650.75,655.92,662.25,668.81,675.36,681.50,685.57,689.87,693.02,693.79,691.82,688.09,683.87,680.30,679.02,679.68,682.01,687.28,696.40,705.77,711.68,715.10,716.44,715.58,713.64,711.18,708.36,705.03,701.38,694.93,688.26,682.60,676.96,671.32,666.69,662.46,656.85,649.45,644.32,640.74,637.62,634.50,631.44,628.72,626.34,623.92,621.38,617.95,614.29,611.49,609.31,607.89,606.78,605.71,604.63,603.49,602.26,601.00,599.98,599.91,601.48,604.15,607.32,609.62,610.00,608.63,605.94,603.21,602.06,602.14,602.07,599.93,595.51,589.81,583.82,578.26,573.97,570.13,566.52,563.11,560.22,558.57,558.71,559.75,560.95,562.33,563.70,564.97,566.02,566.71,567.40,568.01,568.74,570.01,571.80,574.30,577.36,580.88,584.68,588.57,593.14,598.25,602.98,605.61,606.23,606.18,606.40,606.16,606.55,607.34,608.04,607.72,607.87,608.14,608.34,608.28,607.87,607.09,606.75,607.27,608.21,611.72,616.51,621.75,626.87,632.38,637.76,642.25,645.17,647.67,649.25,648.97,646.21,641.27,637.42,635.52,634.97,634.83,634.42,634.01,634.91,637.65,640.08,641.29,642.12,643.37,646.20,650.25,656.02,662.50,668.57,674.05,678.95,684.13,689.89,695.68,699.95,701.69,701.03,698.03,693.75,687.22,678.90,669.41,660.87,656.04,652.63,648.62,641.83,635.89,631.55,629.22,629.31,629.38,628.17,625.64,621.95,618.10,615.48,614.04,612.95,611.10,609.57,608.10,606.26,603.69,600.74,600.04,600.20,600.13,598.57,594.92,590.17,585.27,580.95,576.87,572.83,568.67,564.44,560.56,556.10
759.57,757.38,754.63,751.31,747.86,742.63,736.99,731.85,726.72,721.46,716.35,711.37,706.38,701.87,695.39,688.63,683.63,678.66,673.84,669.87,666.89,664.13,661.28,658.15,655.05,652.75,651.62,651.42,651.06,649.70,647.47,644.38,641.35,638.52,635.43,632.02,629.36,627.27,625.40,623.83,623.84,624.56,625.47,626.16,626.79,627.37,627.70,627.52,627.67,628.98,632.50,638.50,643.65,648.18,652.74,657.16,660.62,665.14,670.89,677.67,685.03,690.86,695.67,698.71,699.45,698.52,695.83,691.41,686.74,684.68,685.42,687.09,690.99,698.47,706.99,712.98,717.72,720.81,719.87,718.03,715.67,712.71,708.86,704.44,697.99,691.38,685.49,679.49,673.38,668.35,664.20,659.57,652.13,647.05,643.58,640.35,636.99,633.47,630.12,627.10,624.47,621.86,618.75,615.74,613.63,611.59,610.23,609.13,608.05,606.96,605.83,604.58,603.29,602.29,602.82,604.43,606.88,609.89,611.84,612.07,611.25,609.73,607.84,606.14,604.31,601.95,598.46,593.71,588.30,583.03,578.54,575.36,572.25,569.01,565.61,562.20,559.68,559.26,560.06,561.21,562.63,564.07,565.49,566.78,567.74,568.57,569.50,570.72,572.42,574.18,576.55,579.87,584.19,588.55,593.15,597.87,602.55,606.84,609.55,610.83,611.36,611.66,612.07,612.24,612.33,612.32,611.95,612.08,612.58,613.07,612.98,612.38,611.33,610.46,610.13,610.17,612.45,616.23,621.00,626.41,632.46,638.10,643.06,647.13,650.21,652.08,651.60,648.37,643.67,640.13,638.37,637.74,637.28,636.87,636.58,637.61,640.47,643.28,645.13,646.47,647.99,650.82,654.65,660.48,667.03,672.89,678.43,683.07,687.62,692.54,697.69,701.14,702.56,701.96,698.98,694.40,688.39,680.95,671.94,662.51,657.86,654.26,649.63,642.89,636.09,630.86,627.37,625.71,625.29,624.06,621.80,618.78,615.94,613.22,611.14,609.55,607.98,606.60,605.20,603.43,600.48,594.92,593.82,594.57,595.25,594.07,590.71,586.71,582.63,578.66,574.92,570.91,566.60,562.14,558.02,553.49
754.14,752.49,750.26,747.28,744.17,739.76,734.76,729.67,724.35,718.93,713.90,709.39,705.36,701.23,694.60,687.63,682.80,677.92,673.22,669.40,666.63,664.10,661.73,659.41,657.33,655.92,655.08,654.23,652.95,650.91,648.13,644.36,640.86,637.88,634.98,631.87,629.24,627.06,625.36,624.75,625.46,626.53,627.54,628.42,629.16,629.71,629.92,629.52,629.25,630.17,633.24,638.87,644.54,650.46,656.43,661.75,665.15,668.89,674.20,680.85,688.09,693.88,698.32,701.07,702.14,702.80,701.24,697.75,693.74,691.58,691.83,693.25,696.39,702.05,708.94,714.85,720.97,726.32,726.96,725.32,722.48,718.67,713.61,707.67,700.99,694.39,688.18,681.84,675.48,670.22,666.00,661.83,655.22,649.91,645.95,642.70,639.32,635.34,631.36,627.84,625.25,622.78,620.09,617.55,615.70,613.79,612.54,611.49,610.39,609.30,608.16,606.89,605.56,604.66,605.82,607.54,609.66,612.22,614.04,614.33,613.83,612.78,610.99,608.72,605.75,602.25,598.38,594.06,589.32,584.70,580.67,577.58,574.47,571.13,567.62,564.12,561.11,560.17,560.64,561.79,563.15,564.55,566.00,567.39,568.53,569.52,570.68,572.17,574.12,575.95,578.36,582.07,587.30,592.66,597.64,602.23,606.58,610.78,613.50,615.11,616.07,616.69,617.51,617.58,617.23,616.76,616.54,616.70,617.29,617.87,617.75,617.10,615.95,614.74,613.73,612.94,613.79,616.31,620.41,626.09,632.06,637.76,643.21,648.27,651.78,654.25,654.15,651.07,646.97,643.98,642.30,641.37,640.54,640.01,639.62,640.43,643.06,646.08,648.71,651.04,653.42,656.54,660.24,665.63,671.74,677.43,682.90,687.53,691.86,696.15,700.25,703.04,703.59,702.17,699.07,694.34,688.62,681.89,673.89,665.09,660.13,655.92,650.80,644.01,636.60,630.77,626.54,623.69,622.09,620.58,618.63,616.20,613.84,610.78,608.18,606.26,604.94,603.65,602.08,599.76,595.98,590.16,588.31,588.50,589.09,588.22,585.57,582.51,579.29,575.73,572.31,568.25,563.87,559.43,555.30,551.32
748.85,747.56,745.70,743.04,740.16,736.42,732.00,727.02,721.64,716.18,711.42,707.45,703.91,700.15,693.85,687.10,682.27,677.48,673.00,669.36,666.72,664.54,662.83,661.32,660.06,659.31,658.53,656.62,654.12,651.42,648.24,644.19,640.46,637.36,634.58,631.88,629.27,626.99,625.63,626.21,627.31,628.47,629.61,630.62,631.50,632.11,632.30,631.90,631.40,631.84,634.03,638.71,644.95,652.00,658.61,664.28,668.80,672.67,677.82,683.96,690.04,694.54,698.10,700.60,702.34,704.71,704.53,702.95,700.88,699.18,698.59,699.90,702.70,706.80,711.83,717.49,724.72,732.21,735.31,734.14,730.66,725.63,718.95,711.18,704.01,697.27,690.70,684.06,677.60,672.23,667.89,663.85,658.57,652.94,648.12,644.76,641.38,636.99,632.57,628.84,626.46,624.24,621.93,619.69,617.76,615.96,614.85,613.88,612.76,611.68,610.50,609.16,607.81,607.07,608.74,610.63,612.49,614.45,616.23,616.74,616.38,615.18,612.91,610.03,606.69,603.14,599.65,596.28,592.31,588.08,583.94,580.14,576.47,572.75,569.09,565.81,562.73,561.36,561.47,562.63,563.88,565.18,566.56,567.96,569.18,570.36,571.65,573.21,575.16,577.12,579.76,583.97,590.13,596.64,601.76,606.16,610.42,614.85,617.70,619.51,620.79,621.77,622.63,622.66,622.11,621.39,621.35,621.60,622.19,622.73,622.57,621.93,620.75,619.29,617.73,616.19,615.67,616.89,620.18,625.78,631.23,636.88,642.82,648.68,652.73,656.08,656.85,654.50,651.23,648.93,647.22,645.81,644.56,643.78,643.10,643.48,645.67,648.84,652.23,655.68,659.18,662.72,666.37,671.05,676.49,682.18,687.51,692.26,696.58,700.38,703.23,705.14,704.39,701.64,698.28,693.45,687.68,681.38,674.65,667.63,662.18,657.22,651.82,644.92,637.23,631.04,626.39,622.89,619.82,617.73,615.87,613.86,611.56,608.04,604.98,602.85,601.66,600.40,598.56,595.47,590.86,586.53,583.76,582.61,582.47,581.77,579.81,577.66,575.29,572.30,569.10,565.01,560.64,556.40,552.55,549.50
743.47,742.08,740.50,738.13,735.50,732.34,728.53,723.94,718.90,713.55,709.20,705.89,702.64,698.67,692.95,686.96,682.26,677.57,673.37,670.02,667.68,666.04,664.69,663.52,662.52,661.68,660.40,657.89,654.70,651.19,647.55,643.34,639.65,636.68,633.95,631.31,629.12,627.53,626.90,627.84,629.12,630.60,632.11,632.89,633.88,634.62,634.99,634.97,634.52,634.34,635.40,638.78,644.96,652.07,658.66,664.28,669.07,673.33,678.03,682.99,687.62,691.44,694.62,697.38,700.01,703.18,705.88,707.04,706.83,705.89,705.00,705.39,707.57,711.79,716.60,721.79,728.60,735.88,739.22,738.98,736.13,731.06,723.52,715.17,707.15,699.79,693.02,686.10,679.50,674.17,669.93,665.97,661.64,656.36,651.08,646.61,642.58,638.06,634.03,630.94,628.69,626.48,624.23,621.99,619.87,618.14,617.13,616.30,615.32,614.23,612.84,611.43,610.17,609.55,611.15,613.27,615.29,617.00,618.42,619.20,618.97,617.58,615.06,611.05,607.55,604.58,601.60,598.89,594.99,590.56,586.09,581.69,577.53,573.47,569.69,566.77,564.25,562.73,562.47,563.59,564.82,566.07,567.36,568.65,569.90,571.24,572.65,574.14,575.77,577.59,580.60,585.49,592.34,598.94,604.29,609.32,614.34,619.08,622.97,625.76,627.42,627.84,627.90,627.65,626.98,626.12,626.10,626.39,627.06,627.64,627.42,626.66,625.13,623.21,621.16,619.21,618.24,618.78,621.01,625.11,629.91,635.50,641.58,647.80,653.49,658.08,660.13,659.22,657.04,655.19,653.17,651.09,649.41,648.02,647.06,647.05,648.72,652.46,656.32,660.15,663.97,667.74,671.57,676.05,681.47,687.81,693.24,697.82,701.61,704.53,706.48,705.63,703.24,700.04,696.21,690.93,684.47,677.90,671.96,666.72,661.56,656.50,651.22,644.84,637.82,631.71,626.79,623.05,619.59,616.25,613.31,610.81,608.20,604.39,601.02,598.56,596.97,595.46,593.82,591.45,587.99,584.22,580.91,578.86,577.88,576.58,573.72,571.67,570.24,568.31,565.07,561.21,557.10,553.13,550.12,547.83
739.03,737.07,735.27,733.05,730.66,727.88,724.56,720.54,715.95,711.22,707.44,704.53,701.43,697.18,692.07,686.99,682.67,678.62,674.79,671.57,669.26,667.92,666.66,665.29,663.90,662.55,660.66,657.78,654.26,650.34,646.37,642.30,638.84,636.04,633.40,630.85,629.13,628.28,628.44,630.11,631.61,633.17,634.69,635.14,636.16,637.13,637.83,638.20,637.89,637.33,637.28,639.00,644.71,651.71,658.08,663.33,667.75,671.88,676.09,680.10,683.48,686.75,689.75,692.77,696.20,700.67,705.66,709.36,711.45,712.02,711.77,711.52,712.86,716.84,721.60,726.23,732.18,738.62,741.72,741.89,739.64,734.83,726.80,718.11,709.48,701.70,694.88,687.78,680.85,675.38,671.18,667.27,663.52,658.80,653.41,647.95,643.46,639.15,635.61,632.99,630.83,628.63,626.38,624.09,621.86,620.26,619.47,618.88,618.13,617.08,615.67,614.28,613.09,612.46,613.81,615.87,618.05,620.04,621.46,622.47,622.21,620.23,616.51,611.52,607.83,605.20,602.59,600.23,596.23,591.59,587.02,582.46,578.27,574.23,570.62,568.22,566.19,564.57,563.84,564.50,565.66,566.88,568.09,569.33,570.64,572.06,573.51,574.94,576.39,578.05,581.63,587.22,594.38,600.80,606.27,611.94,617.80,622.90,627.65,631.24,633.31,633.54,633.15,632.67,631.88,630.96,630.84,630.90,631.28,631.66,631.48,630.80,629.30,627.35,625.21,623.11,621.83,621.78,623.10,625.94,629.74,634.83,640.67,646.85,653.45,658.95,662.52,663.72,662.77,661.11,658.97,656.73,654.87,653.17,652.17,652.06,653.38,656.90,660.51,664.29,668.26,672.26,676.21,680.87,686.53,693.13,698.68,703.09,706.33,708.10,707.97,704.83,701.22,697.70,693.55,687.51,680.16,673.27,668.04,663.77,658.92,654.18,649.45,643.82,637.82,632.17,627.31,623.57,619.98,615.80,611.85,608.49,605.21,601.30,597.81,595.00,592.85,591.03,589.46,587.63,585.06,581.88,578.46,575.76,573.94,572.20,568.95,566.88,565.77,564.33,561.07,557.31,553.65,550.45,548.16,546.29
735.85,732.91,730.35,728.05,725.80,723.16,720.21,716.86,712.82,709.20,706.09,703.27,700.20,695.71,691.21,687.04,683.38,680.41,677.05,673.83,671.30,669.90,668.42,666.40,664.09,661.97,659.46,656.36,652.82,648.94,644.88,641.21,638.11,635.47,632.94,630.77,629.67,629.55,630.50,633.25,634.99,636.31,637.40,637.70,638.76,639.97,640.99,641.54,641.36,640.62,639.58,639.49,644.33,651.01,656.99,661.59,665.21,668.56,672.25,675.69,678.16,681.03,684.13,687.43,691.46,697.63,703.98,709.75,714.45,717.26,718.60,718.31,718.84,722.05,726.68,730.74,735.59,740.80,743.41,743.12,740.98,736.47,728.41,719.55,710.73,702.90,696.17,689.06,681.64,675.92,671.70,667.75,664.19,660.02,654.83,648.80,644.22,640.38,637.28,634.82,632.71,630.50,628.20,625.89,623.70,622.38,621.90,621.63,621.16,620.17,618.97,617.72,616.55,615.81,616.80,618.56,620.87,623.56,625.36,626.51,626.00,623.04,617.22,611.47,607.51,604.82,602.35,599.98,595.82,591.16,586.80,582.52,578.80,575.24,572.14,570.36,568.63,566.97,565.72,565.44,566.37,567.51,568.68,569.91,571.36,572.79,574.19,575.62,577.09,578.64,582.96,589.17,596.24,602.34,607.82,613.98,620.54,626.08,631.45,635.56,638.06,638.65,638.32,637.70,636.84,635.91,635.56,635.13,634.90,634.83,634.71,634.32,633.29,631.80,629.96,627.96,626.41,625.81,626.42,628.53,631.17,635.35,640.53,646.22,652.71,658.65,663.85,667.57,668.02,666.45,664.51,662.68,660.96,659.35,658.58,658.66,659.79,662.19,664.85,668.19,672.22,676.40,680.36,685.44,691.47,697.88,703.54,707.81,710.50,710.87,707.62,703.03,698.74,694.86,690.45,683.38,675.17,668.16,663.55,659.37,654.72,650.56,646.71,641.95,637.11,632.23,627.79,624.22,620.62,616.16,611.58,607.26,603.12,599.30,595.84,592.69,589.92,587.75,586.02,584.18,581.89,579.38,576.25,573.16,570.53,568.54,565.66,563.54,562.10,560.50,557.27,553.57,550.56,548.59,546.82,545.10
734.52,730.69,727.12,724.17,721.57,718.86,716.05,713.15,710.05,707.15,704.41,701.64,698.33,693.98,690.06,686.64,683.57,681.00,678.10,675.28,672.84,670.81,668.66,666.19,663.58,661.11,658.18,654.73,651.14,647.62,643.90,640.48,637.48,634.84,632.51,632.14,632.66,633.73,635.50,638.11,639.75,640.49,640.96,642.73,644.43,645.47,645.73,645.18,644.54,643.34,641.86,641.19,644.38,649.44,654.31,658.39,661.82,664.14,667.08,670.10,672.41,675.83,680.12,684.36,688.61,694.44,701.29,708.14,714.40,719.36,722.53,723.65,724.95,728.21,732.90,736.47,740.10,743.62,744.81,742.33,738.38,733.33,726.53,718.54,710.34,702.97,696.61,689.84,682.36,676.96,673.15,668.68,664.78,660.30,655.16,649.78,645.47,641.88,638.99,636.70,634.59,631.90,629.35,627.13,625.40,624.80,624.61,624.46,624.09,623.13,622.06,620.93,619.85,619.13,619.79,621.80,624.52,627.28,629.06,630.12,629.03,625.03,618.24,611.47,606.90,603.88,601.07,598.36,594.26,589.93,586.06,582.29,579.13,576.57,574.55,573.09,571.58,570.07,568.59,567.34,566.96,567.78,568.96,570.25,571.85,573.43,574.96,576.42,577.87,579.43,584.21,590.67,597.44,603.21,608.72,615.03,621.79,627.83,634.55,639.42,642.35,643.48,643.32,642.64,641.76,640.82,640.09,639.51,639.06,638.63,638.13,637.77,637.03,635.89,634.38,632.83,631.30,630.40,630.52,632.25,634.99,638.50,642.59,647.35,652.78,658.77,664.78,669.88,671.90,671.63,670.54,669.28,668.06,666.74,666.23,666.42,667.22,668.43,670.20,672.98,676.60,680.35,684.02,689.10,695.26,701.77,707.65,711.51,713.09,711.89,707.56,702.02,697.08,692.55,686.98,679.00,671.40,665.12,660.40,656.03,651.61,647.62,643.97,639.95,635.67,631.39,627.45,624.11,620.59,616.39,612.04,607.82,603.63,600.01,596.48,592.99,589.83,587.41,585.01,582.50,579.94,577.51,574.59,571.54,568.53,565.57,562.64,560.40,558.70,557.02,553.86,551.05,549.00,547.74,546.75,545.66
733.04,728.69,724.46,720.92,717.97,715.17,712.49,709.98,707.61,705.11,702.52,699.70,696.22,692.14,688.77,685.91,683.19,680.71,677.99,675.39,673.01,670.54,667.95,665.28,662.57,659.80,656.56,652.92,649.38,646.16,642.83,639.61,636.94,635.01,634.07,635.18,636.75,638.43,640.42,642.71,644.46,645.23,645.60,647.99,649.68,650.30,649.88,648.48,647.17,645.59,643.99,643.05,644.41,647.85,651.56,654.93,658.01,660.05,662.75,665.76,668.51,672.49,677.68,682.51,686.58,691.49,698.50,705.91,712.99,719.28,723.98,727.13,730.17,734.17,738.97,742.34,744.96,746.73,746.16,741.62,735.75,729.62,723.37,716.18,708.91,702.28,696.38,690.13,683.47,678.87,675.35,670.02,665.55,660.77,655.93,651.47,647.42,643.97,641.11,638.72,636.37,633.38,630.68,628.56,627.31,627.37,627.52,627.48,627.08,626.09,625.10,624.07,623.05,622.33,622.80,625.05,628.09,630.92,632.63,632.97,631.01,626.22,618.75,611.42,606.45,603.12,600.04,597.24,593.66,590.01,586.76,583.68,580.88,578.82,577.35,575.89,574.46,573.00,571.36,569.51,568.09,568.29,569.22,570.50,572.18,573.90,575.54,577.10,578.63,580.52,585.16,591.18,597.33,602.53,608.42,615.19,622.23,628.47,636.03,641.76,645.55,647.51,647.69,647.15,646.40,645.60,644.72,644.06,643.50,642.94,642.40,642.17,641.67,640.85,639.69,638.22,636.37,635.01,634.69,636.02,638.79,641.80,645.17,649.37,654.03,659.69,665.77,671.36,674.51,675.94,676.27,675.96,675.21,674.04,673.77,674.13,674.71,674.97,675.85,677.92,680.92,684.03,687.63,692.69,698.90,705.69,712.14,715.17,715.31,712.77,708.15,702.02,696.51,691.24,684.41,676.02,669.17,663.69,659.13,654.77,650.60,646.56,642.61,638.69,634.54,630.51,626.77,623.39,620.02,616.33,612.59,608.84,604.82,601.21,597.60,593.98,590.64,587.95,585.05,582.18,579.63,577.26,574.40,571.29,567.88,563.87,560.65,558.39,556.81,555.34,552.58,550.48,549.00,548.07,547.62,547.01
730.76,726.43,722.15,718.28,715.14,712.29,709.76,707.62,705.53,703.08,700.39,697.41,693.94,690.30,687.38,684.82,682.13,679.51,676.57,673.78,671.29,668.80,666.25,663.66,660.96,657.88,654.45,650.91,647.56,644.50,641.45,638.51,636.66,636.50,638.47,640.14,641.61,642.96,644.33,646.42,648.66,650.35,651.42,652.74,653.35,653.34,652.68,651.14,649.08,647.34,645.92,644.85,644.42,646.57,649.23,651.65,654.10,656.98,660.22,663.72,667.49,671.72,677.05,681.75,685.21,689.05,695.88,703.32,710.45,716.95,722.59,728.19,733.81,739.23,744.18,747.73,749.75,749.95,747.52,741.72,734.36,726.74,719.66,712.87,706.66,700.94,695.52,689.97,685.28,681.94,678.44,672.01,666.81,662.08,657.88,654.32,650.38,646.91,643.82,640.94,638.04,635.12,632.51,630.51,629.66,630.20,630.84,631.00,630.44,629.33,628.29,627.24,626.18,625.34,625.87,628.17,631.35,634.39,636.04,634.90,631.76,626.52,618.51,611.38,606.46,602.97,599.89,597.46,594.94,592.33,589.75,587.49,584.69,582.32,580.46,578.68,577.08,575.45,573.68,571.78,569.99,569.31,569.59,570.72,572.39,574.15,575.86,577.53,579.33,581.90,585.68,590.38,595.55,599.91,606.58,614.32,621.85,627.85,635.27,641.90,647.12,650.29,651.06,650.95,650.59,650.11,649.47,648.78,648.20,647.86,647.89,647.97,647.65,647.13,646.31,644.38,641.74,639.74,638.95,639.71,641.89,644.55,647.85,652.20,656.76,661.73,667.03,672.16,675.72,679.00,681.32,682.41,682.00,680.74,680.67,681.29,681.83,681.53,681.55,682.79,685.06,687.51,691.45,696.65,702.88,710.06,717.26,718.92,717.33,713.82,709.39,703.02,697.10,691.13,683.18,675.17,668.90,664.05,660.14,656.14,652.26,647.99,643.31,638.63,634.14,629.92,625.90,622.14,618.92,615.92,613.01,609.95,606.16,602.25,598.59,595.18,591.89,588.85,585.90,583.33,581.29,579.11,576.13,572.70,568.77,563.95,560.30,558.26,557.24,556.39,554.47,552.57,551.01,549.97,549.58,549.03
727.80,723.97,720.09,716.27,712.81,709.89,707.46,705.43,703.40,700.93,698.12,695.00,691.70,688.70,686.11,683.66,681.04,678.23,675.16,672.12,669.20,666.42,663.72,661.04,658.27,655.23,651.94,648.85,645.75,642.58,639.91,638.47,638.37,639.70,642.37,643.90,645.13,646.35,647.70,649.72,652.08,653.97,655.15,656.05,656.25,655.89,654.97,653.25,650.99,649.27,648.04,647.10,646.20,646.59,648.01,650.28,653.32,656.97,660.29,663.55,667.35,671.53,676.40,680.75,684.16,687.77,693.73,700.52,707.43,714.14,720.50,727.13,733.89,740.35,745.40,749.11,751.32,751.58,748.84,742.88,735.17,727.14,719.90,713.26,707.00,701.18,695.91,691.16,688.06,685.79,682.69,676.44,671.23,666.70,662.69,659.14,655.35,650.73,646.69,643.46,640.16,637.05,634.89,633.70,633.60,635.16,636.71,637.46,636.99,635.46,633.60,631.63,629.75,628.55,629.36,631.84,635.02,637.96,639.28,637.40,633.41,627.44,619.13,612.62,608.41,605.54,602.89,600.49,598.15,595.79,593.41,591.15,588.48,585.93,583.69,581.70,579.65,577.71,575.83,573.93,572.00,570.96,570.63,571.09,572.70,574.46,576.16,577.82,579.63,582.38,585.74,589.66,594.13,598.69,605.18,612.64,620.06,626.33,633.37,640.12,646.03,650.38,652.40,653.54,653.95,653.73,653.51,653.34,653.34,653.43,653.50,653.53,653.27,652.88,652.26,650.81,648.95,647.31,646.05,645.20,645.25,647.18,650.68,655.33,659.86,664.43,669.08,673.56,677.28,681.44,684.89,687.02,687.12,685.99,685.92,686.49,686.99,686.69,686.17,687.17,689.68,692.47,696.85,702.95,709.83,716.32,720.84,720.76,717.91,713.25,707.72,701.33,695.55,689.49,681.33,674.72,669.43,664.92,660.88,656.90,653.03,648.92,644.44,639.68,634.97,630.40,626.02,621.99,618.59,615.77,613.12,610.24,606.57,602.51,598.86,595.61,592.45,589.46,586.75,584.33,582.21,580.21,577.13,573.52,569.68,565.83,563.25,561.63,560.69,560.15,558.70,557.02,555.45,554.12,552.92,551.73
724.73,721.43,718.04,714.56,711.04,708.07,705.53,703.30,701.15,698.61,695.68,692.58,689.70,687.33,685.01,682.61,679.97,676.73,673.51,670.23,666.91,663.84,661.08,658.32,655.48,652.55,649.56,646.91,644.15,641.21,639.23,639.45,641.07,643.53,646.13,647.44,648.50,649.63,650.97,652.84,655.20,657.24,658.56,659.28,659.25,658.57,657.35,655.59,653.50,651.95,650.89,650.07,648.74,647.57,647.93,650.21,654.01,658.17,661.45,664.31,667.59,671.40,675.70,679.77,683.37,687.12,692.17,698.09,704.63,711.78,718.83,725.90,733.21,740.38,745.43,749.34,752.00,752.69,749.78,743.81,736.25,728.35,721.12,714.70,708.43,702.56,697.46,693.51,691.68,690.24,687.61,681.96,676.75,672.28,668.34,664.66,660.82,655.44,650.41,646.33,642.62,639.22,637.63,637.58,638.67,641.25,643.50,644.66,644.29,642.44,639.64,636.49,633.61,632.12,633.07,635.89,639.14,641.51,642.09,639.76,635.23,628.66,620.38,614.91,611.83,609.78,607.43,604.75,602.19,599.67,597.13,594.60,592.00,589.38,586.87,584.63,582.17,579.93,577.89,575.97,574.05,572.90,572.09,571.83,573.07,574.73,576.40,578.01,579.73,582.44,585.70,589.34,593.47,598.32,604.18,610.94,618.03,624.45,631.29,638.04,644.28,649.38,652.54,655.01,656.51,657.07,657.61,658.21,658.86,659.34,659.33,659.22,658.95,658.55,657.93,656.91,655.76,654.42,652.79,650.71,649.04,650.15,653.55,658.42,663.32,667.71,671.66,675.33,679.14,683.85,687.94,690.67,691.29,690.51,690.39,690.77,691.20,690.99,690.61,691.89,694.84,698.18,703.06,709.67,716.50,721.54,723.32,721.43,717.23,711.39,705.07,699.03,693.61,687.72,679.96,674.64,670.07,665.61,661.16,657.16,653.30,649.43,645.36,640.78,635.99,631.28,626.74,622.51,618.76,615.72,612.96,610.06,606.33,602.23,598.65,595.57,592.58,589.77,587.34,585.05,582.82,581.00,578.22,575.00,571.80,569.28,567.75,566.48,565.49,564.96,563.79,562.11,560.28,558.42,556.35,554.49
721.79,718.81,715.90,713.08,710.13,707.13,704.14,701.24,698.71,696.01,693.04,690.15,688.15,686.27,684.19,681.83,678.92,674.83,671.33,667.93,664.41,661.18,658.63,655.95,653.05,650.23,647.69,645.32,643.06,641.16,640.43,642.00,644.73,647.70,649.85,651.17,652.24,653.27,654.38,655.83,658.15,660.56,662.41,663.06,662.86,661.80,660.25,658.76,657.33,656.07,655.14,654.28,651.95,649.91,649.69,651.79,656.06,660.27,663.55,666.05,668.25,671.20,675.01,679.02,682.98,687.15,691.56,696.51,702.56,710.59,718.36,725.48,732.80,740.30,745.14,749.32,752.53,753.56,750.03,743.76,736.77,729.56,722.27,716.37,710.78,705.47,700.81,697.59,696.52,695.51,693.24,688.43,682.84,678.11,674.17,670.54,666.20,661.44,655.80,649.81,645.49,641.80,640.85,642.25,645.17,648.46,650.75,651.84,651.48,649.62,646.04,641.70,637.80,636.38,637.08,640.52,643.98,645.01,644.09,641.54,636.95,630.24,622.55,618.71,617.20,616.04,613.42,610.08,606.91,603.78,600.60,597.66,594.97,592.37,589.82,587.26,584.67,582.20,579.90,577.85,576.13,575.07,574.08,573.24,573.52,574.90,576.53,578.07,579.60,582.10,585.70,589.81,594.17,599.00,603.80,609.67,616.28,622.39,629.50,636.38,642.53,647.57,651.30,654.85,657.90,660.28,662.21,663.81,664.97,665.61,665.57,665.31,664.95,664.35,663.38,662.19,660.77,659.16,657.35,655.29,653.56,653.91,656.47,661.31,667.34,671.78,674.94,677.59,681.45,686.53,690.65,693.34,694.43,694.28,694.13,694.25,694.53,694.30,695.30,697.60,700.88,704.68,710.11,716.03,721.02,723.64,724.34,720.76,714.80,707.89,702.05,697.01,692.07,686.54,679.95,675.16,670.51,665.60,660.65,656.72,652.97,649.30,645.57,641.42,636.80,632.40,628.16,623.84,619.57,615.75,612.46,609.35,605.27,601.26,597.88,595.00,592.20,589.63,587.38,585.26,583.23,581.56,579.92,578.16,576.38,574.95,573.67,572.50,571.43,570.44,569.34,567.23,564.62,561.87,559.23,557.01
719.12,716.35,713.31,710.57,708.10,705.79,703.20,700.09,696.92,693.90,690.93,688.28,686.62,684.88,682.98,680.64,677.37,673.00,669.14,665.50,662.03,659.17,656.63,654.09,651.55,649.24,647.63,646.28,644.92,643.55,642.67,644.41,647.43,650.68,653.00,654.72,656.09,657.19,658.09,659.49,661.97,664.57,666.56,667.32,667.25,666.46,665.28,664.10,662.67,661.33,660.26,659.25,657.07,654.78,653.39,653.97,658.10,662.50,666.09,669.04,671.80,674.75,677.88,680.92,683.89,687.25,691.19,695.86,701.93,710.51,718.57,725.32,732.31,740.09,745.31,749.88,753.44,754.69,751.02,745.46,738.84,731.58,724.17,718.50,713.96,709.78,705.92,703.10,701.92,700.63,698.41,694.52,688.34,683.41,679.16,674.69,670.34,665.75,660.37,654.27,648.47,644.91,644.89,647.32,650.78,654.15,656.60,657.80,657.37,655.16,651.32,646.72,642.65,641.53,643.50,646.40,648.41,648.25,646.34,643.42,638.96,632.90,626.48,623.40,621.83,620.41,618.05,614.53,610.87,607.25,603.69,600.29,597.31,594.59,592.00,589.38,586.82,584.35,581.95,579.73,577.98,576.69,575.58,574.67,574.32,575.22,576.60,578.00,579.31,581.31,585.86,590.92,595.36,600.08,604.58,609.81,615.78,622.01,629.19,635.76,641.46,646.27,650.71,655.60,659.99,663.53,666.69,669.75,672.07,673.26,672.88,671.85,670.94,669.98,668.77,667.38,665.71,663.85,661.81,659.66,658.20,658.19,660.13,664.69,670.84,675.59,678.87,681.38,685.19,689.78,693.65,696.37,697.73,698.40,698.77,698.97,699.13,699.75,701.83,704.66,708.06,712.25,716.97,721.35,724.61,725.95,725.97,722.06,716.22,709.83,704.44,699.07,693.87,688.44,682.10,676.23,670.66,665.22,659.99,655.56,651.67,648.30,645.20,641.75,637.63,633.41,629.20,624.91,620.55,616.50,612.76,609.15,605.14,601.21,597.87,594.97,592.14,589.71,587.70,585.89,584.33,583.50,582.64,581.57,580.38,579.43,578.28,577.01,575.58,573.96,572.63,570.57,567.98,565.05,561.98,559.19
716.57,714.11,710.99,708.02,705.69,703.88,701.77,698.83,695.33,692.06,689.07,686.54,684.92,683.19,681.46,679.19,675.72,671.40,667.24,663.40,660.16,657.93,655.50,653.08,650.90,649.32,648.66,648.34,647.80,646.72,645.29,646.52,649.40,652.92,655.75,657.97,659.69,660.95,661.82,663.38,666.56,669.61,671.51,672.25,672.30,671.86,671.10,670.12,668.54,667.00,665.63,664.25,662.33,659.96,657.58,656.64,660.18,664.76,668.90,672.61,676.18,679.39,681.95,683.99,685.75,688.00,691.41,695.81,701.76,710.48,718.78,725.28,731.94,739.74,745.51,750.64,754.61,756.10,752.62,748.05,741.86,734.52,727.00,721.53,717.76,714.45,711.25,708.80,707.19,705.33,702.98,699.95,694.01,689.16,684.32,678.44,673.99,669.34,664.29,658.51,651.66,648.43,649.20,652.27,655.86,659.19,661.78,663.06,662.45,659.87,656.03,651.56,647.69,646.92,649.84,651.89,652.37,651.26,648.74,645.38,640.97,635.65,630.56,627.74,625.59,623.58,621.44,617.98,613.99,609.99,606.15,602.37,599.10,596.23,593.59,591.00,588.57,586.16,583.75,581.45,579.60,578.06,576.89,576.03,575.29,575.66,576.69,577.92,579.11,580.90,586.33,592.19,596.64,601.30,605.77,610.62,616.16,622.68,629.87,636.07,641.30,646.05,651.44,657.29,662.50,666.79,671.00,675.34,678.82,680.82,680.54,678.96,677.22,675.53,673.90,672.42,670.53,668.34,666.01,663.95,662.95,662.80,664.28,668.53,674.52,679.61,683.31,686.05,689.62,693.56,697.12,699.90,701.58,703.13,704.27,704.95,705.45,707.06,709.70,712.60,715.79,719.96,723.62,726.45,728.33,728.90,728.24,724.26,718.82,713.07,707.94,702.15,696.63,691.14,684.71,677.52,670.77,664.58,658.98,653.96,650.11,647.13,644.58,641.78,638.17,634.09,629.84,625.59,621.31,617.34,613.45,609.57,605.75,601.81,598.37,595.36,592.49,590.18,588.34,586.87,585.94,586.01,585.72,584.98,584.01,583.26,582.12,580.68,578.90,576.81,575.14,573.13,570.68,567.71,564.31,561.02
714.21,712.38,709.85,706.29,703.15,700.63,698.49,696.39,693.71,690.60,687.50,684.74,682.67,680.95,679.38,677.37,674.26,670.43,666.20,662.41,659.69,658.41,656.58,654.12,651.93,651.43,651.36,651.37,651.02,649.95,648.13,647.86,650.01,654.00,657.81,660.45,662.41,663.98,665.34,667.30,672.71,677.12,678.55,678.77,678.64,678.12,677.29,676.18,674.57,672.87,670.95,668.67,666.26,663.75,661.42,660.24,662.41,666.98,672.11,676.78,680.44,683.87,686.35,688.05,689.25,690.70,693.24,696.71,701.68,709.54,718.34,725.39,731.96,739.08,745.34,751.49,756.22,758.13,755.36,751.70,746.34,739.49,731.93,726.81,722.67,718.89,715.62,713.74,711.57,708.91,706.12,703.76,700.74,696.77,690.77,682.63,677.28,672.30,666.98,661.19,655.38,652.68,653.52,656.49,660.11,663.62,666.26,667.35,666.34,663.57,660.04,656.06,652.68,652.18,653.64,655.04,655.33,653.86,651.37,647.50,642.75,637.69,633.44,630.18,627.44,624.91,622.35,619.22,615.29,611.12,607.07,603.22,599.77,596.79,594.13,591.61,589.44,587.07,584.72,582.70,580.74,579.25,578.11,577.20,576.42,576.38,576.97,577.92,579.25,582.00,587.58,593.29,597.78,602.63,607.13,612.14,618.02,624.94,632.16,638.17,643.32,648.51,655.59,661.02,665.61,670.06,674.90,679.54,683.63,686.83,688.28,687.38,684.45,681.04,678.29,677.06,675.02,672.27,669.53,668.23,667.86,667.86,669.23,673.34,679.23,684.51,688.74,691.95,694.81,698.36,701.73,704.61,706.92,709.29,711.50,713.63,715.78,717.95,719.96,721.94,724.14,727.09,729.75,731.88,733.34,733.61,731.84,727.30,721.42,715.16,709.75,704.58,699.23,693.42,686.75,679.01,671.00,663.50,657.06,651.71,648.70,646.23,643.67,641.18,637.87,633.87,629.60,625.42,621.28,617.78,614.56,611.33,607.75,603.50,599.66,596.45,593.77,591.62,589.73,588.52,588.42,589.02,588.92,588.15,587.06,586.23,584.88,583.25,581.45,579.49,577.36,575.03,572.30,569.06,565.51,562.15
711.97,710.09,707.94,705.00,701.83,698.63,695.61,692.93,690.75,688.39,685.65,682.77,680.46,678.63,677.05,675.27,672.83,669.87,666.63,663.60,661.15,659.57,657.44,655.44,654.20,654.41,654.51,654.42,653.98,652.91,650.92,649.71,650.88,654.40,658.75,661.74,664.37,666.75,669.00,672.79,678.17,682.22,683.79,684.33,684.58,684.25,683.38,682.10,680.44,678.31,675.76,672.87,670.19,667.62,665.25,663.53,663.73,667.28,672.58,677.98,682.29,686.37,689.15,690.93,692.02,693.25,695.49,698.70,703.42,710.88,719.41,726.36,732.39,738.42,744.75,752.11,757.68,759.96,758.17,755.17,750.47,744.05,736.44,731.32,727.18,723.51,720.42,718.34,715.68,712.43,709.09,706.49,704.11,700.88,695.36,687.06,680.36,674.47,668.90,663.70,659.50,657.41,658.07,660.59,664.02,667.74,670.47,671.48,670.25,667.07,663.62,660.23,657.58,657.05,657.50,658.23,658.26,656.72,653.78,649.31,644.21,639.17,634.97,631.18,627.99,625.11,622.06,618.67,614.81,610.79,606.81,602.90,599.64,596.86,594.41,592.20,590.22,588.07,585.94,584.03,582.07,580.25,578.89,578.01,577.25,577.04,577.47,578.32,579.69,583.22,588.52,593.81,598.36,603.52,608.46,613.62,619.50,626.80,634.07,640.56,646.56,652.61,659.61,664.92,669.59,674.29,679.27,683.89,688.33,692.35,695.19,695.94,693.28,689.36,685.80,683.52,680.57,677.63,675.31,674.32,673.65,673.14,673.83,677.19,682.88,688.73,693.53,696.99,699.88,703.43,706.84,710.00,713.09,715.85,718.19,720.43,722.72,724.90,726.92,728.76,730.68,733.22,735.20,736.89,737.99,737.48,733.73,727.58,720.65,713.88,708.36,703.40,698.25,692.54,685.85,678.14,670.02,662.47,656.18,650.95,647.93,645.47,643.01,640.63,637.16,633.02,628.67,624.49,620.64,617.62,614.94,612.27,609.33,605.18,601.13,597.71,595.32,593.38,591.85,591.04,591.21,591.75,591.70,591.07,590.12,589.32,587.74,586.02,584.19,582.00,579.36,576.75,573.80,570.33,566.69,563.18
709.68,707.41,705.36,703.29,700.56,696.96,693.07,689.58,687.65,686.02,683.70,680.82,678.34,676.32,674.63,673.03,671.33,669.29,667.23,665.05,662.75,660.54,658.20,657.08,657.15,657.82,657.92,657.55,656.86,655.75,653.77,651.99,652.09,654.55,659.03,662.35,665.80,669.23,672.59,678.19,682.85,686.29,688.56,689.91,690.65,690.55,689.75,688.39,686.57,683.79,680.48,677.09,674.14,671.47,668.99,666.70,665.07,666.96,671.65,677.34,682.46,687.20,690.50,692.62,693.89,695.27,697.52,700.98,706.07,713.56,721.23,727.57,732.86,737.77,743.79,751.93,758.38,761.42,760.78,758.42,754.36,748.42,740.80,735.58,731.61,728.23,725.31,722.80,719.69,715.89,711.91,708.69,705.89,703.09,698.54,691.02,683.19,676.44,670.82,666.52,663.86,662.29,662.65,664.62,667.85,671.76,674.57,675.60,674.33,670.87,667.29,664.34,662.33,661.68,661.43,661.42,661.03,659.41,655.84,650.75,645.28,640.07,635.67,631.40,627.76,624.45,620.95,617.17,613.41,609.72,606.04,602.24,599.39,596.96,594.77,592.91,591.11,589.23,587.32,585.44,583.45,581.18,579.51,578.64,577.91,577.68,578.06,578.84,580.25,584.31,589.14,593.91,598.56,604.03,609.45,614.66,620.36,627.99,635.59,642.76,649.67,656.42,662.76,668.36,673.62,678.75,683.87,688.50,693.02,697.39,701.11,703.59,702.10,698.73,694.95,691.20,687.21,684.14,682.24,681.13,679.81,678.64,678.59,681.07,686.52,692.85,698.06,701.67,704.86,708.72,712.34,715.83,719.60,722.50,724.64,726.54,728.50,730.50,732.60,734.52,736.44,738.93,740.58,741.81,742.19,740.32,734.32,726.37,718.38,711.28,705.58,700.66,695.71,690.22,683.54,676.11,668.59,661.74,656.10,651.24,647.94,645.20,642.63,640.06,636.33,632.13,627.83,623.69,620.10,617.47,615.19,612.92,610.55,606.70,602.64,599.21,597.10,595.41,594.39,594.00,594.17,594.42,594.37,593.93,593.24,592.55,590.85,589.08,587.13,584.52,581.43,578.47,575.24,571.58,567.86,564.15
707.08,704.18,701.58,699.44,697.68,694.58,691.11,688.18,686.01,684.08,681.85,679.22,676.46,674.16,672.26,670.72,669.51,668.08,666.25,664.16,661.91,659.82,658.90,659.45,660.71,661.49,661.56,660.86,659.81,658.57,656.91,655.08,654.07,654.83,658.56,662.27,666.50,671.04,675.66,680.93,685.73,690.27,694.38,697.00,697.75,697.72,697.27,696.22,693.91,690.02,685.69,681.74,678.18,675.18,672.45,669.92,667.82,667.27,669.78,674.48,680.13,685.01,688.98,691.81,693.62,695.72,698.12,702.57,709.30,717.63,723.43,728.38,732.88,737.10,742.07,749.23,756.46,761.82,762.63,761.15,757.94,752.71,745.25,740.05,736.36,733.05,729.84,727.31,723.73,719.25,714.55,710.66,707.00,703.69,699.38,692.90,685.42,678.80,673.89,670.71,668.46,667.02,667.04,668.60,671.87,675.84,678.73,679.91,678.95,676.02,671.95,668.67,666.69,665.96,665.41,664.56,663.25,661.06,656.97,651.34,645.35,639.78,635.38,631.02,626.66,622.47,618.67,614.92,611.39,608.18,605.22,602.09,599.88,597.87,595.84,594.02,592.52,590.80,588.93,587.00,584.76,582.18,580.22,579.12,578.44,578.38,578.65,579.28,580.80,584.77,589.04,593.46,598.31,603.81,609.25,614.20,619.52,627.38,636.25,643.89,650.54,656.80,663.01,669.91,676.54,682.60,688.64,693.79,697.92,701.43,704.76,707.70,708.47,707.66,705.30,700.58,696.21,692.64,689.89,687.88,686.00,684.61,684.35,686.40,691.66,697.59,702.62,706.37,709.76,714.31,718.51,722.30,726.13,728.92,731.00,733.02,735.22,737.12,738.62,740.19,742.13,744.58,746.68,747.02,745.26,740.65,732.84,723.90,715.80,709.03,702.65,697.73,692.93,687.42,680.50,673.40,667.29,661.99,657.34,653.09,649.83,646.53,642.89,639.22,635.64,632.01,628.28,624.45,620.78,618.25,616.06,613.75,611.13,607.57,604.17,601.31,599.27,598.01,597.37,597.17,597.30,597.33,597.25,596.97,596.53,596.09,594.65,592.88,590.58,587.36,584.14,580.48,576.67,572.86,569.02,565.03
704.37,701.32,698.29,695.77,694.10,691.70,689.00,686.49,684.34,682.34,680.14,677.63,674.81,672.29,670.45,669.14,668.14,666.98,665.55,664.22,663.07,661.78,662.20,663.60,665.04,665.50,665.40,664.63,663.38,661.77,660.03,657.98,656.20,655.66,658.09,661.30,665.83,671.16,676.68,681.91,686.96,692.50,698.08,701.23,702.81,703.60,703.63,702.45,700.31,696.80,692.41,687.56,682.85,678.82,675.57,672.93,670.60,669.02,669.78,672.85,677.83,682.23,686.51,690.01,692.56,695.21,698.05,703.28,710.70,718.63,723.66,728.04,732.06,735.71,739.87,746.39,754.34,761.55,763.66,763.66,761.75,757.71,751.32,745.96,742.04,738.54,735.17,732.56,728.39,723.28,717.88,712.88,707.77,703.59,699.17,693.36,686.77,681.52,677.98,675.85,674.00,672.29,671.82,673.08,676.54,680.38,683.25,684.57,683.90,681.47,677.67,674.11,671.45,670.10,668.89,667.23,665.02,661.94,657.23,651.08,644.73,639.00,634.61,630.25,625.66,621.22,617.48,613.99,610.76,608.01,605.75,603.31,601.11,599.00,597.04,595.43,594.07,592.40,590.54,588.57,586.19,583.50,581.14,579.52,578.88,578.99,579.44,580.18,581.68,584.98,588.49,592.60,597.71,603.23,608.77,613.58,618.69,626.83,635.89,643.17,648.99,654.22,660.03,667.38,675.63,684.06,691.42,697.04,700.88,703.84,706.97,710.07,712.42,713.57,712.82,709.61,705.86,702.08,698.47,695.34,692.96,691.39,691.18,693.28,697.71,702.97,708.21,712.88,716.54,720.82,725.10,729.25,733.25,736.15,738.79,741.17,743.12,744.63,745.87,747.13,748.52,750.05,751.40,750.51,747.10,740.83,732.40,723.16,714.98,708.37,702.03,696.85,691.98,686.77,680.61,674.39,668.95,664.18,659.90,655.86,652.49,648.81,644.55,640.10,636.49,633.19,629.92,626.46,622.64,619.59,617.00,614.57,611.93,609.02,606.45,604.40,602.98,602.26,601.95,601.96,602.23,602.29,602.39,602.38,602.09,601.25,599.86,597.60,594.57,590.87,587.13,582.84,578.49,574.42,570.72,566.65
701.36,698.44,695.18,692.31,690.28,688.60,686.75,684.53,682.57,680.66,678.52,676.08,673.52,671.05,669.48,668.44,667.45,666.41,665.48,665.21,665.55,665.50,667.13,668.84,669.88,669.86,669.48,668.65,667.21,665.12,663.06,660.69,658.39,656.93,657.81,659.99,664.42,670.21,676.26,681.67,686.99,693.22,699.73,703.09,705.89,707.90,708.65,707.42,705.81,703.35,699.46,693.81,687.87,682.61,678.60,675.73,673.27,671.64,671.24,672.50,675.95,679.53,683.78,687.76,691.05,694.12,697.54,703.28,710.65,717.37,722.27,726.63,730.56,734.00,737.74,743.98,752.34,760.61,763.92,765.74,765.43,762.99,758.25,752.76,748.25,744.30,740.76,737.93,733.22,727.55,721.55,715.44,708.52,703.37,698.77,693.47,688.14,684.74,682.63,681.24,679.72,677.66,676.79,677.91,681.53,685.30,688.08,689.44,689.01,686.93,683.71,679.87,676.21,673.96,671.88,669.46,666.39,662.25,656.83,650.24,643.72,637.99,633.63,629.40,625.01,620.79,617.28,614.11,611.19,608.86,607.20,605.32,602.81,600.41,598.44,597.05,595.71,594.06,592.18,590.12,587.67,584.95,582.25,580.07,579.34,579.63,580.42,581.48,582.88,585.24,587.93,591.73,597.06,602.60,608.22,613.04,618.15,626.44,634.90,641.37,646.22,650.35,655.58,662.63,671.97,682.80,691.75,698.06,702.00,704.81,707.84,711.00,714.41,717.03,718.00,717.41,714.91,711.44,707.51,703.62,700.82,699.10,698.96,701.14,704.49,709.08,714.53,720.14,724.11,727.75,731.88,736.38,740.59,743.74,747.05,749.79,751.32,752.48,753.71,754.65,755.18,755.32,755.17,752.88,748.27,741.19,732.86,723.61,715.25,708.51,702.70,697.33,692.41,687.71,682.80,677.75,672.65,667.81,663.43,659.28,655.63,651.66,647.10,642.20,638.35,635.13,632.13,628.97,625.04,621.24,618.05,615.53,613.16,611.07,609.37,608.15,607.61,607.46,607.51,607.81,608.40,608.84,609.33,609.57,609.17,607.55,605.90,602.92,598.99,594.79,590.34,585.51,580.68,576.28,572.83,568.88
697.24,694.38,691.32,689.03,687.09,685.74,684.32,682.45,680.57,678.87,676.86,674.73,673.29,671.77,670.69,669.75,668.61,667.77,667.27,667.40,668.25,669.68,672.40,674.29,675.03,674.88,674.11,672.61,670.56,668.11,665.71,663.13,660.59,658.62,658.29,659.44,663.30,668.85,674.84,680.30,685.68,691.78,698.17,702.36,705.75,708.72,710.91,711.25,709.97,707.63,704.07,698.92,692.83,687.14,682.15,678.13,675.63,674.40,673.99,674.25,675.53,678.39,682.05,685.79,689.31,692.70,696.63,702.36,709.03,714.50,718.86,723.43,728.19,732.80,737.01,743.48,751.07,758.31,762.87,766.35,767.96,767.56,764.68,759.71,754.41,749.49,745.27,741.86,737.08,731.15,724.84,718.83,710.12,704.26,699.96,695.60,691.85,689.33,687.29,685.44,683.80,681.97,681.55,682.92,686.26,690.62,693.29,694.43,694.00,691.82,688.53,684.21,679.75,676.88,674.09,670.96,667.03,661.86,655.76,648.99,642.60,637.14,632.92,629.24,625.56,621.88,618.43,615.29,612.56,610.54,609.17,607.25,604.90,602.58,600.50,598.88,597.42,595.83,593.96,591.67,589.03,586.23,583.58,581.37,580.06,580.53,581.80,583.26,584.60,586.28,588.41,591.89,597.11,602.54,607.94,613.00,618.51,626.30,633.69,639.50,644.08,648.01,652.73,658.55,666.10,675.64,686.32,694.60,700.03,703.49,706.17,709.72,713.73,717.54,720.34,720.97,719.94,718.30,716.28,713.60,710.76,708.90,708.30,709.40,712.44,716.77,721.38,725.86,730.14,734.15,738.51,743.11,747.37,750.78,753.71,756.09,757.87,759.69,760.91,761.40,761.17,760.14,758.51,754.89,749.48,742.45,734.18,724.68,715.59,708.09,703.01,698.43,694.15,689.98,685.71,681.77,677.52,672.87,667.98,663.47,659.24,654.82,650.07,645.14,640.64,637.05,633.92,630.61,626.81,622.92,619.58,617.16,615.63,614.13,612.98,612.35,612.41,612.63,613.23,614.16,615.42,616.97,618.35,618.38,616.91,614.63,612.07,608.45,603.93,598.85,593.91,588.70,583.51,578.83,575.40,571.75
695.71,692.98,690.14,688.32,686.66,685.21,683.63,681.70,679.73,678.26,676.70,675.16,674.34,673.37,672.44,671.42,670.21,669.41,669.57,670.51,672.30,675.26,678.76,680.54,680.68,679.97,678.41,676.20,673.63,670.84,668.04,665.32,662.60,660.39,660.04,660.99,663.57,667.55,672.66,677.75,682.97,688.94,695.38,700.31,704.07,707.74,711.17,713.28,713.24,711.41,708.16,703.42,697.53,691.53,685.88,681.13,678.39,677.38,676.97,676.70,676.71,678.35,681.10,684.37,687.89,691.37,695.42,700.74,706.77,712.13,716.24,720.93,726.24,731.77,736.66,743.47,750.51,756.80,761.83,766.08,768.89,769.98,768.77,765.51,760.44,754.85,749.54,745.08,739.71,732.94,725.66,719.39,712.21,707.46,703.85,700.14,697.04,694.57,692.16,689.75,687.87,686.50,686.88,688.92,692.32,695.83,697.77,698.43,697.77,695.40,691.76,687.12,682.29,678.67,675.35,671.85,667.36,661.25,654.54,647.88,641.93,637.04,633.25,629.93,626.49,622.88,619.31,616.32,614.38,613.09,612.01,610.13,607.85,605.53,603.31,601.26,599.47,597.63,595.50,592.92,590.14,587.42,584.90,582.67,580.97,581.68,583.26,584.94,586.35,587.69,589.74,593.13,598.08,603.17,608.33,613.30,618.58,625.32,631.90,637.47,642.07,645.94,650.26,655.29,661.44,669.18,678.75,687.37,694.10,699.04,702.54,706.93,711.89,716.93,721.21,722.96,723.21,723.12,722.78,721.54,719.79,718.49,717.83,718.11,719.98,723.46,727.28,731.08,735.42,739.72,744.29,749.06,753.59,757.20,759.84,762.03,764.02,765.73,766.60,766.62,765.72,763.69,761.04,756.57,750.69,743.78,735.61,726.00,716.44,708.49,704.26,700.45,696.64,692.71,688.61,685.16,681.65,677.52,672.61,667.87,662.95,657.93,652.90,647.94,642.95,638.83,635.33,631.93,628.27,624.57,621.53,619.55,618.56,617.48,616.68,616.40,616.85,617.53,618.66,620.25,622.26,624.25,625.63,625.29,623.01,619.40,615.79,611.74,607.13,602.05,597.62,592.94,588.13,583.56,579.87,575.83
696.86,694.38,691.75,690.08,688.63,686.71,684.51,682.25,680.13,678.90,677.96,677.08,676.35,675.50,674.43,673.23,672.07,671.27,672.22,674.31,677.45,681.84,685.78,687.25,686.63,684.98,682.37,679.46,676.43,673.31,670.12,667.25,664.32,662.12,662.80,664.34,665.38,666.92,670.41,674.64,679.44,685.28,691.88,697.31,701.38,705.58,710.00,713.78,715.76,714.96,712.05,707.43,701.89,695.79,689.88,684.88,681.99,681.06,680.54,679.96,679.36,679.37,680.99,683.61,686.82,690.13,693.98,698.67,704.19,710.22,714.48,719.25,724.74,730.68,736.25,743.37,750.14,755.81,760.55,764.95,768.43,770.55,770.74,769.86,765.99,760.27,753.72,747.91,741.55,733.72,725.20,718.34,714.88,712.48,709.76,706.20,702.93,700.08,697.21,694.37,692.23,691.36,692.56,695.37,698.88,700.53,701.37,701.39,700.23,697.61,693.47,688.65,683.75,679.39,675.73,672.11,667.35,660.61,653.59,647.33,642.03,637.79,634.49,631.24,627.61,623.72,620.00,617.34,616.55,616.28,615.53,613.80,611.46,609.02,606.59,604.04,601.75,599.38,596.79,593.90,591.03,588.48,586.11,583.86,582.02,583.01,584.74,586.48,588.07,589.47,591.76,595.22,599.79,604.42,609.29,613.86,618.37,623.77,629.75,635.25,639.97,643.86,647.92,652.63,657.94,663.87,670.47,678.00,685.52,692.29,697.62,703.10,709.17,715.38,720.82,723.73,725.13,726.23,727.15,727.30,727.33,727.15,726.98,727.07,727.27,729.41,732.54,736.18,740.30,744.72,749.46,754.42,759.35,763.15,765.74,767.92,769.92,770.75,770.93,770.36,768.82,765.89,762.62,757.72,751.67,744.91,737.03,727.86,718.37,710.17,706.50,703.25,699.72,695.82,691.62,688.16,685.11,681.61,677.11,672.12,666.49,660.79,655.36,650.33,645.03,640.36,636.40,633.03,629.57,626.30,623.87,622.54,621.75,620.98,620.44,620.32,621.00,622.19,623.78,625.93,628.47,629.94,630.34,629.34,626.55,621.56,617.10,612.88,608.64,604.45,601.28,597.81,594.02,590.00,585.88,580.90
700.43,698.55,696.20,693.74,691.46,688.85,686.22,683.91,682.06,681.01,680.09,679.13,678.36,677.49,676.44,675.28,674.25,674.00,675.34,678.20,682.52,687.62,691.63,692.99,692.00,689.33,686.12,682.51,678.85,675.33,671.93,668.68,665.43,663.47,665.80,668.43,669.41,669.66,670.79,673.35,677.27,682.42,688.43,693.79,698.53,703.47,708.63,713.52,717.53,718.29,716.01,711.04,705.46,700.33,694.85,689.88,688.30,687.87,687.14,685.71,683.60,682.04,682.61,684.08,685.99,688.79,692.33,696.82,702.13,707.89,712.88,717.95,723.24,728.76,734.53,741.26,747.82,753.38,757.25,762.07,766.94,770.53,771.48,771.45,769.39,764.90,758.09,751.05,744.36,736.96,729.02,721.99,718.96,717.50,715.09,710.57,706.95,704.68,702.26,699.46,697.39,696.54,697.59,699.73,701.82,702.90,703.51,702.96,700.81,697.80,693.28,688.26,683.28,678.82,675.03,671.23,666.52,660.45,654.66,649.19,644.24,639.89,636.08,632.34,628.52,624.76,621.52,619.57,619.24,619.40,619.14,617.53,615.02,612.22,609.36,606.54,603.78,600.77,597.68,594.69,591.68,589.07,586.75,584.70,583.12,584.27,586.09,587.92,589.84,591.95,594.26,597.41,601.72,606.24,610.53,614.47,618.46,623.35,628.04,632.57,636.98,641.26,645.48,649.83,654.13,658.80,665.27,672.14,679.03,686.11,693.44,699.28,705.46,712.25,718.86,722.67,725.60,727.95,729.80,731.15,731.82,732.60,733.87,735.53,735.79,736.71,738.81,742.06,745.77,750.26,755.07,760.00,764.92,769.19,772.02,774.06,775.42,775.17,774.32,772.65,770.00,766.26,762.32,757.27,751.38,745.00,738.22,731.89,724.04,715.13,709.86,706.47,703.21,699.61,695.78,692.38,688.86,685.19,681.02,674.98,668.71,662.49,656.54,651.26,645.88,641.02,636.97,633.92,631.14,628.55,626.63,625.62,625.07,624.63,624.38,624.46,625.24,626.81,628.64,630.64,632.28,631.40,629.51,626.82,623.47,619.94,616.31,612.50,609.02,606.52,604.21,601.48,598.84,596.15,591.91,586.21
704.07,702.55,700.44,697.61,694.60,691.27,688.19,685.91,684.69,683.84,682.87,681.76,680.81,679.72,678.51,677.29,676.37,676.57,678.38,681.89,686.91,692.20,696.36,697.84,696.69,693.24,689.44,685.19,680.88,676.82,673.13,669.61,666.33,664.72,667.86,671.05,672.86,673.56,673.78,674.70,676.78,680.10,684.71,690.15,695.49,701.05,706.80,712.43,717.69,720.06,719.04,714.57,709.28,704.75,699.80,695.31,694.59,694.60,693.62,691.28,687.76,685.07,684.90,685.66,686.76,688.79,691.77,695.92,701.02,706.62,712.00,717.09,722.14,727.40,732.96,738.76,744.54,749.73,753.34,758.68,764.81,769.87,771.93,772.89,772.08,768.89,762.78,754.38,747.32,740.83,734.28,727.57,723.80,721.92,719.45,715.09,711.79,710.10,708.09,705.40,703.35,702.31,702.58,703.56,704.52,705.20,704.87,703.25,700.17,696.10,691.53,686.92,682.48,678.52,675.20,671.43,667.07,662.21,657.47,652.35,647.26,642.40,637.82,633.68,629.87,626.50,623.99,622.71,622.57,622.81,622.64,620.87,618.26,615.10,611.68,608.43,605.08,601.49,598.01,594.96,591.97,589.41,587.23,585.40,584.19,585.35,587.16,589.08,591.23,593.79,596.18,599.29,603.60,608.07,612.02,615.50,618.97,623.22,626.94,630.66,634.52,638.56,642.59,646.89,650.68,654.53,661.05,667.50,673.92,680.95,689.14,695.60,701.65,708.28,715.44,720.89,725.19,728.81,731.84,734.04,735.15,736.59,738.89,741.79,742.53,743.23,745.11,748.36,751.97,756.20,760.66,765.22,769.80,774.29,777.15,778.91,779.67,778.57,776.65,773.92,770.40,766.23,761.91,756.85,751.31,745.67,740.30,736.00,729.93,721.73,715.28,711.53,708.53,705.42,701.81,698.16,694.53,691.07,687.21,680.41,673.43,666.20,659.12,653.34,647.49,642.68,638.86,635.90,633.79,631.81,630.19,629.17,628.72,628.52,628.50,628.74,629.58,631.18,632.62,633.51,633.13,630.14,626.45,622.60,619.06,616.67,613.89,610.46,607.43,605.98,604.60,602.81,601.22,599.46,595.14,588.85
707.39,705.85,703.87,701.34,697.98,694.03,690.48,688.27,687.91,687.27,686.27,685.05,683.76,682.30,680.71,679.23,678.37,678.81,681.21,685.21,690.38,695.43,700.01,701.83,700.60,696.59,692.19,687.39,682.49,677.80,673.73,670.14,667.18,665.95,668.75,671.79,675.10,677.91,679.17,678.95,678.43,678.84,681.23,686.67,692.25,698.14,704.25,710.27,715.90,719.83,720.86,718.07,713.52,709.01,704.55,700.93,700.22,700.43,699.15,696.04,691.50,688.18,687.59,688.25,689.31,690.43,692.60,696.16,700.95,706.64,711.90,716.66,721.50,726.75,731.73,736.15,740.56,744.99,749.05,754.82,762.04,768.68,772.35,774.63,774.32,772.20,767.51,757.79,750.20,744.74,740.01,734.03,728.92,725.59,722.93,720.14,717.84,716.45,714.59,712.07,709.90,708.63,707.78,707.44,707.85,707.89,705.56,702.31,698.60,693.13,688.93,685.37,682.11,679.21,676.93,673.48,669.65,666.16,661.84,656.49,650.80,645.12,639.67,635.33,631.81,629.06,627.43,626.66,626.54,626.53,625.97,623.75,621.08,617.63,613.60,609.61,605.47,601.41,597.74,594.70,591.90,589.62,587.65,586.04,585.21,586.25,587.95,589.89,592.17,594.74,597.32,600.74,605.34,609.77,613.75,617.06,620.03,623.43,626.74,630.01,633.17,636.25,639.62,644.17,648.04,651.52,657.78,664.06,670.48,677.36,685.05,692.34,698.09,703.84,710.71,718.38,723.84,728.79,733.38,736.23,737.86,739.71,742.38,745.74,747.14,748.74,751.33,754.96,758.79,762.36,766.07,769.93,773.88,778.23,780.82,782.19,782.50,780.80,777.92,774.36,770.39,766.23,761.91,757.04,752.03,747.44,743.52,739.87,735.35,729.47,722.86,718.70,715.92,713.29,709.57,705.32,702.05,699.27,695.74,688.97,681.34,672.71,663.96,657.44,650.81,646.19,642.78,639.60,637.95,636.34,634.74,633.41,632.81,632.73,632.85,633.18,633.96,635.13,635.38,634.12,630.90,626.50,621.91,617.74,614.35,612.08,609.74,606.60,603.71,602.43,602.02,601.39,600.60,599.05,594.69,588.08
711.11,709.33,707.20,704.76,701.59,697.96,694.46,691.93,691.73,691.13,689.92,688.32,686.76,685.14,683.29,681.51,680.46,681.24,683.57,687.41,692.56,697.68,703.45,705.59,703.73,698.77,693.92,688.87,683.75,678.90,674.83,671.32,668.55,667.31,669.16,672.32,676.14,680.09,683.51,685.07,684.10,682.77,682.55,684.67,688.98,694.28,700.00,705.92,712.01,717.64,721.25,721.20,717.60,713.34,709.24,706.01,704.95,704.49,702.70,699.43,695.02,691.13,690.04,690.56,691.81,692.85,694.37,697.01,701.00,706.54,711.62,716.29,720.87,725.45,729.64,733.33,736.90,740.48,744.10,749.20,758.49,768.16,773.11,776.06,776.52,774.68,769.75,760.53,752.50,746.80,742.27,736.65,731.37,728.70,727.19,725.43,723.35,721.29,719.25,717.10,714.86,714.33,714.02,713.61,712.98,710.90,705.93,701.08,697.79,694.64,691.46,688.40,685.65,683.49,681.69,678.65,674.84,670.68,665.76,660.12,654.02,647.66,641.46,637.07,634.11,632.25,631.36,630.65,630.38,630.04,628.99,626.39,623.42,619.83,615.44,610.10,604.65,600.33,597.07,594.64,592.24,590.14,588.30,586.85,586.34,587.28,588.79,590.66,593.05,595.49,598.02,601.69,606.77,611.42,615.48,619.00,622.20,625.52,628.71,631.84,634.79,637.47,640.48,644.42,648.18,652.02,657.98,664.39,671.22,678.18,684.87,691.16,696.15,700.99,706.73,713.88,720.76,727.53,733.88,738.67,741.66,744.46,747.59,750.87,753.14,755.55,758.29,761.33,764.45,767.42,770.61,774.00,777.51,781.38,783.86,784.95,784.47,781.96,778.89,775.27,771.25,767.34,763.41,759.40,755.26,751.02,747.22,744.33,740.87,736.08,730.30,726.55,723.46,720.11,715.68,710.73,706.94,703.90,700.84,696.53,689.96,681.51,672.40,665.26,659.35,654.37,650.23,647.11,644.87,642.69,640.65,638.92,637.81,637.57,637.54,637.62,637.99,637.87,635.74,632.14,627.55,622.61,618.03,613.65,609.61,606.39,603.68,601.16,599.14,598.17,597.86,597.44,596.47,594.42,590.49,585.09
714.99,712.98,710.59,708.05,705.07,701.86,698.65,696.11,695.81,695.27,693.97,692.04,690.03,688.01,685.89,683.86,682.60,683.62,685.70,689.19,694.19,699.71,706.15,708.63,706.59,700.91,695.55,690.29,685.24,680.59,676.51,673.04,670.26,668.74,669.88,672.90,676.68,681.24,686.65,690.80,690.90,689.11,686.91,685.92,687.96,691.66,696.33,701.79,708.06,714.59,720.01,722.65,721.17,717.53,714.01,711.45,709.97,708.30,705.64,702.04,697.80,693.98,692.66,692.96,694.22,695.45,696.67,698.58,701.64,706.42,710.96,715.50,719.73,723.38,726.90,730.27,733.67,737.11,740.63,745.27,755.86,767.70,774.04,777.65,778.83,777.27,772.18,763.42,754.86,748.23,743.01,737.70,733.21,731.62,731.05,729.74,727.64,725.13,723.11,721.58,719.89,720.53,721.23,721.19,719.76,715.71,708.90,702.92,699.72,698.35,695.72,692.93,690.47,688.53,686.92,683.92,679.84,674.96,669.16,663.06,656.58,649.83,643.58,639.37,636.97,635.83,635.45,634.66,634.05,633.19,631.55,628.68,625.38,621.32,616.31,610.12,604.05,599.82,597.02,595.01,592.85,590.82,589.01,587.68,587.41,588.37,589.89,591.81,594.16,596.44,599.02,602.88,608.22,613.01,617.22,620.93,624.34,627.71,630.98,634.17,637.13,639.73,642.49,645.79,649.65,654.22,659.84,666.28,673.40,680.53,686.74,692.14,697.09,701.72,706.35,712.16,719.44,727.37,735.20,741.71,745.91,749.47,752.86,756.03,758.90,761.86,764.57,766.91,769.22,772.03,775.00,778.16,781.71,784.83,786.82,787.46,786.34,783.25,780.11,776.59,772.77,769.21,765.66,762.30,758.91,755.24,751.53,748.75,745.49,741.08,736.08,732.66,729.32,725.33,720.25,714.91,710.53,707.03,704.24,701.70,696.87,689.24,680.16,673.17,668.18,663.22,658.69,655.54,652.71,649.85,647.21,644.97,643.12,642.31,641.75,641.36,641.29,639.99,636.13,630.94,625.39,619.94,615.08,610.38,605.81,601.85,598.69,596.25,594.49,593.54,593.10,592.41,591.05,588.73,585.44,581.12
718.93,716.78,714.09,711.22,708.28,705.32,702.61,700.62,700.07,699.63,698.48,696.45,693.71,690.86,688.38,686.21,684.75,685.79,687.71,690.81,695.54,701.78,707.79,710.60,709.29,703.37,697.37,691.96,687.28,683.26,678.96,675.43,672.31,670.27,671.28,673.70,676.95,681.54,688.22,695.09,697.84,697.25,694.37,691.90,690.78,691.70,694.48,699.02,704.89,710.95,716.71,721.50,723.82,721.42,718.91,717.54,715.66,712.30,708.28,703.90,699.54,696.79,695.62,695.57,696.51,698.06,699.56,701.20,703.31,706.43,709.88,714.06,717.81,720.42,723.56,727.09,731.18,735.65,739.90,744.75,755.01,767.04,775.12,779.60,781.34,780.34,775.73,766.83,757.56,749.37,742.58,737.64,735.05,734.43,733.96,732.34,730.16,727.86,726.39,725.86,725.76,727.80,729.58,730.13,728.40,723.24,716.14,709.80,705.76,703.92,700.90,698.13,695.80,693.26,691.51,687.96,683.39,678.46,671.77,665.07,658.23,651.59,646.38,642.65,640.65,639.86,639.59,638.64,637.42,635.77,633.43,630.42,626.72,621.66,615.60,609.62,604.23,600.60,598.09,595.99,593.78,591.62,589.75,588.49,588.38,589.53,591.40,593.55,595.69,597.82,600.66,604.65,609.77,614.51,618.93,622.71,626.00,629.37,632.96,636.42,639.60,642.39,645.02,648.06,652.41,657.96,663.16,669.41,676.55,683.95,690.67,696.02,702.12,707.57,711.51,715.67,721.66,729.49,738.17,745.54,750.35,754.12,757.49,760.61,763.60,766.69,769.28,771.17,772.89,776.18,779.33,782.58,786.76,788.89,789.75,789.65,788.30,785.14,781.80,778.42,775.07,771.85,768.49,765.21,762.25,759.67,756.45,752.76,748.56,743.85,739.13,735.66,732.31,728.27,722.83,717.63,712.84,708.90,706.07,703.34,700.59,694.25,685.39,679.75,675.51,671.37,667.37,663.96,660.94,657.50,654.24,651.39,648.64,646.66,645.06,643.91,643.46,641.49,637.38,631.88,625.59,619.38,613.59,608.37,603.76,599.70,596.27,592.96,590.18,588.71,587.98,586.59,584.86,582.90,580.36,576.30
721.85,719.74,717.18,714.26,711.39,708.78,706.41,704.49,703.59,702.88,701.63,699.66,697.01,693.82,690.74,688.08,686.56,687.75,690.64,694.51,699.17,704.40,709.81,712.62,711.55,705.60,699.64,694.71,690.61,686.83,682.20,678.09,674.55,672.28,673.10,675.46,678.69,683.25,689.86,696.60,700.73,701.74,700.07,698.46,697.11,696.64,697.39,699.96,704.00,709.09,714.50,719.68,723.89,723.98,722.99,721.89,719.88,715.91,711.18,706.50,702.63,700.08,698.44,697.81,698.55,700.91,703.28,705.23,706.85,708.47,710.31,713.48,716.67,719.11,722.65,727.07,731.72,736.36,740.98,745.93,754.80,765.87,775.69,781.42,783.79,782.90,778.30,770.49,760.99,751.33,743.02,738.55,737.55,737.45,736.70,734.60,732.27,730.69,730.63,731.97,733.61,735.89,737.25,737.11,734.77,729.90,723.26,716.97,712.16,708.43,704.98,701.70,698.06,693.34,690.64,687.14,683.04,678.61,672.63,666.42,660.61,655.45,651.24,647.82,645.49,644.07,643.31,641.98,640.03,637.55,634.52,631.10,625.80,620.01,614.43,609.55,605.31,601.94,599.23,596.98,594.74,592.52,590.57,589.27,589.39,590.88,593.04,595.36,597.47,599.78,602.58,606.30,611.06,615.88,620.20,623.96,627.35,630.84,634.61,638.33,641.82,644.94,647.68,651.96,656.94,661.94,666.39,673.53,681.42,689.34,696.81,702.07,707.63,712.76,716.79,720.67,725.78,732.59,740.50,747.81,752.55,756.42,759.69,762.25,765.13,768.11,770.76,772.93,774.99,778.32,781.50,784.77,788.77,790.18,790.58,790.40,789.38,786.87,783.74,780.59,777.44,773.83,770.07,766.84,764.11,761.64,758.68,754.75,750.32,745.54,740.60,736.90,733.37,729.20,723.67,718.41,713.53,709.57,706.75,703.95,701.71,695.98,687.85,683.44,680.13,676.77,673.31,670.00,667.01,663.11,659.64,657.13,654.39,651.08,648.25,646.18,644.71,642.32,638.43,633.21,626.78,620.13,614.69,609.94,605.46,600.96,596.86,592.88,589.11,585.91,583.34,581.31,579.59,577.88,575.53,571.45
724.38,722.32,719.97,717.19,714.53,712.16,709.99,708.06,706.78,705.65,704.16,702.20,699.75,696.43,692.89,689.88,688.54,690.17,694.06,698.60,703.12,707.39,712.45,715.09,713.84,707.71,702.19,698.00,694.38,690.50,685.38,680.51,676.56,674.25,674.86,677.30,680.69,685.16,691.13,697.11,701.87,704.51,704.91,704.68,703.93,703.01,702.52,703.40,705.57,709.37,713.77,718.24,723.17,725.81,726.47,725.51,723.24,719.02,714.31,710.03,706.79,704.00,701.70,700.38,700.80,703.82,706.99,709.43,711.01,711.81,712.47,714.39,716.70,718.99,722.88,727.88,732.79,737.40,742.27,747.52,754.99,764.60,775.27,782.49,785.93,785.50,781.08,774.43,765.48,754.93,745.30,741.36,741.40,741.34,739.83,736.80,734.51,733.90,735.34,738.42,741.48,743.53,744.02,742.97,740.23,736.33,730.63,724.62,718.92,712.92,708.15,703.60,698.41,692.11,688.86,685.93,682.62,678.74,674.04,668.69,663.95,660.16,656.77,653.54,650.70,648.41,646.74,644.62,641.84,638.51,634.75,630.74,624.38,618.49,613.80,609.85,606.48,603.23,600.26,597.84,595.59,593.37,591.36,590.10,590.68,592.44,594.76,597.17,599.38,601.87,604.52,607.88,612.29,617.16,621.32,625.02,628.54,632.17,636.05,639.97,643.78,647.34,650.74,656.34,661.95,666.53,670.63,678.76,687.25,695.23,702.69,707.74,712.45,716.99,721.15,725.06,729.62,735.26,741.94,749.02,753.56,757.46,760.66,762.72,765.19,767.77,770.33,772.77,775.07,778.28,781.54,784.96,788.80,790.28,790.71,790.67,790.08,788.25,785.34,782.31,779.09,774.82,770.68,767.54,764.99,762.38,759.53,755.59,751.15,746.43,741.35,737.36,733.59,729.25,723.51,717.87,712.92,709.04,706.34,703.55,701.00,695.69,688.66,685.01,682.17,678.95,675.48,672.32,669.77,665.99,662.91,661.20,659.12,655.16,651.20,647.96,645.66,643.01,639.58,634.90,628.64,621.93,616.96,612.50,607.90,602.92,598.12,593.54,588.99,584.31,580.11,577.49,575.57,573.73,571.36,567.55
726.70,724.53,722.31,719.98,717.76,715.37,713.14,711.33,709.65,707.95,706.06,703.93,701.40,698.19,694.68,691.83,691.13,693.80,697.99,702.29,706.40,710.92,716.27,718.55,716.44,709.67,705.12,701.83,698.40,693.85,687.99,682.20,677.95,675.81,676.21,678.73,682.36,686.63,691.51,697.00,701.51,705.55,708.82,709.68,709.71,709.64,709.77,710.30,711.36,713.46,715.75,718.09,722.30,726.76,729.07,728.56,725.58,721.19,717.83,715.28,712.56,709.09,706.04,703.93,703.65,706.72,710.12,713.12,715.47,716.85,717.64,718.20,718.96,720.59,724.22,728.67,733.23,737.83,742.90,749.05,755.70,763.41,772.91,781.88,787.38,788.50,784.94,778.88,771.98,761.75,751.27,747.93,747.93,747.04,743.94,739.08,737.29,737.93,740.54,744.51,748.14,749.63,749.18,747.47,745.01,742.70,738.65,733.17,726.30,718.03,709.93,702.70,696.29,690.77,688.44,686.86,684.53,680.94,677.86,673.43,669.07,665.47,662.56,659.33,656.06,652.88,649.73,646.04,642.23,638.09,633.48,628.71,623.20,618.53,614.70,610.70,607.32,604.04,600.96,598.38,596.16,593.99,592.03,591.05,592.61,594.41,596.58,599.00,601.42,603.89,606.36,609.40,613.49,618.37,622.35,625.96,629.55,633.31,637.17,641.20,645.28,649.47,654.61,660.82,666.93,672.34,677.19,685.95,694.21,701.00,706.60,711.15,715.34,719.37,723.27,727.11,731.58,736.32,741.73,748.73,753.23,757.09,760.31,762.33,763.83,765.50,767.52,769.72,771.48,774.50,778.05,781.96,786.16,789.35,790.55,790.78,790.44,788.89,786.01,782.77,779.06,773.95,769.82,766.88,764.45,761.84,758.89,755.00,750.66,746.11,741.41,737.10,733.09,728.54,722.12,715.57,710.28,706.50,704.11,701.44,697.71,692.78,687.41,683.43,680.00,675.41,670.70,667.63,666.22,663.93,662.24,661.82,661.31,658.41,653.61,648.78,646.48,643.80,641.11,637.24,631.40,625.34,620.25,615.12,609.69,604.40,599.02,593.92,589.01,584.19,579.82,576.65,573.86,571.11,568.57,565.87
729.77,727.41,725.20,723.12,720.83,718.27,716.00,714.23,712.21,710.02,707.78,705.44,702.74,699.72,696.58,694.36,694.58,697.70,702.05,706.34,710.21,714.18,719.09,721.13,719.05,712.69,708.90,705.67,701.74,696.38,689.77,683.37,678.93,676.90,677.11,679.32,682.70,686.53,690.51,695.31,699.55,704.43,709.58,711.78,713.38,714.61,715.54,716.20,716.89,718.01,719.28,720.91,724.44,728.54,731.20,731.45,728.76,724.72,722.09,720.24,717.60,713.66,709.65,706.67,705.87,708.74,713.20,716.96,719.53,720.99,721.87,722.02,722.38,723.98,727.42,731.29,734.84,738.28,742.87,748.73,754.90,761.77,770.38,780.43,787.79,790.57,788.20,783.59,778.61,769.66,759.15,753.98,753.10,751.35,747.60,742.65,741.33,742.82,745.61,748.91,751.84,753.32,753.00,751.57,749.79,748.01,744.28,738.53,730.71,721.39,711.04,702.73,697.10,693.92,692.27,691.50,690.10,687.00,683.48,678.87,674.38,670.43,666.68,662.57,658.35,654.19,650.20,646.16,642.16,637.88,633.20,628.45,623.66,619.39,615.50,611.48,607.94,604.55,601.39,598.69,596.53,594.41,592.75,592.25,594.11,596.02,598.16,600.57,603.17,605.59,607.93,610.79,614.57,618.96,623.15,627.12,630.82,634.20,637.98,642.09,646.36,650.91,656.52,662.52,668.54,674.55,680.77,689.11,696.41,702.11,706.56,710.55,714.23,717.87,721.60,725.44,729.69,734.09,738.99,745.22,750.74,755.01,758.15,760.10,761.19,762.33,763.88,765.87,767.93,770.82,774.62,779.05,783.66,787.63,789.77,790.63,790.46,789.18,786.00,782.24,778.01,772.66,768.53,765.36,762.63,759.92,756.77,752.82,748.43,743.80,739.03,734.43,730.21,725.57,719.16,712.52,706.64,702.03,698.87,695.79,691.35,687.00,683.24,679.70,675.99,670.82,665.31,661.24,659.25,657.77,656.96,656.90,656.77,654.93,651.34,647.45,645.53,643.76,642.07,639.33,634.63,628.84,623.33,617.60,611.63,605.98,600.32,595.20,590.34,585.25,580.19,576.69,573.67,570.60,567.74,565.01
733.18,730.69,728.43,726.39,723.89,721.16,718.77,716.86,714.49,711.89,709.33,706.78,703.98,701.16,698.57,697.17,698.30,701.75,706.14,710.37,714.06,717.55,721.93,723.80,721.99,716.29,712.93,709.36,704.74,698.63,691.48,684.81,680.17,677.95,677.98,679.75,682.60,685.82,689.06,693.05,697.00,702.12,708.06,711.65,714.88,717.44,719.30,720.50,721.30,722.08,723.09,724.73,727.71,730.88,733.39,734.32,732.16,728.73,726.44,724.63,721.80,717.46,712.72,709.18,708.16,710.67,715.97,720.35,723.06,724.65,725.76,725.89,726.14,727.71,731.10,734.63,737.30,739.50,743.10,747.88,753.43,759.84,767.94,778.99,787.88,792.24,791.44,788.52,785.04,777.59,767.69,760.46,757.82,754.99,751.06,746.94,746.20,748.07,750.49,752.70,754.65,756.26,756.40,755.49,754.15,752.40,748.69,742.55,733.89,724.05,712.68,704.43,700.13,698.85,697.45,697.06,696.34,693.71,689.28,684.09,679.20,674.68,669.77,664.50,659.18,654.06,649.48,645.45,641.62,637.57,633.13,628.64,624.39,620.22,616.07,612.03,608.34,604.86,601.64,598.87,596.81,594.76,593.44,593.48,595.35,597.31,599.47,601.93,604.72,607.27,609.61,612.33,615.76,619.59,624.11,628.42,632.12,635.07,638.73,642.85,647.21,651.87,657.42,662.99,668.74,675.03,682.31,689.83,696.06,700.88,704.55,707.96,711.16,714.51,718.22,722.13,726.29,730.75,735.58,741.04,747.50,752.20,755.19,756.88,757.75,758.69,760.06,762.08,764.83,767.82,771.87,776.70,781.60,785.82,788.76,790.33,790.32,789.16,785.69,781.46,776.89,771.62,767.53,763.99,760.74,757.65,754.13,749.94,745.44,740.77,735.88,731.04,726.61,721.99,716.01,709.65,703.27,697.70,693.48,689.67,684.78,680.90,678.25,675.23,671.44,666.22,660.38,655.24,652.12,650.74,650.12,649.86,649.74,648.86,647.02,644.85,643.44,642.66,642.01,640.49,637.14,631.74,625.96,619.92,613.76,607.89,602.14,597.15,592.36,586.95,581.13,577.28,574.09,570.81,567.66,564.66
736.92,734.57,732.26,729.81,727.06,724.27,721.57,718.94,716.20,713.40,710.59,707.81,705.20,702.58,700.73,700.23,701.96,706.01,710.22,714.02,717.52,721.50,725.91,727.68,725.96,720.66,716.78,712.63,707.41,700.79,693.77,687.60,682.60,679.36,679.20,680.56,682.50,684.80,687.59,690.65,694.24,698.18,702.54,707.49,711.69,715.20,718.21,720.72,722.40,724.13,726.17,728.63,731.44,734.09,736.27,737.23,735.39,732.92,730.30,727.49,724.06,719.34,714.86,711.90,711.29,713.21,717.86,722.13,725.31,727.68,729.55,729.92,729.81,730.67,734.38,738.35,741.25,743.07,744.86,747.24,751.42,757.45,765.92,778.46,788.03,793.69,795.23,793.84,790.70,784.53,776.36,768.79,762.60,757.97,754.43,752.15,752.37,753.55,754.93,756.32,757.79,759.27,759.85,759.22,757.19,754.97,751.65,745.58,736.19,726.21,716.66,710.43,707.15,704.77,702.53,701.68,700.93,698.58,693.75,687.89,682.27,677.02,671.23,664.91,658.57,652.62,647.56,643.46,640.09,636.66,632.75,628.47,624.27,620.10,615.97,611.97,608.28,604.80,601.61,598.95,597.03,595.06,594.05,594.51,596.17,597.97,600.22,602.91,605.97,609.24,611.92,614.47,617.38,621.05,625.77,629.97,633.28,636.15,639.59,643.57,647.75,652.04,657.12,662.40,667.88,673.77,680.41,686.91,692.53,697.05,700.29,703.21,705.95,709.19,713.26,717.44,722.08,727.21,732.64,738.06,744.15,748.80,751.55,752.38,753.11,754.48,756.54,759.37,763.04,766.86,771.21,776.01,780.79,784.50,787.69,789.76,789.97,788.54,785.10,780.97,776.55,771.78,767.85,764.00,759.98,755.72,751.35,746.47,741.80,737.47,732.72,727.79,723.21,718.78,713.84,708.14,701.80,695.83,690.78,685.67,680.77,676.77,673.65,670.70,667.08,662.63,657.57,652.27,648.04,645.14,643.05,641.78,641.73,641.43,641.04,640.47,639.53,639.06,639.30,639.01,636.88,632.58,627.38,621.90,616.33,610.71,605.25,600.25,595.22,589.45,583.24,578.73,574.86,571.11,567.98,565.14
741.42,738.39,735.52,732.64,729.43,726.20,722.98,719.83,716.88,713.95,711.12,708.45,706.14,703.80,702.99,703.70,705.97,710.07,713.87,717.63,721.64,725.86,730.23,731.74,729.85,724.77,720.03,715.15,709.60,703.16,696.77,691.20,686.15,682.14,680.81,681.88,683.57,685.44,687.54,689.72,692.59,695.73,699.20,703.72,708.04,711.48,714.43,717.62,720.37,723.20,726.13,729.09,732.12,735.52,738.31,739.64,738.57,737.09,734.40,730.63,726.03,721.17,717.32,715.02,714.74,716.54,719.87,723.52,726.96,729.85,732.31,733.32,733.51,733.97,736.73,740.99,744.52,746.65,747.88,749.22,752.38,757.78,766.34,779.22,788.67,794.72,797.68,798.03,796.10,790.88,783.24,775.16,768.23,763.06,759.67,758.42,758.99,759.64,760.23,760.87,761.86,762.88,763.03,761.84,758.90,755.73,751.90,746.09,737.69,728.49,720.81,715.62,712.26,709.23,706.38,704.71,703.30,700.84,696.11,689.57,683.38,677.88,671.64,664.56,657.50,651.05,645.79,641.37,637.93,634.73,631.31,627.49,623.39,619.15,614.91,610.96,607.56,604.20,601.11,598.69,596.81,595.22,594.75,595.64,597.15,598.88,601.51,604.75,608.13,611.77,614.53,616.95,619.59,622.75,627.06,630.90,633.98,636.87,640.08,643.73,647.58,651.53,656.18,660.93,665.72,670.71,676.30,682.46,688.08,692.40,694.81,697.38,700.13,703.59,708.18,713.68,719.14,724.78,730.52,735.85,740.86,744.73,747.25,748.30,749.16,751.04,753.98,757.91,762.36,766.55,770.96,775.55,779.90,783.11,786.03,788.04,788.41,787.22,784.34,781.09,777.63,773.35,769.70,765.98,761.64,756.31,750.99,745.75,740.98,736.62,731.77,726.36,721.41,717.00,712.62,707.15,700.97,695.00,689.65,684.25,679.41,675.25,671.68,668.44,664.93,660.98,656.49,651.44,646.89,642.89,639.81,638.05,637.73,637.56,637.47,637.07,635.71,634.37,634.11,633.92,632.46,628.34,623.86,619.67,615.66,611.11,606.26,601.63,596.66,590.60,584.56,579.75,575.55,571.73,568.58,565.82
745.78,741.76,738.09,734.78,731.08,727.35,723.69,720.19,717.15,714.24,711.56,709.17,707.09,705.14,705.37,707.23,710.08,714.04,717.58,721.59,726.30,730.65,734.79,735.80,733.52,728.54,722.93,717.31,711.56,705.60,699.95,694.88,689.94,685.42,682.70,683.50,685.24,686.96,688.45,690.05,692.25,694.81,697.66,700.87,704.71,707.65,710.10,713.49,717.27,721.11,724.70,727.92,731.25,735.78,739.49,741.46,741.46,740.80,738.20,733.81,728.17,723.55,720.35,718.54,718.39,720.11,722.06,724.88,728.35,731.63,734.61,736.44,737.25,737.52,738.91,743.22,747.52,750.49,752.00,753.11,755.50,760.09,768.34,781.09,789.89,795.70,799.42,801.29,800.70,796.39,789.05,780.54,774.12,769.30,766.24,765.37,765.65,765.92,766.00,766.08,766.57,766.93,766.25,764.11,760.16,755.91,751.38,745.97,739.19,731.34,725.43,720.76,716.72,712.86,709.25,706.59,704.33,701.61,696.99,689.89,683.26,677.69,671.31,664.08,656.68,649.83,644.36,639.57,635.82,632.58,629.47,626.08,622.13,617.88,613.60,609.71,606.56,603.33,600.38,598.27,596.50,595.52,595.69,596.91,598.35,600.23,603.31,607.10,610.79,614.63,617.30,619.54,621.91,624.52,628.12,631.47,634.38,637.30,640.29,643.58,647.04,650.63,654.82,658.93,662.91,666.93,671.43,677.35,683.00,687.21,689.04,691.60,694.80,698.84,704.17,711.06,717.26,723.13,728.79,733.86,737.59,740.47,742.75,744.42,745.69,748.22,752.11,757.07,762.02,766.29,770.53,774.77,778.62,781.55,784.06,785.78,786.25,785.65,783.63,781.50,779.19,775.53,772.18,768.75,764.39,758.42,752.44,746.95,741.96,737.18,731.84,725.75,720.40,715.94,711.78,706.22,700.24,694.44,689.05,683.75,679.07,674.85,670.99,667.41,663.99,660.32,656.18,651.48,646.95,642.27,638.61,636.60,635.68,635.32,635.00,634.16,632.10,629.49,628.14,627.45,626.09,621.56,617.71,614.91,612.59,609.37,605.42,601.44,596.83,590.80,585.31,580.47,576.20,572.54,569.36,566.61
748.22,743.46,739.03,735.22,731.33,727.71,724.16,720.65,717.67,715.20,713.00,710.83,708.56,707.33,707.95,710.22,713.95,718.00,722.34,726.92,731.74,736.45,739.76,739.61,736.50,731.53,725.54,719.37,713.45,707.95,702.59,697.53,692.67,688.20,685.00,685.47,687.08,688.82,690.50,692.55,694.90,697.09,698.95,700.70,703.30,705.85,708.31,711.25,715.59,719.80,723.48,726.63,729.93,734.67,738.97,741.96,743.33,742.72,740.43,736.61,731.51,728.00,724.95,722.85,722.27,723.27,724.67,726.78,729.72,733.49,736.98,739.61,741.09,741.39,742.10,745.83,750.76,755.42,758.15,759.77,761.66,765.07,772.12,784.90,792.46,797.17,800.82,803.09,802.77,799.71,793.97,785.63,779.47,776.25,774.49,773.10,771.77,771.75,772.04,772.17,772.07,771.59,770.07,767.00,761.94,756.99,752.69,747.90,742.05,736.14,731.68,727.31,722.21,715.90,710.53,706.88,704.17,701.20,696.00,688.74,681.85,675.94,669.98,664.46,657.58,650.14,643.88,639.01,635.02,631.41,627.95,624.45,620.78,616.94,613.00,609.19,605.65,602.33,599.62,597.93,596.67,596.67,597.38,598.52,600.00,602.74,606.11,609.82,613.79,617.72,620.16,621.91,623.68,626.13,628.97,631.75,634.45,637.33,640.18,643.24,646.35,649.41,652.85,656.45,659.99,663.52,667.51,672.23,677.09,681.34,684.32,687.89,692.34,697.82,704.39,711.15,717.20,722.46,727.09,731.32,734.36,736.64,738.61,740.55,742.78,746.43,751.13,756.39,761.12,765.07,768.76,772.41,776.09,779.46,782.02,783.50,783.90,784.35,783.33,781.88,780.16,777.55,774.37,771.05,767.07,761.79,756.42,750.64,744.78,738.79,731.98,725.06,719.53,715.13,710.68,704.67,698.78,693.18,687.70,682.21,677.99,674.22,670.53,667.03,663.71,659.97,655.75,651.10,646.50,641.91,638.37,636.11,633.92,632.98,632.36,631.34,629.06,625.71,623.53,621.95,619.58,614.07,610.29,607.89,606.07,603.74,601.26,598.35,594.64,589.83,585.25,580.84,576.90,573.53,570.32,567.53
748.59,743.59,739.04,735.24,731.32,727.75,724.42,721.34,718.92,716.80,714.59,712.17,709.76,709.28,710.67,713.56,717.73,721.96,726.74,731.75,736.71,741.16,743.84,742.80,738.86,733.55,727.27,720.95,715.10,709.86,704.64,699.58,694.76,690.36,687.00,687.25,688.92,690.96,693.01,695.32,697.46,699.16,700.31,701.28,702.98,705.25,707.82,710.61,714.69,718.92,722.69,725.84,729.14,733.64,738.05,741.67,743.94,744.47,742.88,739.69,735.65,732.84,729.83,727.46,726.38,726.41,727.35,728.89,731.25,735.02,738.75,742.28,744.76,745.56,745.93,748.98,753.75,759.05,763.00,766.16,769.00,772.41,778.11,788.55,794.85,798.87,802.19,804.97,804.54,801.81,797.03,790.03,785.59,783.62,782.28,780.26,778.09,777.72,778.07,778.39,777.92,776.20,773.34,769.29,763.85,758.62,754.42,750.01,744.77,739.48,735.42,731.30,725.93,718.04,711.43,707.11,703.94,700.42,694.46,687.22,680.40,674.48,668.92,664.38,658.43,651.48,644.93,639.56,635.59,632.16,628.78,625.21,621.55,617.79,613.91,609.94,605.94,602.14,599.23,597.89,597.45,598.11,599.27,600.67,602.32,605.25,608.75,612.61,616.74,620.27,622.54,624.14,625.63,627.69,629.96,632.24,634.56,637.13,639.85,642.90,646.01,648.97,652.03,655.41,658.69,661.92,665.77,669.95,674.38,678.74,682.73,687.11,692.30,698.34,705.06,711.49,717.21,721.83,725.51,728.73,731.04,732.99,734.95,737.28,740.30,744.70,749.77,754.92,759.33,762.99,766.27,769.52,773.02,776.49,779.60,781.64,782.40,783.41,783.24,782.28,780.81,778.75,775.33,771.61,767.56,762.91,758.34,752.48,746.26,739.76,731.79,723.80,717.86,713.41,708.63,702.42,696.83,691.53,686.11,680.90,677.13,673.80,670.41,666.87,663.50,659.67,655.33,650.61,646.29,642.24,638.76,635.84,632.80,630.88,629.65,628.34,625.88,622.41,619.51,616.93,613.81,608.57,604.66,602.13,600.50,598.93,597.53,595.41,592.35,588.29,584.27,580.46,577.01,573.90,570.82,568.23
747.56,742.67,738.43,735.00,731.18,727.69,724.67,722.26,720.59,718.66,716.14,713.30,711.14,711.40,713.65,717.18,721.53,726.02,730.99,736.21,741.25,745.08,747.16,745.40,740.67,734.81,728.25,722.02,716.39,711.33,706.19,701.13,696.35,692.02,688.75,688.89,690.75,693.18,695.61,697.95,699.64,700.78,701.53,702.23,703.36,705.36,707.95,710.75,714.25,718.32,722.17,725.36,728.67,732.79,737.09,741.00,743.80,745.98,745.48,743.20,740.49,737.96,734.82,732.20,730.70,729.80,730.23,731.29,733.09,736.37,740.22,744.69,748.38,750.10,750.57,752.92,756.90,761.87,766.79,772.13,776.86,781.09,785.59,792.31,797.26,800.87,803.88,807.16,806.46,803.42,799.02,793.97,791.97,790.98,789.53,787.03,784.74,784.07,784.36,784.81,783.90,780.51,775.94,770.86,765.55,760.36,756.08,751.81,746.90,741.34,736.98,732.92,727.69,719.22,711.98,707.22,703.58,699.39,692.90,685.77,679.17,673.44,668.29,664.08,659.15,653.32,646.93,640.97,637.05,634.01,630.94,627.37,623.60,619.74,615.74,611.38,606.91,602.47,599.16,598.14,598.61,599.72,601.27,603.16,605.05,607.82,611.35,615.39,619.52,622.39,624.56,626.31,627.77,629.39,631.25,633.12,635.01,637.15,639.70,642.74,645.95,649.05,652.05,655.41,658.60,661.69,665.58,669.69,674.00,678.47,683.10,687.97,693.39,699.20,705.30,711.51,716.79,720.81,723.73,725.96,727.63,729.45,731.67,734.50,738.10,742.85,747.90,752.71,756.77,760.15,763.26,766.40,769.82,773.24,777.06,780.07,781.51,782.73,783.26,782.71,781.27,779.44,775.69,771.31,766.79,762.36,758.32,752.57,746.47,740.06,731.28,722.41,715.98,711.23,705.99,699.91,694.82,690.00,684.91,680.31,676.89,673.88,670.75,667.07,663.46,659.50,655.12,650.48,646.74,643.35,639.78,635.95,632.36,629.28,627.11,625.26,622.59,619.39,615.91,612.44,608.94,604.71,600.67,597.74,596.03,594.97,594.24,592.61,589.87,586.06,582.40,579.28,576.42,573.63,570.82,568.58
745.92,741.33,737.55,734.50,730.96,727.90,725.46,723.61,721.86,719.87,717.20,714.62,714.26,715.32,717.49,720.87,725.69,730.50,735.76,740.84,745.33,748.87,749.74,747.02,741.71,735.27,728.29,722.09,716.74,712.08,707.18,702.06,697.31,693.21,690.27,690.53,692.47,695.02,697.51,699.54,700.82,701.76,702.54,703.28,704.16,705.58,707.52,710.05,713.69,717.76,721.54,724.70,727.90,732.19,736.68,740.71,743.70,746.52,747.87,747.81,746.40,743.67,739.76,736.73,735.35,734.38,733.95,734.50,735.88,737.93,742.09,747.40,752.27,755.51,757.37,759.08,761.56,765.15,770.04,777.53,784.04,789.22,793.57,797.59,800.71,803.75,807.09,810.18,809.42,806.03,801.49,797.81,797.05,797.00,796.11,793.78,792.17,791.75,791.97,791.90,789.48,783.71,777.15,771.01,765.85,761.07,756.54,751.95,746.96,741.25,736.42,731.59,725.98,718.65,711.64,706.63,702.53,698.10,692.52,685.52,678.89,673.30,668.55,664.42,659.85,654.67,648.95,643.19,638.84,635.34,632.14,628.69,625.03,621.34,617.33,612.30,607.33,602.64,599.41,598.82,599.76,601.48,603.47,605.58,607.86,611.04,614.55,618.15,621.62,624.13,626.45,628.49,630.15,631.80,633.46,635.18,636.96,638.77,640.92,643.36,646.08,649.16,652.30,655.70,659.04,662.37,666.15,670.16,674.42,678.84,683.31,687.93,692.79,697.74,703.05,709.77,714.57,718.01,720.57,722.42,724.04,726.12,728.78,732.16,736.06,740.44,745.01,749.48,753.23,756.28,759.69,763.53,767.44,771.30,775.18,778.53,780.84,782.25,783.33,783.10,781.73,780.22,776.91,772.29,766.90,761.24,756.22,750.68,745.26,739.36,730.32,722.25,715.62,709.68,703.50,698.20,693.96,690.09,686.17,682.25,678.82,675.59,672.28,668.48,664.19,659.91,655.85,652.26,649.50,646.12,642.01,637.44,633.19,629.23,625.62,622.34,619.37,616.41,612.82,609.25,606.06,602.26,598.58,595.43,593.02,591.57,590.98,589.42,586.35,581.90,579.05,576.63,574.38,572.23,569.97,568.06
745.03,740.46,736.91,734.10,730.92,728.23,726.08,724.32,722.42,720.37,718.12,716.58,717.85,719.78,722.19,725.56,730.43,735.32,740.38,745.04,749.00,752.06,750.93,747.07,741.60,735.05,727.99,721.83,716.71,712.45,707.94,703.05,698.66,695.04,692.44,692.65,694.39,696.75,699.17,701.02,702.09,702.93,703.77,704.56,705.27,706.17,707.48,709.65,713.19,716.96,720.37,723.34,726.75,731.04,735.63,739.93,743.00,746.01,748.61,750.31,750.31,748.44,745.17,742.04,739.87,738.82,737.94,738.11,739.13,740.62,744.50,750.04,755.59,759.92,762.85,764.78,766.81,769.75,774.67,782.14,789.25,795.26,799.84,802.67,804.63,807.02,810.20,812.82,811.96,808.76,804.79,802.23,801.88,802.32,802.03,800.32,799.14,798.58,798.23,797.14,793.00,785.40,777.59,770.82,765.60,760.93,756.00,750.96,745.85,740.23,735.05,729.73,723.93,717.42,710.98,706.06,701.90,697.57,692.59,685.70,679.00,673.38,668.76,664.60,660.02,654.93,649.44,643.93,639.47,635.79,632.58,629.25,625.81,622.32,618.31,612.78,607.63,603.12,600.11,599.66,600.97,603.10,605.40,607.75,610.36,613.62,617.00,620.34,623.58,626.19,628.75,631.06,632.92,634.54,635.95,637.55,639.43,641.42,643.28,645.20,647.34,649.82,652.65,655.92,659.30,662.72,666.39,670.15,674.31,678.69,682.93,687.11,691.09,695.05,699.44,705.28,709.98,713.60,716.30,718.22,720.49,723.32,726.61,730.28,734.00,737.89,741.91,745.93,749.43,752.62,756.85,761.66,765.88,769.95,773.83,777.39,780.25,781.79,783.10,783.24,782.23,780.90,778.49,773.48,766.98,760.41,754.36,748.36,742.89,737.49,730.04,723.21,716.67,710.13,703.63,698.68,695.19,692.19,689.00,685.42,681.88,678.37,674.77,670.90,666.45,661.96,657.89,654.71,652.39,649.12,644.65,639.29,634.36,629.97,625.62,621.46,618.09,615.13,611.81,608.46,605.23,601.41,597.94,594.66,591.62,589.34,588.33,586.65,583.74,579.77,577.40,575.23,573.02,570.86,568.90,567.28
745.04,740.25,736.66,733.90,731.05,728.62,726.47,724.45,722.45,720.53,719.26,719.32,721.80,724.58,727.58,731.13,735.63,740.35,744.84,748.92,752.42,754.61,751.01,745.94,740.56,734.26,727.37,721.32,716.44,712.65,708.68,704.33,700.53,697.50,695.15,695.14,696.46,698.44,700.65,702.48,703.55,704.38,705.20,706.03,706.63,707.14,707.92,709.75,712.81,715.96,718.78,721.45,725.26,729.25,733.74,738.27,741.44,744.35,747.53,750.37,751.80,751.80,750.56,747.82,744.26,742.97,742.16,742.17,742.95,744.47,747.54,752.68,758.36,763.22,766.82,769.67,772.26,775.35,780.35,786.03,792.70,799.34,804.34,807.28,808.83,810.63,813.21,815.21,814.22,811.71,808.94,807.29,806.80,807.24,807.39,806.42,805.20,803.86,802.38,799.93,794.34,785.84,777.56,770.51,764.97,759.99,754.52,749.06,743.87,738.45,733.00,727.50,721.81,715.70,709.76,705.24,701.46,697.57,692.86,686.13,679.39,673.56,668.77,664.49,659.62,654.14,648.37,643.03,638.83,635.33,632.21,629.09,625.93,622.64,618.60,612.74,607.81,603.88,601.25,600.63,602.25,604.55,607.02,609.58,612.40,615.41,618.61,621.99,625.49,628.60,631.46,634.00,636.08,637.55,638.71,640.25,642.39,645.04,646.89,648.59,650.13,651.49,653.41,656.20,659.32,662.61,666.16,669.57,673.54,677.87,681.92,685.56,688.57,691.56,694.96,698.76,703.60,707.91,711.20,713.70,717.25,721.20,725.15,728.77,731.88,735.24,738.74,742.24,745.59,749.37,754.63,760.37,764.72,768.71,772.64,776.39,779.54,781.26,782.58,783.14,782.76,781.46,780.11,774.62,767.04,760.11,753.38,746.53,740.39,735.31,730.69,725.18,719.03,712.61,706.44,701.47,698.44,695.99,693.06,689.48,685.77,681.94,678.01,674.08,669.91,665.38,661.00,657.50,655.01,651.90,647.26,641.18,635.66,631.28,626.92,622.50,618.65,615.49,612.70,609.73,606.18,602.10,598.61,595.20,591.69,588.36,586.51,584.59,582.30,579.82,577.62,575.28,572.65,569.96,568.03,566.68
746.14,741.18,737.22,734.26,731.20,728.91,726.97,725.01,723.01,722.16,722.30,723.61,726.64,729.69,732.78,736.29,740.61,745.00,749.47,753.50,756.35,756.61,751.74,745.80,739.79,733.13,726.06,720.51,716.36,713.28,710.22,706.63,703.09,699.91,697.54,697.34,698.46,700.15,701.97,703.70,705.01,705.95,706.64,707.46,707.98,708.36,708.98,710.48,712.77,715.15,717.54,720.18,723.55,726.91,730.52,734.36,737.92,740.83,744.31,747.84,750.39,752.13,753.10,751.98,748.82,746.98,746.79,747.43,748.37,749.44,751.65,756.03,761.23,766.12,770.41,773.68,776.66,779.92,784.26,789.42,795.95,802.74,808.04,811.14,812.84,814.84,817.43,818.76,817.91,816.05,814.05,812.85,812.75,812.84,812.42,810.94,808.61,805.12,801.73,798.40,793.54,786.23,778.13,770.43,764.01,758.02,752.23,746.78,741.56,735.81,729.66,723.92,718.68,713.40,706.33,702.01,699.31,696.41,692.55,686.56,680.02,673.78,668.34,663.76,658.58,652.61,646.26,640.94,637.05,633.74,630.66,627.99,625.20,622.13,617.97,611.52,607.49,604.75,602.75,601.87,603.62,605.89,608.23,610.69,613.53,616.44,619.72,623.37,627.27,631.16,634.41,637.17,639.43,640.97,642.31,644.07,646.55,649.92,652.89,655.18,656.45,656.39,656.31,657.28,659.33,662.25,665.42,668.60,672.22,676.20,680.17,683.31,685.95,688.39,690.95,694.24,698.28,702.29,706.22,710.54,715.68,720.36,724.24,727.16,729.60,732.36,735.45,738.81,742.35,746.61,751.79,757.20,761.69,765.50,769.76,774.00,777.65,780.30,781.88,782.89,783.14,781.77,780.49,775.23,767.84,761.01,754.99,748.97,742.93,737.28,732.95,728.20,722.81,716.96,711.14,706.75,703.15,700.12,697.38,693.78,689.77,685.56,681.23,676.94,672.79,668.40,664.02,660.10,656.88,653.15,648.19,642.15,636.90,632.73,628.53,624.04,619.62,616.57,613.91,611.17,608.05,604.23,600.56,596.71,592.66,588.96,586.50,584.36,582.27,580.30,578.61,576.20,573.62,571.23,569.13,568.11
746.95,742.14,738.12,734.91,731.92,729.75,727.84,725.88,724.31,724.64,726.07,728.27,731.31,734.38,737.83,741.64,745.74,749.68,754.11,758.10,760.44,759.09,753.42,746.61,739.67,732.62,725.69,720.58,716.95,714.38,711.90,708.96,705.60,702.22,699.90,699.47,700.30,701.72,703.31,704.97,706.47,707.54,708.23,709.11,709.72,710.26,710.90,711.91,713.51,715.42,717.60,720.12,722.87,725.62,728.47,731.58,735.10,737.96,741.37,745.02,748.20,750.94,753.52,754.54,753.49,752.07,752.38,753.29,754.19,754.89,756.52,759.94,764.38,769.22,774.11,777.91,781.24,784.59,788.61,793.60,799.51,805.59,810.75,814.24,817.09,820.26,823.51,824.62,824.14,822.44,820.24,818.71,818.45,817.66,815.89,813.02,809.59,804.46,799.51,795.32,791.11,785.31,777.88,769.97,762.92,756.48,750.57,744.99,739.47,733.37,726.76,720.96,716.12,711.38,704.13,699.74,697.22,694.86,691.89,686.63,680.33,673.79,667.76,662.77,657.50,651.59,645.25,639.91,636.07,632.75,629.54,626.90,624.25,621.11,616.89,611.02,607.90,605.96,604.33,603.26,604.79,606.86,609.06,611.49,614.43,617.32,620.85,624.91,629.22,633.72,637.45,640.60,643.17,644.85,647.16,649.99,653.23,656.80,659.75,661.77,662.58,661.81,660.42,659.90,660.59,662.54,665.28,668.05,671.21,674.69,678.25,681.12,683.82,686.32,688.75,692.02,695.70,699.56,703.79,708.98,714.68,719.51,723.16,725.51,727.57,729.95,732.78,736.06,739.59,743.70,748.35,753.20,757.79,762.13,766.92,771.54,775.51,779.06,781.08,782.64,783.57,782.55,781.35,777.32,771.18,764.26,758.03,752.67,746.97,740.91,736.20,732.19,727.25,721.39,715.48,711.34,707.28,703.72,700.92,697.32,693.06,688.52,683.88,679.20,674.80,670.39,666.04,661.93,658.07,653.70,648.37,642.35,637.50,633.58,629.51,625.03,620.47,617.57,614.95,612.27,609.38,605.82,602.16,598.04,593.57,589.60,587.22,585.43,583.83,582.29,580.68,578.20,575.64,573.37,571.16,570.26
747.12,742.81,739.16,735.80,733.28,731.22,729.12,727.07,726.42,727.82,730.23,732.98,735.59,738.61,742.78,747.23,750.99,754.49,758.72,762.58,764.58,762.19,756.06,748.39,740.44,733.11,726.79,721.92,718.37,715.95,713.54,711.01,707.84,704.43,702.28,701.56,701.96,703.11,704.72,706.35,707.92,709.16,710.06,711.13,712.07,713.02,713.80,714.17,715.22,717.02,719.18,721.43,723.59,725.87,728.31,730.96,733.82,736.56,739.52,742.70,745.91,748.73,752.05,755.42,757.99,758.26,758.81,759.42,759.98,760.62,762.01,764.39,767.90,772.71,778.05,782.61,786.33,789.72,794.01,798.91,803.57,808.02,812.51,816.61,821.67,827.00,831.40,832.81,832.86,830.73,827.23,824.45,823.16,820.86,817.11,812.18,808.00,802.22,796.37,791.27,787.10,782.62,776.32,768.90,761.70,755.67,749.88,743.96,737.80,731.44,724.74,719.13,714.50,709.79,703.93,699.17,695.64,693.11,690.84,686.19,680.18,673.56,667.23,661.70,656.61,651.48,645.97,640.50,636.41,632.86,629.37,626.21,623.34,619.84,615.71,611.84,609.42,607.60,605.96,604.77,605.70,607.41,609.53,612.10,615.25,618.25,622.14,626.74,631.43,636.25,640.56,644.37,647.49,649.48,653.45,658.13,662.55,665.69,667.03,667.61,667.70,667.12,665.57,664.25,663.50,663.83,666.09,668.30,670.92,673.81,676.57,679.36,682.49,685.67,688.80,692.37,696.49,700.62,704.74,709.30,714.17,718.53,721.92,724.08,726.10,728.42,731.20,734.38,737.56,740.82,744.66,748.97,753.58,759.24,764.64,769.34,773.34,777.56,780.27,782.52,784.20,784.01,783.10,781.20,777.21,769.99,762.40,757.06,751.76,745.74,740.47,737.18,732.21,725.52,718.97,714.43,710.22,706.43,703.23,699.67,695.26,690.54,685.69,680.62,675.74,671.08,666.71,662.69,658.44,653.63,647.95,641.87,637.42,633.73,629.71,625.34,621.20,618.46,615.80,612.97,609.88,606.44,602.99,598.90,594.23,590.07,588.58,587.82,587.10,586.09,583.99,581.44,578.76,576.16,573.95,572.88
747.22,742.88,739.26,736.53,734.06,731.95,729.92,728.21,728.26,730.51,733.67,737.01,740.17,743.99,747.98,751.83,755.39,759.22,763.38,766.85,768.02,764.03,757.65,750.10,742.26,735.05,729.05,724.00,719.97,717.08,714.64,712.22,709.52,706.73,704.61,703.59,703.63,704.54,706.20,707.83,709.53,711.13,712.56,713.95,715.37,716.53,717.20,717.17,717.46,718.68,720.52,722.72,724.91,727.06,729.53,732.24,734.73,737.36,740.09,742.96,745.94,748.78,752.19,756.01,759.64,761.58,762.80,763.56,764.22,765.37,766.90,768.96,772.00,776.51,782.12,787.22,791.74,795.91,800.18,804.35,808.16,811.74,815.38,819.60,826.24,832.63,836.73,837.51,837.58,835.15,830.74,826.39,823.33,819.50,814.74,809.49,805.25,799.28,793.01,787.41,783.06,778.83,773.50,767.15,760.36,754.70,749.13,743.26,736.88,729.89,723.12,717.45,712.67,707.88,703.01,698.38,694.43,691.55,689.14,685.29,680.03,673.77,667.59,661.82,656.92,652.44,647.49,641.29,637.13,633.80,630.41,627.09,623.94,620.62,617.19,614.10,611.61,609.47,607.55,606.25,606.91,608.37,610.44,613.12,616.19,619.48,623.75,628.71,633.84,638.97,643.78,648.53,653.17,656.79,660.49,664.83,669.26,672.09,673.09,673.29,673.02,672.15,670.50,668.46,666.81,666.22,667.64,669.99,672.69,675.29,677.41,679.73,682.73,686.06,689.64,693.83,698.46,703.16,707.59,711.35,715.31,719.06,722.35,724.90,726.86,729.29,732.20,735.33,738.01,741.01,744.47,748.39,753.00,758.64,763.43,767.52,771.43,776.17,780.15,783.43,785.69,785.91,784.89,782.89,779.43,773.82,767.52,761.69,756.28,751.16,746.14,742.28,736.93,730.04,722.88,717.02,712.05,707.74,704.03,700.52,696.16,691.38,686.26,680.58,675.53,670.82,666.36,662.13,657.58,652.58,647.24,642.13,638.64,634.96,630.93,626.83,623.31,620.72,617.82,614.56,610.99,607.14,603.63,599.64,595.37,592.28,591.26,591.02,590.83,590.08,588.10,585.49,582.46,579.28,576.90,575.41
